-20.4949 -10.4644 -3.02983
-20.3456 -10.5168 -2.99229
-20.3169 -10.5293 -2.92564
-20.2478 -10.5534 -2.90787
-20.1845 -10.5949 -2.90685
-19.5706 -10.8204 -2.80303
-19.521 -10.8297 -2.78327
-18.5324 -11.2431 -2.6775
-18.6118 -11.1959 -2.65746
-18.7123 -11.1687 -2.64632
-19.4719 -10.8917 -2.70313
-19.2341 -10.97 -2.66064
-19.485 -10.8613 -2.69169
-16.09 -11.4381 -2.18919
-16.1713 -11.3975 -2.16416
-19.256 -10.9499 -2.5751
-19.2812 -10.9522 -2.57457
-20.6849 -10.3629 -2.67431
-20.6489 -10.3655 -2.58089
-18.8611 -11.0875 -2.33434
-20.1589 -10.5568 -2.45436
-15.8884 -11.8963 -1.95418
-19.2153 -10.974 -2.32751
-15.8451 -11.9015 -1.93227
-17.5879 -11.236 -2.06503
-17.6031 -11.2483 -2.07036
-19.0176 -11.028 -2.20864
-19.7142 -10.7193 -2.2722
-17.8754 -10.9461 -2.024
-17.644 -11.2239 -1.99695
-15.2313 -12.5234 -1.83171
-16.7294 -11.382 -1.87144
-15.3082 -12.474 -1.81384
-19.7239 -10.7333 -2.24014
-19.0493 -11.0319 -2.07934
-17.7989 -11.1356 -1.92445
-17.7673 -11.1459 -1.93245
-17.789 -11.1324 -1.88353
-18.5915 -11.2071 -1.96744
-18.5501 -11.2081 -1.94384
-19.4515 -10.8457 -2.04028
-19.5023 -10.8469 -2.02478
-20.6915 -10.3591 -2.09044
-18.7994 -11.1074 -1.92428
-18.835 -11.106 -1.91994
-19.5509 -10.8105 -1.8919
-15.8631 -11.8771 -1.49888
-19.5375 -10.8232 -1.85874
-19.3433 -10.8883 -1.77282
-15.6946 -11.9741 -1.36218
-18.6944 -11.1348 -1.62645
-17.8913 -11.1116 -1.49318
-16.7203 -11.3753 -1.31721
-16.7249 -11.3629 -1.31135
-20.4309 -10.4456 -1.67362
-18.0605 -11.0297 -1.39979
-18.108 -11.0127 -1.38745
-18.0964 -11.02 -1.38068
-18.8801 -11.0816 -1.46626
-18.9032 -11.0628 -1.4258
-20.5716 -10.3744 -1.4938
-18.2064 -10.9579 -1.26285
-18.2098 -10.9841 -1.21689
-19.4884 -10.8168 -1.23583
-18.3096 -10.8156 -1.09503
-20.7473 -10.3343 -1.29717
-19.6829 -10.7711 -1.1957
-20.1226 -10.5827 -1.21028
-19.7688 -10.7198 -1.15517
-20.1251 -10.5445 -1.17187
-16.7522 -11.2507 -0.887406
-18.2317 -10.9725 -0.984529
-16.3243 -11.5335 -0.746889
-16.6844 -11.5297 -0.634783
-15.7535 -11.9406 -0.58218
-20.1694 -10.5509 -0.82454
-16.7543 -11.4571 -0.595371
-20.3398 -10.4596 -0.847865
-19.812 -10.6654 -0.750244
-20.0635 -10.5639 -0.756973
-17.2758 -11.1913 -0.520697
-17.9457 -10.9871 -0.5728
-16.5412 -11.333 -0.46639
-17.8685 -11.0144 -0.509961
-17.912 -11.0086 -0.506051
-18.6397 -10.778 -0.516312
-19.8983 -10.6097 -0.585654
-16.4233 -11.3563 -0.294049
-16.477 -11.3355 -0.305347
-20.0623 -10.5814 -0.487931
-20.5124 -10.3801 -0.506842
-16.4347 -11.3585 -0.228311
-17.0399 -11.1972 -0.246974
-17.1937 -11.1885 -0.251172
-16.367 -11.5115 -0.206152
-20.4647 -10.398 -0.43016
-19.6995 -10.714 -0.269819
-17.2981 -11.1533 -0.113489
-16.2032 -11.5701 -0.0430626
-17.3057 -11.1643 -0.123456
-20.7038 -10.3035 -0.269408
-20.41 -10.4248 -0.244389
-19.9526 -10.6038 -0.204956
-20.6035 -10.3342 -0.109737
-19.9035 -10.6289 -0.0590413
-20.1345 -10.5003 -0.0137882
-20.1414 -10.513 0.0366638
-18.7248 -10.2602 0.251044
-20.1267 -10.5422 0.228425
-20.5224 -10.3532 0.264857
-18.6681 -10.2526 0.34799
-20.3908 -10.3886 0.385224
-17.695 -10.6688 0.47213
-19.7597 -10.6578 0.496641
-20.7582 -10.2565 0.611728
-20.5993 -10.3229 0.694663
-19.8421 -10.6423 0.722994
-20.2988 -10.4366 1.0017
-16.0249 -9.42788 1.07223
-16.108 -9.3989 1.07355
-15.3622 -12.5012 -3.22305
-15.1842 -12.556 -3.14447
-14.8834 -12.7039 -3.09622
-14.8696 -12.7115 -3.08463
-15.2497 -12.532 -3.02878
-15.1979 -12.5728 -3.03071
-15.3146 -12.5178 -3.02193
-15.2831 -12.5067 -2.96767
-15.149 -12.5626 -2.89991
-15.0059 -12.6299 -2.79252
-15.3512 -12.4975 -2.82836
-15.4316 -12.4549 -2.81114
-17.5754 -10.8817 -2.88109
-15.3173 -12.5087 -2.70272
-15.1678 -12.56 -2.5953
-20.0756 -10.6292 -3.15625
-20.0663 -10.6434 -3.13905
-18.5767 -11.255 -2.97964
-18.9334 -11.0945 -3.00921
-17.039 -11.1216 -2.62688
-15.4532 -12.4582 -2.49212
-20.3095 -10.5151 -2.99403
-20.5678 -10.4046 -3.02027
-20.3598 -10.5009 -2.98301
-16.0385 -11.4428 -2.25559
-16.1846 -11.3943 -2.26766
-16.0249 -11.4342 -2.24555
-15.9311 -11.4796 -2.22326
-17.3589 -10.9608 -2.35736
-16.2158 -11.4021 -2.24146
-17.003 -11.0993 -2.30805
-20.1468 -10.592 -2.78746
-16.0265 -11.4795 -2.17105
-20.1775 -10.557 -2.77192
-19.0381 -11.0204 -2.62414
-17.1656 -11.0388 -2.27441
-18.5964 -11.1938 -2.56561
-18.816 -11.1546 -2.50736
-20.619 -10.3701 -2.63847
-15.1238 -12.5492 -2.04315
-20.3787 -10.4823 -2.51536
-20.4706 -10.4515 -2.50101
-18.8759 -11.095 -2.32025
-18.6711 -11.1692 -2.26187
-20.2806 -10.5213 -2.38096
-15.7632 -11.9401 -1.83598
-19.1478 -10.963 -2.24222
-15.7112 -11.9841 -1.76836
-17.7539 -11.1816 -1.91635
-19.2132 -10.9698 -2.05309
-18.5002 -11.2417 -1.98346
-19.1953 -10.9603 -2.02161
-19.4444 -10.8725 -2.01711
-19.5579 -10.828 -2.00398
-20.1054 -10.5667 -2.01833
-20.354 -10.4783 -2.03391
-19.8125 -10.7135 -1.94814
-20.1527 -10.5442 -1.8438
-18.9524 -11.0244 -1.76372
-20.1448 -10.5737 -1.80128
-20.5284 -10.3997 -1.80211
-19.4152 -10.8575 -1.64979
-17.8319 -11.1673 -1.39742
-18.0651 -11.0305 -1.3953
-19.2407 -10.9318 -1.4662
-19.0583 -10.9867 -1.4593
-19.4443 -10.8229 -1.36746
-18.2668 -10.9243 -1.21719
-18.2302 -10.9742 -1.16811
-20.6524 -10.3493 -1.33926
-20.5904 -10.3742 -1.29226
-20.5997 -10.3708 -1.28459
-20.1526 -10.5544 -1.17407
-19.7541 -10.7135 -1.09013
-20.138 -10.5634 -1.08504
-19.8657 -10.6522 -1.05533
-16.2477 -11.5725 -0.738054
-19.4586 -10.8177 -0.900588
-17.9087 -11.0989 -0.721164
-19.5507 -10.8177 -0.826831
-18.3808 -10.8976 -0.677862
-15.7575 -11.8834 -0.51119
-19.59 -10.7765 -0.744192
-17.9082 -10.9828 -0.606126
-17.4226 -11.1167 -0.571202
-17.3463 -11.1686 -0.550936
-16.2672 -11.562 -0.458324
-16.6806 -11.1061 -0.458907
-18.4905 -10.8528 -0.56424
-16.6446 -11.1488 -0.430377
-15.9457 -11.9067 -0.361167
-17.7024 -11.1996 -0.483951
-15.9918 -11.8895 -0.383494
-18.1613 -11.02 -0.493295
-16.5802 -11.1692 -0.375021
-19.7059 -10.7053 -0.583534
-19.2832 -10.8621 -0.468615
-19.3744 -10.8478 -0.460693
-19.3577 -10.8553 -0.45811
-16.8674 -11.1362 -0.293509
-16.3066 -11.5522 -0.231266
-16.2582 -11.566 -0.197715
-19.6183 -10.7529 -0.401495
-17.8618 -11.1457 -0.297413
-17.4488 -11.0898 -0.283489
-16.2728 -11.566 -0.222089
-17.3298 -11.1161 -0.272736
-17.9202 -11.1179 -0.298756
-17.9005 -11.1492 -0.284464
-19.5783 -10.758 -0.370035
-18.7013 -10.599 -0.249729
-19.6881 -10.6996 -0.270465
-19.6725 -10.722 -0.270508
-18.2594 -10.9961 -0.190738
-18.6004 -10.6409 -0.207455
-18.585 -10.6265 -0.173543
-19.8549 -10.6784 -0.0575891
-18.4298 -10.3798 0.21506
-17.21 -10.857 0.287848
-17.9385 -10.5579 0.27943
-17.8266 -10.5968 0.271959
-17.3255 -10.8271 0.308457
-17.9102 -10.5957 0.276434
-16.0216 -11.3327 0.360104
-16.7344 -11.0555 0.325447
-18.2748 -10.4064 0.277053
-16.2248 -11.2403 0.383984
-20.6581 -10.2827 0.233819
-20.219 -10.4848 0.273151
-17.1095 -10.9041 0.374224
-18.6354 -10.2969 0.332347
-18.7542 -10.252 0.329362
-18.0509 -10.528 0.373356
-20.421 -10.3755 0.350726
-18.3234 -10.3972 0.375515
-17.5367 -10.7256 0.409274
-18.219 -10.4511 0.399166
-17.5262 -10.7194 0.433046
-17.121 -10.8784 0.426253
-19.7757 -10.6396 0.384994
-17.6362 -10.6974 0.439501
-16.5191 -11.1621 0.489335
-17.532 -10.7213 0.431564
-16.9182 -10.9594 0.475819
-19.7953 -10.6825 0.47642
-16.4704 -11.1425 0.544065
-19.8327 -10.6617 0.483888
-16.3803 -11.1861 0.593201
-20.6511 -10.297 0.660267
-20.18 -10.4798 0.690347
-19.8342 -10.631 0.736717
-19.8491 -10.622 0.765494
-20.2279 -10.4617 0.841832
-20.1402 -10.4859 0.883631
-20.2359 -10.4669 0.990724
-20.302 -10.4401 1.0146
-19.7565 -10.6407 1.03677
-19.742 -10.6556 1.04171
-16.8274 -9.10834 0.795756
-16.8187 -9.13401 0.809956
-16.5098 -9.2364 0.84287
-16.5311 -9.25368 0.954632
-16.0044 -9.47344 1.00107
-16.1292 -9.39184 1.00128
-16.8618 -9.08811 1.03393
-16.1293 -9.39502 1.05124
-16.2189 -9.3691 1.0819
-16.1187 -9.3923 1.11282
-16.8526 -9.0895 1.14602
-16.5334 -9.24103 1.19268
-16.9482 -8.96131 1.3649
-15.4258 -12.4854 -2.82003
-15.028 -12.6239 -2.66962
-20.1189 -10.5977 -3.16718
-16.3919 -11.3982 -2.56424
-18.3354 -11.2838 -2.65637
-19.6217 -10.8256 -2.72393
-19.0653 -11.0248 -2.67681
-18.6396 -11.1873 -2.6024
-16.1223 -11.4583 -2.16147
-18.7771 -11.1487 -2.50112
-20 -10.6399 -2.62903
-15.1336 -12.5708 -2.08266
-19.5033 -10.8287 -2.40151
-19.318 -10.9462 -2.34578
-19.8515 -10.6863 -2.40664
-18.887 -11.0803 -2.30801
-18.8517 -11.0842 -2.29925
-16.8558 -11.3479 -1.99148
-20.2922 -10.5196 -2.39956
-18.6831 -11.1671 -2.23504
-19.008 -11.0623 -2.24079
-15.3246 -12.4818 -1.8166
-19.1668 -10.977 -2.15033
-18.8673 -11.0902 -1.98224
-20.3897 -10.4631 -2.12564
-18.8141 -11.1098 -1.9494
-19.9862 -10.6534 -2.04844
-19.8346 -10.6867 -2.00142
-19.8556 -10.6955 -1.96714
-20.2569 -10.5001 -1.94974
-15.6957 -11.9713 -1.43271
-20.3503 -10.4567 -1.88773
-19.4913 -10.8363 -1.8078
-19.4057 -10.8792 -1.78651
-19.8419 -10.7032 -1.81652
-18.7509 -11.1161 -1.68982
-15.7083 -11.9588 -1.37777
-17.8462 -11.153 -1.45994
-18.8863 -11.0604 -1.47457
-18.839 -11.0984 -1.43004
-20.1805 -10.5425 -1.3338
-20.5795 -10.3712 -1.32647
-20.5852 -10.3538 -1.32089
-19.9759 -10.6256 -1.19905
-19.786 -10.6908 -1.15516
-17.8814 -11.1645 -0.877367
-17.8071 -11.176 -0.875734
-17.8257 -11.1535 -0.849666
-18.1567 -11.047 -0.857454
-19.5095 -10.7915 -0.873264
-17.6778 -11.2043 -0.7215
-19.3875 -10.8409 -0.839914
-19.2316 -10.8951 -0.576304
-16.2562 -11.5688 -0.356372
-19.4266 -10.8214 -0.52981
-16.4659 -11.3508 -0.282984
-19.4035 -10.8199 -0.450649
-17.3028 -11.1476 -0.315966
-17.099 -11.2176 -0.27221
-16.2129 -11.563 -0.215854
-20.3736 -10.4453 -0.389248
-19.5931 -10.7465 -0.262563
-19.8708 -10.6278 -0.205237
-19.9848 -10.5927 -0.201041
-18.7387 -10.5846 -0.129739
-20.1718 -10.4908 -0.117439
-17.5027 -10.9979 0.0278715
-19.8716 -10.6176 -0.0299819
-19.5629 -10.7753 -0.0275954
-20.1748 -10.4876 0.0194395
-20.1502 -10.5202 0.0823032
-17.2034 -10.9999 0.218433
-20.014 -10.562 0.12538
-19.8635 -10.6399 0.106618
-18.7632 -10.2184 0.15655
-18.7941 -10.213 0.155519
-18.7721 -10.2303 0.184816
-17.8128 -10.6149 0.227897
-17.8118 -10.6234 0.256787
-20.4122 -10.3781 0.228933
-20.3167 -10.4225 0.24137
-19.7324 -10.6553 0.350755
-16.3644 -11.1762 0.465611
-16.5135 -11.1253 0.468922
-16.9427 -10.9584 0.451358
-16.9833 -10.9416 0.573733
-20.4926 -10.3467 0.5345
-20.6456 -10.2973 0.632793
-20.7981 -10.2463 0.640991
-19.8791 -10.6215 0.729342
-20.2311 -10.4419 0.749026
-20.4174 -10.3835 0.743482
-16.4661 -9.25106 0.847136
-16.4109 -9.26559 0.865002
-16.8549 -9.12009 0.916138
-16.5015 -9.26871 0.975551
-16.8651 -9.10302 0.955102
-19.7923 -10.4882 1.3544
-16.036 -9.42745 1.1759
-16.4671 -9.27279 1.17676
-16.425 -9.2745 1.1999
-16.486 -9.26241 1.20547
-16.4589 -9.2651 1.2167
-16.518 -9.13861 1.51801
-14.9357 -12.7022 -3.0424
-15.2853 -12.5383 -2.86776
-15.0341 -12.631 -2.66672
-18.6811 -11.1999 -3.04111
-19.4404 -10.8882 -3.04212
-20.1737 -10.5879 -2.92819
-16.1678 -11.3924 -2.24951
-17.233 -11.022 -2.24688
-17.1808 -11.0532 -2.249
-18.822 -11.1216 -2.49879
-17.2452 -11.0295 -2.13675
-20.396 -10.4807 -2.57387
-20.3645 -10.4917 -2.50218
-20.1511 -10.5584 -2.47379
-19.2087 -10.9723 -2.33727
-16.5008 -11.5077 -1.96738
-19.2198 -10.9524 -2.31907
-16.8707 -11.3509 -1.99727
-17.9276 -10.9214 -2.01916
-15.2797 -12.502 -1.84532
-20.0444 -10.5985 -2.08579
-17.0017 -11.2876 -1.72521
-16.5519 -11.466 -1.68031
-17.6979 -11.235 -1.80692
-19.7473 -10.7313 -2.02067
-18.4097 -11.2863 -1.90675
-16.4871 -11.5231 -1.60995
-19.8601 -10.6806 -1.82493
-19.4557 -10.8432 -1.78334
-18.6904 -11.1433 -1.70849
-19.5504 -10.8372 -1.76028
-19.7111 -10.7355 -1.78088
-17.4108 -10.9636 -1.4086
-20.4561 -10.4481 -1.69524
-18.7196 -11.1402 -1.52309
-18.7145 -11.1257 -1.47284
-19.0552 -10.953 -1.44542
-19.4303 -10.8478 -1.44379
-16.1374 -11.607 -0.97756
-16.6957 -11.4096 -0.960986
-17.1636 -11.2193 -0.790833
-17.2548 -11.1565 -0.81954
-17.9744 -11.098 -0.721738
-17.3576 -11.1439 -0.654828
-17.8559 -11.1247 -0.682459
-17.2495 -11.1908 -0.650979
-16.3553 -11.5493 -0.463172
-17.4107 -11.1096 -0.514048
-18.33 -10.9412 -0.551136
-18.0382 -11.0453 -0.490924
-19.4087 -10.8127 -0.544576
-20.0846 -10.5636 -0.480578
-17.4588 -11.0898 -0.271533
-18.6829 -10.587 -0.246059
-16.2708 -11.5543 -0.0662133
-17.3553 -11.122 -0.117721
-17.2686 -11.1725 -0.119946
-19.4379 -10.7915 -0.0701209
-19.6373 -10.7158 0.0229433
-20.3703 -10.415 0.0663267
-20.317 -10.4435 0.0918323
-20.1686 -10.4852 0.177117
-20.0132 -10.564 0.284018
-18.1947 -10.4606 0.35175
-16.3888 -11.1966 0.485247
-16.2588 -11.2391 0.491113
-18.2672 -10.4434 0.415276
-16.3887 -11.1691 0.580093
-20.0675 -10.5259 0.598413
-20.2884 -10.4356 0.682787
-20.4432 -10.3747 0.705915
-20.6281 -10.2836 0.716344
-19.689 -10.6907 1.0402
-16.5348 -9.22339 1.04596
-16.1007 -9.39853 1.20016
-18.3599 -11.3257 -3.1635
-18.4927 -11.268 -3.07699
-18.3483 -11.3311 -3.04854
-18.6141 -11.2325 -2.83837
-19.9747 -10.6468 -2.79244
-17.0766 -11.0503 -2.3002
-17.5451 -11.083 -2.38927
-15.9602 -11.4829 -2.15655
-20.3877 -10.4931 -2.71564
-17.1265 -11.0705 -2.1474
-17.2663 -11.0377 -2.16073
-18.4138 -11.248 -1.93231
-18.4459 -11.2552 -1.94172
-19.8497 -10.6884 -2.04692
-19.8133 -10.6894 -2.03157
-18.7347 -11.1313 -1.57214
-17.943 -11.0639 -1.16637
-17.1844 -11.1952 -1.02823
-20.5755 -10.3731 -1.22784
-19.7914 -10.6995 -1.15578
-19.4795 -10.789 -0.991749
-17.4407 -11.1059 -0.776072
-17.2946 -11.1721 -0.653408
-15.8189 -11.909 -0.52228
-16.2927 -11.5626 -0.427116
-17.387 -11.1282 -0.524268
-17.1072 -11.2257 -0.239857
-16.8962 -11.1866 -0.203294
-16.2003 -11.5829 -0.0512555
-18.7332 -10.5923 -0.175008
-19.5075 -10.7926 -0.0232347
-19.8858 -10.6095 0.0166171
-20.3039 -10.4348 0.11168
-20.1983 -10.4897 0.110128
-17.5183 -10.7528 0.247482
-18.0027 -10.554 0.23514
-17.7128 -10.6363 0.275579
-17.1142 -10.8939 0.315649
-17.0724 -10.9156 0.473384
-16.8924 -10.9705 0.506013
-20.2724 -10.4387 0.717432
-20.523 -10.3657 0.745729
-16.9358 -9.02943 1.26241
-16.091 -11.491 -2.52665
-16.0231 -11.4347 -2.23594
-17.1236 -11.017 -2.30326
-16.1614 -11.3864 -2.21473
-16.1213 -11.4274 -2.18064
-18.8593 -11.0762 -2.48502
-17.0883 -11.093 -2.13201
-16.6549 -11.4541 -2.14009
-17.9009 -10.9011 -2.18882
-19.8503 -10.6984 -1.98817
-17.8366 -11.0868 -1.52109
-16.9003 -11.3396 -1.3266
-18.9365 -11.038 -1.37756
-16.83 -11.3565 -1.14231
-19.9287 -10.6346 -1.27517
-15.7797 -11.95 -0.751123
-20.2904 -10.4904 -1.02984
-16.3634 -11.5264 -0.730927
-19.5254 -10.8085 -0.891404
-16.3463 -11.5116 -0.502782
-19.4243 -10.8324 -0.637203
-19.3275 -10.852 -0.466494
-16.4919 -11.2769 -0.220366
-20.0077 -10.5924 -0.385792
-16.5015 -11.3299 -0.159236
-18.764 -10.5562 -0.117764
-19.5352 -10.7612 0.0315805
-17.1371 -10.8857 0.436451
-16.4638 -11.152 0.490305
-16.0754 -9.40103 1.1933
-20.2324 -10.529 -2.55358
-16.4378 -11.4838 -1.95038
-16.7314 -11.3903 -1.9173
-18.9173 -11.0585 -2.20217
-19.9353 -10.667 -2.05787
-17.8621 -11.1231 -1.42186
-17.4804 -11.0626 -1.37103
-16.8338 -11.2492 -0.834828
-16.6809 -11.345 -0.80267
-19.3159 -10.8434 -0.519886
-20.4095 -10.3967 -0.25438
-16.6911 -11.0645 0.335911
-18.7837 -10.2422 0.306588
-18.6651 -10.2442 0.36211
-18.8382 -10.2062 0.390423
-19.8657 -10.6466 0.758869
-15.8286 -11.4244 -2.79054
-15.9251 -11.6589 -2.66872
-17.2063 -11.071 -2.54422
-18.6749 -11.1987 -2.67897
-15.4543 -11.9352 -1.87432
-16.3196 -11.5513 -1.47713
-16.193 -11.59 -0.888107
-17.3061 -11.1505 -0.61851
-18.6855 -10.6562 -0.636037
-16.6838 -11.1016 -0.314118
-18.7487 -10.5757 -0.187482
-18.6081 -10.2656 0.180147
-18.3055 -10.4465 0.238577
-17.6782 -10.6754 0.294055
-18.0127 -10.5391 0.323914
-20.3086 -10.4303 0.348019
-18.1958 -10.4535 0.388925
-20.3995 -10.3824 1.06702
-16.8466 -11.4596 -1.22265
-16.3247 -11.535 -0.793409
-16.306 -11.5304 -0.514478
-17.293 -11.1496 -0.137743
-18.5166 -10.3227 0.176289
-15.9008 -9.18002 1.55846
-17.6057 -11.2176 -1.46261
-17.4914 -11.1426 -1.31855
-20.0169 -10.53 -0.121654
-20.1627 -10.4505 0.189322
-18.55 -10.3354 0.280218
-17.2552 -11.1633 -1.29929
-16.7253 -11.3897 -1.16492
-15.9545 -11.61 -1.76666
-16.1763 -11.6505 -1.42398
-20.1657 -10.5642 -2.4477
-19.5751 -10.8199 -3.02524
-19.4433 -10.8762 -3.16156
-19.9824 -10.6249 -2.06459
-19.4271 -10.8668 -2.69861
-19.8415 -10.7044 -2.04263
-19.5597 -10.8233 -1.89089
-18.5868 -11.2476 -3.001
-20.2102 -10.533 -1.14981
-18.4946 -11.269 -3.06283
-19.433 -10.8522 -2.03455
-19.9919 -10.6055 -1.26844
-19.7011 -10.7454 -1.50989
-19.4225 -10.8825 -1.77788
-18.5261 -11.2328 -2.68626
-19.0116 -11.0182 -2.09437
-18.1656 -11.3884 -2.9685
-18.9236 -11.0391 -2.08137
-18.0862 -11.3802 -2.95355
-18.0593 -11.4101 -2.88469
-19.5259 -10.8103 -1.20643
-18.0523 -11.4488 -2.90617
-19.4805 -10.8096 -1.24806
-20.1103 -10.5641 -0.48934
-19.9336 -10.6285 -0.559554
-19.9088 -10.63 -0.596236
-19.9341 -10.6255 -0.576898
-20.1643 -10.5588 -0.284506
-20.5158 -10.3794 0.267553
-20.1401 -10.4976 -0.0440719
-19.9574 -10.5873 -0.16815
-18.8881 -11.0674 -1.4557
-19.9632 -10.6119 -0.179792
-18.8583 -11.0412 -1.40598
-18.8572 -11.08 -1.45125
-18.7009 -11.1687 -1.63337
-19.8765 -10.6278 -0.204879
-20.6013 -10.2949 0.695959
-19.8103 -10.6473 -0.225604
-16.7014 -11.2006 -3.02102
-19.7078 -10.7099 -0.271241
-19.8886 -10.6337 -0.0402574
-19.7961 -10.6641 -0.0322965
-17.8119 -11.1484 -1.91141
-17.7743 -11.1478 -1.90885
-19.2489 -10.878 -0.524769
-16.4453 -11.3057 -2.9899
-17.6159 -11.2118 -2.03325
-18.1895 -10.9804 -1.25727
-18.2229 -10.9691 -1.22625
-17.831 -11.1299 -1.63608
-18.2192 -10.9616 -1.17976
-19.8591 -10.6247 0.443574
-19.8894 -10.6146 0.500605
-17.8466 -11.1123 -1.48633
-18.2258 -10.9601 -0.987782
-18.4596 -10.8576 -0.62853
-18.4629 -10.8663 -0.577113
-18.4806 -10.8509 -0.592412
-18.7258 -10.2472 0.252982
-19.811 -10.6414 0.946059
-17.8397 -11.1752 -1.07086
-18.5519 -10.3274 0.215547
-19.9027 -10.5078 1.2929
-18.4454 -10.3594 0.246073
-17.9696 -10.9819 -0.520245
-17.906 -11.0198 -0.59703
-18.3026 -10.4109 0.275166
-16.1692 -11.3822 -2.20254
-15.9523 -11.5136 -2.20802
-16.7584 -11.356 -1.3198
-16.7291 -11.3665 -1.31873
-16.9782 -11.2761 -1.02073
-17.1462 -11.2192 -0.769297
-17.858 -10.6061 0.29802
-17.4608 -11.1047 -0.252253
-16.7688 -11.2251 -0.90674
-15.2945 -12.5516 -3.06017
-15.2911 -12.5286 -3.00745
-17.7029 -10.6455 0.433974
-15.2424 -12.5354 -2.98487
-15.8657 -11.872 -1.95004
-17.3528 -11.1415 -0.1096
-15.834 -11.9073 -1.9133
-17.5833 -9.18447 1.53081
-17.2886 -11.1598 -0.118257
-15.1449 -12.5834 -2.9713
-15.1488 -12.5449 -2.9017
-16.747 -11.15 -0.479353
-16.7315 -11.1262 -0.47062
-17.025 -11.2323 -0.275724
-16.7039 -11.1063 -0.440395
-16.7955 -11.0961 -0.310549
-15.6957 -11.9811 -1.57797
-15.7081 -11.9694 -1.37732
-16.4469 -11.3526 -0.224976
-16.4288 -11.3663 -0.237764
-16.8543 -10.9935 0.455705
-16.3441 -11.5369 -0.207442
-16.6392 -11.1017 0.36172
-16.1264 -9.39547 1.0764
-16.108 -9.40649 1.05368
-16.087 -11.6256 -0.212823
-16.1902 -11.589 -0.0435403
-16.0167 -9.42545 1.06492
-16.2794 -11.2583 0.326329
-16.026 -11.3388 0.355072
-20.5825 -10.3917 -2.62291
-20.2597 -10.5247 -2.45081
-20.3334 -10.5035 -2.37859
-20.2245 -10.5221 -2.45345
-20.635 -10.3966 -1.86073
-20.288 -10.4858 -1.75195
-20.597 -10.3789 -1.28079
-18.9889 -11.0642 -2.98153
-20.1594 -10.518 -1.3415
-19.2946 -10.9483 -2.36488
-20.2159 -10.501 -1.20044
-20.0073 -10.6272 -1.45519
-19.5585 -10.8188 -1.83037
-19.1405 -10.9709 -2.20474
-18.6254 -11.1999 -2.7765
-19.1841 -10.9571 -2.05162
-18.6466 -11.207 -2.65036
-18.8793 -11.088 -2.32596
-17.5884 -10.8889 -2.86334
-19.7777 -10.7299 -1.18056
-18.657 -11.1637 -2.28526
-19.9478 -10.6024 -0.764401
-18.0491 -11.4282 -2.91344
-19.0254 -11.0157 -1.74677
-20.7728 -10.2574 0.244051
-20.1061 -10.5651 -0.460972
-19.947 -10.6087 -0.487216
-20.8249 -10.2098 0.650089
-18.9176 -11.0615 -1.4658
-16.7975 -11.1774 -3.04718
-18.825 -11.1051 -1.42763
-17.3328 -10.9895 -2.31683
-20.5265 -10.3516 0.620147
-19.8486 -10.656 -0.0575392
-19.6661 -10.7478 -0.27937
-20.1292 -10.5253 0.265302
-17.2257 -11.0294 -2.2595
-19.3412 -10.8534 -0.467247
-19.3104 -10.8645 -0.496419
-19.253 -10.8787 -0.533149
-16.4319 -11.3192 -3.02042
-17.0972 -11.0754 -2.23537
-20.1891 -10.4662 0.713532
-18.1854 -11.0085 -1.32955
-20.2052 -10.4545 0.820905
-20.2354 -10.4379 0.868585
-19.4863 -10.7831 0.0656531
-20.1451 -10.4907 0.869277
-19.403 -10.8282 -0.0046533
-19.8055 -10.651 0.500771
-19.7864 -10.6347 0.491711
-19.7645 -10.6692 0.475338
-18.5565 -10.8216 -0.54682
-18.2538 -10.9378 -0.884037
-18.7558 -10.2352 0.166108
-19.9037 -10.6272 0.74794
-18.5087 -10.8726 -0.43719
-18.7646 -10.2182 0.321141
-16.1584 -11.4583 -2.55471
-18.408 -10.3691 0.20492
-18.4444 -10.542 0.105575
-16.196 -11.3977 -2.25982
-16.1906 -11.3983 -2.24376
-16.0173 -11.4394 -2.26633
-17.2338 -11.1776 -1.02378
-17.2526 -11.2106 -1.02721
-16.1475 -11.487 -2.10096
-15.9127 -11.4975 -2.23974
-16.8452 -11.5221 -1.44765
-17.88 -11.1531 -0.297767
-16.8206 -11.348 -1.33612
-17.728 -11.1987 -0.461008
-16.8018 -11.3525 -1.34614
-17.9139 -10.5824 0.260145
-17.577 -9.33801 0.926664
-17.9157 -10.5833 0.283892
-16.901 -11.3326 -1.10468
-16.8688 -11.3636 -1.11933
-17.8112 -10.6218 0.269015
-15.3141 -12.5083 -3.16468
-16.9391 -11.3216 -0.873831
-15.3129 -12.5092 -3.07283
-17.249 -11.1948 -0.417875
-17.3311 -11.1376 -0.300204
-15.2662 -12.527 -3.05354
-15.2532 -12.5206 -3.06432
-15.1583 -12.5981 -3.13138
-15.2498 -12.5275 -2.99616
-15.22 -12.5455 -3.05025
-15.5566 -12.4152 -2.65822
-15.1984 -12.5427 -3.02282
-15.3911 -12.4815 -2.82153
-15.1501 -12.5406 -3.05241
-15.8542 -11.9055 -1.94557
-16.8606 -9.11727 0.911059
-16.8413 -9.10845 1.03688
-16.2463 -11.5232 -1.1613
-15.765 -11.9294 -1.84849
-14.9038 -12.6666 -3.11174
-16.8503 -9.11646 1.14997
-16.9075 -8.97625 1.35725
-14.9985 -12.6399 -2.81874
-15.0173 -12.6262 -2.78793
-17.1055 -10.9044 0.381937
-16.4124 -9.29775 0.849813
-16.1631 -11.6023 -0.85564
-16.1903 -11.5786 -0.756462
-16.3431 -9.3167 0.867193
-15.7358 -11.9825 -1.33281
-16.337 -11.5257 -0.477242
-16.32 -11.5406 -0.459941
-15.6368 -11.9849 -1.35226
-16.5151 -9.2401 1.19181
-15.0025 -12.643 -2.33768
-16.9952 -10.9448 0.577771
-16.0375 -11.6506 -0.710801
-16.4574 -9.26469 1.19551
-16.3302 -11.5086 -0.223527
-16.4686 -11.4495 -0.0674813
-15.4817 -12.0364 -1.27682
-15.4515 -12.0781 -1.2648
-16.2464 -11.5696 -0.183169
-16.0724 -11.6328 -0.209605
-15.9485 -11.8962 -0.388203
-15.949 -11.8893 -0.375846
-16.4149 -11.1726 0.48803
-16.095 -11.654 -0.0126766
-15.7961 -11.8935 -0.422172
-15.7748 -9.52138 0.887749
-16.2558 -11.239 0.455249
-16.0932 -11.3006 0.358777
-16.1013 -11.3075 0.380619
-20.379 -10.487 -2.49661
-20.0514 -10.6473 -2.63671
-20.759 -10.3173 -1.25926
-20.5914 -10.3845 -1.25788
-18.5812 -11.21 -2.91797
-18.3766 -11.3155 -3.13681
-18.6322 -11.1952 -2.76047
-18.3494 -11.3347 -3.06555
-19.1617 -10.9604 -2.05193
-18.9166 -11.0848 -2.30809
-19.4808 -10.8046 -1.29099
-19.9504 -10.613 -0.757269
-19.4318 -10.81 -1.2101
-20.6774 -10.2948 0.190624
-20.6318 -10.3262 0.153579
-18.9109 -11.0745 -1.76801
-20.1693 -10.5068 -0.0904866
-20.4237 -10.4022 0.324408
-19.3595 -10.878 -0.841213
-20.693 -10.2907 0.69308
-18.6356 -10.4565 -0.964935
-18.8191 -11.0844 -1.45041
-17.3457 -10.9356 -2.34811
-18.787 -11.1039 -1.43544
-20.2789 -10.4615 0.431245
-19.3772 -10.8494 -0.468407
-19.2329 -10.8881 -0.582298
-20.3066 -10.4199 0.67597
-17.2188 -11.0208 -2.17031
-17.0568 -11.0738 -2.30013
-19.3693 -10.8204 -0.256987
-19.5423 -10.7626 -0.0281564
-19.7131 -10.6717 0.357887
-18.2206 -10.9724 -1.04417
-18.8316 -10.4522 -0.0245301
-18.6117 -10.6413 -0.243999
-19.867 -10.5972 0.839621
-18.1505 -11.0394 -0.880266
-18.1123 -11.0387 -0.881176
-18.0964 -11.0715 -0.89179
-19.7322 -10.6693 0.752689
-17.0139 -11.2898 -1.73329
-19.7305 -10.661 1.0002
-18.0785 -11.0429 -0.624081
-18.6241 -10.2713 0.498354
-16.1769 -11.3935 -2.27617
-17.3404 -11.1261 -1.10067
-17.2164 -11.1768 -1.1097
-16.1115 -11.4663 -2.19047
-16.1129 -11.443 -2.06536
-17.6939 -11.2083 -0.493005
-17.6502 -11.2464 -0.462659
-17.913 -10.5814 0.262169
-16.7097 -11.3549 -1.33246
-17.2807 -11.1547 -0.634456
-17.8177 -10.6317 0.232832
-17.8568 -10.6026 0.31682
-17.0663 -9.12519 0.799696
-16.7202 -11.4306 -1.00338
-15.4221 -12.4236 -2.83418
-16.6596 -11.3043 -0.755535
-14.9422 -12.6579 -3.15055
-17.197 -10.9584 0.227314
-14.9848 -12.6494 -2.83121
-16.1285 -11.6071 -1.06845
-16.1224 -11.5889 -1.0482
-16.084 -11.6181 -1.04725
-16.1323 -11.6311 -0.986109
-15.0886 -12.5729 -2.44397
-16.3995 -11.3622 -0.287645
-16.7486 -11.0389 0.260213
-15.9886 -11.8767 -0.920259
-16.4242 -11.3908 -0.168123
-16.6851 -11.0975 0.402033
-16.283 -11.5543 -0.193769
-16.524 -9.14652 1.5282
-15.7638 -11.9922 -0.795053
-15.6301 -12.0355 -0.909547
-16.0971 -11.298 0.505893
-19.5204 -10.8389 -2.98695
-19.4771 -10.8716 -3.00985
-20.4499 -10.427 -1.70516
-20.5565 -10.4114 -1.47318
-19.7413 -10.7191 -2.05359
-18.8161 -11.1111 -2.50362
-19.4255 -10.8385 -1.4366
-18.2523 -11.3238 -2.62005
-18.1238 -11.3909 -2.64945
-18.8903 -11.0917 -1.72011
-20.735 -10.2712 0.582695
-18.7523 -11.0983 -1.52793
-18.7232 -11.1262 -1.49463
-17.2635 -11.0037 -2.46472
-18.6713 -11.1233 -1.46947
-19.466 -10.8179 -0.505373
-19.3857 -10.8151 -0.500873
-19.9827 -10.5641 0.262139
-20.4058 -10.3909 0.759587
-20.3126 -10.4398 0.675595
-20.2483 -10.4497 0.684711
-16.9474 -11.0933 -2.36668
-19.4544 -10.8034 -0.0898055
-19.4298 -10.7955 -0.0962496
-19.3916 -10.8379 -0.0899907
-18.046 -11.046 -0.656607
-17.9837 -11.062 -0.726048
-17.9456 -11.0874 -0.732574
-17.3625 -11.1184 -1.13327
-18.7932 -10.1821 0.910233
-17.231 -11.1725 -1.0807
-18.7805 -10.1546 1.06808
-16.1068 -11.4576 -2.16046
-17.555 -10.9683 0.00829151
-15.9547 -11.934 -1.8146
-17.1186 -11.227 -0.223289
-16.6079 -9.19492 0.828161
-17.2808 -10.8343 0.329996
-16.7889 -11.1634 -0.204128
-15.7305 -11.9672 -1.1044
-15.6842 -11.9222 -1.10933
-15.7916 -11.9484 -0.566554
-20.2913 -10.5398 -2.88546
-20.6111 -10.389 -1.83244
-18.3527 -11.3212 -3.19911
-19.4497 -10.7933 -1.00575
-19.0232 -11.0204 -1.46304
-19.5309 -10.8017 -0.74966
-18.6401 -10.5051 -0.892197
-19.3704 -10.8576 -0.644596
-19.8951 -10.6156 0.0334913
-17.2578 -11.032 -2.13405
-19.241 -10.8776 -0.514105
-16.9304 -11.1247 -2.30175
-19.4876 -10.775 -0.00631046
-17.865 -11.102 -1.17371
-17.0334 -11.29 -1.52825
-19.7986 -10.4794 1.37727
-16.9683 -11.3056 -1.57685
-19.586 -10.6205 1.29117
-16.8986 -11.361 -1.30244
-17.3034 -11.1668 -0.632575
-16.3454 -11.5251 -1.67392
-16.3898 -11.5201 -1.51191
-17.3358 -11.1404 -0.373913
-16.2396 -11.5085 -1.37228
-15.3189 -12.5157 -2.87103
-16.8789 -9.10285 0.990289
-16.7212 -11.3759 -0.650685
-17.1967 -10.9814 0.176461
-15.3605 -11.8746 -2.07057
-17.1073 -10.8956 0.334038
-16.5712 -11.2342 -0.254136
-15.7574 -11.9266 -0.568219
-15.8151 -11.9088 -0.448716
-18.4262 -11.2792 -3.13251
-18.3878 -11.2884 -3.0783
-20.3156 -10.4623 -0.155862
-20.2068 -10.4585 0.0908567
-16.9912 -11.1003 -2.3065
-20.3864 -10.3985 1.07466
-18.8513 -10.2088 0.415665
-18.238 -10.4469 0.237625
-18.3601 -10.4133 0.379927
-17.7218 -11.1837 -0.193601
-17.3284 -11.1297 -0.302143
-17.7333 -10.6635 0.414353
-17.2373 -11.1688 -0.104048
-16.739 -11.063 -0.364775
-15.7602 -11.9694 -0.835299
-16.0991 -11.6313 -0.141277
-19.5644 -10.811 -2.99277
-20.1761 -10.5406 -1.8625
-17.7461 -10.934 -2.95076
-20.426 -10.4173 -0.236481
-19.4583 -10.8164 -0.90013
-20.7897 -10.2326 0.682976
-18.7609 -10.3321 0.154325
-16.8826 -11.3186 -1.91707
-15.4859 -11.656 -2.85716
-16.6756 -11.0873 -0.402985
-16.4662 -11.1245 0.493672
-20.3175 -10.4912 -2.54308
-17.329 -11.0392 -2.72575
-17.499 -11.0459 -2.30768
-17.5982 -11.1099 -2.24732
-17.2596 -11.0269 -2.19823
-16.0309 -11.43 -2.18182
-15.9106 -11.5529 -2.20167
-17.2867 -11.1624 -0.70877
-16.7887 -11.3713 -1.31259
-14.602 -12.8007 -3.28716
-17.6258 -11.2499 -1.53617
-16.3306 -11.5499 -1.4828
-15.3778 -11.9798 -1.91034
-17.8924 -11.0619 -0.643726
-16.7183 -11.3894 -1.17579
-15.7219 -12.02 -1.02601
-15.8346 -11.938 -0.814235
-15.7741 -11.9207 -0.49448
-17.2013 -11.2114 -1.3612
-16.7641 -11.4324 -1.80512
-16.4779 -11.4581 -0.908761
-20.5991 -10.2985 0.679043
-20.7036 -10.3002 -0.276368
-20.5194 -10.3554 0.269494
-20.3667 -10.431 -0.0430128
-20.3438 -10.4343 -0.0138381
-20.3849 -10.4233 -0.213899
-20.1664 -10.5122 -0.165674
-19.8987 -10.6098 0.907298
-19.8093 -10.6443 0.943059
-19.8557 -10.6309 0.736703
-20.1661 -10.5174 -1.16484
-20.131 -10.5564 -1.21015
-19.9125 -10.6327 -0.0423843
-20.3678 -10.5157 -2.64239
-19.8246 -10.6535 -0.221255
-19.9272 -10.6347 -0.821736
-20.1212 -10.5627 -2.03637
-20.1588 -10.5388 -2.4494
-19.7149 -10.7072 -0.257987
-19.4939 -10.8076 -1.23064
-18.5232 -10.3164 0.235703
-19.5836 -10.8156 -1.90061
-19.5369 -10.8334 -1.82566
-19.2674 -10.8803 -0.635691
-18.4336 -10.3485 0.213997
-19.5771 -10.8408 -2.6582
-19.4153 -10.8764 -2.02071
-19.5231 -10.8223 -2.77537
-19.5798 -10.8381 -3.00691
-18.3171 -10.4098 0.285226
-18.5971 -10.6321 -0.257405
-19.2837 -10.956 -2.56149
-18.5051 -10.8432 -0.597841
-19.0125 -11.0483 -2.03112
-19.0005 -11.0351 -2.11444
-19.0169 -11.0464 -2.15626
-18.4586 -10.8718 -0.600718
-18.394 -10.944 -0.227775
-17.9085 -10.5876 0.256643
-18.8442 -11.0963 -1.89725
-18.824 -11.1057 -1.93667
-18.8902 -11.1052 -2.34203
-18.8183 -11.1054 -1.9516
-18.9617 -11.0649 -2.94417
-18.3171 -10.9403 -0.71702
-18.777 -11.1276 -2.54087
-18.7571 -11.17 -2.5567
-18.2509 -10.9565 -0.990779
-18.2063 -10.9622 -1.17043
-18.2254 -10.9744 -1.19026
-17.9476 -10.9906 -0.530648
-17.9166 -11.0267 -0.57576
-17.8971 -11.0077 -0.595409
-17.457 -10.7603 0.446116
-17.89 -11.0213 -0.568202
-18.5444 -11.2258 -2.67722
-18.0909 -11.0377 -1.40567
-16.1081 -9.39621 1.06888
-18.0463 -11.0467 -1.43241
-18.012 -11.0418 -1.40447
-18.4696 -11.2644 -2.88123
-18.4826 -11.2508 -3.07175
-17.8195 -11.1587 -1.07474
-18.3316 -11.3096 -3.0126
-17.8583 -11.1231 -1.4531
-17.8344 -11.1231 -1.4761
-17.8372 -11.1199 -1.69393
-18.2277 -11.3745 -2.98353
-17.7939 -11.143 -1.89912
-17.1315 -10.8967 0.443774
-17.7838 -11.1749 -1.90617
-17.7751 -11.1629 -1.92383
-17.2673 -11.1583 -0.100232
-17.39 -11.0996 -1.04713
-17.4062 -11.1432 -1.02443
-17.2535 -11.1831 -0.642258
-17.0558 -11.2074 -0.267032
-16.7185 -11.0643 0.331106
-16.5117 -11.1261 0.46442
-16.7768 -11.2307 -0.924761
-16.7316 -11.2455 -0.75432
-16.704 -11.2647 -0.742467
-16.6865 -11.2416 -0.81633
-16.7593 -11.3763 -0.64966
-16.6718 -11.2566 -0.738028
-16.7711 -11.3645 -1.32361
-16.7413 -11.3636 -1.07548
-16.6305 -11.3164 -0.747197
-16.7592 -11.3813 -1.32478
-16.6205 -11.4024 -0.827018
-16.4502 -11.3406 -0.229575
-16.4286 -11.3411 -0.23291
-16.2356 -11.232 0.460254
-16.7329 -11.3803 -1.873
-16.1731 -11.5806 -0.053838
-16.2639 -11.5805 -0.958975
-16.4413 -11.3214 -3.03103
-16.0418 -11.4534 -2.26563
-16.0568 -11.3166 -2.79259
-15.8746 -11.9159 -1.95747
-15.8474 -11.93 -1.93301
-15.6401 -11.9295 -1.087
-15.684 -11.9808 -1.55529
-15.7109 -11.9809 -1.58332
-15.6764 -11.978 -1.57948
-15.7069 -11.9707 -1.75924
-15.635 -12.3851 -3.27201
-15.5052 -12.4135 -2.69684
-15.4082 -12.4824 -2.81805
-15.3478 -12.4835 -2.73812
-15.3632 -12.5042 -3.34767
-15.2794 -12.5494 -3.05405
-15.1129 -12.5687 -2.39688
-15.1537 -12.5711 -2.91604
-15.1883 -12.5676 -3.13976
-15.0082 -12.641 -2.68465
-15.0459 -12.6433 -2.80711
-14.87 -12.7014 -2.83331
-20.8464 -10.2039 0.644956
-20.7147 -10.3093 -0.261364
-20.1622 -10.4986 0.868252
-20.189 -10.4682 0.69369
-20.1496 -10.5073 0.0154888
-20.106 -10.5482 -0.459138
-20.2932 -10.4993 -1.91569
-19.9836 -10.6129 -0.47324
-19.7586 -10.6647 0.473234
-20.2957 -10.5161 -2.43709
-20.2845 -10.504 -2.42217
-20.1335 -10.5696 -1.88521
-19.9259 -10.6317 -0.847116
-19.6834 -10.7325 -0.267141
-18.7641 -10.2173 0.337387
-18.7731 -10.2268 0.161587
-18.7169 -10.24 0.352294
-19.7075 -10.7487 -1.83235
-19.4047 -10.8361 -0.554193
-18.8251 -10.4365 -0.037135
-18.8348 -10.4402 -0.045526
-19.2829 -10.8498 -0.460455
-19.2717 -10.8641 -0.50691
-19.2568 -10.8583 -0.539476
-16.8945 -9.06729 1.03238
-19.2452 -10.8946 -0.501588
-18.456 -10.3701 0.267583
-19.6057 -10.8127 -2.6765
-16.8521 -9.09072 1.03174
-16.83 -9.10884 1.04574
-16.8573 -9.10203 0.937046
-16.8521 -9.11954 0.828379
-18.615 -10.4525 -0.983074
-18.7273 -10.5936 -0.659147
-19.2801 -10.9373 -2.39324
-18.5568 -10.8254 -0.540319
-18.4864 -10.83 -0.582375
-16.5408 -9.23583 0.971709
-19.0026 -11.0427 -2.27788
-16.4504 -9.26191 1.20547
-16.5065 -9.2504 0.831254
-16.455 -9.25609 1.15535
-17.913 -10.5734 0.266119
-18.3659 -10.8952 -0.684971
-17.8629 -10.6033 0.277196
-17.8269 -10.5918 0.276891
-18.71 -11.1264 -1.58723
-16.3314 -9.31723 0.853134
-18.7177 -11.1543 -2.63751
-18.7883 -11.1217 -3.12334
-18.628 -11.2182 -2.6453
-18.445 -11.2287 -1.75821
-17.9235 -11.1146 -0.266211
-17.8654 -10.7477 -2.27999
-16.0315 -9.44066 1.08822
-15.9896 -9.45147 1.00724
-17.8631 -10.9681 -1.99376
-18.3556 -11.3416 -3.01018
-18.3572 -11.3446 -3.08194
-17.8148 -11.1774 -1.39022
-17.8253 -11.1308 -1.79425
-17.5822 -10.9031 -2.85256
-15.7759 -9.52889 0.909517
-15.686 -9.57401 0.933589
-17.2301 -11.0217 -2.33021
-16.7378 -11.0349 0.281319
-16.6794 -11.0679 0.358728
-16.6117 -11.1023 0.345013
-16.7479 -11.1947 -0.226696
-16.9141 -11.2958 -0.871689
-16.732 -11.137 -0.463325
-16.7018 -11.107 -0.458054
-16.7586 -11.2293 -0.804916
-16.7042 -11.2832 -0.730606
-16.7297 -11.4322 -1.03897
-16.6802 -11.4599 -0.954596
-16.255 -11.2132 0.475105
-16.4033 -11.3824 -0.177089
-16.0309 -11.3302 0.375808
-16.2481 -11.5711 -0.340281
-16.2432 -11.5192 -1.16045
-16.2137 -11.3786 -2.23371
-16.1952 -11.4026 -2.26744
-15.8386 -11.9399 -0.736855
-15.7445 -11.8849 -0.496172
-15.8532 -11.9257 -1.45937
-15.7034 -11.9667 -1.37465
-15.7686 -11.9361 -1.8335
-15.679 -11.9685 -1.36536
-15.644 -11.9859 -1.35289
-15.4816 -12.0606 -1.27722
-15.4576 -12.0649 -1.25457
-15.3161 -11.7588 -2.12081
-15.5343 -12.4301 -2.66465
-15.5635 -12.4193 -3.28781
-15.4062 -12.4935 -2.79959
-15.3342 -12.5018 -2.68797
-15.2946 -12.5122 -3.02294
-15.2733 -12.5411 -3.0664
-15.2463 -12.5202 -3.05594
-15.1256 -12.5678 -2.43533
-15.041 -12.6022 -2.71686
-15.051 -12.6154 -2.99393
-15.0647 -12.6091 -3.16448
-14.8556 -12.6946 -2.55438
-14.8989 -12.6642 -3.11647
-20.8358 -10.2013 0.962209
-20.2161 -10.4609 0.710979
-20.3577 -10.4227 0.0247364
-20.1454 -10.4981 0.447911
-20.6246 -10.3756 -2.08685
-20.1299 -10.5225 0.278094
-20.171 -10.4976 -0.0922077
-20.2791 -10.4968 -0.966686
-20.1258 -10.5397 -0.433001
-20.6139 -10.4142 -3.06175
-20.3997 -10.4635 -2.08479
-20.4181 -10.4682 -2.12072
-20.1695 -10.5425 -1.36197
-20.3793 -10.5071 -2.51009
-18.8114 -10.0726 1.41002
-19.7307 -10.6666 0.364364
-20.2624 -10.5143 -2.4497
-19.7144 -10.6984 -0.586372
-19.7894 -10.684 -1.15219
-20.0015 -10.6366 -2.28966
-19.4662 -10.7945 -0.120376
-17.2716 -9.22865 1.14797
-19.7787 -10.706 -1.85299
-19.438 -10.8047 -0.100305
-19.8677 -10.6893 -2.41957
-19.399 -10.8296 -0.546047
-18.4869 -10.3412 0.487352
-19.4362 -10.8207 -1.22563
-19.5603 -10.797 -1.90643
-19.5598 -10.8268 -2.00153
-19.2314 -10.8846 -0.597294
-19.6226 -10.8133 -2.73336
-19.6 -10.8293 -3.06567
-18.3532 -10.4135 0.303085
-18.6151 -10.6135 -0.216177
-16.5325 -9.14163 1.55127
-18.1257 -10.4814 0.395519
-19.1732 -10.9594 -2.04828
-16.6142 -9.19392 0.819008
-19.236 -10.9592 -3.10768
-16.531 -9.23231 1.17943
-16.4954 -9.22603 1.03808
-18.8179 -11.1029 -1.4323
-18.7765 -11.0974 -1.43589
-16.4546 -9.27365 0.96685
-18.71 -11.1219 -1.54968
-18.679 -11.1411 -1.5412
-18.2422 -10.9315 -0.848724
-16.2227 -9.35361 1.0531
-15.8811 -9.13105 1.60578
-15.9039 -9.1835 1.61082
-18.0625 -11.0507 -0.629488
-18.6158 -11.1954 -2.77087
-16.1165 -9.39817 1.20044
-16.1037 -9.41338 1.19106
-16.0995 -9.40324 1.03968
-18.0161 -11.1121 -1.04808
-17.9727 -11.1245 -1.01955
-17.8802 -11.151 -0.878299
-17.1347 -10.7818 0.577413
-17.6789 -11.2177 -0.480112
-17.6467 -11.2424 -0.710113
-17.2055 -11.1648 -1.08359
-16.9146 -11.1442 -0.252734
-17.1448 -11.0109 -2.29671
-16.837 -11.1688 -0.209455
-16.7312 -11.1313 -0.470853
-16.4125 -11.186 0.499695
-16.7548 -11.3996 -0.611283
-16.7214 -11.4257 -0.998851
-16.8626 -11.3611 -2.00658
-16.616 -11.4875 -0.90233
-16.3203 -11.5355 -0.458874
-16.2566 -11.5794 -0.358602
-16.3467 -11.5439 -0.979905
-16.3761 -11.5223 -1.54297
-16.1656 -11.5962 -0.223391
-16.2445 -11.5597 -1.05202
-16.3398 -11.3487 -3.00122
-16.1491 -11.5837 -1.0703
-16.1425 -11.591 -1.01645
-16.1115 -11.6038 -1.04749
-16.1258 -11.4499 -2.12507
-16.0707 -11.4352 -2.16744
-15.9899 -11.8894 -0.923729
-15.7182 -11.9749 -0.925607
-15.835 -11.9707 -1.71354
-15.7403 -11.7909 -2.28039
-15.683 -11.9541 -1.67601
-15.3525 -11.7909 -2.12633
-15.049 -12.6231 -2.83444
-14.9931 -12.6306 -2.78178
-14.8479 -12.6827 -3.08277
-20.4037 -10.389 0.727337
-20.1837 -10.4932 0.143006
-20.2831 -10.5121 -0.907849
-20.4068 -10.4314 -2.08676
-19.8906 -10.644 0.0753645
-19.92 -10.6264 -0.693728
-20.0052 -10.6235 -1.26322
-19.7945 -10.6626 -0.260119
-18.7347 -10.1897 1.06222
-19.4922 -10.79 -0.0416217
-19.4883 -10.7836 -0.00656444
-18.705 -10.2456 0.375815
-16.9348 -9.01497 1.26932
-19.3922 -10.835 -0.454907
-19.2653 -10.8815 -0.478286
-18.5775 -10.4834 -0.968176
-19.4584 -10.8927 -3.03936
-19.2226 -10.9466 -3.14744
-18.8412 -11.0941 -1.45954
-18.7334 -11.133 -1.51162
-18.7072 -11.1393 -1.49573
-18.7191 -11.1391 -1.69954
-18.6429 -11.1515 -1.6731
-17.6926 -10.6645 0.274425
-18.1766 -11.0433 -0.463469
-18.0086 -11.0779 -0.687329
-18.5955 -11.2407 -2.93046
-17.9207 -11.1059 -0.686803
-17.9444 -11.0915 -0.737834
-17.851 -11.1169 -0.480846
-17.8545 -11.1143 -0.690522
-17.8395 -11.1335 -0.682173
-17.7967 -11.1587 -0.618378
-18.3755 -11.3165 -3.03384
-17.8091 -11.1185 -1.90624
-17.1901 -10.9951 0.216663
-18.0335 -11.42 -2.77953
-17.3855 -11.1579 -0.774367
-17.2135 -11.1896 -0.505875
-17.2434 -11.1896 -1.08018
-17.2188 -11.1768 -1.13446
-16.4401 -11.4176 -0.0458024
-16.0097 -11.4869 -2.04346
-15.9952 -11.5194 -2.17937
-15.7949 -11.9335 -0.581032
-15.752 -11.9468 -0.573957
-15.6614 -12.0011 -0.790049
-15.3982 -11.9144 -2.12129
-15.6155 -12.4039 -2.63594
-19.3687 -9.2408 1.44032
-20.046 -10.5741 -1.2142
-20.0726 -10.5973 -1.84748
-18.7246 -10.2124 0.855289
-19.8326 -10.6976 -2.04382
-19.5787 -10.7533 -0.789507
-19.4613 -10.832 -1.20002
-18.645 -10.4327 -0.993714
-19.4947 -10.8665 -3.00279
-18.9646 -11.0535 -1.39596
-19.0212 -11.009 -2.08309
-18.4153 -10.7942 -0.728464
-18.9014 -11.0807 -2.33166
-18.9697 -11.064 -3.02248
-18.8349 -11.1118 -2.50734
-18.8236 -11.099 -2.476
-17.871 -11.1364 -0.455238
-18.4267 -11.2926 -3.11439
-17.3876 -11.119 -0.242047
-17.3039 -11.1481 -0.0848593
-17.2937 -11.1403 -0.653419
-17.3454 -11.1075 -1.14052
-17.1385 -11.1762 -0.150389
-16.7098 -11.0806 -0.27691
-16.2862 -11.5592 -0.194519
-16.3072 -11.551 -0.408529
-16.2793 -11.5417 -1.08072
-16.1453 -11.6169 -0.299234
-16.088 -11.6378 -0.130465
-15.8056 -11.9382 -0.459624
-15.7182 -11.9417 -1.08922
-15.3332 -12.478 -1.80966
-14.9926 -12.6346 -2.345
-20.789 -10.2296 0.707924
-20.4666 -10.3604 0.511757
-20.3791 -10.475 -2.37146
-18.8027 -10.2327 0.343439
-17.9896 -11.1083 -0.986151
-17.9608 -10.9512 -1.57911
-17.8792 -11.0811 -1.50414
-17.897 -10.9586 -2.02745
-18.3355 -11.2952 -3.10078
-18.3538 -11.3274 -3.19363
-17.3941 -11.1238 -0.431247
-16.4823 -11.1576 0.50763
-16.1147 -11.6477 -0.231769
-18.8387 -10.186 0.383723
-19.57 -10.8048 -2.60235
-18.5665 -10.6423 -0.197409
-16.527 -9.23227 1.01949
-17.838 -11.0087 -1.99685
-17.3372 -11.1339 -0.32557
-16.4793 -11.1347 0.487436
-16.7269 -11.3757 -1.35005
-16.2876 -11.5287 -0.258802
-16.0955 -11.4278 -2.29829
-15.332 -12.5035 -2.89666
-18.673 -10.2659 0.216798
-17.9558 -11.104 -1.12525
-17.3143 -11.1569 -0.4562
-17.5976 -11.1009 -2.26328
-17.2929 -11.1564 -0.969786
-17.2685 -10.9883 -2.2253
-17.1406 -11.0443 -2.23286
-17.0055 -11.2846 -1.67234
-16.8663 -11.5603 -1.48792
-16.5843 -11.415 -2.01226
-16.219 -11.5725 -0.394175
-16.0938 -11.4311 -2.18878
-15.5277 -11.8835 -1.53757
-18.8392 -10.1943 0.466208
-19.3369 -10.8551 -0.698483
-16.9718 -11.3057 -1.75387
-16.339 -11.4381 -1.34089
-15.8223 -11.9136 -0.849575
-19.5993 -10.7437 -0.785643
-15.9632 -11.8355 -1.34628
-16.2151 -11.4076 -1.92065
-15.5075 -12.1606 -2.76898
-15.8291 -11.6845 -2.40123
-18.2792 -8.18086 1.43116
-17.5768 -9.18821 1.53008
-20.1646 -10.4744 1.2152
-20.5864 -10.2974 0.676269
-19.7914 -10.6504 1.04259
-19.7373 -10.6514 1.0783
-20.2041 -10.4765 0.708812
-16.8635 -9.09429 1.00944
-20.7359 -10.2475 0.23924
-20.4944 -10.3537 0.357453
-19.8505 -10.6201 0.724333
-19.8248 -10.6531 0.740834
-19.8332 -10.6482 0.725252
-19.7927 -10.659 0.72924
-20.3797 -10.4015 0.368355
-20.5444 -10.3562 0.268083
-20.1114 -10.5463 0.266286
-16.1234 -9.40388 1.07679
-20.3387 -10.4241 0.0245284
-19.8137 -10.6405 0.298436
-20.1165 -10.5369 0.0914014
-20.4116 -10.4304 -0.209736
-19.8858 -10.637 -0.0063245
-19.871 -10.6393 -0.0749987
-18.3094 -10.4158 0.382217
-19.9569 -10.6013 -0.161066
-18.3058 -10.4199 0.380416
-18.5171 -10.3345 0.239074
-19.3888 -10.8128 -0.00922811
-20.123 -10.5555 -0.455966
-17.9255 -10.5831 0.266951
-19.9086 -10.6281 -0.586157
-20.368 -10.4608 -0.838946
-17.4739 -10.7559 0.43933
-19.9861 -10.5877 -0.697194
-19.843 -10.6435 -0.692903
-20.1948 -10.5169 -1.12912
-20.107 -10.5597 -1.1873
-20.124 -10.5494 -1.18929
-19.574 -10.7701 -0.983189
-20.0042 -10.5861 -1.24848
-16.7229 -11.0591 0.349296
-18.5048 -10.8532 -0.570421
-18.4784 -10.8719 -0.580996
-19.4518 -10.8149 -1.06592
-20.0022 -10.617 -1.43945
-18.1789 -11.0143 -0.509438
-20.658 -10.3715 -1.90187
-19.5011 -10.8215 -1.22068
-20.4314 -10.4383 -1.79504
-19.5056 -10.8327 -1.23789
-19.4374 -10.8228 -1.21995
-17.2743 -11.1569 -0.126958
-17.3014 -11.1506 -0.142048
-17.4225 -11.0839 -0.283224
-16.277 -11.252 0.313073
-19.6689 -10.7495 -1.50401
-17.8753 -11.0212 -0.580478
-20.6656 -10.3532 -2.13117
-17.9013 -11.0086 -0.585013
-20.3034 -10.4982 -1.91032
-19.3388 -10.8502 -1.3463
-17.8838 -11.0062 -0.586108
-19.7798 -10.6976 -1.68135
-19.4104 -10.8615 -1.4534
-18.235 -10.9606 -1.03308
-19.6149 -10.7635 -1.77353
-19.9771 -10.6591 -2.05258
-18.9158 -11.0597 -1.41525
-18.8586 -11.0641 -1.40081
-19.5391 -10.804 -1.83518
-18.8756 -11.08 -1.43946
-17.9197 -11.1385 -0.992059
-18.2083 -10.9734 -1.19013
-20.0289 -10.6028 -2.23712
-18.2076 -10.9698 -1.21976
-20.6509 -10.3836 -2.67085
-20.6269 -10.3882 -2.63828
-18.1956 -10.9555 -1.26338
-16.4949 -11.3394 -0.304815
-16.4869 -11.3189 -0.274582
-16.4027 -11.363 -0.293695
-16.645 -11.1392 -0.468293
-18.7125 -11.1306 -1.61681
-16.775 -11.383 -0.616901
-19.2867 -10.9168 -2.04597
-18.0665 -11.038 -1.40838
-18.848 -11.1004 -1.89063
-18.8233 -11.1001 -1.90357
-20.0935 -10.5938 -2.68817
-16.6938 -11.2862 -0.75021
-18.8281 -11.0971 -1.92795
-19.0213 -11.0375 -2.03881
-17.9118 -11.114 -1.46868
-18.8705 -11.0788 -1.9936
-17.8724 -11.1095 -1.48391
-17.8635 -11.1319 -1.46013
-20.3108 -10.5522 -2.89734
-20.6163 -10.4129 -3.11741
-20.3441 -10.5138 -3.0014
-20.3398 -10.489 -3.00637
-19.2202 -10.9596 -2.34592
-18.9819 -11.0477 -2.25643
-19.0449 -11.0247 -2.32549
-17.8332 -11.1371 -1.64575
-17.8262 -11.1207 -1.69064
-18.8811 -11.0897 -2.33121
-18.8685 -11.0869 -2.3189
-19.4344 -10.8837 -2.69542
-19.4593 -10.8745 -2.71029
-19.583 -10.8164 -2.82512
-17.7992 -11.1495 -1.90922
-17.8809 -10.9735 -2.00617
-16.7419 -11.365 -1.31465
-19.5624 -10.8283 -3.02108
-16.729 -11.3544 -1.3232
-19.4364 -10.8753 -3.1386
-19.429 -10.8846 -3.2169
-17.601 -11.238 -2.08827
-18.8962 -11.0549 -2.90767
-18.9851 -11.0693 -2.96986
-18.5192 -11.2299 -2.68982
-18.4327 -11.2753 -2.77549
-18.4596 -11.2383 -2.89287
-18.6889 -11.1655 -3.18667
-18.348 -11.3242 -2.99842
-18.0495 -11.4415 -2.85976
-18.2335 -11.3859 -2.9839
-15.7195 -11.9684 -1.37208
-15.6927 -11.9566 -1.35798
-18.0474 -11.4318 -2.87349
-18.0624 -11.4304 -2.89455
-15.6604 -11.9898 -1.36339
-15.8811 -11.8734 -1.48828
-18.0362 -11.4322 -2.89012
-16.9418 -11.0927 -2.3063
-15.7088 -11.9842 -1.77379
-15.8785 -11.8992 -1.96228
-15.8782 -11.9105 -1.96058
-16.1227 -11.4188 -2.22863
-16.1644 -11.3888 -2.27355
-16.7516 -11.1876 -3.04429
-16.4337 -11.3157 -3.00966
-16.4532 -11.3028 -3.01929
-16.4377 -11.3028 -3.01052
-16.3604 -11.3276 -3.00854
-15.9002 -11.3699 -2.92104
-15.119 -12.5865 -2.45774
-14.9512 -12.6395 -2.4901
-15.0454 -12.6125 -2.81332
-15.2412 -12.5214 -2.97215
-15.2624 -12.5284 -3.0261
-15.3471 -12.4906 -3.33401
-16.9371 -8.97193 1.53187
-20.1313 -10.4982 0.868218
-20.2172 -10.46 0.826376
-20.5327 -10.3627 0.63244
-19.8894 -10.5968 0.927958
-19.8981 -10.5992 0.905053
-19.8161 -10.6237 0.943477
-16.8834 -9.10954 1.01521
-16.4579 -9.2521 1.21088
-16.8644 -9.11991 0.975905
-16.4351 -9.25277 1.17512
-20.7996 -10.2451 0.224707
-16.4674 -9.25791 1.15306
-19.8085 -10.6498 0.751628
-20.7524 -10.2565 0.183518
-20.6506 -10.2788 0.236543
-20.4301 -10.3722 0.359406
-16.5136 -9.24034 0.962245
-16.5267 -9.24672 0.944031
-20.8178 -10.2353 -0.0877035
-16.2117 -9.35932 1.08834
-19.7712 -10.6668 0.462788
-16.1274 -9.39713 1.09783
-20.135 -10.5288 0.236722
-16.5007 -9.25634 0.81623
-16.1227 -9.39099 1.01111
-16.0275 -9.43901 1.01287
-18.7705 -10.2291 0.348848
-19.891 -10.6175 0.113976
-18.6942 -10.2564 0.373842
-19.9539 -10.6112 -0.00857598
-19.8933 -10.6238 -0.0422912
-18.3063 -10.4347 0.302722
-15.7191 -9.57938 0.879815
-18.2111 -10.4566 0.297753
-19.4664 -10.8166 -0.0874571
-18.8177 -10.4279 -0.0330511
-18.8165 -10.4546 -0.0573186
-18.4388 -10.5451 0.079369
-17.9094 -10.5826 0.281294
-17.6286 -10.683 0.414616
-17.8335 -10.6156 0.308073
-17.6435 -10.6943 0.401423
-17.5383 -10.7259 0.425159
-17.529 -10.7308 0.41695
-17.8365 -10.6023 0.229182
-19.3709 -10.8433 -0.47305
-19.3696 -10.8575 -0.453224
-20.7309 -10.3321 -1.26988
-19.9322 -10.6351 -0.825164
-20.2913 -10.4765 -1.09945
-20.6206 -10.34 -1.28202
-17.0271 -10.9111 0.467506
-17.3259 -10.8317 0.271154
-20.3335 -10.4711 -1.20847
-20.3105 -10.488 -1.22895
-18.357 -10.9351 -0.173876
-18.2662 -10.9866 -0.195643
-18.6496 -10.7839 -0.460543
-19.5283 -10.7829 -0.968612
-16.3915 -11.1759 0.596017
-19.7773 -10.7117 -1.15909
-18.5229 -10.8314 -0.581052
-18.4934 -10.8514 -0.596099
-20.0074 -10.6029 -1.37463
-16.3338 -11.1781 0.471452
-16.3089 -11.2134 0.477573
-20.4163 -10.4305 -1.66826
-20.6044 -10.3674 -1.80692
-17.8744 -11.135 -0.305849
-18.3884 -10.8976 -0.643445
-18.3395 -10.9197 -0.709032
-17.9541 -11.0109 -0.526026
-18.3238 -10.8906 -0.788664
-20.0918 -10.5891 -1.81627
-17.6622 -11.2228 -0.474636
-20.4375 -10.4717 -2.13555
-19.8078 -10.6898 -1.81221
-20.1117 -10.5445 -2.07157
-19.0891 -10.9675 -1.45805
-19.643 -10.754 -1.79245
-19.6945 -10.7472 -1.82238
-19.808 -10.7 -1.96184
-18.9544 -11.0598 -1.4433
-19.4905 -10.8506 -1.77177
-16.5972 -11.1881 -0.230412
-18.2361 -10.9683 -1.16733
-18.7731 -11.0994 -1.45112
-18.7425 -11.1079 -1.42243
-20.2638 -10.5188 -2.38425
-20.4743 -10.4388 -2.50359
-19.1275 -10.9551 -1.68727
-20.2428 -10.5537 -2.38436
-20.5847 -10.4049 -2.60598
-20.2997 -10.5018 -2.43437
-20.2219 -10.5503 -2.40047
-20.2978 -10.5189 -2.41745
-19.5531 -10.8235 -2.01438
-20.3858 -10.4899 -2.51915
-20.0134 -10.6449 -2.28758
-17.3415 -11.1506 -0.796227
-18.1807 -10.9977 -1.29785
-16.7809 -11.2236 -0.785843
-20.4828 -10.4725 -2.99744
-19.0165 -10.9838 -2.09742
-19.4827 -10.8434 -2.40329
-20.3146 -10.5118 -3.01586
-19.6643 -10.8127 -2.71922
-19.5118 -10.8496 -2.69
-19.5543 -10.8082 -2.80988
-16.2417 -11.5725 -0.86463
-18.913 -11.0955 -2.51642
-16.83 -11.3574 -1.31094
-19.7726 -10.7649 -3.11258
-19.0704 -11.0418 -2.62358
-18.6802 -11.1788 -2.6312
-17.5911 -11.2282 -2.06671
-18.9877 -11.0451 -2.99204
-18.8046 -11.1101 -3.08606
-18.8014 -11.1312 -3.11931
-18.504 -11.2449 -3.01558
-17.2925 -10.9486 -2.3325
-17.1729 -11.0221 -2.25987
-17.137 -11.0197 -2.29224
-18.3711 -11.3203 -2.99337
-18.279 -11.3537 -3.01726
-15.6437 -11.9741 -1.32166
-15.6983 -11.9752 -1.36473
-15.6908 -11.9593 -1.39044
-15.4699 -12.0446 -1.29047
-16.9673 -11.0643 -2.33202
-17.5842 -10.8934 -2.85547
-16.6302 -11.4306 -2.21451
-15.6961 -11.9795 -1.75595
-15.7621 -11.9617 -1.83912
-15.8621 -11.9153 -1.94151
-16.0361 -11.4371 -2.24636
-16.0311 -11.4459 -2.26294
-15.4853 -11.9009 -1.8911
-15.8735 -11.5122 -2.25816
-16.1833 -11.4459 -2.55411
-15.1054 -12.5718 -2.10163
-16.3978 -11.3276 -2.99847
-15.6489 -12.3671 -3.26535
-15.2936 -12.5423 -3.06231
-14.9177 -12.6839 -2.81492
-15.585 -12.4165 -3.29562
-15.1382 -12.5783 -3.0376
-15.0495 -12.6229 -3.00278
-15.2035 -12.5766 -3.14457
-15.0964 -12.6421 -3.11321
-14.871 -12.6944 -3.07943
-14.8823 -12.6877 -3.10473
