-16.0914 -11.6436 -2.05228
-15.8736 -11.6904 0.200321
-14.1115 -11.0575 0.890113
-18.5823 -10.636 -1.52764
-16.1651 -10.7684 0.944495
-17.275 -8.19506 -1.81697
-17.505 -10.3473 -0.0849073
-20.9999 -7.95748 2.41944
-21.6243 -9.6799 1.23709
-16.3057 -11.053 -3.66906
-17.9003 -12.8105 -4.08017
-15.9394 -11.1208 -4.20409
-21.4532 -9.27586 -1.89198
-20.4823 -10.9623 -3.3562
-22.064 -10.2005 -3.89318
-15.877 -12.7598 -2.42709
-16.8707 -11.7341 -0.692888
-16.9234 -10.2942 -0.629441
-17.7882 -11.2346 -4.17496
-16.841 -8.80718 1.13045
-16.2108 -12.9181 -0.137589
-15.7473 -11.7475 -2.01261
-15.3592 -11.738 0.244702
-21.4947 -10.0503 -0.0232749
-14.3993 -11.4548 1.32597
-22.3676 -8.24484 2.48333
-16.2779 -11.998 -4.73654
-16.897 -11.4933 -5.01025
-16.0672 -11.9394 -5.00653
-18.3724 -9.90081 -4.05283
-15.2995 -12.1555 -1.33519
-15.5509 -11.8248 -2.16135
-15.6719 -12.0657 0.292365
-15.3487 -11.1891 -2.59197
-12.6588 -12.6218 -3.54886
-14.4514 -11.7329 -3.42965
-14.3601 -9.51085 -2.16815
-16.2895 -10.7084 -2.07812
-15.5333 -11.5405 -1.89113
-16.3472 -10.5911 -2.61563
-18.0659 -11.9526 0.778183
-17.5346 -11.5598 1.32785
-17.3621 -10.9596 -2.95136
-16.7308 -11.1746 -2.1993
-15.6259 -10.5641 -1.32035
-17.1163 -9.62508 -0.822756
-17.6772 -11.6865 -1.92675
-16.2623 -8.35653 -0.637126
-17.4445 -8.77168 0.116244
-15.9628 -11.0738 -0.954921
-14.1193 -11.0986 -1.68323
-16.3912 -10.467 -1.49288
-15.6735 -9.95838 -1.4245
-16.5167 -10.8985 -1.04017
-15.2717 -9.75638 0.600445
-19.9737 -10.525 -2.85297
-18.3942 -11.1239 -4.63199
-20.1006 -10.8372 -2.44467
-18.1821 -11.6424 -5.85737
-23.2004 -9.54438 -6.11222
-15.947 -10.2775 -4.32455
-19.948 -11.5658 -3.19497
-19.9925 -10.007 -6.20776
-13.7691 -11.7444 -3.61332
-20.0476 -10.1181 -6.07746
-19.5237 -10.8221 -4.6138
-14.0722 -13.9049 -3.52136
-18.3887 -9.91088 -4.48035
-16.0459 -10.4487 -4.09652
-20.2281 -12.846 -3.36797
-20.2635 -12.0544 -2.99099
-21.0697 -10.7592 -2.66353
-14.3912 -12.0079 -2.82792
-19.9713 -11.9054 -1.27988
-20.9904 -12.0554 -2.95077
-15.505 -9.64937 -1.46554
-15.4151 -10.8202 -1.99399
-16.1671 -13.0767 -4.21733
-20.3005 -9.53698 -3.50693
-15.5789 -12.7183 -3.08083
-16.073 -11.0149 0.395339
-13.0124 -10.8663 -2.2623
-14.6568 -12.8639 -3.52774
-17.4433 -11.67 -2.16507
-18.9933 -10.1412 -3.55746
-19.5565 -11.6938 -1.50167
-16.3327 -9.32156 -2.45636
-16.9756 -11.7522 -1.92746
-20.4978 -9.21 -1.83117
-18.6808 -10.1662 -0.842886
-17.1381 -11.9454 -0.761119
-15.0669 -11.6016 0.293497
-16.3232 -11.3706 -0.285147
-18.3518 -11.5342 -1.55065
-15.7802 -11.8516 0.1216
-16.2887 -12.0158 0.643044
-18.1486 -9.61919 -2.91326
-18.7807 -11.1205 -4.33523
-19.0003 -10.9955 -6.1162
-16.5587 -10.6468 -3.76241
-16.5224 -11.481 -4.16466
-19.5644 -11.3836 -4.2607
-20.3028 -10.1258 -4.69377
-21.5035 -10.4849 -2.93039
-16.1388 -10.632 -2.44354
-18.1256 -10.5638 -2.15798
-17.436 -10.5417 -3.17789
-17.0404 -10.2519 -1.73749
-15.8554 -11.6326 -3.50183
-14.0867 -9.67546 -2.77904
-16.8458 -10.8572 -1.32359
-20.0553 -10.0653 -4.01127
-21.048 -9.5785 -3.21321
-15.8138 -11.4528 -2.51836
-18.9603 -12.035 -2.80878
-18.2499 -10.3217 -2.70146
-21.7567 -11.1122 -2.10593
-13.4367 -11.238 -3.08352
-15.0721 -11.2608 -2.96955
-13.9662 -11.495 -1.40543
-15.858 -12.4096 -2.00547
-15.9197 -11.9397 -3.21171
-14.799 -12.951 -0.451288
-16.5258 -10.936 0.0934885
-16.4559 -13.2048 -2.3572
-16.1184 -11.8392 -0.383043
-19.6961 -9.37616 1.04531
-16.0444 -10.2643 -1.31118
-15.3055 -10.7113 0.596981
-17.702 -11.1221 -1.2973
-15.2312 -11.1191 -0.0725136
-16.1352 -9.3422 -0.571048
-19.1061 -9.10914 0.163452
-17.1676 -9.55139 -1.1614
-16.1789 -9.36903 2.02575
-15.1372 -8.30501 1.25702
-18.0033 -10.6827 -4.72547
-16.2269 -11.5231 -1.31851
-15.7734 -11.0548 -4.69983
-16.041 -10.7872 -5.17196
-16.0649 -13.0847 -4.29052
-15.3516 -10.1887 -3.43005
-17.9031 -9.94561 -3.15164
-15.2634 -12.5979 -4.10959
-16.3575 -10.8448 -4.31833
-16.8443 -11.1418 -2.21937
-18.2664 -11.5847 -2.79982
-14.7727 -13.6261 -3.50076
-15.1685 -11.4986 -3.35884
-18.272 -10.6698 -1.75626
-17.3884 -11.2553 -1.67939
-14.4798 -11.2672 -2.86656
-16.9961 -11.348 -1.30942
-19.2142 -10.5219 -0.0612065
-17.6745 -10.2718 -2.07072
-16.9098 -12.5968 -0.949105
-20.7853 -8.90534 -0.0136853
-18.0795 -11.8162 -0.526596
-15.2767 -11.9424 0.83681
-16.6482 -9.66356 -1.37385
-17.5891 -13.5739 -2.69415
-14.8341 -12.0155 -5.31529
-16.0064 -11.3173 -3.34584
-17.5664 -11.2635 -2.13605
-16.0797 -11.4593 -5.42304
-14.5959 -12.867 -0.784977
-16.2802 -8.89687 -1.9982
-14.3812 -11.4703 -2.23971
-16.9676 -9.32778 -3.03891
-19.5869 -10.4174 -0.935357
-19.1399 -11.057 -1.28015
-15.5588 -9.26403 0.537414
-14.5759 -10.8434 -3.15342
-14.5572 -11.3377 -3.13501
-15.1361 -9.87355 -2.71026
-15.2868 -13.465 -1.43456
-18.2115 -11.8093 -0.909521
-16.3216 -12.3853 -0.798635
-13.5996 -11.8359 -3.11096
-16.0521 -11.4446 -3.20471
-17.0823 -11.5876 -3.01188
-17.282 -11.0601 -2.6364
-15.7411 -13.0638 -3.06231
-16.8966 -11.3165 -1.52212
-15.2331 -11.2655 -0.227095
-19.4011 -9.80494 -1.321
-14.4644 -12.0449 -1.3936
-17.364 -11.6707 -0.96152
-17.737 -9.7377 -1.11701
-15.3699 -8.92155 -0.394187
-17.1383 -10.6309 -5.2029
-16.5762 -11.8126 -2.32758
-18.2954 -10.634 -1.85535
-15.8845 -9.37135 -3.85665
-14.6863 -11.4052 -2.97718
-18.2886 -10.3957 -2.16417
-16.9802 -9.7152 -4.72904
-15.6955 -10.9353 -2.24727
-17.6895 -11.7586 -4.16035
-16.5249 -13.0844 -3.96401
-18.3824 -12.3869 -5.08167
-14.9861 -11.8691 0.0202155
-19.3425 -9.4874 -2.26324
-15.8259 -10.5982 -1.76757
-16.7364 -9.63265 -1.6597
-18.0058 -10.8754 -0.648306
-18.0752 -11.8875 -0.556642
-17.0566 -11.0944 -2.19157
-15.7425 -11.964 -2.56459
-17.1375 -10.2479 -1.42401
-19.4538 -9.37656 -4.26762
-19.8174 -12.7697 -3.73308
-18.9786 -11.0429 -3.02673
-18.7914 -9.47522 -4.6281
-15.3815 -12.2855 -2.83556
-20.1062 -10.211 -3.78415
-17.8147 -12.1337 -3.98701
-16.7501 -10.6738 -4.6144
-17.4297 -10.0376 -3.35702
-20.9158 -10.4999 -2.84905
-15.5696 -10.8739 -4.20104
-20.7182 -9.11513 -3.28203
-21.4722 -10.6509 -4.91263
-15.847 -12.3985 -4.52586
-18.8711 -9.97864 -2.06374
-14.5945 -12.4315 -3.35795
-17.4223 -10.712 -0.977323
-16.4484 -11.957 -3.26046
-14.9976 -11.6924 -2.39982
-16.031 -9.69519 -2.8799
-16.8845 -11.4185 -3.08433
-15.0797 -10.8501 -2.5081
-15.5026 -12.306 -0.723795
-14.9057 -12.0479 -3.11886
-20.8534 -10.3756 0.142194
-16.5421 -11.1776 -0.996245
-15.6803 -10.7851 -2.85699
-15.5869 -12.4484 1.04558
-15.5887 -11.1207 0.0235745
-16.3047 -11.4024 -0.769364
-17.9295 -12.3034 -0.789098
-18.5455 -10.9856 -1.43284
-17.7232 -12.766 -4.87051
-21.1848 -12.0168 -4.29444
-16.4248 -11.8447 -5.65888
-14.7292 -11.5541 -2.07622
-20.3918 -9.08186 -3.53762
-15.9532 -10.1725 -4.48216
-16.5857 -11.1489 -1.02069
-15.3897 -10.0695 -0.62381
-14.0297 -12.6601 -2.32999
-15.2806 -9.58656 -3.14789
-13.9778 -11.5841 -2.50863
-20.559 -11.3474 -1.86859
-14.3937 -13.3254 -1.79216
-14.7664 -11.7132 -1.27715
-17.0899 -10.6869 -2.49216
-16.2003 -10.9259 -0.0853058
-16.4118 -13.0184 -0.687573
-16.851 -11.5941 -2.24202
-15.9352 -11.2598 -0.57262
-17.6636 -10.1433 3.15465
-16.066 -11.5535 -4.90384
-20.5818 -10.0442 -4.48976
-18.1021 -10.7887 -3.61566
-17.2924 -10.9304 -2.81411
-16.1535 -10.1566 -4.19223
-16.9956 -10.8424 -4.6665
-20.441 -10.3785 -3.7929
-14.7341 -11.0861 -2.67501
-15.1776 -13.1625 -4.86211
-16.2966 -13.5841 -2.89845
-16.896 -11.7907 -1.40933
-16.5262 -9.30043 -0.970985
-15.9245 -12.0992 -1.00583
-19.8892 -10.5288 -1.97638
-15.2306 -13.8886 -0.951341
-20.1338 -10.0073 0.365599
-18.1987 -11.4705 -0.362416
-16.7183 -12.3122 -3.51126
-18.2633 -10.9242 -1.7967
-16.9653 -10.6423 0.802597
-17.1814 -8.54335 -0.51084
-15.0158 -10.5801 0.0437635
-17.3116 -9.40432 1.48225
-17.348 -10.0112 1.45589
-16.478 -11.7451 -4.21503
-16.3976 -11.5628 -5.49539
-15.9492 -10.711 -2.42739
-14.5333 -11.0772 -1.72223
-16.2152 -10.919 -2.45987
-16.2745 -12.5732 -1.13589
-19.1368 -11.2962 -5.37741
-16.2849 -12.5826 -1.87307
-15.7915 -12.0138 -1.13119
-17.1833 -11.0784 -1.22553
-17.3413 -9.34065 0.024281
-19.4055 -10.5801 -1.72981
-20.6205 -10.6599 -6.19449
-19.7502 -12.331 -3.68044
-20.2812 -10.5598 -3.1814
-21.7926 -9.2641 -3.40237
-16.9619 -12.6667 -4.21821
-18.6947 -12.8214 -5.84883
-16.209 -10.4064 -3.85487
-15.4803 -11.7063 -4.19193
-20.8729 -10.1455 -1.45211
-18.6618 -10.6479 -1.21006
-19.5298 -11.0546 -2.01003
-17.1193 -11.0974 -2.6702
-15.8646 -12.1087 -2.97825
-13.9644 -10.1435 -3.27038
-15.8967 -10.5769 -1.53131
-20.4268 -8.57427 1.39514
-19.326 -10.8292 -0.295145
-13.5344 -11.122 -1.1827
-16.7919 -11.1029 0.399467
-17.4644 -12.6945 -3.02946
-15.6092 -12.8441 -0.844976
-14.3448 -12.3744 1.09232
-16.9346 -9.48648 -0.421402
-17.8707 -12.0134 1.54331
-14.4936 -11.1375 0.309213
-19.0998 -8.67375 -4.96466
-17.981 -11.2762 -2.57792
-18.969 -12.4761 -3.58343
-16.4761 -11.0023 -2.28196
-18.4982 -10.541 -3.43772
-17.0819 -10.8511 -3.06347
-17.2192 -11.0732 -3.532
-17.0866 -12.9119 -5.73607
-16.6139 -11.719 -2.36515
-16.078 -10.0262 -2.60329
-16.1858 -12.2287 -5.72642
-16.9946 -12.2709 -3.16406
-17.1114 -8.86958 2.36955
-16.3495 -9.25129 2.26836
-15.638 -12.4455 -3.9496
-15.13 -12.0053 -2.93693
-14.2732 -11.8772 -4.15556
-14.534 -12.5735 -4.08788
-13.6839 -10.9397 -1.41619
-13.9046 -10.96 -2.87163
-16.522 -10.7834 0.592081
-16.8211 -11.3122 0.608755
-16.348 -11.0548 1.51903
-15.9023 -10.3729 -0.327224
-14.5351 -11.4395 1.23351
-17.0967 -12.4417 -1.09678
-15.396 -12.4682 -0.511865
-15.3839 -12.0669 -1.2777
-15.8056 -9.56264 -0.5952
-18.6635 -8.6535 -4.54691
-17.5864 -10.2104 -4.66348
-17.9054 -11.5898 -2.20807
-21.2837 -10.0701 -1.61252
-15.8282 -10.1216 -2.0252
-15.7188 -12.3537 -2.05716
-15.6154 -10.4857 -1.99752
-16.2617 -10.248 0.969481
-14.7707 -10.7083 -1.01031
-15.9783 -11.1679 1.0207
-16.7546 -9.92245 0.595518
-18.9399 -12.474 -3.31713
-17.9331 -10.4515 -5.21937
-16.2796 -12.4407 -2.97353
-17.473 -11.098 -2.12682
-11.8858 -11.9854 -0.934384
-16.5816 -11.7425 0.744699
-19.2954 -10.8879 -1.07148
-14.817 -10.8374 -2.00703
-19.2608 -11.123 -1.75085
-18.911 -10.2305 -2.03068
-13.7954 -10.8987 -1.53661
-16.2099 -10.2351 0.488171
-15.8566 -11.5846 -1.13544
-14.2362 -12.2987 -2.50304
-17.0802 -12.3914 -1.5936
-17.2786 -12.5605 2.26561
-17.0554 -12.8433 -0.915612
-21.7477 -9.29549 1.75535
-16.3786 -12.1523 -0.97551
-16.8786 -14.1606 -3.13021
-16.0515 -11.0485 -1.92399
-20.8636 -8.41356 -1.62962
-18.7218 -11.3764 -5.44655
-15.9402 -12.5912 -2.46062
-16.3588 -12.6278 -2.21163
-18.6294 -8.20205 0.61524
-18.0822 -9.60264 -0.331928
-16.9405 -12.0565 -1.00955
-15.4011 -11.5448 -3.22118
-17.4719 -10.6157 1.35613
-19.6808 -11.0763 -1.46039
-18.1032 -12.6656 -0.931915
-15.717 -10.1576 -1.59553
-17.8644 -11.0432 -1.66742
-15.4707 -9.43999 -0.220722
-14.9766 -11.4977 -0.173663
-16.4073 -11.2111 -0.934904
-15.1101 -10.8126 -1.61116
-17.7842 -11.2203 -1.95188
-15.6945 -12.7838 -2.77779
-14.4475 -11.387 0.34325
-15.4625 -11.5829 -3.88893
-13.939 -10.6231 -2.00155
-15.1824 -11.4996 -2.12719
-20.0084 -10.0796 -2.96436
-19.5619 -11.0973 -0.496286
-16.3048 -9.21871 0.181013
-15.8018 -9.31446 -1.31903
-18.2742 -11.376 -2.66749
-16.4291 -10.6964 -4.2818
-17.2331 -11.7829 0.33124
-18.7646 -10.3706 1.50945
-17.1286 -10.6833 -0.268558
-17.6493 -11.4032 1.20189
-15.5883 -10.9692 -4.07745
-18.2332 -12.5852 0.238184
-16.177 -11.4043 0.215124
-17.8181 -11.5101 -1.42891
-17.2495 -11.3272 -2.31733
-14.8554 -10.1658 -1.62073
-15.1085 -12.5608 1.43603
-15.6791 -9.53322 0.794213
-13.8832 -10.4677 -4.49103
-15.6935 -11.3479 -2.61551
-14.2947 -11.0024 -3.45918
-13.6679 -10.0962 -2.82713
-14.9923 -11.7039 -2.08091
-16.6031 -10.9508 -0.315616
-12.7713 -12.3531 -4.07292
-13.6479 -13.1071 -5.69941
-20.2802 -11.039 0.612852
-17.5812 -9.97981 -3.15293
-15.4777 -11.5521 -0.889295
-18.0227 -13.2748 -0.483592
-16.4707 -11.0459 -1.60356
-18.6327 -10.7404 -1.57367
-16.6348 -10.036 -1.61056
-15.4836 -10.6988 -0.885615
-16.7554 -10.6362 0.98115
-16.6375 -9.72739 0.105879
-14.1956 -10.4868 0.653401
-16.3539 -13.0556 -4.02082
-16.2372 -11.9026 -3.4422
-17.9757 -10.9208 0.821938
-17.5153 -11.0166 -4.22303
-17.9498 -11.3296 -1.27027
-14.8779 -8.49092 -1.55627
-16.6454 -12.5447 -2.34281
-15.7927 -10.4451 -0.266349
-12.896 -11.8439 -4.26608
-23.007 -8.47617 -2.74498
-23.4375 -8.84547 -5.05047
-24.0873 -8.20461 -4.45827
-17.41 -10.1169 -0.963852
-14.9798 -12.6923 -3.61189
-18.8496 -9.78775 -0.569305
-16.4346 -10.2511 -0.350704
-17.7007 -12.0408 -1.82035
-15.7797 -12.5161 -1.67579
-17.7797 -11.2318 -3.64876
-16.1961 -12.414 -0.537472
-17.4345 -11.7608 -0.903046
-16.2282 -10.4226 0.833562
-16.4117 -10.9687 -0.465711
-17.5743 -12.3867 -2.3995
-16.3766 -12.4104 -2.23133
-17.4481 -12.2987 -1.04446
-18.2952 -11.519 -3.86023
-22.79 -10.2108 -3.36486
-23.2828 -7.44509 -4.4302
-22.3459 -9.34706 -0.137108
-20.2157 -10.9008 -0.412878
-20.5764 -10.8968 0.147203
-18.5205 -10.6638 -4.3232
-19.4933 -10.8088 -0.993257
-19.1113 -10.8859 -2.51444
-16.5265 -10.7105 -1.05835
-18.2897 -12.0423 -3.81442
-16.67 -10.2368 -1.72621
-16.933 -10.1947 -0.0056029
-15.9184 -10.9631 -0.265054
-16.6711 -10.4757 -0.081069
-15.2225 -11.7819 -1.48913
-16.0693 -10.8392 -2.33819
-14.6844 -10.7823 2.45687
-17.343 -9.39108 -4.26332
-15.6926 -12.3381 -4.22369
-17.7819 -10.5048 -1.58625
-15.7631 -12.2448 -3.64625
-18.0813 -10.4925 -0.656955
-15.8002 -11.4852 -1.30155
-16.4741 -11.8742 -0.725603
-15.6453 -12.1609 -3.74335
-16.3026 -11.1738 0.654804
-16.3423 -11.7046 0.114282
-15.7607 -11.722 -0.431829
-15.0043 -11.1018 -0.378479
-15.3122 -10.4403 -0.618934
-15.7424 -12.6332 -0.00143338
-17.6062 -11.3523 0.119398
-14.7844 -10.8064 -3.44139
-13.9214 -12.579 -3.59186
-14.0168 -11.3364 -2.82808
-21.7866 -9.5725 1.21947
-20.9065 -9.4863 0.371571
-21.4743 -9.20852 -0.528523
-21.5057 -9.71581 0.267982
-18.9771 -10.0959 -0.530653
-19.9872 -9.63664 0.754477
-16.7466 -9.60597 1.28126
-18.7353 -10.4542 -1.91586
-18.4328 -9.91182 -2.49127
-17.2713 -10.2898 -3.76993
-15.9497 -12.3702 -0.83911
-17.7403 -11.3999 -3.13436
-18.1323 -10.8805 0.223205
-17.1662 -10.8396 -2.30554
-18.2641 -11.1683 -0.847784
-17.0124 -10.1384 -0.336592
-18.3166 -11.6745 -4.93457
-16.3096 -11.2741 -1.27562
-15.6025 -8.99213 -2.87736
-15.8235 -13.1248 -1.96981
-16.7854 -10.4435 -4.28498
-14.9569 -12.3539 -3.24197
-15.7591 -11.0087 0.652503
-15.9629 -11.9108 -0.961102
-16.8663 -11.8859 -0.671984
-16.5865 -9.68223 -0.164269
-15.1996 -11.7695 -0.702844
-16.955 -12.093 0.223594
-16.7408 -12.4046 -2.04027
-16.8295 -10.1648 -3.34938
-24.0075 -10.4777 -5.15771
-22.2883 -10.5542 0.723322
-21.2917 -10.2255 -0.0455218
-16.074 -10.2037 -2.40844
-17.0403 -10.5892 0.703313
-16.975 -11.6657 0.196443
-17.0863 -10.5362 -2.39663
-15.0171 -12.1576 -0.536998
-14.9937 -11.3111 -1.66879
-15.5063 -11.7374 -0.518719
-17.4293 -11.7095 -4.30741
-17.9725 -11.2947 0.367244
-18.04 -12.8421 -4.78552
-16.8113 -11.6503 -4.17672
-17.8108 -9.98407 -1.16155
-15.3253 -11.807 -3.76832
-15.0455 -11.8061 -3.03555
-17.8973 -11.1206 -1.68077
-17.1094 -9.48308 1.03121
-16.7402 -10.9075 -4.56136
-15.916 -10.9597 -0.784992
-17.7491 -10.9368 -0.812895
-17.1511 -11.1893 -1.42138
-17.525 -11.1244 -0.925189
-17.7685 -11.4224 -1.61981
-17.1443 -9.97336 -2.74786
-14.93 -10.0238 -1.37748
-16.1797 -10.9945 -0.364685
-18.4282 -9.44539 -0.4254
-20.3746 -11.8313 -1.54621
-16.9325 -8.86561 1.17355
-15.0639 -10.2615 -0.615039
-16.7205 -9.51165 -1.21887
-20.0335 -10.4287 -4.04779
-18.2148 -11.3923 -3.45597
-15.4964 -11.7157 0.4705
-17.0766 -10.764 -0.210032
-16.2113 -9.06747 -0.447784
-15.9806 -11.6302 -1.41671
-16.0817 -10.3905 -2.52955
-17.4615 -10.8194 -3.484
-15.9314 -9.85544 0.751403
-17.7117 -9.46762 -5.04783
-17.159 -11.6964 -3.25825
-17.9989 -10.8956 -4.05812
-15.8989 -11.4881 -4.11478
-16.5407 -10.7609 -3.25676
-16.6549 -11.2286 -4.83457
-14.7229 -9.17512 -1.31316
-13.5057 -12.4547 -4.3396
-17.2485 -11.6683 -1.84466
-15.4046 -10.737 0.0795062
-18.4367 -11.5916 -3.27385
-17.3781 -11.8897 -4.47946
-17.7502 -12.7683 -1.85404
-14.9726 -11.4312 -2.52883
-14.888 -12.8524 -1.62549
-15.7782 -11.7723 -4.09925
-17.0558 -14.3107 -2.9322
-24.7062 -9.40704 -3.98099
-22.745 -9.60504 -3.96548
-22.4404 -8.77844 -1.23948
-15.6903 -12.9426 -2.78195
-14.7629 -11.1263 -3.79553
-16.1177 -11.5314 0.588574
-15.5711 -10.2875 -1.76862
-16.6732 -11.3228 0.377187
-16.2699 -11.4244 1.24829
-14.9269 -12.0642 -0.813527
-15.1944 -11.9353 -3.24335
-16.0039 -12.518 0.173263
-16.7308 -12.7911 -1.51676
-17.1546 -9.81295 2.16407
-16.2661 -11.8625 -1.4251
-13.6078 -11.0044 -2.12234
-19.543 -9.71546 -1.53886
-18.5944 -10.3737 -0.566276
-21.1029 -11.4743 0.589474
-16.8207 -10.2473 -0.320304
-16.1491 -10.1555 -0.243858
-17.8528 -11.5491 -0.309618
-14.0493 -11.3711 -0.0491874
-17.3709 -11.4916 -1.12069
-16.5948 -11.9977 -0.447266
-16.5475 -10.7895 -2.0209
-16.7017 -10.7349 -1.08677
-16.3118 -10.5007 -1.36943
-14.7294 -10.3768 -1.89236
-19.1032 -11.3796 -5.07083
-18.5947 -10.655 -3.76767
-14.6741 -12.3357 -4.12841
-17.7897 -8.82279 0.74963
-14.7588 -10.8558 -1.93761
-17.2874 -11.9588 -0.101014
-16.8239 -10.2192 -1.45294
-18.5331 -8.82234 -5.04946
-15.2553 -12.0422 -3.32288
-18.7058 -8.83488 0.915497
-16.5801 -10.67 0.563849
-15.3383 -12.0556 -0.816898
-17.3052 -11.2742 0.0904917
-18.4093 -10.5742 -3.89386
-16.5886 -11.068 -3.06235
-14.4197 -12.243 -3.78307
-12.7887 -13.5388 -3.39094
-16.9501 -11.7687 -1.3913
-17.5637 -10.6871 -3.55907
-16.5646 -10.6417 -4.39755
-14.338 -11.0925 -1.75989
-15.1943 -11.5605 -0.315954
-15.2502 -9.51209 0.464614
-14.8559 -8.5073 -2.41123
-18.6751 -10.3594 -1.27403
-16.721 -10.7422 -2.44105
-16.8462 -12.8476 -1.13975
-17.1029 -9.51717 -0.425248
-15.9098 -12.2025 -1.27034
-20.3373 -8.98876 0.79314
-18.8506 -10.2351 -0.971553
-20.2479 -10.036 0.850225
-16.5732 -10.7733 0.242065
-17.5266 -11.1278 2.30566
-21.0889 -10.9897 -1.23406
-15.6039 -9.26348 0.422435
-15.692 -11.9173 0.98284
-15.2495 -9.59462 0.0471558
-22.9249 -8.34735 -3.93026
-18.6776 -11.622 -1.45475
-17.5534 -12.7923 -1.32374
-16.1792 -10.2102 -2.98583
-18.375 -11.8545 -2.70235
-16.4021 -11.5669 -2.06263
-15.2008 -9.58307 -1.94114
-17.4155 -9.30083 -0.33902
-16.4639 -13.9541 -2.08752
-17.0302 -11.6908 -4.045
-17.0467 -11.993 -4.80916
-16.8709 -13.5638 -2.78176
-15.9742 -9.20578 -3.99567
-16.6128 -12.5932 -4.33473
-15.8269 -12.1271 -5.55497
-16.5343 -11.6346 -0.51128
-16.2718 -11.2741 -0.587456
-16.5298 -11.049 0.481462
-15.8439 -11.5891 0.119497
-17.3426 -11.5873 0.20257
-18.969 -10.5742 -2.44825
-21.7991 -9.41158 -4.33828
-15.5093 -13.6942 -1.70879
-15.6638 -12.0906 -0.881901
-16.7093 -11.1785 -3.49987
-14.2931 -12.3262 -4.64969
-17.1044 -10.5998 -1.27133
-16.9564 -8.9244 -2.7175
-16.8511 -9.37719 -4.41782
-16.3481 -12.3216 -0.667299
-16.7867 -10.3947 0.0223295
-15.9002 -11.3377 -1.29467
-15.648 -12.5967 -3.64652
-18.0379 -11.684 -3.7467
-15.7982 -10.8531 -4.31507
-17.316 -10.8311 1.39651
-17.5826 -11.9699 0.865988
-17.6148 -9.90567 -0.719835
-14.832 -10.6808 -3.64962
-16.0553 -9.83364 -2.70356
-16.6286 -12.7166 -3.22476
-18.7364 -9.78631 -2.91387
-15.681 -10.813 -5.14074
-19.6922 -11.8038 -0.511093
-16.8055 -11.5973 -2.8024
-13.2588 -9.53965 -3.93082
-17.6204 -12.0334 -0.489839
-15.9716 -10.1338 -0.291029
-18.211 -13.5798 -1.66112
-17.1375 -11.3393 -1.04168
-14.7201 -10.4367 0.026706
-17.8924 -10.7837 -2.20263
-17.4392 -10.6039 -1.07016
-14.9768 -13.8769 -0.264445
-18.4203 -10.2546 0.909642
-19.3633 -11.9994 -1.58195
-16.3937 -12.4563 -0.453696
-20.4658 -11.269 -0.795776
-18.0989 -12.7907 -1.98144
-15.9146 -10.7412 -0.642757
-16.9352 -11.7836 0.84121
-16.7485 -11.2183 -1.25144
-17.1481 -11.8294 0.885087
-14.573 -9.69442 -1.37031
-17.1574 -10.982 -1.35146
-16.5944 -12.8672 0.449037
-17.402 -10.6692 -1.46443
-17.3008 -9.97145 -2.91224
-15.4596 -9.4596 -1.73423
-16.7863 -11.588 -3.45505
-14.9582 -10.4439 -1.79428
-16.7078 -10.176 -1.29532
-24.7158 -8.73002 -3.77957
-21.4994 -8.80534 -4.79977
-13.9502 -11.4188 -2.44373
-17.7946 -9.34432 -1.52123
-15.8731 -12.2733 -2.92072
-16.1961 -12.0901 -3.00782
-14.8374 -13.7624 -2.18414
-15.7531 -10.7983 -2.54957
-16.3216 -11.3626 -3.59785
-16.5288 -11.3066 -4.16655
-16.1358 -9.16116 -4.63806
-16.7839 -11.6539 -2.83309
-16.9124 -12.6805 -5.13627
-15.7474 -10.3633 -3.69151
-16.4061 -11.8508 -0.306311
-16.9901 -10.1406 -0.230051
-17.836 -9.43491 -1.12603
-17.5986 -11.2811 -1.81448
-16.147 -11.2161 -0.352716
-20.018 -11.4351 -2.35868
-20.8635 -11.0005 -1.8311
-15.7683 -11.4357 -2.39407
-25.046 -10.254 -5.33475
-17.3062 -11.8283 -2.42644
-15.4843 -10.9219 -3.01147
-14.3885 -10.2223 -2.21148
-15.2124 -10.3573 -2.28142
-15.208 -11.9088 -2.86069
-16.3068 -9.41081 -3.37749
-15.0911 -11.6069 -2.93136
-15.6875 -9.8125 -3.57326
-15.6966 -9.82466 -4.03948
-17.5993 -11.4682 -2.24265
-17.3838 -12.6359 -3.17323
-14.2672 -11.3613 -4.82037
-16.4893 -13.2585 -4.52934
-18.9904 -10.4841 -2.63198
-16.5235 -10.3309 -3.469
-16.5112 -10.603 -2.27707
-21.7796 -11.4813 -0.474759
-18.1365 -11.3714 -0.13072
-15.2582 -8.90313 1.0446
-17.5947 -10.4635 -0.154933
-17.0158 -10.6198 0.228322
-16.4941 -9.07807 -1.47545
-18.0114 -12.228 -2.03758
-14.5928 -13.5332 -1.48473
-17.6646 -10.0567 -2.01902
-15.9167 -11.1279 -0.433018
-16.6106 -9.50508 -1.50676
-15.6314 -12.1815 -2.99106
-16.0757 -11.4635 -3.53329
-16.6994 -11.1341 -2.03491
-16.0577 -12.419 -2.4942
-14.8856 -12.13 -1.20003
-16.7273 -10.4149 1.28505
-18.1686 -10.3578 0.837029
-19.7181 -9.76403 -0.722319
-14.1998 -12.0305 -2.0739
-16.2941 -11.7697 -2.25944
-17.022 -9.52545 -0.97784
-17.3741 -10.2041 1.61223
-17.6383 -10.1445 -0.971249
-15.3763 -10.4737 1.35819
-20.0379 -12.1271 -0.399613
-16.5812 -10.968 -0.653806
-17.3288 -10.9072 -1.79008
-21.6255 -7.73683 -3.80243
-22.5344 -9.95431 -5.51117
-16.1535 -10.988 -2.65105
-13.665 -11.1381 -2.58433
-16.7974 -10.1228 1.34636
-16.9724 -10.7413 -0.924188
-15.6473 -10.3383 -2.79655
-15.7837 -11.865 -4.64294
-17.6775 -12.9584 2.29116
-15.8397 -9.97122 0.0956571
-18.102 -12.9016 0.778877
-15.3937 -9.50466 -0.647644
-16.6047 -11.3433 0.0101364
-14.6011 -11.312 -0.166862
-17.2407 -8.75838 -1.20031
-13.9636 -12.4444 -3.60522
-14.6536 -12.6117 -1.61417
-15.5594 -10.7619 -2.09812
-16.5751 -10.4109 -0.939989
-16.0353 -11.3102 -0.898173
-17.9339 -12.2466 -1.53607
-17.3536 -10.1932 -1.67426
-16.9198 -11.9016 1.03687
-17.0797 -12.2596 -0.0559741
-14.51 -10.6178 -0.399428
-16.6347 -11.1072 0.244039
-16.2666 -11.6408 -0.183776
-18.3256 -11.1543 -0.34292
-21.5769 -9.78669 0.414559
-16.5182 -11.3164 -3.56049
-14.8609 -11.5844 -5.05278
-14.1693 -11.0353 -3.4502
-15.3984 -11.6513 -2.7046
-15.6397 -10.0805 -3.88825
-13.0069 -12.3424 -2.46581
-15.2881 -11.434 -1.49432
-15.9655 -10.5885 -2.14673
-16.8365 -12.0879 -0.464415
-15.797 -9.96125 -0.280918
-17.1462 -11.0549 -0.23557
-17.478 -12.0717 -0.0202441
-16.0288 -9.84735 -0.809443
-15.8437 -13.3816 -1.54387
-15.7384 -11.6923 0.391712
-15.7772 -11.5213 0.644787
-19.6022 -11.9247 -0.427112
-21.1949 -9.76962 -1.21842
-16.8941 -12.0149 -0.332689
-17.3545 -10.554 -0.877485
-17.4583 -10.4911 -4.32966
-14.3296 -13.5099 -3.27295
-22.5724 -10.905 -4.77746
-14.7321 -9.13781 -1.18918
-16.6412 -10.3199 -3.34963
-16.5341 -9.66548 -0.549029
-16.2955 -10.4669 -1.85066
-19.2546 -10.4453 -1.22253
-17.0548 -11.5494 -1.3085
-16.5895 -12.5822 -0.0270371
-18.5047 -10.919 -0.203036
-16.4553 -13.0827 0.952748
-16.4484 -10.0281 0.711008
-18.3004 -10.4633 0.050218
-18.3254 -9.901 -0.175541
-16.6256 -10.5707 -0.944178
-14.8591 -11.2482 -2.42332
-17.1057 -10.0271 -2.50909
-16.7575 -11.75 -0.183743
-16.7896 -11.9327 -0.550042
-16.9076 -10.9384 -0.0885432
-17.9119 -11.8828 -1.58543
-14.17 -11.1541 0.555153
-16.8202 -9.54865 -0.908086
-16.3916 -11.2761 -1.28683
-19.754 -10.478 -0.855726
-15.9028 -10.5567 0.996783
-17.3854 -11.378 0.11997
-15.5537 -11.2702 -0.480627
-15.2426 -9.94129 -1.42899
-15.5248 -11.2478 -1.64395
-18.0733 -11.1252 -1.13231
-15.4172 -11.735 -1.18979
-15.6038 -11.1568 -1.23308
-15.7678 -10.7003 -1.01571
-15.2888 -11.5714 -2.274
-17.0193 -12.2043 -1.74008
-15.948 -13.6131 -2.89079
-17.0688 -10.7971 -1.19556
-17.4725 -11.4902 -2.66798
-17.4339 -10.7258 -0.402911
-16.3681 -11.4019 -3.74923
-21.4337 -8.86535 -2.95107
-23.2034 -10.0549 -5.207
-16.0459 -10.6363 -2.72727
-14.1897 -10.8475 -1.69889
-19.7761 -10.4808 -2.76951
-17.5318 -11.7604 -1.79615
-15.3133 -12.0873 -0.697406
-15.5357 -10.1241 -2.41559
-13.4242 -11.1178 -1.40047
-15.5989 -12.2203 0.514465
-15.4148 -10.8273 -0.163943
-15.7735 -9.39651 0.0845214
-16.302 -10.7658 1.1951
-20.34 -8.75971 1.41496
-16.022 -10.0364 -5.25574
-18.3669 -11.1959 -5.14324
-15.5659 -10.7618 -3.6715
-13.331 -11.1583 -2.35242
-17.1338 -11.4267 -2.74554
-17.1968 -10.768 -1.70257
-16.7027 -9.7588 -3.4506
-18.1515 -10.9388 -1.30008
-16.5416 -10.9938 -2.23874
-18.6041 -9.06225 -0.68984
-15.7418 -10.1915 1.74183
-16.3646 -10.4751 0.166939
-21.4372 -11.1223 0.959345
-16.9283 -12.0471 -0.973366
-14.975 -9.85943 3.21278
-15.245 -13.7892 -3.31885
-13.9782 -10.68 -3.4814
-15.5865 -12.1565 -2.81137
-17.1237 -12.9484 -0.937823
-15.0831 -11.7421 -1.60862
-16.7613 -10.7381 -2.72403
-15.1972 -10.926 -3.01638
-15.3297 -12.097 -0.609472
-21.122 -10.1911 -2.53801
-16.7729 -11.3931 -4.12164
-18.9512 -10.4094 -1.81782
-16.0532 -9.8322 -1.12657
-17.2993 -10.0946 -0.187973
-15.7426 -11.5722 0.339603
-18.6953 -9.40977 -0.0604669
-15.2145 -10.8379 -0.431156
-15.0084 -11.3675 -3.59553
-16.0579 -11.7544 -2.36912
-15.8471 -11.7374 -1.20617
-17.4162 -9.61213 -1.71797
-14.3108 -11.9609 -4.6113
-16.5112 -10.1061 -3.28604
-16.0676 -11.9206 1.99567
-17.2145 -12.9171 -0.160052
-15.9678 -10.9783 -0.380797
-17.4731 -11.2559 -0.333616
-14.6738 -13.5117 -3.09989
-15.0321 -10.3761 -1.93392
-16.2924 -12.017 -1.24791
-16.9008 -11.4143 -1.73358
-15.7248 -10.7993 -1.38947
-19.839 -10.9546 -0.686377
-17.2219 -10.2993 0.702727
-17.6603 -9.63739 -1.01182
-15.3782 -10.5748 -1.61011
-16.8989 -12.5743 1.49861
-14.6725 -11.181 2.96765
-17.1855 -11.5902 -1.92072
-15.9997 -11.0853 -2.91619
-14.7574 -9.99097 -2.66032
-16 -12.2711 -2.765
-13.922 -12.9002 -5.29201
-19.0851 -11.2317 -3.31479
-16.8571 -10.9912 0.126572
-14.2975 -12.116 -1.67727
-19.1431 -11.416 -0.788701
-16.3684 -10.9442 -0.0588619
-16.8055 -9.19119 1.23142
-15.453 -7.91271 -0.206354
-24.0229 -7.492 -5.50096
-20.2759 -9.12233 -1.62259
-16.5893 -10.8931 -2.11855
-14.7098 -11.518 -4.56059
-15.6446 -11.4464 -4.11969
-14.916 -10.9114 -4.84102
-13.4004 -10.7491 -2.38315
-12.817 -11.4588 -4.17878
-18.0686 -10.8127 -2.94301
-16.6307 -12.1177 0.583119
-18.1302 -11.8476 -0.784589
-16.0982 -11.7463 -2.79521
-15.9303 -10.9717 -2.27495
-16.146 -13.1568 -1.00898
-17.0029 -10.9978 -1.35468
-15.9829 -10.5572 -0.145635
-16.8219 -9.46917 0.0705394
-15.679 -10.5301 0.889095
-18.4995 -11.0734 -4.51381
-14.8729 -11.6799 -4.20336
-19.1455 -11.2448 -2.19371
-18.2261 -10.7567 -3.29503
-16.9109 -9.45992 -2.90101
-16.1127 -10.954 -2.10191
-15.3109 -11.0286 -2.55019
-18.4831 -11.3849 -1.09065
-15.8913 -11.3559 -2.28344
-17.6598 -11.7968 -5.69581
-18.1174 -11.623 -0.7989
-16.9636 -11.2441 -0.1656
-14.771 -9.37217 -0.493084
-18.6764 -10.8486 -1.13036
-16.2927 -11.5165 2.55777
-13.856 -12.9017 -5.1927
-16.3833 -10.7835 -3.53354
-18.0799 -11.6637 -2.134
-17.938 -10.7741 -4.19931
-14.6423 -10.7663 -1.90658
-16.211 -10.9233 -1.94385
-16.8042 -9.92859 -0.799568
-17.2965 -11.4623 -4.60316
-14.9167 -12.1545 0.576795
-16.274 -11.9717 -0.232139
-14.3491 -12.9147 -3.15647
-19.0479 -11.7978 -2.33955
-17.5083 -10.6917 -1.54356
-15.428 -10.3332 -0.887801
-20.3086 -10.9262 -3.64103
-15.627 -10.0158 -1.45488
-16.6128 -12.0101 -2.20525
-13.2668 -13.8952 -3.02853
-14.1114 -12.7634 -3.45563
-15.5886 -10.7106 -2.32635
-16.0857 -11.6666 -1.92113
-17.6932 -10.2857 2.46022
-17.549 -10.613 -4.63094
-18.1495 -10.042 -3.20032
-14.9706 -12.2095 -4.12551
-17.5559 -12.2844 -3.14318
-15.3915 -11.0281 -3.21504
-16.4829 -11.4851 -1.50491
-16.0802 -12.98 -3.75591
-16.2269 -10.9941 -2.20141
-15.3512 -11.8657 -4.34954
-13.4205 -11.2325 -1.20838
-15.504 -10.2355 -0.618232
-19.7606 -11.5836 2.62738
-17.3238 -10.8161 0.715137
-15.5096 -6.15335 2.85745
-18.6987 -12.1841 -4.84808
-17.2247 -12.7564 -3.26634
-16.0122 -11.9653 -4.00411
-14.6414 -11.9685 -3.50106
-16.1074 -14.1544 -3.31971
-15.9202 -12.5596 -0.868172
-17.3896 -12.1285 0.304371
-18.6392 -10.9516 0.270552
-18.2233 -11.0636 -5.29952
-15.4204 -10.0092 -2.20211
-16.8563 -11.9782 -0.0850144
-18.0953 -11.1553 -1.5742
-15.2815 -11.3191 -0.885242
-16.496 -10.642 -1.74247
-14.977 -11.951 -3.72104
-14.5392 -9.93329 -1.20077
-16.2864 -11.2074 -2.80863
-17.0907 -9.93912 0.255923
-15.0746 -10.9966 -0.917174
-16.0307 -10.4789 -0.752404
-15.9836 -10.9147 -3.07997
-16.6638 -11.0329 -3.42237
-18.39 -10.8272 -1.92458
-15.386 -10.4457 -2.68686
-15.0234 -12.1493 -4.90092
-17.5946 -10.9071 -1.22784
-16.9716 -12.5396 0.101297
-16.7278 -9.65736 -0.814503
-17.5841 -13.2349 -1.08318
-15.6269 -11.5462 -1.87946
-16.524 -11.6921 -1.31833
-15.3088 -9.99566 0.205065
-13.5175 -12.6224 1.15147
-18.1656 -11.6953 0.25228
-16.1383 -11.9178 0.290254
-16.5565 -10.2525 -1.45804
-16 -9.97307 -1.43005
-18.5819 -10.6417 -1.78638
-18.3914 -10.351 0.0969758
-15.753 -11.8259 -2.86826
-16.3943 -10.387 0.530998
-21.87 -10.445 -5.89198
-16.3851 -10.0748 -3.19478
-15.9551 -10.7297 -2.49487
-17.0085 -11.3109 -3.34826
-18.3741 -11.9216 -1.4487
-16.0749 -11.6385 -3.2933
-16.5658 -11.6455 -0.547087
-18.06 -9.99657 -0.489019
-15.9971 -11.9762 -1.69929
-15.6053 -11.0003 -0.662233
-22.6127 -9.3538 -4.1654
-17.7129 -11.5837 -3.9797
-17.8875 -10.4071 -3.4803
-19.1776 -11.3129 -0.505587
-16.9523 -10.5052 -1.21506
-16.0561 -10.6145 -1.71198
-16.0637 -11.6313 0.395947
-16.4994 -11.0395 -1.79316
-18.1429 -10.8244 -3.31125
-18.9343 -11.9252 -2.97194
-19.0229 -11.0732 -1.16537
-16.267 -13.0103 -2.79881
-20.7131 -11.1656 1.48547
-19.8351 -10.1466 1.99486
-19.8208 -9.74327 -0.781502
-17.1041 -12.0086 -1.74437
-18.9315 -10.549 0.779791
-17.9952 -11.4146 -0.18701
-17.7645 -8.73693 0.307008
-16.7693 -9.77635 1.46917
-14.2 -11.7113 -1.75427
-12.4152 -11.82 -6.11686
-15.3531 -11.9273 -1.71668
-16.8012 -12.6136 -3.05876
-14.7592 -11.1358 -2.01595
-17.2337 -10.8164 -1.8306
-15.6732 -12.1176 -0.136039
-14.5422 -12.1674 0.661496
-18.8953 -10.3725 -3.01254
-17.3999 -9.15138 -2.73284
-16.1321 -10.6472 -5.01309
-15.7806 -10.6689 -2.9567
-14.9517 -10.349 -1.42477
-16.8493 -10.4612 1.25527
-19.5797 -10.568 0.935601
-19.4764 -11.5627 0.158825
-18.3756 -10.3542 -1.06265
-16.6513 -10.2579 -1.35825
-16.5313 -13.4696 -3.27603
-14.5442 -9.97123 1.05647
-17.6565 -11.3876 -0.186726
-15.2422 -12.7706 -2.53757
-15.4342 -9.76064 -1.42676
-14.151 -10.7186 0.709689
-17.8956 -8.96199 -0.875778
-17.9173 -11.1123 -2.08509
-16.3316 -9.08314 -2.97721
-15.4096 -10.002 -1.87832
-17.4235 -10.1695 -1.46021
-16.947 -10.3914 1.34981
-16.6964 -12.145 -0.874959
-14.6342 -11.443 -3.279
-15.5178 -11.5751 -0.887381
-15.6722 -9.80519 -0.672832
-15.1195 -12.4307 -3.65975
-13.9166 -9.94615 -0.055118
-23.3894 -8.47165 -5.04233
-24.1084 -8.19837 -3.53882
-17.9583 -11.7393 -1.64368
-14.8947 -11.7701 -1.75406
-17.0925 -11.1676 -1.92428
-15.3473 -12.291 0.395639
-20.1504 -11.101 -1.73797
-14.5439 -10.7209 -0.258907
-17.2422 -10.476 -0.760109
-18.3924 -9.78415 -2.26083
-16.6336 -12.7952 -2.59078
-16.3924 -11.7496 -1.20072
-16.2809 -11.0373 -2.38156
-14.2992 -11.4954 -2.52947
-20.234 -10.2249 -0.358677
-20.6729 -10.3407 -0.8311
-18.5678 -12.3981 -1.53789
-18.4905 -11.0046 -4.86857
-17.1307 -9.71646 -2.45405
-16.9555 -9.3674 0.304693
-17.8342 -11.5834 -0.0812689
-16.9365 -9.78873 -1.09391
-16.1034 -13.2213 -2.36819
-14.2756 -11.7319 -4.8584
-14.7739 -11.4607 -0.168439
-13.9528 -10.2694 -3.34538
-20.1151 -9.50117 -3.14138
-15.4211 -11.1599 -2.72979
-16.2725 -13.1921 -2.41166
-16.8988 -11.277 -4.18862
-16.9468 -11.7693 -0.616668
-16.027 -10.5414 -0.226463
-15.4934 -12.3724 -2.43396
-16.3515 -10.8196 0.868114
-16.0444 -13.5718 -1.70682
-15.0831 -12.2462 -1.32287
-15.3668 -11.7604 -3.85162
-14.4131 -12.6851 -4.00135
-24.0058 -8.54767 -4.69105
-17.7185 -10.1384 -1.67128
-18.811 -11.8658 0.737222
-17.8373 -11.9547 0.487532
-15.664 -10.7715 -3.82297
-16.6444 -11.6982 -2.21032
-14.0992 -11.3399 -1.42655
-16.3331 -12.2152 -2.56095
-15.5285 -10.6991 0.513005
-15.108 -13.5312 -1.07844
-18.1854 -10.4438 -1.01673
-16.7954 -8.28747 -1.195
-17.2089 -8.9814 -3.05787
-16.9857 -11.0316 -0.465378
-16.1684 -11.8389 -2.69594
-16.8042 -11.0555 -0.0718234
-19.2116 -12.5457 -2.55561
-16.5942 -9.44441 -3.00059
-17.0804 -10.9062 -0.72874
-14.5161 -10.1171 -1.46205
-14.8705 -10.8808 -1.49216
-15.6284 -10.4007 -1.71107
-15.2311 -11.6708 -2.1906
-22.1338 -10.1318 -0.0942768
-22.3239 -10.7494 0.35049
-23.2645 -9.59285 -0.219148
-22.3635 -11.0202 1.0818
-17.5751 -11.0053 -2.29564
-17.1017 -9.86216 0.317566
-17.6695 -9.98681 0.0616098
-15.561 -11.3062 -1.5808
-15.0704 -9.71926 0.618774
-16.4947 -11.1492 -1.49702
-16.5006 -10.9235 -0.933413
-16.9213 -11.3681 -0.152977
-16.4578 -10.46 0.46924
-16.3689 -10.1159 -0.637413
-15.3694 -11.6023 -1.25495
-14.3183 -12.9874 -4.00758
-15.4381 -12.9177 -5.41252
-24.2464 -8.19729 -4.57712
-23.0853 -9.47477 -4.50024
-21.2593 -9.19803 -0.566618
-21.6357 -8.51728 2.24141
-21.1262 -9.74174 -1.38679
-15.8105 -10.329 0.451138
-16.1785 -12.8645 -1.03172
-15.0422 -12.3181 -0.965771
-15.7734 -12.6581 -3.5135
-15.5047 -11.4408 -5.5147
-16.3397 -11.2926 -2.43638
-15.2032 -12.0052 -1.65217
-16.3172 -9.1282 -1.7094
-16.3139 -12.0476 -0.972054
-16.758 -11.7278 -1.15779
-15.8609 -12.9554 -3.32
-18.8626 -11.0371 -2.27735
-15.6813 -11.7435 -0.588334
-15.6687 -12.2793 -2.85674
-18.9906 -10.294 -1.25357
-15.2742 -10.4378 -2.43919
-14.6486 -8.98425 -0.852839
-14.8939 -12.8744 -2.06429
-17.3748 -10.7067 -1.98917
-16.0099 -11.9351 -2.86299
-15.2527 -9.97243 -0.992061
-17.3096 -11.1012 -2.03412
-23.5645 -9.01385 -1.41626
-21.0162 -9.48693 -1.45671
-21.0053 -9.99011 -4.95458
-20.6676 -10.7406 -0.559963
-19.1779 -10.188 0.314481
-18.0072 -10.2115 -0.89002
-15.6673 -12.4519 -1.92039
-17.3225 -11.7521 -0.466489
-16.7606 -12.2225 -1.78865
-15.0716 -12.6501 -0.236673
-15.7926 -10.1712 0.0806831
-14.8595 -11.7474 -1.5682
-15.8048 -11.7975 -2.9443
-20.8703 -8.80575 -3.09122
-17.9576 -11.262 0.399105
-16.0802 -10.3783 -1.45527
-13.5703 -11.2982 -3.01651
-16.8164 -9.25416 -2.04349
-22.2034 -9.66915 -4.75133
-17.154 -12.4271 -2.96656
-16.8048 -11.0679 1.53843
-16.0394 -10.8036 -2.43924
-16.6337 -11.5407 -0.986853
-18.2328 -11.0145 -1.16389
-14.825 -10.9529 -1.75724
-15.0891 -11.7347 -0.0917107
-15.3401 -11.4057 -3.01536
-15.7196 -12.7716 -3.61842
-18.6217 -9.79917 -0.254536
-16.9107 -12.1243 -0.525194
-13.5844 -11.8065 -1.30859
-17.8221 -12.134 -2.25259
-19.9399 -10.3451 0.76902
-15.261 -10.9124 -0.883171
-16.882 -11.1161 -1.02273
-15.7105 -10.597 -3.26439
-16.8822 -12.1492 -4.87779
-14.2124 -13.2791 -3.26214
-21.638 -10.1768 -2.77437
-14.6738 -10.3218 -3.87812
-16.875 -11.1478 -2.76604
-15.5845 -13.5155 -2.26953
-23.2719 -10.588 -3.21967
-16.5638 -11.607 -3.77216
-14.8677 -12.0217 -3.32699
-15.7367 -11.8634 -2.32112
-17.1611 -11.1872 -2.22494
-16.5725 -9.3769 -1.14808
-15.9722 -10.248 -2.05063
-16.2875 -10.1768 -2.64289
-14.2133 -11.4942 0.587445
-16.577 -12.1491 -1.68401
-16.9477 -9.62743 -0.73688
-15.4419 -12.3041 -2.49112
-17.5614 -13.0085 -4.68698
-15.4046 -12.5604 -3.69232
-15.5903 -12.1133 1.39854
-16.6625 -10.6315 -4.85734
-17.9222 -9.84184 -0.844228
-17.0939 -10.8079 -3.72926
-16.6848 -11.4734 0.118669
-16.7849 -12.3111 -0.476782
-14.8964 -10.9175 -2.49878
-17.0653 -10.5911 -0.835009
-16.5655 -11.4083 0.212204
-15.5442 -11.8606 -2.34647
-15.7199 -10.8916 -0.77779
-16.5301 -14.0889 -0.781626
-17.9499 -9.80046 -1.40536
-18.0295 -9.97268 0.205392
-15.0585 -12.6069 -2.5397
-15.0265 -11.9603 -1.30101
-13.8772 -11.6677 -1.2169
-16.9415 -10.3834 1.708
-17.3698 -9.87164 0.309125
-15.7028 -10.9279 -2.4944
-14.2471 -11.7629 -1.14385
-18.8898 -11.403 -1.41095
-17.0088 -11.4904 0.205945
-15.5132 -9.81196 -0.556328
-17.8224 -13.9427 -2.48753
-14.4346 -11.1114 -2.46342
-15.3718 -11.7795 -1.69752
-14.6299 -11.0495 -3.6916
-13.8416 -11.9166 -4.88321
-15.0911 -11.8763 -0.899625
-15.7105 -11.72 -3.78883
-17.5594 -10.4065 -3.70846
-15.2306 -10.6363 -0.624487
-16.9325 -11.8435 -0.932998
-16.5241 -12.8119 -3.33248
-15.7631 -11.0213 0.3029
-17.6529 -9.92074 -2.04907
-17.3967 -11.7515 -3.43253
-18.9512 -10.0375 -0.311896
-19.4013 -9.11948 -0.711057
-16.5588 -12.6095 -0.431741
-18.6736 -10.455 1.40772
-16.5614 -10.2924 -0.729817
-17.9708 -12.2186 -0.968246
-21.8129 -7.86628 -1.99689
-16.7573 -8.76488 -2.47532
-15.423 -12.417 -1.71798
-16.7288 -12.6726 -4.26922
-18.7226 -11.5648 -4.98168
-15.3583 -12.811 -2.76078
-16.8582 -10.8633 -0.39922
-17.0875 -10.7186 0.263176
-16.5106 -11.9651 -0.61741
-13.1155 -11.5523 -2.99585
-15.8583 -13.707 -1.6934
-16.5435 -11.4568 -2.01504
-15.7645 -12.3043 -2.83717
-13.5752 -12.803 -2.74892
-19.6371 -9.9381 -0.0835924
-15.8145 -10.427 0.400604
-13.8656 -9.98684 -0.16054
-14.2381 -8.85971 -2.16985
-17.2165 -9.33878 -1.05374
-18.9539 -10.1749 -1.86762
-17.9786 -12.1664 -2.05342
-17.5713 -10.6313 -2.15463
-15.0868 -11.5486 -4.86017
-15.3517 -11.237 1.12229
-18.6843 -10.786 1.00315
-19.4741 -12.333 -1.38472
-16.173 -11.1075 -0.223323
-16.575 -10.4711 2.68644
-17.6111 -11.781 0.124053
-17.198 -10.7954 -2.46301
-15.9859 -13.1267 -1.84238
-15.506 -12.0944 -0.729785
-22.2544 -7.29751 -2.96979
-16.277 -11.1266 -2.22154
-16.6732 -10.8661 -2.09811
-15.063 -11.646 -1.95638
-15.4998 -12.4571 -0.889947
-17.0061 -13.0662 -3.86883
-17.6942 -9.27661 -5.586
-15.4144 -12.5108 -3.14431
-17.051 -11.204 -4.1126
-15.5699 -9.47945 -1.17143
-16.6953 -11.2884 -1.85056
-14.0696 -8.53684 -1.75676
-15.5429 -11.6745 -1.29808
-15.9215 -11.3047 -0.177513
-17.5828 -11.8933 -1.02821
-16.5745 -11.8539 -2.0933
-17.8128 -10.8998 -1.65417
-15.9266 -12.047 -1.79818
-16.249 -11.6797 -1.81694
-14.9683 -11.756 -2.59636
-15.1189 -12.2407 -2.29752
-14.3258 -12.5454 -4.12938
-17.0855 -11.3678 -2.79416
-16.4192 -11.7022 -2.90945
-17.4481 -11.6558 -5.53491
-16.0184 -11.1276 -3.32447
-15.4818 -11.3525 -4.32008
-17.6002 -9.18927 0.0961945
-17.7875 -12.3424 -1.76155
-15.3491 -11.0143 -0.442294
-18.9189 -12.4158 0.315167
-16.2767 -11.7918 1.17837
-15.4379 -11.7251 0.174597
-14.9357 -11.3014 0.0539803
-16.7439 -11.1255 -0.737208
-15.0788 -12.7254 -1.54787
-15.9112 -10.9279 -4.18105
-16.3283 -11.5856 -3.19006
-14.7546 -12.1155 -3.44631
-16.4243 -11.0351 -0.191902
-15.843 -11.3756 2.10323
-16.9298 -9.30169 1.67891
-18.3407 -12.3839 -0.107678
-16.5572 -11.5592 -0.233706
-17.0704 -12.2889 -2.61461
-20.3687 -9.88724 -3.40884
-15.0182 -11.4143 -3.86111
-15.871 -9.65784 -0.93155
-16.721 -11.87 -2.8162
-14.4483 -10.8358 -4.59514
-14.8359 -11.0724 -5.52518
-14.7664 -11.0203 1.33827
-17.5779 -10.965 -1.7795
-15.6377 -9.91059 -1.48093
-15.2811 -12.4192 -0.950452
-23.6479 -8.07323 -5.67634
-16.8735 -9.02019 -2.83894
-16.4026 -10.8454 -0.83563
-15.6097 -10.0247 -0.0551005
-16.119 -9.63737 0.662079
-16.4235 -13.5058 1.28764
-17.3662 -12.064 -0.296269
-15.9603 -12.9836 -0.286312
-14.9829 -12.04 -1.9579
-17.1514 -9.76962 1.60786
-17.4277 -10.2974 -0.289299
-20.9955 -9.2314 1.33328
-23.3871 -8.54326 1.74007
-20.677 -9.37719 2.60031
-22.5065 -10.6965 1.97349
-19.7462 -9.62364 0.757274
-19.1658 -9.05599 -0.0552137
-18.48 -9.10518 0.0694641
-21.4719 -10.4389 -0.830784
-17.1403 -11.6262 -0.330155
-16.5974 -9.93413 -0.254445
-16.9027 -10.3314 -0.930947
-16.3002 -13.1029 -0.268861
-16.1823 -11.2995 -0.117347
-16.8999 -10.6772 -0.0317924
-16.9405 -11.9777 0.789724
-16.91 -10.4019 -1.45824
-13.9252 -12.0283 -1.04527
-18.7127 -14.0794 -1.45937
-19.9139 -9.44663 -2.17141
-17.4238 -9.1929 -1.59135
-12.9214 -12.1515 -2.93139
-15.8204 -9.17166 -0.97348
-15.036 -9.87428 -3.35176
-16.7465 -10.817 -2.78572
-14.8801 -9.92276 -3.95513
-14.6707 -12.0626 -1.60692
-17.0141 -12.5156 -3.06931
-23.6798 -8.30427 -5.13822
-15.9242 -11.4068 -4.36504
-19.6796 -10.3901 -3.90587
-17.9628 -10.8921 -4.18418
-17.8185 -10.5913 -3.99403
-16.8814 -10.694 -4.12322
-15.5177 -9.30087 -2.17075
-15.1778 -12.1069 -1.12679
-14.7021 -10.1978 -1.07374
-15.3821 -11.8788 -1.96466
-16.13 -11.2466 -3.04118
-19.277 -8.46359 0.884146
-17.199 -9.20584 -0.0519016
-15.6176 -9.77042 -1.47548
-17.5303 -11.0615 -0.421643
-19.113 -9.29034 1.27704
-20.8397 -10.1668 0.753835
-18.7072 -11.3207 0.0443343
-16.8643 -12.6809 1.66102
-15.7363 -9.19211 0.125382
-17.1014 -10.4252 -0.0589719
-18.9418 -10.0162 -0.0423005
-15.4319 -12.1638 -0.785093
-16.6117 -11.5315 -2.51335
-16.007 -10.7166 -0.703645
-18.2716 -10.3114 -2.13781
-18.4633 -12.974 -1.99389
-16.996 -10.3488 -3.0017
-15.2672 -10.8274 -1.34054
-16.5462 -11.302 -3.87148
-17.7579 -12.3701 -2.79982
-15.0132 -13.5788 -3.61138
-16.573 -11.5786 -2.59109
-16.2642 -10.3577 -5.2266
-17.1293 -12.2543 -4.27683
-17.1391 -12.3452 -4.727
-17.5127 -10.5478 -3.59091
-15.4686 -11.6018 -4.39241
-17.7183 -11.7843 -2.48933
-16.8095 -10.1534 3.30285
-19.7723 -8.77259 1.01966
-16.4351 -9.56183 0.583801
-18.5935 -10.9421 -0.732775
-18.3814 -12.9932 1.00189
-18.743 -9.33541 0.272712
-18.7849 -10.9287 2.01756
-20.7057 -10.3188 0.802547
-17.3499 -13.1034 0.0589876
-15.8493 -12.0582 1.89643
-16.484 -11.0653 -0.381388
-16.743 -11.8583 1.03843
-16.0464 -9.89158 -1.40279
-15.6101 -10.9652 -2.97225
-15.4441 -12.2826 -2.86815
-17.4093 -11.6096 -2.69411
-16.9965 -10.4272 -1.94053
-14.1124 -11.2683 -2.1347
-15.9161 -9.73266 -1.17897
-14.7936 -12.2182 -2.1586
-17.031 -10.9518 -2.26603
-16.7816 -11.6068 -1.82435
-14.805 -12.1593 -1.15734
-16.1458 -9.80692 -3.16112
-16.0107 -8.6929 -3.75278
-14.5507 -13.2097 -2.39645
-17.104 -13.7141 -6.22515
-15.9657 -12.227 -2.75867
-15.1242 -11.8951 -0.100277
-17.426 -11.3819 -1.38628
-15.6352 -11.3545 -0.39102
-19.0049 -11.2069 -0.835341
-17.4221 -11.427 -0.0320998
-15.9825 -11.9672 -3.01384
-16.7208 -10.2141 -2.53475
-17.1213 -11.2628 -1.20365
-17.8385 -12.1122 -3.30733
-16.0864 -10.4293 -2.14246
-16.1198 -8.50143 -2.34207
-15.8319 -10.9886 -3.63611
-15.1213 -9.97787 -3.10628
-16.2865 -12.041 -1.66545
-21.3024 -9.84636 -4.35791
-17.1288 -10.538 -2.82363
-13.8128 -12.9408 -3.72802
-15.7022 -11.8365 -2.72746
-16.3397 -10.2111 1.21366
-17.7765 -11.4656 0.193255
-19.5123 -10.5737 -1.5253
-15.9493 -10.0967 -0.290963
-17.2595 -10.2473 0.218286
-18.6799 -8.35827 -0.782775
-17.7391 -9.49038 -1.95057
-15.4823 -9.58971 0.142748
-17.2644 -12.4664 -3.39453
-15.5144 -11.9379 0.601814
-17.6847 -11.4505 -2.53057
-14.9367 -10.7679 -0.384336
-15.5436 -11.1038 -2.93602
-15.2191 -12.8192 -2.82957
-15.42 -11.9001 -2.83362
-16.1991 -9.90664 -2.99643
-16.8686 -10.0032 -4.68129
-15.1788 -12.0121 -2.53092
-16.4807 -10.4278 -1.06668
-16.8086 -10.0787 -2.26269
-16.3028 -12.0064 -3.00479
-15.1561 -11.514 -0.89832
-14.196 -10.1371 -4.46026
-17.3829 -11.2458 -0.606745
-16.4136 -9.29388 0.437239
-16.3972 -9.41534 0.356819
-17.867 -9.89058 1.00911
-16.0799 -12.3986 -0.10873
-16.2242 -12.1592 -2.24694
-15.4771 -12.2661 -3.08808
-16.6524 -10.9641 -1.60544
-15.2645 -11.0926 -3.92035
-16.4246 -11.4319 -1.66574
-15.3942 -12.3772 -4.49783
-14.0458 -11.0823 -0.418483
-15.3432 -10.5024 -3.53453
-15.8214 -11.4445 -2.38288
-13.1986 -12.5371 -3.2769
-16.2633 -11.5213 -3.45195
-15.4535 -11.9649 -3.06573
-14.4195 -11.6978 -4.25501
-12.8323 -11.5619 -3.12467
-15.599 -11.0051 -3.771
-18.4327 -10.7977 -4.95083
-19.3131 -11.9917 -3.37646
-16.7413 -13.0845 -2.53991
-18.2893 -11.9523 -2.90276
-19.8984 -10.8299 -5.2095
-16.9437 -12.0474 -4.50565
-16.3909 -12.1833 -3.19597
-19.4757 -11.4333 -3.77609
-16.4988 -12.4693 -2.3844
-16.6269 -11.7462 -3.38829
-20.1716 -10.3844 -3.43276
-15.636 -10.6913 -3.2966
-20.0828 -9.80448 -4.76382
-22.2447 -10.3096 -4.79241
-17.2764 -12.4025 -3.4127
-22.0647 -11.6642 -4.56867
-12.3739 -13.6973 -1.67937
-16.3471 -12.3874 -3.32336
-17.0754 -10.7906 -2.23749
-19.4115 -10.6743 -1.84147
-14.6715 -11.8883 -2.42111
-15.3279 -12.1373 -4.67573
-16.7115 -11.8823 -4.06363
-19.8107 -9.22095 -3.48384
-20.6521 -9.83751 -4.66826
-13.4109 -11.653 -4.01601
-13.1553 -12.8727 -2.66173
-12.2975 -12.573 -1.58206
-18.61 -10.0748 -3.92627
-15.0428 -11.9299 -1.93422
-16.5283 -13.0611 -1.83768
-16.0973 -14.2644 -3.92878
-15.9035 -12.8425 -1.66712
-19.9524 -11.4656 -1.82134
-14.5377 -10.966 -2.92136
-19.3657 -10.9647 -4.6544
-15.1636 -11.8834 -0.790101
-21.793 -9.61821 -4.28777
-18.8001 -12.0157 -3.34256
-19.7746 -10.5053 -0.943512
-21.8758 -9.7347 -2.38031
-19.3295 -11.2341 -3.45258
-18.9201 -10.4719 -2.30005
-18.8178 -10.7378 -2.60767
-15.9811 -9.84129 -1.1356
-19.593 -11.3956 -4.5976
-14.5955 -11.01 -1.24941
-17.194 -11.2166 -4.00797
-15.628 -11.8807 -2.54133
-19.0709 -11.6968 -4.26323
-18.3939 -10.8533 -3.88826
-18.5334 -10.7521 -2.5724
-17.794 -12.1153 0.492581
-21.1879 -7.43588 -1.76566
-19.1126 -12.1981 -2.21433
-21.1097 -11.1948 -2.45686
-20.2398 -10.4928 -1.71817
-19.9816 -10.8899 -2.61337
-17.4 -10.9425 -1.83487
-18.7584 -10.4835 -0.455471
-15.0903 -10.1059 -2.14519
-16.4157 -11.7342 -2.18081
-17.7258 -10.1372 -4.84951
-18.4342 -9.57384 -1.31458
-21.3216 -10.9595 -1.8092
-18.6416 -10.5004 -0.897272
-20.3283 -11.0518 -0.947641
-19.461 -9.02594 -2.38756
-19.1517 -12.7284 -2.74343
-21.2178 -12.1782 -3.40379
-22.0719 -12.1554 -1.03475
-21.4869 -9.16881 -1.2241
-16.8618 -9.45535 0.459295
-21.1542 -10.3781 -2.73601
-17.2849 -9.65862 -2.49353
-16.8683 -11.5726 -0.598978
-17.8154 -11.1351 -0.418927
-20.0153 -10.1074 -1.24297
-19.8778 -10.7849 -1.35758
-16.5671 -11.3166 1.43587
-16.9184 -12.4484 -1.60557
-16.3558 -11.266 -2.36864
-17.4088 -11.1061 -2.32905
-19.4827 -9.78682 -1.42564
-16.732 -10.35 -2.24994
-20.7779 -9.74616 -0.234816
-17.4744 -11.1101 -0.150912
-17.8052 -11.178 -0.836304
-17.7977 -10.9065 1.20565
-16.0149 -11.5266 0.228384
-15.7217 -11.2 -0.0392007
-15.9949 -12.7677 -0.52809
-20.3397 -10.8878 -0.251386
-15.8166 -10.4048 0.248257
-19.8698 -9.77304 -1.10488
-20.5272 -11.4397 1.0023
-24.1856 -8.78847 -0.873205
-17.1575 -11.175 -0.369463
-17.8042 -11.6915 -2.36558
-20.9127 -11.4401 -0.680278
-15.7841 -10.7565 0.546347
-16.354 -12.5096 -1.05986
-15.8979 -11.6516 0.691785
-23.3827 -9.98061 -0.364562
-17.4494 -11.5961 0.962661
-19.8636 -9.8844 2.6588
-21.7584 -11.6031 -0.718712
-20.9709 -10.661 1.55582
-17.8931 -10.8347 -0.30289
-20.2457 -12.1163 -1.02035
-19.2538 -9.92632 1.16114
-18.7436 -13.2797 1.34804
-14.8528 -10.7337 -1.27221
-16.624 -10.853 -0.122963
-17.8309 -11.0876 1.3379
-17.969 -8.52646 1.63368
-17.3185 -10.5874 0.852877
-17.8331 -10.9445 1.41462
-16.2143 -10.8144 0.876121
-16.7629 -13.0204 0.419987
-21.2422 -10.077 1.63473
-18.0978 -10.4493 1.89066
-23.1248 -7.99897 1.75307
-15.9908 -9.11224 -0.666172
-17.6816 -7.68699 1.81428
-17.9353 -7.75045 1.93177
-15.9537 -9.03112 1.6663
-16.6024 -13.2597 -3.65327
-15.4119 -12.512 -4.60971
-16.8401 -12.3021 -3.65004
-16.27 -10.6369 -6.373
-15.0598 -12.7534 -3.93588
-15.5569 -13.4252 -3.19572
-15.6026 -11.1713 -4.07581
-14.3894 -12.547 -2.7565
-16.9947 -13.6931 -6.12027
-15.1601 -12.9328 -3.11243
-16.567 -10.8551 -3.36522
-13.9597 -12.8017 -2.58772
-19.3313 -13.3454 -5.18329
-16.2683 -11.5126 -2.56226
-16.2026 -9.76172 -3.22947
-19.4267 -11.7867 -3.41511
-20.0987 -10.7866 -5.60502
-17.768 -10.5933 -3.41073
-16.4596 -10.7696 -5.21417
-19.6708 -10.3366 -4.31546
-20.1247 -9.96316 -2.5649
-20.5147 -9.95478 -3.58991
-16.9408 -10.9498 -3.01579
-15.4487 -12.0999 -3.11418
-18.1519 -10.446 -3.83139
-21.3693 -10.1115 -4.23992
-14.123 -13.5937 -2.96464
-14.912 -11.609 -3.61879
-14.335 -10.1615 -3.15645
-15.5033 -12.9823 -3.26593
-19.3816 -10.8027 -5.52593
-14.1258 -11.5732 -3.05669
-14.6209 -12.9503 -1.7063
-18.4721 -10.4558 -4.0723
-13.9729 -12.875 -3.70241
-15.0023 -12.0211 -4.1938
-14.6371 -12.0384 -4.57529
-16.2167 -12.7548 -1.39492
-14.5316 -12.5922 -2.72968
-14.567 -11.2375 -1.7342
-17.0866 -10.9697 -3.66597
-15.1284 -12.2862 -2.65577
-14.1653 -12.3613 -3.59846
-18.9715 -10.1182 -3.99174
-16.5744 -12.6514 -3.14678
-16.4661 -11.3374 -3.41851
-17.0366 -11.0853 -1.92955
-18.1772 -10.5566 -3.91654
-16.399 -11.0159 -2.11223
-19.4747 -10.2094 -1.98645
-18.5778 -10.2491 -2.93356
-21.4655 -10.133 -1.7518
-14.0628 -11.6514 -3.23879
-19.856 -10.9336 -2.62833
-15.3768 -10.3599 -1.3643
-13.2068 -11.8048 -1.86176
-16.9204 -10.3822 -2.16649
-16.3182 -10.6861 -2.3132
-15.8041 -11.1494 -2.5513
-15.1486 -9.31955 -2.09758
-16.4878 -12.8254 -0.521944
