-15.5619 -10.2419 -0.20879
-17.2314 -9.62488 -0.763093
-14.981 -11.4454 -0.242528
-19.8162 -10.1265 -0.303076
-14.7805 -12.4665 -0.703482
-17.6351 -12.9122 -0.0122394
-19.3907 -11.0736 -1.31146
-20.8337 -11.6941 -2.54408
-18.0364 -12.725 -1.33796
-17.8651 -11.5114 0.384469
-18.8375 -12.824 -1.31612
-17.5551 -9.49282 -0.791711
-17.4021 -11.4024 0.0216008
-20.6996 -10.3163 -2.3001
-16.9081 -10.1626 -2.46461
-17.619 -10.7824 -0.0414983
-21.4774 -11.8839 0.0182649
-14.824 -10.1186 -0.645889
-15.0359 -10.0664 -0.815957
-16.7535 -9.57958 0.781959
-17.2742 -9.91815 -0.428875
-18.1454 -10.0307 -1.17792
-18.9205 -12.6798 1.48436
-19.6677 -9.73396 0.384316
-19.7529 -11.1251 1.21442
-18.411 -11.2169 0.223789
-21.6 -10.6653 -0.300271
-20.0827 -8.7539 0.145921
-20.2174 -9.49222 -2.28489
-20.6442 -8.26226 -0.85979
-17.186 -10.0503 2.31925
-16.7124 -9.21735 1.40374
-16.7209 -10.856 0.68215
-18.4405 -11.5443 1.4487
-18.1478 -9.44031 -0.979957
-14.9522 -11.6148 0.466979
-22.0991 -9.74263 -0.369629
-16.0585 -9.22623 2.02373
-17.7468 -9.38888 -0.670551
-19.1994 -10.6703 0.781794
-18.6439 -11.0201 0.825472
-15.559 -12.8602 1.26106
-17.871 -10.0909 2.04202
-15.4879 -10.7935 1.80206
-20.2242 -8.83983 1.01599
-19.8176 -9.685 1.90906
-20.0432 -9.62391 2.08643
-18.5682 -11.5487 0.237398
-20.9492 -8.93175 2.78963
-22.0643 -8.95989 1.28879
-17.4051 -7.56198 1.20656
-17.042 -9.4681 2.30113
-16.7895 -9.5049 -4.39199
-14.9755 -13.4509 -2.67448
-14.7796 -11.3627 -1.1998
-13.5059 -12.2996 -2.41341
-16.4183 -10.6063 -5.18168
-13.4178 -12.0612 -2.69763
-14.6588 -10.2079 -4.08306
-14.7086 -14.1522 -2.91485
-16.9112 -13.2364 -4.32362
-15.3843 -13.9771 -3.1696
-12.342 -12.7135 -2.95624
-14.8165 -14.0124 -1.26708
-18.8988 -11.4229 -2.99766
-19.2809 -11.5549 -2.00466
-14.2592 -13.4625 -2.37005
-16.0756 -12.2794 -1.52136
-13.4924 -11.2318 -2.80518
-19.1083 -10.089 -0.811602
-19.5255 -10.6934 -2.65431
-21.032 -11.7485 -2.76848
-19.2352 -10.2091 -2.54138
-19.9486 -9.23037 -5.13966
-21.3276 -11.1393 -0.989242
-13.9754 -10.4569 -2.60377
-17.3846 -10.5717 -3.05239
-20.0565 -10.5761 -5.03453
-16.727 -10.0851 -2.69075
-16.6612 -11.2221 -2.02477
-19.8487 -11.0754 -3.41369
-19.1689 -9.36538 -3.51484
-18.8989 -9.56808 -2.36144
-19.544 -10.8213 -2.40422
-17.1672 -9.95439 -0.723969
-20.7631 -9.96207 -1.59743
-18.2262 -10.3536 -0.418024
-18.2947 -11.4123 -1.88643
-19.6584 -10.4381 -2.59184
-21.3119 -10.07 -2.59316
-19.5585 -10.31 -1.68657
-15.0712 -9.88058 -3.16341
-19.3471 -12.5555 -1.90056
-15.8983 -11.4113 -1.28241
-17.196 -12.3004 -0.225615
-17.5837 -10.7375 -3.6401
-17.4676 -10.2504 -1.06559
-20.5605 -10.2478 -0.572634
-21.5876 -10.1455 0.720014
-17.5184 -12.7871 -1.67487
-16.1438 -10.0039 -0.947303
-16.2948 -12.0005 0.361991
-17.7501 -12.035 -1.07224
-17.2879 -12.2679 -0.825182
-22.2296 -9.84054 -2.41114
-20.0486 -9.53231 -0.843807
-17.1441 -11.1098 -0.145404
-20.4855 -10.3414 -0.392347
-21.0734 -10.9977 0.324641
-20.2178 -10.3919 0.337059
-17.5003 -11.5144 -0.125769
-20.866 -9.81981 -3.45801
-19.3567 -10.5488 0.380762
-15.7624 -12.067 -1.63488
-16.2447 -11.3568 -1.031
-17.3937 -11.2985 -1.60136
-15.4674 -10.091 -0.920493
-15.6801 -10.5835 1.23044
-15.8517 -10.3659 0.0159937
-16.3517 -12.6344 -1.46427
-16.8392 -12.1944 -0.683313
-17.7335 -10.5246 -0.391593
-15.195 -12.2782 -0.223524
-15.2282 -10.7009 0.239661
-19.848 -10.3724 -0.367668
-15.3726 -11.9003 -0.580516
-18.0593 -9.72613 0.346517
-16.6103 -11.5075 1.54717
-20.1779 -11.5544 0.977275
-16.0765 -11.5202 -0.19691
-18.5396 -10.6281 -0.415461
-18.847 -10.2481 -1.27906
-17.8825 -9.13819 -0.619475
-20.9566 -10.7887 -0.995483
-19.6966 -10.6607 -1.69909
-20.094 -9.82009 0.588922
-18.8126 -9.07423 1.2177
-22.7766 -8.20299 1.6712
-20.238 -12.3619 -0.437691
-20.6462 -10.6201 0.332053
-15.6338 -12.6277 -0.579753
-16.7346 -11.8908 2.0374
-15.9833 -11.3202 0.418811
-19.2051 -10.8065 -0.2105
-15.5555 -11.2094 0.396718
-16.9362 -12.4816 -1.26554
-18.9023 -10.7059 1.88891
-18.6452 -9.92902 -0.430431
-18.9407 -11.5386 1.14723
-20.8692 -10.8536 1.18284
-20.4787 -11.1263 0.0550282
-17.601 -12.9157 1.77869
-19.7061 -10.4276 1.38303
-21.891 -11.2959 2.31684
-17.5535 -8.18787 0.623337
-15.0773 -10.5394 0.202987
-20.8448 -9.88106 1.90391
-14.5357 -10.1064 0.754983
-17.3904 -9.56236 1.65218
-14.09 -13.3143 -4.3269
-15.2844 -12.1068 -2.49326
-15.7621 -10.2395 -4.22436
-13.8953 -11.8302 -3.27409
-14.628 -13.0643 -2.1314
-15.4404 -12.0487 -3.72501
-15.5092 -12.4118 -3.24592
-15.3028 -12.0156 -3.88024
-14.0239 -13.6119 -2.21929
-13.3929 -12.3538 -2.5522
-15.2102 -10.3861 -2.67987
-14.0073 -9.94306 -2.42159
-16.5832 -12.3119 -0.530958
-15.2766 -11.7343 -2.5183
-14.3695 -12.1582 -2.01789
-20.2129 -12.0678 -2.83122
-15.7219 -12.5063 -1.50082
-16.4861 -12.046 -1.19141
-19.4513 -10.0667 -2.20123
-18.6771 -10.4475 -3.78291
-18.9709 -10.5614 -3.02015
-20.1486 -12.1169 -3.14942
-20.8168 -13.3194 -2.52919
-19.7781 -10.3099 -2.98693
-18.0927 -11.1212 -4.23557
-15.7474 -11.4948 -3.26919
-18.6151 -10.3487 -2.68598
-16.366 -12.6891 0.0412544
-17.92 -12.0502 -2.70704
-15.8602 -10.8558 -3.03061
-15.5731 -10.4716 -1.66177
-20.0424 -12.7783 -1.88691
-18.4476 -9.68891 -2.89507
-18.7674 -9.77435 -1.43481
-14.7673 -11.1714 -0.321201
-16.7549 -10.9946 -2.01537
-19.3929 -12.4638 -1.8168
-18.2651 -12.0594 -1.19233
-16.7022 -11.3235 -1.03047
-14.6354 -11.7834 -1.07081
-16.8339 -12.4831 -2.27437
-20.9941 -9.66945 0.631414
-20.2141 -9.14466 -0.269185
-17.6559 -12.101 -1.829
-17.434 -11.8525 -1.01318
-15.3961 -11.4634 -0.591528
-18.7714 -12.3526 -0.576132
-16.6185 -10.9235 0.83847
-17.1785 -11.4157 0.522532
-18.8453 -11.5573 0.84065
-19.4723 -10.7502 -0.557504
-19.3803 -10.7232 -0.407511
-15.9545 -11.282 -1.08577
-16.881 -11.2749 1.35087
-16.24 -11.1903 0.894729
-17.0395 -10.4729 -0.835252
-17.1385 -12.7077 -1.06515
-20.3191 -11.8437 -0.657551
-20.1955 -11.5519 0.275271
-17.816 -11.0513 0.304885
-16.7503 -11.6334 1.00313
-16.9773 -10.5732 0.632104
-20.8509 -10.3453 1.42171
-20.8156 -9.72435 -0.0324381
-17.2865 -10.8691 0.570918
-15.9648 -11.4535 -0.672136
-20.5043 -11.1916 0.0667961
-21.8906 -10.3099 2.31621
-15.4785 -8.56101 0.230907
-22.4761 -9.66588 2.51098
-17.8412 -8.82331 1.71255
-16.5817 -8.69734 1.19322
-14.0716 -8.77392 0.81149
-16.1619 -8.94023 -0.543349
-17.9335 -11.4446 -2.29533
-15.5102 -11.4448 -2.70996
-15.227 -10.8514 -1.23108
-15.1558 -10.382 -3.52092
-17.7156 -12.3501 -4.46974
-14.2257 -10.919 -3.71725
-15.3905 -12.15 -1.74082
-14.9499 -11.6502 -3.29007
-14.7939 -12.0468 -2.39615
-16.2343 -10.6784 -1.45803
-19.7571 -9.31278 -3.43811
-20.3781 -10.6678 -3.68843
-13.9836 -13.0757 -1.22928
-16.087 -9.63511 -2.31746
-16.2669 -10.5659 -1.80305
-16.5645 -11.9264 -1.92643
-13.7656 -10.1687 -1.71156
-16.0898 -10.5387 -0.955797
-15.8463 -10.6044 -0.853728
-18.6205 -10.9416 -4.04625
-19.7095 -10.6373 -1.6478
-15.6075 -13.1915 -2.10819
-15.4025 -11.9483 -0.602366
-17.9926 -9.63934 -2.91904
-16.4256 -10.5084 -3.84223
-17.4681 -11.0955 -2.74952
-16.2932 -12.0158 -1.23804
-17.5602 -10.3741 -1.03242
-15.0789 -12.3431 -3.90386
-16.4749 -12.1868 -2.08863
-17.547 -8.39005 -0.400119
-16.9282 -10.7016 -2.31422
-16.8157 -11.801 -0.556668
-19.3579 -9.13169 -3.35708
-19.5457 -10.3421 -2.59006
-16.7774 -10.8966 0.397569
-15.3927 -12.1112 0.0676093
-15.3802 -10.9491 -1.25653
-20.1806 -9.58718 -0.495844
-14.669 -12.3326 -1.98176
-21.6751 -10.1172 -1.43802
-17.7854 -10.4821 2.97215
-16.2093 -10.8204 -0.902062
-17.1279 -12.7642 -0.462537
-15.3266 -11.5826 -0.848189
-18.1368 -11.6097 0.482273
-15.1911 -8.63361 2.18151
-17.1277 -11.0663 0.748843
-13.898 -11.623 0.286903
-16.3248 -10.6767 0.671943
-21.1041 -9.14887 0.0589578
-17.7701 -12.0026 1.62277
-14.6285 -11.6164 -0.105197
-16.7412 -9.98375 -1.03768
-18.7111 -7.39195 -0.588956
-17.1352 -10.4509 1.04334
-18.4868 -11.4184 0.842885
-17.9825 -10.3251 0.306154
-16.1382 -8.4668 -0.142626
-21.1467 -12.3585 3.94014
-18.7192 -8.39129 3.19948
-16.1127 -12.1297 -4.52606
-16.1394 -11.3349 -1.81624
-14.0499 -11.4931 -2.49401
-16.0587 -10.9142 -2.49982
-13.7155 -11.6062 -1.89667
-14.3722 -10.6579 -2.62294
-15.0247 -13.9262 -2.43075
-15.6318 -11.0519 -1.53782
-16.4331 -11.3405 -3.07435
-14.5442 -10.4623 -3.5293
-16.5888 -11.6066 -2.91379
-17.2681 -12.2686 -0.665224
-14.177 -11.5416 -2.51088
-15.7698 -11.4155 -2.70214
-17.2682 -11.3655 -0.425166
-16.7914 -12.2228 -2.16304
-15.4197 -11.7085 -0.932675
-18.5793 -10.4746 -3.0815
-17.1075 -9.46964 -0.84461
-20.5092 -8.85658 -1.88271
-19.3884 -10.4852 -1.42688
-17.0637 -11.0071 -0.662007
-15.7349 -12.8311 -1.56873
-20.6259 -10.4548 0.176247
-15.4645 -10.9354 -0.528467
-17.0423 -12.5979 0.884427
-17.8667 -10.1364 -1.74704
-17.7707 -10.1967 0.00874446
-20.4601 -12.1899 -0.77726
-19.2478 -10.4054 2.3764
-19.5709 -9.95858 0.348673
-22.2118 -10.9207 1.09151
-19.9646 -12.3706 -0.28805
-22.0512 -11.403 0.994432
-15.6064 -9.77135 -2.23495
-15.3846 -11.9384 -3.14463
-19.2472 -12.2659 -3.12464
-20.9486 -10.505 -1.58977
-20.3068 -12.6943 -2.15634
-20.5692 -9.05884 -2.318
-14.2006 -12.747 0.0950359
-20.2205 -11.5615 -0.683524
-19.0854 -9.26424 -2.30656
-17.2251 -10.2955 0.669212
-18.5679 -9.9947 0.537077
-17.8418 -10.9558 -1.06373
-19.3186 -12.2134 -1.61849
-19.0607 -10.5553 -0.429787
-17.0439 -10.4641 -0.709006
-17.6831 -9.95782 -1.15287
-15.4335 -8.59595 -0.200929
-15.6338 -11.2201 1.37214
-16.8749 -9.76289 -1.27939
-20.8273 -8.19513 0.871004
-14.4572 -11.5224 -3.23568
-15.5125 -9.46724 -2.3808
-17.3515 -11.6507 -1.67939
-18.3239 -10.0285 -1.20286
-17.7523 -9.95716 -0.873259
-16.2213 -9.28604 -1.37924
-18.1056 -9.35352 1.38452
-18.7854 -10.4595 -1.28506
-17.5782 -12.3746 -0.0281907
-14.7951 -11.7835 -2.37451
-21.0097 -10.218 -0.632084
-20.0504 -11.5981 -2.81337
-15.2599 -13.0979 -1.70268
-18.2248 -12.9351 -1.7349
-15.9774 -11.4673 -1.33608
-16.9301 -11.827 -0.305982
-17.4826 -9.78874 -1.03803
-15.3034 -10.5481 -2.81086
-15.3813 -11.0167 -1.66757
-16.5595 -12.2028 -1.12725
-17.6439 -10.703 0.0145517
-19.6946 -9.29042 -0.886268
-16.7758 -9.52661 -0.853956
-16.5218 -11.1805 -3.77045
-16.1376 -10.9118 0.573027
-17.9598 -10.6116 -0.476882
-17.5109 -8.57952 -2.20672
-17.9769 -9.90115 -0.00573057
-22.6227 -9.46839 -3.66538
-20.417 -11.2164 -4.12722
-19.7534 -10.8319 -2.92144
-20.0875 -10.8485 -2.36616
-19.8726 -9.4119 -2.41126
-20.8331 -10.7194 -0.906515
-18.8027 -10.8064 -2.71582
-18.3775 -10.1713 -3.0305
-21.3457 -10.7684 -4.21953
-19.5043 -8.86689 -4.65438
-19.7437 -13.1862 -0.44734
-20.6201 -9.93356 -4.25916
-19.4406 -10.1269 0.0772864
-19.3197 -11.316 -4.35411
-19.3637 -11.3202 -2.97919
-19.2086 -9.49928 -2.61831
-21.6579 -10.0559 0.229591
-20.2982 -11.0963 -4.65963
-17.5061 -9.85086 -1.3648
-20.027 -12.329 -1.92753
-20.491 -10.5506 -1.14648
-19.3352 -11.4756 -2.6347
-18.9456 -11.8023 -2.03174
-20.4867 -12.4445 -0.281108
-16.9368 -12.624 -3.10846
-18.4763 -10.8428 -3.06338
-17.473 -10.6219 -3.08862
-21.8481 -11.4475 -0.721649
-18.8388 -11.1071 -0.918155
-18.838 -9.78475 -0.949966
-16.7035 -10.981 -2.33631
-21.0127 -9.2565 -1.79675
-18.8796 -10.9609 -2.17677
-16.9156 -10.1586 -2.50013
-20.5671 -9.21552 1.97429
-20.9637 -10.6974 1.76828
-19.1902 -10.8216 -1.58886
-19.015 -11.1985 -1.2764
-16.9017 -10.7732 -0.749426
-17.9582 -9.62913 -2.88164
-18.9155 -11.1647 -2.74622
-18.8795 -10.8593 1.00879
-15.082 -11.8547 -2.77714
-20.9621 -9.87477 -1.42478
-19.9986 -8.79151 -0.230715
-18.6107 -11.2824 -1.09136
-16.8204 -10.0209 -4.3511
-19.648 -9.36393 1.08181
-21.6456 -11.4054 0.554727
-20.4128 -10.145 0.439361
-16.7949 -9.26889 -0.0686965
-19.5859 -10.6459 -2.50062
-17.5856 -9.98369 -0.320401
-18.5947 -10.7004 -1.78237
-14.0084 -11.5462 -4.09429
-17.3992 -10.3297 -1.05728
-19.0022 -10.341 -0.425831
-15.5756 -11.9812 -3.87666
-17.9228 -12.179 -2.24613
-15.4863 -13.9672 -4.75081
-19.5958 -10.4222 2.46663
-15.4977 -11.8465 -2.90034
-16.8818 -9.81666 0.328939
-13.7288 -11.997 -3.31745
-15.612 -13.0509 -3.35435
-18.5012 -9.69079 -0.572275
-17.1547 -10.428 -1.28245
-16.2476 -8.70695 -0.0224243
-16.4828 -11.2993 -1.02062
-17.4355 -10.4811 -1.56187
-14.2591 -12.3944 -2.67743
-18.6681 -10.103 1.37088
-14.7992 -11.6132 -2.53271
-17.6617 -9.69167 1.50943
-14.1207 -12.9251 -3.33442
-18.975 -10.1591 -2.28545
-15.9845 -10.3275 -0.550817
-16.4624 -9.6822 -0.195192
-15.5803 -10.5585 -4.20988
-15.5146 -10.1522 -3.31855
-17.6684 -8.58275 1.40707
-15.2504 -8.2357 3.06112
-14.8971 -10.5488 -2.94757
-15.9033 -11.4088 -1.49629
-16.9384 -11.7985 -3.80543
-17.4192 -12.6112 -1.20042
-14.385 -11.8225 -2.6125
-13.0884 -13.1931 -4.06182
-16.0954 -12.7275 -2.48719
-16.1454 -10.8637 0.443391
-14.7907 -12.236 -3.38954
-15.1425 -11.7111 -3.0926
-14.4998 -11.576 -2.04571
-17.471 -11.9436 0.0702846
-14.2488 -8.59814 0.849668
-17.3315 -10.5138 0.655598
-16.2383 -10.2239 -1.11806
-17.2023 -7.44353 1.14951
-18.245 -10.6579 0.531714
-15.0351 -8.37918 0.214296
-16.657 -10.4391 -0.622201
-15.011 -12.1689 -5.66718
-17.3215 -10.4944 -1.27939
-17.3707 -10.5622 -3.28641
-14.7314 -11.3635 -1.34029
-16.4218 -11.0369 0.277977
-13.8981 -8.88373 0.588214
-17.8001 -9.71699 1.72325
-15.6112 -9.72415 0.813332
-12.9075 -11.6321 -4.02703
-14.0595 -12.4005 -1.04783
-15.8811 -11.8498 -2.66323
-16.5754 -8.30761 0.693056
-18.7222 -9.82535 0.933447
-15.3499 -12.9942 -3.61354
-15.2704 -11.7207 -1.38927
-15.839 -11.5261 0.29453
-15.4836 -10.9801 -2.00426
-16.7864 -11.5918 -0.501462
-17.9182 -11.4677 -0.696357
-14.7897 -13.1185 0.810945
-15.3463 -9.59661 1.2171
-20.023 -9.5786 -2.59341
-18.4516 -8.92324 -3.95418
-21.2676 -9.15549 -1.74815
-20.5584 -11.579 -3.32689
-20.4184 -9.64593 -5.9012
-19.2304 -11.4238 -3.76741
-20.971 -11.2089 -2.49875
-18.612 -10.8148 -5.01691
-19.2212 -9.94326 -1.92886
-18.4615 -13.0978 -3.44902
-19.8634 -11.15 -0.817213
-20.9061 -12.5176 -0.0215254
-19.0467 -9.67583 -2.56669
-22.6304 -11.3996 0.924037
-16.6067 -10.5857 -1.35992
-18.7522 -8.39269 -0.490605
-20.3634 -11.5282 -0.201069
-22.312 -9.28438 -1.01981
-17.5448 -10.7563 -0.936308
-21.3985 -10.0215 1.9422
-20.1873 -9.43696 3.52404
-15.6831 -9.62117 -1.81191
-18.8316 -10.414 -1.24905
-17.4406 -12.3316 -0.805561
-15.4901 -13.4396 -4.11529
-21.2844 -10.5537 -1.06603
-19.7382 -10.535 2.20895
-18.3018 -11.2595 -1.40909
-20.1379 -9.24342 0.173208
-17.43 -11.9141 -2.04299
-17.66 -12.3415 -1.35524
-15.973 -9.62172 0.0821235
-17.1188 -10.1918 -1.57306
-15.302 -8.98556 -0.207013
-14.5097 -11.3046 -3.621
-17.5749 -11.5851 0.521343
-18.1452 -12.1829 -0.519431
-14.8878 -11.8393 -3.94773
-15.6267 -11.7335 -2.28857
-15.4937 -11.456 -2.62774
-15.9341 -11.482 -2.50036
-15.0607 -8.38376 1.56307
-14.528 -11.9737 -3.83012
-17.071 -10.0899 -1.67186
-16.6354 -9.50179 -1.80817
-15.7352 -14.5171 -1.24935
-16.7373 -10.4859 -0.554757
-15.4458 -10.247 1.23593
-15.8433 -14.02 -0.729709
-17.7932 -10.8476 0.496017
-16.3591 -11.6501 -1.3884
-18.5035 -8.89146 0.23881
-18.455 -11.6397 -1.06142
-13.4444 -13.5013 -3.76003
-17.8384 -11.9589 0.0307205
-16.9407 -9.24675 -0.0538547
-15.8674 -11.6035 -2.43447
-15.9229 -15.2341 -2.15411
-14.2333 -12.3167 -0.55028
-14.9398 -11.4875 -0.696505
-16.4266 -10.9256 -0.145022
-13.6317 -11.347 0.155482
-16.3312 -13.7564 0.0126052
-18.0806 -11.1871 -0.76644
-17.1658 -11.6612 -0.460563
-20.518 -11.5296 -3.67918
-20.6617 -9.13613 -2.17399
-19.4568 -9.60381 -2.49055
-19.146 -10.905 -1.94261
-18.2428 -11.7212 -3.01472
-17.4281 -10.8951 -4.10392
-15.2969 -10.7882 -2.45903
-19.1726 -11.454 -0.936226
-15.0388 -11.9908 -2.8322
-21.1079 -9.01365 0.483308
-16.1957 -12.567 -2.32465
-19.9295 -11.7919 0.23831
-20.9423 -11.1731 0.554617
-19.7257 -9.75063 -0.205995
-18.932 -11.1357 1.20552
-17.6796 -10.477 -0.837346
-14.2147 -11.0783 -3.36293
-18.42 -10.8203 -0.688532
-15.8283 -12.0483 -3.48014
-14.2455 -10.696 -0.719721
-19.7164 -8.94305 -0.0895365
-18.3755 -9.83821 0.954485
-19.4828 -9.27969 -0.190478
-14.7855 -13.3205 -1.05918
-15.9963 -7.99567 1.4026
-16.7334 -10.1519 -1.97123
-15.6516 -11.9597 -0.771934
-14.6437 -10.7317 -2.26525
-16.9465 -11.9009 1.14392
-17.0712 -10.8192 0.431846
-17.0075 -12.0296 -1.03109
-15.7904 -9.94883 0.398281
-20.0479 -9.00245 -4.95154
-19.3326 -9.4465 -3.04715
-20.9267 -8.8964 -1.9002
-17.9875 -9.07674 -2.53358
-16.6218 -11.9659 -3.67247
-16.2324 -11.4908 -2.89259
-17.6019 -10.5983 -1.93317
-19.0813 -10.5683 -0.236662
-19.9795 -9.23695 -1.22449
-16.9921 -11.6073 -3.69106
-20.4442 -10.7349 1.08967
-15.5801 -11.1541 -3.46599
-16.9398 -12.0487 -0.678019
-15.6752 -10.9389 -1.18007
-16.7351 -10.8278 -1.30818
-17.0198 -11.7542 -0.160032
-16.5667 -10.2208 -1.03491
-15.482 -12.3415 -3.81005
-17.2964 -11.5476 -1.48485
-17.5934 -12.5144 -0.0276477
-17.6388 -10.5954 1.11087
-15.1678 -12.3699 -1.1642
-16.5047 -12.0135 -2.28853
-20.1308 -11.3426 -3.30393
-17.6686 -11.3203 -3.34908
-19.499 -11.1744 -2.52887
-21.5285 -10.4674 -1.06947
-15.5161 -11.7583 -4.16596
-20.5808 -11.5873 0.624398
-20.8233 -9.34442 0.112367
-22.4826 -8.96461 0.517042
-21.7042 -10.9215 -1.09039
-20.6912 -9.87225 -0.0337274
-21.8432 -10.8488 0.268968
-14.5755 -13.0375 -1.19084
-18.0903 -7.71309 0.236885
-17.6134 -12.409 -1.10004
-15.1818 -12.3097 0.847062
-16.3213 -11.8844 0.749199
-18.1549 -11.4657 2.68357
-18.65 -11.0352 -1.80573
-17.6089 -10.5419 -1.66445
-18.2243 -10.2046 -1.99983
-21.0519 -9.57362 2.46578
-17.2226 -10.2564 -2.27855
-17.0992 -11.1208 -1.72835
-18.249 -9.97211 1.47835
-14.4437 -11.6199 -0.780253
-15.3686 -10.3773 -0.693643
-14.2118 -12.1634 -0.52463
-16.1219 -11.1202 -0.795277
-20.5534 -9.90022 0.958449
-19.6807 -9.05163 0.234524
-21.3734 -8.95241 1.23233
-17.7264 -11.5034 0.341631
-18.7426 -11.1659 0.235869
-14.1114 -12.4614 -2.64881
-16.2098 -12.4301 -0.304789
-15.0965 -12.0967 -1.52108
-18.0592 -10.8589 -3.17657
-22.3767 -10.2872 0.0673828
-14.9523 -10.9323 0.131707
-17.3743 -10.5964 0.23161
-15.5961 -11.7426 -2.46559
-19.67 -9.60956 -0.574845
-18.479 -11.7184 -0.569239
-17.426 -10.2055 0.0501501
-17.7957 -9.68791 1.86276
-16.6222 -12.7647 -0.275762
-16.3057 -11.3509 -1.18088
-18.3396 -10.7577 -3.38669
-18.0833 -11.3186 -0.679113
-16.0062 -11.1287 -0.732726
-16.0744 -12.0835 -2.25532
-16.9839 -7.05868 2.41568
-22.8045 -10.438 -0.027025
-20.4134 -10.333 0.640642
-20.0163 -9.55453 3.05099
-20.0067 -9.48128 -0.255124
-22.4568 -11.033 -0.38781
-14.6227 -9.59242 1.20181
-19.6025 -10.2099 0.536509
-20.7047 -9.38024 -2.08236
-17.2835 -8.41412 1.11031
-21.7725 -10.7683 0.041607
-16.251 -9.04476 0.0453428
-18.668 -11.1983 0.353497
-16.0982 -10.2745 2.62577
-21.2785 -10.9433 -4.92441
-18.3028 -10.2656 -1.7604
-20.017 -8.16561 0.915439
-20.8679 -9.72266 -2.00237
-15.6505 -11.5684 1.64998
-19.5215 -7.95332 -0.0175377
-19.9816 -8.46463 -4.87007
-20.8833 -10.1974 -3.28878
-19.4907 -10.2561 -2.21805
-19.4135 -8.83371 -4.77198
-17.247 -11.5977 -0.932753
-20.758 -8.78986 -1.66314
-19.8739 -11.0674 -1.32293
-20.6963 -10.9003 -2.47197
-20.6901 -10.9134 -1.55487
-17.3968 -8.85697 0.359353
-17.4609 -12.0962 0.673355
-18.7794 -12.8741 -1.70947
-18.8873 -10.4767 -1.81461
-18.342 -10.8967 -2.55548
-21.2839 -9.30366 -3.9775
-18.1451 -10.0658 0.0851837
-17.606 -11.6591 -3.38436
-17.5128 -11.0475 -2.96261
-16.9658 -11.4132 -2.2559
-18.2003 -10.2156 -3.20585
-20.0491 -10.1644 -6.30442
-18.2796 -11.8956 -3.9869
-19.6861 -10.9238 -1.73796
-18.0617 -8.83299 -1.38502
-19.6485 -10.589 -1.03804
-14.7887 -10.4654 0.453396
-19.401 -10.4991 0.768843
-20.9971 -11.4844 -3.89397
-18.117 -11.604 -1.52448
-18.0465 -9.50017 0.149142
-17.8656 -10.7041 -2.05329
-16.7512 -9.77543 0.023068
-19.2913 -9.67341 -0.757951
-19.5197 -11.0761 -2.67066
-16.9997 -11.7137 -3.99029
-16.0863 -8.88336 -1.76309
-19.6323 -10.5241 -3.52562
-17.0637 -9.62955 -2.82446
-19.3813 -10.5879 -1.6985
-16.6329 -11.9072 -0.911874
-16.8512 -9.37592 -0.960543
-18.9857 -10.5506 -0.631699
-18.1578 -11.4051 -3.26122
-17.3584 -9.53345 -0.251195
-18.9967 -10.6305 -3.98411
-17.0329 -9.54519 -3.44124
-17.7549 -10.5559 -2.68848
-16.6372 -9.87073 -4.07484
-16.2976 -11.177 1.27878
-17.0191 -11.8697 -0.513187
-17.3411 -12.6571 0.582097
-16.1072 -11.0037 0.370444
-16.6407 -9.73069 0.0207242
-17.0211 -11.6317 -0.48734
-17.0893 -10.8445 -1.03226
-15.8964 -10.5825 -1.50812
-14.7348 -9.72719 0.272928
-17.2951 -9.86121 0.381246
-16.3611 -10.6869 -1.03584
-17.5378 -10.2699 0.472426
-17.3354 -10.4593 -0.135466
-14.7348 -12.3702 0.210008
-18.0569 -11.3021 -1.10438
-15.7097 -12.8188 -3.09262
-16.6933 -12.0561 -2.70221
-12.6512 -12.5102 -2.00668
-14.4213 -10.8308 -2.9438
-15.9872 -11.5536 -1.75706
-16.4627 -13.0112 -2.43793
-13.896 -11.3593 -1.86586
-13.3269 -11.2598 -4.17651
-15.9562 -12.5687 -4.57195
-15.9862 -12.258 -3.51091
-15.3492 -12.5715 -3.48026
-13.5252 -11.5602 -2.7428
-14.4386 -10.861 -2.45459
-15.4172 -12.4838 -4.43456
-14.744 -11.6484 -1.51207
-14.409 -14.3322 -2.5681
-20.7195 -8.67172 2.30079
-20.5837 -10.7727 1.63275
-21.3286 -9.78072 0.249374
-21.4249 -12.317 1.56034
-19.2064 -9.61707 2.56698
-16.8137 -9.10046 0.869965
-20.441 -9.94867 0.903096
-18.9129 -9.73464 0.421099
-17.4869 -10.2056 -1.86669
-16.2329 -8.26077 2.43017
-19.9397 -12.3679 -0.633111
-20.466 -12.2025 -2.65055
-17.8736 -9.24692 0.401774
-18.677 -10.1859 1.33001
-20.2701 -11.3428 0.424375
-20.891 -10.2206 0.50096
-19.0318 -10.1419 -0.917974
-16.0016 -9.71791 0.632661
-18.7271 -11.8462 0.143527
-16.4243 -9.74376 1.98988
-20.0576 -10.0038 -0.0267422
-18.1537 -9.7049 -0.623088
-18.3642 -9.41942 -0.406681
-19.9282 -10.4464 -2.91536
-17.4974 -11.6341 -2.55874
-20.3924 -10.091 -2.21985
-16.7379 -9.42382 1.26929
-15.8324 -10.3133 -0.0922631
-19.4315 -10.0696 -2.76671
-17.0668 -10.5803 -0.530731
-18.3533 -9.42462 -1.99494
-19.7032 -10.4209 -2.93242
-18.3448 -11.1278 -2.22555
-18.8499 -11.9771 -1.27986
-17.6797 -11.5766 0.434695
-19.1283 -10.4594 -2.65655
-19.0066 -9.33699 -4.31132
-18.1488 -10.4295 -0.0512127
-18.7454 -9.84747 -1.49945
-19.4108 -9.87554 -2.79146
-17.5598 -11.1772 -2.18925
-18.5928 -11.0884 0.422101
-16.8755 -10.5519 0.331586
-16.8582 -9.47754 -0.8598
-15.8491 -11.3433 0.172541
-16.3228 -9.42527 -0.476681
-17.8267 -12.4583 0.622262
-16.5948 -10.0474 -1.28143
-16.2412 -11.1339 0.748949
-16.8881 -10.5778 -1.49984
-16.1415 -11.1651 0.867872
-17.0495 -11.3181 -0.458115
-16.7116 -10.8465 -0.282564
-14.7389 -12.901 -0.725681
-15.0081 -10.3639 -1.24338
-16.6145 -12.5355 -3.5956
-16.5576 -10.8249 -4.2133
-17.4207 -10.6656 -1.38583
-16.526 -11.642 -1.08033
-15.669 -10.8384 -2.21136
-15.0584 -10.141 -2.06139
-16.6126 -13.1481 -1.94252
-13.7562 -10.4099 -1.43697
-15.0579 -12.6649 -1.03434
-15.995 -11.0031 -5.55561
-15.1928 -10.3982 -4.41807
-14.3666 -12.4077 -2.52638
-17.0416 -10.7957 -3.67103
-14.1367 -11.0684 -1.98299
-15.3458 -11.6237 -2.23046
-14.6969 -12.0092 -4.4334
-14.4677 -11.2673 -4.32215
-13.9877 -12.7996 -3.36412
-15.1494 -12.8482 -3.99505
-13.9294 -14.2411 -4.08376
-22.3134 -9.33268 0.881081
-20.2543 -10.0455 0.0725359
-20.1591 -11.8904 0.876026
-17.6087 -8.18307 0.733752
-19.9307 -9.85284 1.77105
-21.3536 -11.1043 -3.12671
-18.0801 -9.56726 -0.106195
-21.2382 -11.2731 0.250231
-21.6026 -10.8925 0.0233143
-18.8521 -10.7733 -0.928195
-16.6234 -11.4838 -1.89409
-18.9451 -10.6408 0.132878
-19.6356 -9.98973 -1.06223
-17.8977 -10 0.0820677
-18.9312 -9.6274 0.268753
-17.5518 -12.8644 -0.89165
-17.9265 -10.8521 -1.24317
-17.4487 -10.2471 0.396495
-16.49 -9.3589 -1.67747
-17.2985 -11.7527 -2.97268
-17.3069 -12.3373 0.316325
-15.7441 -12.9806 -1.64873
-18.0024 -10.5349 0.684316
-15.3769 -10.3717 -1.09647
-15.6233 -11.8091 -1.52553
-16.9538 -12.3842 -1.99015
-17.0714 -9.92556 -1.63505
-15.9499 -11.0691 0.490496
-16.5937 -11.7312 -0.41591
-15.4776 -11.4657 -1.27228
-15.6661 -10.4974 -0.404788
-15.2554 -11.5128 -2.5322
-16.6223 -11.5785 -0.787981
-15.4213 -11.7955 -1.66373
-14.0628 -10.0832 -3.77367
-16.706 -11.1716 -4.13093
-18.5422 -8.60959 0.539113
-20.1128 -12.7517 -1.86341
-20.9779 -10.417 -3.29298
-20.2691 -11.5722 -2.51371
-20.1058 -10.8273 -4.41286
-18.6201 -8.87307 1.43329
-19.5358 -11.5432 -2.04607
-21.8674 -10.8796 -3.25349
-19.3835 -12.5985 -2.66468
-17.2342 -12.0362 -0.886238
-19.0927 -11.2327 -2.45048
-18.2246 -10.455 -0.401539
-18.3161 -10.9083 -4.17491
-16.6005 -11.2805 -0.00932338
-18.7865 -11.5031 -3.11872
-19.0889 -10.8173 0.480556
-17.0446 -10.0552 -1.70508
-17.7106 -13.0573 -0.494121
-17.9029 -10.8573 0.444622
-18.4394 -10.8338 -1.28337
-16.8802 -11.841 -2.20283
-15.3437 -12.6173 2.43764
-15.2552 -10.8673 -2.1328
-15.8415 -10.1246 -3.88417
-14.8901 -12.113 -2.13429
-16.4345 -9.85968 -2.67012
-16.1619 -10.8037 -1.42546
-17.0892 -11.4553 -1.54024
-17.4775 -11.7534 -3.5365
-16.0126 -8.69657 -3.29345
-16.433 -10.7659 -2.65129
-14.951 -12.3149 -1.63721
-20.536 -9.01738 0.30458
-20.2697 -8.95374 2.45407
-20.6846 -7.5188 0.562964
-21.5976 -7.69417 0.0163821
-20.506 -10.778 0.279328
-19.3442 -10.4618 -0.258017
-19.0217 -12.2969 -0.524661
-17.1042 -9.76167 -0.210371
-20.2421 -9.24839 -3.64635
-19.2075 -13.0921 1.38373
-17.1116 -9.48957 -0.125621
-18.2042 -10.7013 -1.59314
-15.0964 -12.681 -1.76869
-16.2207 -11.9917 -0.643243
-15.2235 -11.3772 -3.14456
-17.2525 -11.9152 0.0631219
-15.386 -12.4287 -2.53667
-19.1052 -10.8516 0.703306
-16.0548 -9.47436 0.390914
-16.5019 -10.9446 -4.06138
-15.8704 -10.1144 -1.51169
-16.3444 -9.86427 -1.99698
-15.086 -12.975 -0.406889
-16.1042 -9.55075 -0.51638
-15.6379 -10.9304 -1.90397
-18.6442 -8.88586 0.085753
-19.8997 -9.74154 2.48021
-16.0048 -11.2212 -0.618049
-20.1005 -11.4801 1.32826
-16.8673 -9.99458 -0.158249
-19.9413 -10.5707 -3.89897
-17.4505 -10.538 -2.98571
-13.5058 -14.2976 -3.83867
-14.864 -11.8078 -2.30886
-15.3633 -10.9976 -1.97384
-16.7734 -11.211 -1.00017
-16.1007 -7.5483 1.83584
-17.4428 -11.1673 -3.68504
-17.318 -11.9769 0.460196
-17.7143 -7.52521 0.617512
-18.0673 -9.0287 1.14281
-17.3117 -8.70047 1.82899
-17.8811 -7.14817 3.26822
-18.604 -9.15485 -0.58424
-20.5019 -8.91214 2.78701
-20.195 -10.0281 1.66931
-21.52 -7.83007 0.948113
-20.9821 -10.9261 -0.439666
-18.9548 -7.25085 0.18487
-16.0657 -7.80516 0.608236
-16.1011 -8.30834 -0.103143
-21.0277 -9.90314 0.459502
-22.353 -10.4434 -0.545646
-20.2205 -9.99213 1.49149
-15.1084 -9.51145 0.882348
-20.5838 -10.6763 -1.01184
-22.0818 -9.92235 1.25978
-18.526 -9.41077 -1.07647
-17.9652 -12.2228 0.411125
-17.9814 -10.1244 0.722151
-17.945 -10.3675 0.738992
-21.0218 -12.6831 0.735257
-17.7789 -10.5119 0.840031
-20.0202 -10.4333 -1.42672
-19.9967 -9.79385 -0.650394
-16.5801 -10.3927 -0.186094
-18.3574 -10.8314 -0.296086
-22.8382 -11.1702 -0.99387
-19.0716 -8.74054 -0.858511
-16.7935 -11.6071 0.220168
-20.7779 -10.03 -1.84999
-19.5805 -10.316 -0.769429
-15.7869 -9.58941 -0.773928
-17.4074 -13.2609 -0.260287
-20.8301 -8.87912 -0.417705
-17.3997 -11.4934 -0.481238
-18.031 -9.79025 -0.374261
-18.0892 -9.71335 1.00892
-15.109 -10.6553 -0.527665
-18.3287 -11.7075 -2.02937
-20.0593 -10.9954 -0.451866
-17.9504 -10.2517 -0.739615
-15.3471 -10.6456 -0.380131
-17.8294 -11.3845 -0.839335
-19.2755 -9.89053 0.161829
-16.1526 -11.8193 -0.810401
-18.3525 -9.84887 -0.308758
-15.7074 -11.4604 -0.674099
-16.2797 -12.0343 -0.447069
-19.6196 -11.5572 -0.929972
-21.044 -9.35477 -2.364
-20.3312 -12.1104 -0.738355
-19.5042 -11.0236 -3.4573
-19.6113 -10.5303 -3.25097
-19.3398 -10.2949 -1.80652
-20.0435 -11.0476 -3.35975
-20.0383 -9.83921 -1.81879
-16.5106 -11.336 -1.8919
-16.191 -10.2974 -0.00487372
-18.255 -11.1882 -2.18119
-17.5357 -10.3963 0.326593
-17.0469 -10.0031 0.739949
-15.9991 -10.7581 0.91368
-15.1121 -13.1282 -1.10399
-17.1484 -10.3729 0.355417
-17.2968 -7.8805 -3.86578
-16.1275 -9.81571 -1.02619
-20.0803 -10.1997 -2.45513
-17.7665 -11.1825 -0.543536
-16.617 -10.7036 -0.471295
-20.5514 -10.3285 -0.686831
-17.3517 -11.5716 -2.05406
-20.697 -11.3425 -2.04132
-17.6166 -11.3854 -1.45067
-17.9285 -12.1668 -1.46485
-17.2429 -11.1777 -1.26053
-20.5877 -11.6764 -1.92183
-21.7903 -10.1056 -4.08278
-15.8349 -11.5209 -2.51741
-15.82 -11.5779 -0.535202
-20.6328 -12.7674 -1.28216
-18.8372 -12.1168 -0.708849
-20.9364 -10.6433 -3.91102
-20.7671 -10.9786 -2.75946
-15.9354 -11.7849 -0.44928
-19.5159 -11.1389 -4.269
-18.9477 -8.89447 -3.28065
-15.2717 -10.8479 -0.227157
-19.6902 -9.37131 -4.2728
-16.2709 -11.8236 -1.90902
-19.2142 -10.4901 -4.21931
-19.401 -9.64137 -2.15249
-16.2625 -10.3185 -3.11939
-17.9872 -11.1352 -4.22595
-19.6775 -10.4468 -2.93173
-19.08 -11.4097 -3.11121
-19.7433 -11.9063 -4.46625
-21.1766 -11.7441 -4.1808
-17.4657 -11.8737 -1.5747
-18.3161 -10.5024 -2.91811
-15.8829 -10.2948 -2.11747
-18.3629 -9.45182 -2.42471
-17.8785 -10.4261 -2.49979
-19.4468 -9.90606 -3.02178
-15.6514 -11.7909 -3.21627
-18.2905 -10.8381 -4.53909
-18.4056 -11.4852 -2.99893
-15.6947 -11.9661 -3.88386
-14.0051 -12.8207 -1.19188
-15.3085 -11.7532 -3.90418
-15.0013 -11.7349 -5.06461
-14.6365 -10.5767 -3.37877
-16.5953 -13.5303 -2.40734
-15.4647 -12.0264 -2.76958
-14.0664 -11.0815 -1.89647
-16.5388 -11.715 -2.30496
-12.8747 -11.5124 -4.42117
-14.5386 -10.5018 -2.94871
-16.1936 -11.8977 -3.71237
-15.9143 -8.85855 -3.4055
-16.9532 -11.4317 -3.3695
-15.2158 -13.4346 -1.96047
-13.3488 -12.0353 -3.22299
-15.6925 -12.1912 -2.70908
-15.8349 -13.1248 -3.46201
-13.492 -12.8887 -3.47372
-12.9408 -11.8821 -3.38141
-15.4 -10.3763 -3.34152
-20.5629 -9.07451 1.95803
-20.5435 -8.75239 2.03536
-21.7184 -10.207 -0.900421
-18.2803 -10.2235 3.15616
-15.5655 -10.1394 0.896094
-20.6397 -10.2222 0.812802
-19.7161 -10.1239 0.824906
-15.7949 -8.93544 0.168146
-16.0988 -9.13902 0.902896
-14.2618 -9.86229 0.255478
-19.1865 -9.6039 0.610434
-20.3824 -9.75239 -0.375224
-21.2517 -9.40631 0.15838
-20.0335 -11.1947 0.452963
-17.7755 -10.8163 -0.241404
-18.7972 -10.5379 1.46199
-18.455 -10.9349 0.81986
-16.3115 -9.9556 -0.0166044
-20.7584 -10.4643 0.293009
-20.1973 -11.779 0.194162
-16.3604 -12.0659 -1.32427
-18.0426 -10.4541 1.87699
-22.0185 -11.7359 -1.59107
-15.6247 -10.3321 0.212993
-20.8992 -10.4049 -0.246675
-17.5873 -11.1844 -0.0917994
-20.0626 -10.5787 0.341241
-15.6814 -11.9349 0.539115
-19.1597 -11.4961 -0.561008
-17.2619 -10.3044 0.715822
-15.8901 -11.4042 1.29128
-16.4933 -10.563 -0.381945
-18.8045 -9.19192 -0.358309
-19.3436 -11.7456 -0.578254
-15.045 -10.2602 -0.599799
-16.057 -11.0782 -0.0200855
-17.5332 -10.6021 0.82095
-17.893 -11.8253 0.0836686
-16.5385 -11.1602 -0.68232
-15.0051 -11.2265 0.382224
-17.2267 -10.7236 -1.60016
-16.557 -10.5832 -1.04792
-17.1556 -10.4237 -0.895528
-16.651 -11.3547 -0.477532
-15.2422 -10.5348 -0.257822
-16.975 -11.1739 0.0245068
-18.0051 -10.8567 0.672821
-17.2941 -10.3191 0.0635351
-15.0269 -12.0031 -0.578351
-17.0087 -10.8812 0.900173
-17.7305 -11.0534 -2.38079
-17.1519 -10.8052 -1.02063
-20.9734 -9.7028 -1.23954
-20.3816 -10.3048 -0.656151
-19.2426 -11.8769 -2.55107
-20.7348 -10.4356 -2.8932
-21.5927 -12.4556 -1.81158
-15.137 -10.214 -0.387422
-17.0956 -11.194 -0.484878
-16.2689 -10.8397 0.610368
-15.1301 -11.3752 -2.20511
-18.9766 -9.83283 -0.45976
-15.1444 -8.2049 -0.400051
-17.4054 -10.8058 -0.786881
-16.4446 -12.8922 -1.30155
-20.437 -11.291 -1.84215
-20.072 -11.3698 -4.42187
-18.7962 -9.17642 -4.72767
-18.1193 -10.8731 -1.25694
-17.9482 -12.1262 -2.85709
-19.3937 -10.4584 -3.19134
-14.4428 -11.4681 -3.17416
-15.601 -8.38962 -2.17984
-20.8823 -10.2275 -2.72919
-19.25 -9.65351 -2.45221
-16.0245 -11.3008 -2.06518
-18.8074 -10.5913 -1.07454
-16.2146 -10.2707 -3.70943
-18.9386 -10.6088 -4.76802
-18.3751 -11.4124 -4.61556
-16.2657 -10.7942 -2.90181
-19.4219 -10.1163 -4.56852
-16.9531 -12.4737 -2.63761
-14.8159 -12.8594 -2.80725
-13.2286 -12.6701 -1.89795
-13.6918 -13.1472 -2.34422
-13.5487 -10.4685 -2.29087
-13.8213 -11.0168 -3.68912
-16.9837 -12.7553 -2.60721
-16.9965 -13.2477 -2.89207
-14.5827 -12.478 -3.48586
-14.996 -11.431 -2.41226
-15.372 -12.188 -2.57383
-15.9037 -11.1965 -2.43521
-13.5295 -13.6847 -4.93859
-14.257 -12.0599 -3.02909
-21.1713 -9.68777 0.664966
-15.9093 -7.99446 0.464905
-16.0957 -8.95066 2.08637
-20.5413 -10.3093 -0.137025
-20.5383 -10.5424 0.509817
-21.8643 -10.0767 1.86392
-20.4877 -10.0549 0.549366
-20.104 -10.3347 0.316553
-19.7028 -11.1604 0.0775416
-17.9184 -9.63149 0.147171
-19.4151 -8.18958 0.455475
-18.8798 -10.2104 1.55943
-16.1383 -12.2495 0.518866
-19.9814 -11.1523 0.106569
-19.7921 -10.6189 -0.539897
-17.1319 -9.17478 1.05241
-15.9672 -9.41673 0.631315
-20.9334 -12.1841 0.286678
-17.6738 -11.2986 0.481348
-19.4823 -11.1962 -1.26745
-20.2204 -9.53071 -2.17863
-16.2973 -11.0209 -0.54923
-19.4931 -10.2635 -2.66132
-17.6123 -10.7499 0.143792
-17.9603 -11.1978 0.52465
-17.1375 -11.8549 -2.21359
-18.3091 -8.96233 0.216247
-20.6428 -10.0777 -2.2332
-16.7024 -10.885 0.340794
-16.0362 -10.6967 -0.54653
-20.0817 -11.1654 -3.04201
-18.7033 -10.7474 -2.13678
-16.1394 -12.2994 -0.882909
-20.2459 -11.5914 -2.86392
-18.2753 -11.774 -2.6802
-15.9371 -12.4368 0.00670939
-13.1751 -11.7035 -0.201996
-17.6878 -9.31986 -3.64498
-16.9878 -9.42299 -2.00197
-17.7754 -10.8661 0.316822
-15.7088 -10.8586 -1.93085
-19.5286 -11.9744 -2.55724
-18.9866 -10.3682 -2.12682
-19.3541 -11.1851 -2.991
-15.469 -11.2916 -1.9729
-15.8937 -10.6634 -1.16678
-17.2599 -12.3951 -5.02297
-14.7938 -12.47 -4.02335
-15.7599 -13.2656 -2.66548
-17.8744 -11.7205 -5.35068
-15.322 -11.1379 -0.965889
-18.0129 -11.1884 -3.3611
-15.93 -11.9325 -2.07115
-15.5975 -11.8041 -3.40167
-14.7612 -11.6663 -1.69154
-14.6875 -11.279 -1.79269
-16.3984 -11.9069 -1.00311
-16.8142 -12.5984 -3.86169
-15.6204 -12.4086 -4.11014
-13.4876 -11.3562 -4.03684
-15.2141 -11.8441 -3.61463
-16.8867 -12.4683 -3.73527
-14.7736 -10.9653 -3.63959
-13.492 -12.8833 -3.32397
-15.4459 -11.8569 -3.04011
-13.8181 -10.9557 -2.24278
-14.473 -11.9326 -2.04525
-20.4804 -8.56305 1.01672
-21.4236 -9.4767 1.85361
-21.387 -10.2195 1.31295
-18.0327 -11.6021 -0.912421
-21.3965 -9.91308 -2.30422
-19.5573 -10.0715 -0.497898
-20.2531 -9.8569 -0.39362
-21.1632 -10.6116 -0.44077
-16.9671 -10.4281 -0.767398
-17.5173 -11.0174 0.648216
-17.5307 -9.95795 -0.828308
-18.1632 -10.7315 -0.607365
-17.0973 -10.9659 -0.758099
-15.8762 -12.0499 -1.15244
-18.2994 -10.2824 -2.04001
-17.1263 -11.8826 -2.07137
-18.9573 -11.0907 -0.535349
-15.6685 -12.3045 -1.33831
-15.7688 -10.8073 -0.226425
-18.6111 -10.3591 -4.45553
-16.281 -11.3407 -0.595309
-18.6089 -10.293 -1.36004
-18.0286 -11.7146 -2.12788
-19.452 -9.86912 -4.10182
-17.8208 -9.89666 -1.19736
-16.1869 -11.7209 -0.98211
-16.5361 -11.0302 -2.90565
-17.1594 -10.4119 -2.1908
-17.0081 -10.164 0.0893289
-17.9313 -10.5236 -1.06151
-14.4533 -10.8249 -2.34245
-17.2962 -10.1287 -1.27199
-16.0889 -9.56275 -2.40133
-16.1062 -10.6425 -2.10378
-18.7837 -12.6217 -3.97671
-16.7196 -13.0508 -1.03015
-16.3466 -11.7939 -4.7407
-16.6782 -9.85653 -2.4099
-15.7067 -10.7755 -0.941887
-16.5144 -11.3654 -3.68011
-15.6327 -12.6386 -1.16243
-17.6795 -13.7368 -2.50607
-15.9004 -11.3251 -2.8431
-15.2843 -11.7333 -2.73508
-14.5113 -12.1629 -1.15764
-15.2889 -12.4135 -3.77933
-18.8051 -12.2146 -1.18367
-18.9057 -10.2596 -2.48663
-17.3514 -10.7734 -0.698506
-16.4366 -10.6448 0.466578
-15.2385 -11.0455 1.48704
-15.9212 -11.4275 -0.0224288
-18.6212 -9.49452 -2.16654
-17.7384 -12.1022 0.247597
-16.4521 -9.44721 1.33854
-17.764 -10.8491 -0.802791
-17.0254 -10.1278 0.0115954
-15.0209 -9.10406 -0.273172
-17.542 -12.1254 -0.991512
-20.4228 -10.4076 -1.47414
-15.3609 -11.1235 -0.628426
-15.8959 -13.443 -0.626942
-17.9344 -12.6988 -0.39459
-16.2033 -11.8603 1.66642
-15.912 -9.40345 -2.77868
-20.9152 -10.808 -3.14854
-16.6428 -9.411 0.00255851
-19.1135 -12.9569 -1.42857
-19.6044 -9.07654 -6.41188
-18.4829 -10.6615 -3.64942
-16.3956 -11.1958 -0.443905
-16.4831 -10.6926 -2.71629
-17.5183 -11.123 -3.09283
-16.1483 -11.0986 -1.54598
-13.9001 -14.0404 -4.05016
-15.6282 -11.1247 -1.80529
-16.4928 -9.95656 -3.72818
-15.7115 -12.1272 -4.31965
-12.3957 -12.4318 -3.58521
-13.8976 -12.0498 -2.35831
-21.5839 -8.90199 1.03706
-21.4638 -11.8889 -1.35774
-19.2397 -11.5366 0.255248
-18.7719 -8.54006 0.569767
-17.2603 -10.7897 -0.259884
-16.1072 -9.8271 -0.774515
-19.2579 -11.6857 -3.21338
-17.4414 -12.4048 -2.12184
-17.2271 -10.8404 -1.77889
-15.5482 -11.0565 -1.51398
-16.213 -12.1248 -0.72953
-15.4118 -10.1993 -0.913532
-15.8476 -10.7242 -1.09485
-15.344 -12.3552 -3.31976
-19.6963 -11.0996 2.09599
-17.3082 -8.85285 0.310005
-19.8827 -10.3233 -1.67368
-16.9431 -12.7909 -1.73572
-19.8483 -9.05984 -1.74627
-18.1193 -11.6941 0.678511
-16.6946 -9.90779 -0.365794
-17.6047 -10.618 -0.590118
-17.6755 -10.9053 -2.77569
-16.0672 -12.4167 -1.32302
-15.8376 -10.9381 -1.95905
-16.3395 -9.60184 -1.78402
-16.5211 -10.9931 -3.58915
-14.5166 -10.2265 -0.216151
-16.9317 -12.5385 -0.393436
-14.8168 -11.5342 -3.78832
-12.8884 -12.4591 -3.29353
-21.4474 -9.37197 3.1408
-20.4572 -10.8842 -0.675187
-17.7678 -12.1062 -1.87516
-17.3521 -13.2674 -1.07748
-16.4456 -11.1305 -1.85785
-19.4002 -10.9983 -3.62987
-18.4493 -10.9156 -0.421992
-16.1004 -12.6257 1.35519
-20.4406 -10.5545 1.36035
-15.8038 -11.4254 -1.60925
-15.9756 -11.301 -1.43435
-19.2923 -11.4082 -0.774686
-15.8779 -11.0046 -1.79235
-16.3711 -12.1133 0.891744
-17.0608 -11.0382 1.01101
-16.3373 -11.8362 -2.34283
-18.5688 -12.8856 0.0233353
-15.2036 -11.978 -4.44461
-16.8534 -12.5167 -1.30462
-15.2734 -11.5698 -1.9518
-17.1385 -10.646 -4.07744
-14.183 -13.1366 -2.36912
-13.8549 -13.8213 -4.71658
-16.666 -11.1171 -4.43278
-15.5877 -12.4585 -4.93871
-14.8444 -13.2517 -5.45594
-17.9808 -11.5862 -5.81037
-19.3227 -11.7041 -2.92732
-13.9804 -11.1821 -3.55593
-16.1311 -10.822 -2.78575
-19.4914 -13.6959 -2.66335
-14.1409 -10.4345 -1.45059
-14.6953 -11.5939 -1.94881
-14.6375 -10.2498 -2.92813
-20.1463 -8.99235 -4.41312
-19.1581 -10.6424 -3.95344
-19.7701 -10.9469 -3.43187
-17.9734 -12.0307 -3.40219
-17.3695 -10.433 -1.60594
-19.1654 -12.4777 -2.4689
-20.6171 -11.7825 -2.9058
-21.0377 -11.2226 -2.55813
-14.8615 -12.0711 -2.05669
-19.106 -8.71161 -4.70316
-21.312 -9.79851 -3.7537
-19.2618 -11.5303 -1.16291
-20.4397 -9.61302 -2.80615
-16.7964 -9.7963 -1.89731
-18.2884 -10.3704 -1.07525
-18.1348 -9.70386 -1.14713
-21.5633 -11.1691 -3.50547
-21.4144 -11.6911 -2.66623
-21.976 -10.9971 -1.3651
-18.902 -9.81747 -0.655816
-21.3427 -10.7141 -2.09927
-19.1786 -9.31496 0.959646
-20.2125 -8.93069 -2.83551
-14.9897 -10.8043 -1.41725
-21.6854 -10.8996 -2.90411
-15.8548 -10.8638 0.502451
-20.1197 -11.7769 -0.404715
-19.4026 -9.60794 -0.332432
-18.3229 -10.2592 -0.198433
-16.6809 -10.3003 0.308282
-15.9499 -9.99122 1.77792
-21.6515 -10.0215 -0.781512
-15.8392 -10.7139 -1.37593
-15.3242 -9.34509 -0.359018
-18.3216 -9.99076 -0.347101
-19.9334 -9.46252 -2.01343
-19.24 -11.0728 0.517267
-20.4054 -9.95017 0.198711
-21.253 -11.1433 0.310039
-20.3512 -9.83394 0.574831
-20.323 -10.6536 -1.69373
-19.7025 -11.0099 0.33197
-18.7904 -10.4399 0.944121
-16.4054 -9.31099 1.56398
-17.3709 -11.2496 0.18245
-19.4934 -10.0868 -0.91709
-20.4505 -9.93048 0.244908
-19.4008 -12.0514 -0.334836
-16.7632 -9.69226 1.98346
-17.638 -11.0536 0.721784
-18.2885 -10.181 0.0112108
-15.2985 -10.2142 1.08156
-17.4977 -10.6627 1.96128
-15.2054 -12.8845 -0.211151
-22.3388 -11.4209 1.08124
-13.7723 -9.23342 0.66236
-17.6042 -8.47649 2.76364
-15.7572 -8.60431 2.44388
-13.7338 -12.1042 -2.4431
-15.5843 -13.1553 -3.18687
-16.0921 -12.5124 -3.32883
-16.6541 -11.1633 -3.30354
-15.2234 -11.8077 -2.60611
-16.3875 -10.7065 -1.35971
-15.1972 -11.3332 -2.2475
-15.3975 -13.834 -2.22363
-18.8114 -11.1818 -3.64382
-17.9502 -8.09695 -3.23094
-17.4614 -11.1941 -3.06739
-17.9221 -11.1442 -2.09154
-18.2481 -11.6798 -2.59204
-20.5775 -11.4109 -1.82643
-20.4027 -10.2801 -0.453997
-19.0007 -10.1368 -1.36158
-15.7116 -9.92851 -1.68789
-15.5991 -10.7618 -2.61132
-21.4413 -10.0867 -1.77874
-18.2115 -12.0424 -0.414776
-21.4537 -10.6726 -3.0926
-18.0096 -9.83443 -1.0305
-15.5464 -11.804 -0.519016
-15.5194 -12.7953 -1.83156
-19.2004 -11.2155 -1.83744
-18.3457 -9.91531 -1.18101
-16.2749 -11.7724 -2.45053
-16.8923 -10.8443 -1.91596
-16.2307 -11.6259 0.284315
-14.693 -10.5245 -0.0605737
-18.2418 -10.1882 0.24673
-18.0165 -9.21941 -0.0183084
-16.7767 -11.4387 -0.892475
-15.1373 -11.7169 -1.12866
-17.1955 -12.0865 -1.30486
-16.5483 -10.2362 -0.277624
-17.8716 -9.36237 -0.793694
-18.7576 -9.61205 -2.83128
-18.6091 -8.62008 0.0974239
-16.5441 -10.1854 -0.532406
-19.0395 -10.4623 0.186317
-20.3067 -10.8659 0.852555
-20.5574 -10.0197 1.53293
-20.5477 -10.5417 -0.552262
-20.5319 -11.1821 0.984751
-21.2311 -11.4256 0.924482
-17.3566 -10.6936 0.726643
-14.6257 -10.4205 1.05032
-19.0178 -10.1713 0.872856
-17.4949 -10.5607 -0.970943
-22.1852 -10.9461 -1.17662
-21.4396 -10.3407 -0.143637
-18.6797 -10.4429 1.15922
-20.3311 -9.49897 0.304269
-19.7253 -10.2942 2.53697
-13.4791 -13.3234 -3.91967
-18.6183 -12.2814 -4.38267
-14.5949 -12.5131 -1.2645
-15.7045 -11.3835 -4.43347
-15.1826 -12.3938 -4.44131
-19.2933 -11.083 -4.38033
-18.895 -10.2935 -2.99656
-15.7182 -12.076 -1.10753
-19.592 -10.9524 -0.778091
-19.5948 -11.6227 -0.578702
-15.8781 -11.8675 -2.52503
-18.7843 -9.07532 -2.54483
-16.7032 -10.7396 0.518748
-15.503 -9.4239 -0.952329
-14.1224 -12.1892 -1.38814
-17.7161 -11.0427 -1.27638
-19.0483 -10.5833 -1.55671
-20.788 -10.3471 -0.109265
-18.4118 -11.1251 -0.590919
-20.8946 -9.87875 -0.86411
-16.9158 -7.82635 1.30325
-17.0449 -9.06094 2.61811
-14.3034 -9.7585 -0.252463
-15.1375 -13.2715 -3.14601
-17.5404 -9.04384 -4.30552
-18.1286 -11.0931 -2.06298
-19.5569 -11.0703 -2.36557
-17.887 -11.1789 -2.56496
-18.651 -11.4503 -1.54402
-19.725 -9.51132 -0.20121
-18.1675 -11.1084 0.983221
-16.2249 -11.6542 -0.355068
-19.8514 -11.8072 -0.354193
-17.52 -11.2796 -1.5614
-19.5135 -10.5769 -1.68422
-19.3061 -9.48786 0.536613
-20.5121 -10.7495 1.28352
-14.4984 -13.3946 -2.87159
-16.0307 -12.0124 -2.71876
-18.0746 -12.4664 -4.60494
-19.6262 -9.79542 0.642131
-19.2288 -10.816 -1.11456
-19.6772 -9.8183 0.280677
-18.8859 -8.95155 -2.42594
-18.7837 -10.009 -1.17819
-19.5216 -12.0853 -1.31506
-17.7779 -11.9728 -3.02574
-16.8535 -11.8577 0.226628
-19.3436 -10.6023 -1.30755
-18.504 -10.4504 -0.297148
-17.0232 -10.0588 -0.942272
-15.2642 -11.541 -0.761683
-15.4661 -11.6331 -4.20925
-14.4813 -9.84472 -0.784991
-17.1039 -9.9809 0.377902
-14.0561 -11.6871 -0.583331
-16.5151 -11.4689 -1.41654
-20.9628 -9.69768 -3.18365
-18.9911 -11.3718 -2.37495
-19.0865 -12.4323 -3.36747
-21.3278 -9.61662 -3.65121
-19.9907 -11.141 -3.41337
-18.247 -11.6953 -3.36741
-18.6574 -9.5344 -2.72276
-19.1437 -13.9787 -4.87017
-18.5036 -11.3159 -2.20828
-20.1249 -10.2625 -1.46492
-16.066 -12.2481 -3.69246
-19.5905 -12.5457 -0.965198
-19.915 -10.4436 -1.21055
-16.2884 -9.40167 -3.77921
-15.1223 -11.4729 -3.2979
-18.6837 -9.39023 -1.17634
-15.3576 -11.4083 -4.76112
-16.8069 -12.2711 -1.72419
-19.2304 -10.9014 -0.0378394
-18.111 -11.7575 -1.28014
-20.2267 -11.7454 -1.42588
-16.3038 -12.1741 -2.5526
-14.1164 -11.5119 -1.43356
-14.4141 -11.5955 -3.04825
-14.0879 -12.0831 -4.38584
-14.3435 -11.9655 -2.79656
-17.3187 -10.485 -2.36431
-19.3811 -9.08095 -0.430431
-21.3074 -11.1446 -0.519509
-15.3577 -12.943 -3.88818
-18.6592 -10.9737 -0.630178
-17.3825 -12.1048 -1.75115
-18.918 -10.8062 0.596562
-19.7053 -9.91591 -2.04558
-14.1832 -13.6129 -1.20563
-20.2316 -10.3553 0.989878
-19.7934 -11.1182 -0.0271798
-20.3034 -12.6785 0.456918
-19.8067 -8.73348 0.104354
-15.2074 -13.0501 -1.2025
-20.9301 -10.7891 -1.68529
-19.4004 -10.5093 -0.101578
-20.7064 -10.787 -1.04529
-21.504 -11.208 1.19496
-20.6231 -10.6556 -0.553364
-20.4679 -9.72042 2.05857
-19.0285 -12.3175 -1.08042
-22.4726 -11.4302 -0.783101
-20.6767 -9.98488 1.45497
-21.8262 -10.2477 2.4004
-18.071 -9.54847 0.0336969
-17.9634 -8.15005 1.85394
-17.0545 -10.7732 0.883911
-20.0064 -10.442 0.169909
-16.7646 -8.77273 1.20535
-16.6287 -10.4152 -2.90144
-16.8545 -10.1713 -0.841236
-19.4449 -11.0826 -0.0490428
-14.9906 -12.2769 -2.4487
-16.9334 -10.6735 -0.5476
-18.6713 -8.05547 -0.0740959
-17.3422 -10.2177 -0.424218
-17.1413 -8.27677 2.27645
-17.3834 -11.236 -0.424175
-16.6576 -10.2978 -1.87886
-16.3916 -8.60644 0.544491
-17.5242 -9.05922 1.60556
-14.3532 -14.2464 -0.636814
-16.4579 -11.2007 -1.47714
-18.7317 -8.77638 -0.163908
-13.7233 -12.0931 1.15188
-16.8373 -8.82679 1.56434
-16.438 -14.2165 -0.911621
-17.9498 -10.5213 0.917956
-16.6883 -9.28897 -0.727634
-16.0848 -10.787 -0.195776
-15.5387 -10.1135 -0.478204
-15.1321 -10.1539 -1.21208
-19.2104 -9.77558 0.191238
-15.0705 -12.1488 -0.576433
-16.9225 -8.71655 1.66713
-14.261 -9.41603 1.4394
-16.1455 -11.0199 0.254132
-14.3517 -12.0461 1.84555
-22.6687 -9.38808 -2.40858
-18.2357 -11.7466 -4.21982
-19.7388 -12.2264 -5.0247
-19.4565 -10.9518 -2.86732
-19.1498 -9.451 -1.39905
-20.6729 -10.2461 -2.78184
-21.0678 -9.52766 -0.406533
-17.0441 -10.1225 -4.19432
-19.8034 -10.1564 -2.03642
-19.7233 -11.5616 -3.14382
-18.4537 -9.45578 -1.60478
-19.7181 -11.6517 -0.783237
-16.1531 -12.1887 -2.12232
-14.6871 -12.5295 -4.00535
-15.964 -13.0316 -1.0541
-16.4282 -13.7108 -1.14363
-16.8541 -8.47739 -1.14443
-18.4809 -10.584 -0.954446
-18.6729 -12.1877 0.453161
-14.0589 -12.2529 -5.28851
-17.3012 -10.6794 -2.42566
-20.6006 -9.25989 0.82024
-20.1843 -9.44289 0.531841
-21.311 -9.81885 0.33965
-15.9232 -12.2808 0.997611
-14.3224 -12.5982 -1.94178
-15.216 -11.8962 -1.96172
-16.8774 -11.2088 -1.45846
-16.5042 -10.8442 -1.4718
-16.3883 -11.3305 -0.533218
-14.7445 -11.0817 -2.08509
-21.4089 -9.77084 0.509841
-16.0158 -12.4273 -1.05086
-16.5959 -11.2389 -0.52605
-15.1233 -10.2943 -1.45348
-14.1241 -10.7013 -0.784477
-15.5123 -11.7415 1.33273
-16.5329 -9.71834 -0.874385
-15.7636 -11.5736 0.64095
-14.8417 -12.3806 -1.17651
-15.9011 -9.05328 -0.750755
-15.5704 -11.271 -0.512433
-15.9581 -12.2372 -1.4941
-15.2927 -11.5553 -1.93451
-17.9467 -13.4616 -0.6602
-17.5669 -9.85216 1.95231
-15.1148 -10.464 0.901683
-17.0954 -13.5842 2.06145
-16.9145 -11.6514 0.544038
-17.5394 -11.8212 -3.00993
-19.5537 -10.6227 -3.19802
-21.4243 -12.785 -2.19785
-23.2563 -12.3573 -0.112007
-18.1004 -11.1075 -2.87905
-16.9863 -10.9022 -2.09954
-19.1978 -11.4526 -3.48199
-17.7417 -11.6774 -3.61917
-13.5543 -11.3861 -3.36917
-16.3746 -12.1555 -2.57397
-15.9276 -12.24 -1.89381
-20.0489 -9.54594 0.528527
-20.8547 -11.4478 0.151145
-17.2947 -12.7866 -0.294834
-20.0909 -10.2796 -0.166226
-16.8407 -9.88463 -1.44736
-20.4737 -10.7752 0.633117
-17.0751 -10.1619 1.81349
-18.5232 -12.5048 -0.877207
-18.0023 -12.3956 -0.803274
-14.2879 -12.5759 -2.1706
-17.4718 -9.49653 -0.65516
-15.6814 -12.4023 0.374977
-21.5116 -8.2383 0.885175
-16.9456 -8.52443 -0.335341
-15.937 -10.7094 1.79887
-14.2931 -11.2146 2.10247
-15.7753 -11.0229 0.674682
-14.591 -11.8918 0.411202
-20.185 -11.8056 -4.01845
-18.7711 -12.0562 -2.84377
-18.0555 -10.2485 -0.265468
-15.3555 -11.2245 -3.63651
-18.1973 -8.96795 -0.444102
-15.9783 -11.3689 -2.64222
-18.9993 -11.4977 -1.40822
-15.3501 -11.7125 -3.46463
-16.0554 -12.9145 -2.13949
-15.6416 -11.0667 -3.88559
-17.3619 -12.2055 -1.74993
-18.1212 -9.73008 1.62696
-21.8676 -9.09918 2.68855
-17.8695 -11.4583 2.3457
-16.9601 -11.5204 -1.60327
-16.099 -12.9184 0.0464487
-15.2014 -10.4985 -1.3117
-16.2178 -11.2983 -1.47243
-18.2155 -12.558 -0.0760892
-15.3457 -11.8008 -1.3514
-13.2576 -12.9985 0.0732193
-17.8732 -10.4157 -2.0791
-16.4964 -10.9983 -2.1624
-20.0801 -10.4147 -0.0707388
-13.2391 -10.9603 -2.68315
-16.2688 -12.7836 -2.74744
-16.0045 -11.0219 -3.12614
-14.9199 -10.9159 -1.57548
-15.6473 -12.7002 -4.16868
-22.1723 -10.5483 0.0547512
-20.8886 -10.2126 2.01888
-15.2132 -11.2084 -0.940715
-18.4333 -10.9276 -0.524019
-14.6796 -11.7306 -1.05756
-15.6265 -12.384 -3.59241
-16.7331 -11.3227 -1.41904
-17.4292 -12.7458 -1.35848
-15.1998 -12.7034 -3.01694
-19.7228 -9.75096 1.19528
-17.5509 -9.54637 -0.99121
-16.3912 -11.4719 0.352514
-16.7435 -11.9739 -0.463577
-17.276 -11.2359 -0.481289
-15.7002 -11.0856 -0.133131
-15.0805 -8.86344 -2.60078
-18.8098 -12.4597 -0.933542
-14.7068 -11.9688 -1.30262
-16.4745 -12.1297 -0.255994
-18.4232 -12.3058 -1.19176
-21.2528 -9.80908 -2.83761
-20.6284 -9.49998 1.22017
-15.9233 -8.75476 -3.10207
-18.2186 -10.9578 -0.671677
-17.0761 -9.60211 -1.46299
-15.6604 -11.2401 -0.519175
-14.7171 -11.3186 -1.65766
-12.6424 -9.59294 -1.07109
-20.7683 -12.0222 -2.70286
-21.6673 -10.4857 -2.50874
-18.9499 -11.2539 -3.53528
-19.8688 -11.5589 -3.65283
-19.3572 -10.9264 -3.4922
-21.1239 -10.1873 -1.79558
-21.5263 -12.1149 0.525265
-19.4225 -10.8575 -2.21436
-21.1375 -9.3771 2.68245
-19.2795 -9.26949 -2.35037
-23.3379 -11.5292 0.0758792
