-12.4891 -15.1756 -0.842367
-13.9346 -13.6994 -1.49563
-14.0167 -13.547 -1.35426
-13.1453 -14.8756 -1.53956
-12.9027 -15.0051 -1.44895
-13.1309 -14.7386 -1.56113
-13.6956 -13.963 -1.90598
-14.9937 -14.2705 3.73369
-14.9376 -13.9762 2.28418
-13.5024 -14.2501 1.01196
-14.3234 -13.4619 0.410822
-14.2956 -13.3835 0.376965
-13.3187 -14.6629 -0.523407
-15.7154 -12.4607 -1.07535
-13.6308 -14.2229 -1.41964
-12.854 -14.8462 -1.22138
-12.9244 -14.9033 -1.32963
-14.8535 -14.0976 1.68564
-16.1424 -12.3566 0.974934
-13.4935 -14.372 -0.61079
-13.6424 -14.2439 -0.63286
-13.801 -13.96 -0.866945
-13.0812 -14.9387 -2.25822
-13.0743 -14.9295 -2.31193
-14.2315 -13.591 -3.95029
-14.9843 -14.1017 2.13876
-14.0691 -13.3407 -1.47312
-13.443 -14.6923 -3.08915
-13.9427 -13.8072 -4.66604
-13.4545 -14.1608 -1.15822
-13.5482 -14.1665 -1.33881
-13.4823 -14.3003 0.973849
-15.9238 -12.7284 1.46491
-13.4437 -14.5055 -0.355648
-13.4177 -14.5754 -0.525573
-13.6195 -14.3354 -0.460727
-16.126 -12.0211 -1.10595
-14.0271 -13.4994 -1.62903
-13.9543 -13.8095 -1.82314
-15.8258 -12.2054 -1.51704
-13.8072 -13.7063 -1.84074
-13.8075 -13.8402 -1.85473
-14.8938 -13.9684 2.34284
-13.3529 -14.4246 1.00844
-12.6416 -15.1664 -0.646199
-15.9067 -12.4169 -0.535034
-12.9659 -14.9069 -1.31317
-12.9074 -14.879 -1.41127
-15.7602 -12.5903 -0.976308
-13.1012 -14.6115 -1.70749
-13.0563 -14.8677 -2.08907
-13.6987 -13.5004 -2.45971
-13.4009 -14.4049 0.945905
-15.7386 -12.4612 -0.857138
-13.4712 -14.3376 -1.30018
-15.5978 -12.5923 -0.873827
-12.9203 -15.0513 -1.41314
-12.9377 -14.9637 -1.5002
-13.0424 -14.8451 -1.63432
-14.1917 -13.0919 -1.55995
-13.5968 -14.2081 0.926104
-16.3327 -12.1926 0.810553
-12.4935 -15.1481 -0.867934
-13.7462 -13.3969 -2.48723
-13.2256 -14.7142 -2.51546
-10.5057 -14.3653 0.545906
-14.0238 -14.2764 0.0562539
-13.7434 -14.0298 -1.53959
-13.5566 -14.0216 -1.79875
-13.9385 -13.7769 -1.83632
-12.8445 -14.8457 -1.12644
-12.6612 -15.047 -0.699198
-14.3832 -13.3253 0.391633
-12.3518 -15.2335 -0.944509
-13.3968 -14.6251 -0.608798
-12.9445 -14.8861 -1.17899
-12.9198 -14.9585 -1.31324
-12.9428 -14.9449 -1.38524
-12.9724 -14.8989 -1.5172
-15.7937 -12.585 0.0607403
-12.9678 -14.8632 -1.62849
-13.2051 -14.5594 -1.69168
-16.7628 -11.2747 -0.124775
-13.9215 -13.6467 -1.83249
-13.6728 -13.8705 -1.86095
-13.7002 -13.8432 -1.97536
-13.0788 -14.8502 -2.26749
-14.1002 -13.453 -2.04294
-14.1532 -13.1737 -2.21881
-13.6646 -14.5097 -3.17009
-14.3068 -12.8092 -3.00634
-13.5071 -14.1839 0.922196
-13.0162 -14.7296 -0.0163762
-13.0161 -14.7402 -0.193889
-12.5515 -15.1008 -0.597414
-13.8691 -14.3005 -0.197644
-13.2616 -14.583 -0.58865
-13.667 -14.2661 -0.565979
-14.2084 -14.0507 -0.215996
-14.1253 -14.1533 -0.33847
-13.0264 -14.6529 -1.18974
-13.837 -13.9157 -0.825519
-13.018 -14.8319 -1.36709
-13.436 -14.2909 -1.13557
-15.8409 -12.6283 -0.0793378
-14.0863 -13.5439 -1.72034
-15.0939 -12.6241 -1.39411
-13.6466 -14.2383 -2.60867
-13.7291 -13.479 -2.3938
-13.8493 -13.4493 -2.34459
-13.8144 -13.3786 -2.42555
-13.6399 -14.4316 -3.10592
-14.0585 -14.2407 0.49378
-12.4378 -15.0925 -0.964889
-13.5646 -14.3139 -0.461831
-15.8845 -12.443 0.135025
-13.171 -14.4747 -1.50647
-15.5926 -12.6188 -0.915444
-13.267 -14.7503 -2.0287
-14.2972 -13.0062 -1.53546
-14.8653 -14.4028 3.60849
-13.0424 -14.572 -1.63896
-13.1983 -14.6726 -2.49817
-13.3471 -14.4249 0.648181
-14.4265 -13.5941 0.546826
-12.6559 -15.01 -0.472706
-12.493 -15.1201 -0.733759
-12.4796 -15.1797 -0.751626
-13.4198 -14.3193 -1.76921
-13.1978 -14.8473 -2.11661
-13.5673 -14.4946 -3.32135
-14.2942 -12.9473 -3.0645
-13.568 -14.2919 -1.31109
-13.7336 -13.9893 -1.44249
-14.0247 -13.348 -1.46483
-14.0012 -13.4888 -1.83375
-13.2611 -14.6406 -2.63991
-13.251 -14.7084 -2.04214
-13.268 -14.5602 -1.20178
-13.4372 -14.49 -1.27634
-13.4408 -14.1943 -1.98657
-13.0127 -14.7418 -0.893793
-13.1976 -14.6407 -1.00999
-10.9842 -14.2649 -0.152849
-15.1555 -13.9642 2.73483
-14.8336 -14.1912 2.44931
-13.5529 -14.2972 0.888983
-12.5942 -14.9219 -0.523748
-13.9584 -14.3719 0.355573
-12.6283 -15.0558 -0.808176
-14.4224 -13.3931 0.393674
-14.3276 -14.0172 0.011988
-13.0139 -14.3868 -0.919366
-12.9201 -14.8774 -1.33061
-12.8534 -15.2937 -1.61895
-16.1708 -12.4226 1.37463
-13.858 -13.8886 -0.821445
-13.3395 -14.3503 -1.77279
-13.1181 -14.8461 -2.2356
-16.1001 -12.3246 0.456985
-16.5689 -11.7744 0.757937
-13.144 -14.8175 -2.3732
-16.0191 -12.3092 0.0275618
-14.0134 -13.54 -1.42706
-13.9266 -13.7305 -1.69941
-13.8607 -13.8292 -1.86895
-14.0304 -13.529 -1.80031
-14.3765 -12.9756 -1.5104
-14.1672 -13.0693 -1.54093
-15.6717 -12.4978 -0.835155
-13.8389 -14.1808 -3.66046
-12.6569 -14.9855 -0.213476
-13.1386 -14.5967 0.247739
-15.1025 -13.6642 1.66118
-14.8204 -13.9169 1.25665
-12.6173 -14.9752 -0.711484
-13.2819 -14.5333 -0.544946
-12.974 -14.9557 -1.10366
-12.8447 -14.7736 -1.08659
-13.0709 -14.6876 -1.42878
-13.7901 -13.9708 -0.918599
-16.3923 -12.1276 0.817635
-15.6402 -12.8315 -0.0592484
-13.2863 -14.4576 -1.94471
-15.4623 -12.9034 -0.108218
-15.9293 -12.4566 0.155166
-13.8333 -13.6704 -2.07386
-14.0578 -13.4657 -1.97496
-13.6738 -14.2235 -2.5877
-13.7057 -13.4787 -2.38791
-13.7738 -13.3447 -2.28907
-13.8682 -13.2724 -2.26989
-13.6669 -13.6263 -2.94357
-14.0661 -13.8529 -3.72988
-13.1711 -14.5236 0.405311
-12.4217 -15.182 -0.863731
-12.5291 -15.1472 -0.757195
-14.8758 -13.8862 1.48629
-12.4727 -15.078 -0.914057
-13.0701 -14.6167 -1.00713
-14.4379 -13.6961 -0.553288
-15.9305 -12.5648 0.611914
-16.483 -11.8979 0.701116
-13.2543 -14.6729 -2.5171
-13.2017 -14.3832 -2.73641
-13.6752 -13.636 -2.51517
-13.603 -14.226 0.866073
-14.9246 -13.9416 1.89482
-14.9807 -13.8185 1.57398
-12.9969 -14.7866 -1.03727
-13.2419 -14.314 -2.22057
-11.552 -13.843 0.674274
-13.6562 -14.1567 1.16523
-12.7263 -14.973 -0.755296
-15.0829 -13.8796 2.16246
-13.3316 -14.6594 -2.51554
-14.3105 -13.1407 -1.72419
-13.378 -13.919 -2.90822
-13.9833 -13.3192 -2.84045
-14.3224 -12.8568 -3.026
-14.3154 -13.6291 -0.663238
-13.2605 -14.6045 -1.27231
-13.4196 -14.4227 -1.47888
-13.4197 -14.2768 0.905735
-12.3822 -15.2748 -0.751448
-13.6839 -14.3011 -1.28136
-13.7992 -13.5779 -2.46071
-13.8429 -13.3539 -2.36591
-15.5158 -12.7904 -0.389988
-14.2045 -13.5088 -1.69861
-15.4511 -13.119 0.00781203
-13.6871 -13.9456 -1.43148
-13.1165 -14.4682 -1.03476
-13.2659 -14.5499 -0.468907
-15.1959 -13.7516 2.68141
-13.3164 -14.5612 0.188847
-14.9396 -13.9722 2.29236
-13.6216 -14.0331 1.34853
-13.2702 -14.4907 0.418036
-12.533 -15.1158 -0.980452
-12.3908 -15.2239 -1.01897
-14.8744 -14.437 3.65083
-10.9729 -14.4256 0.245047
-14.252 -13.6003 -3.9697
-14.1079 -13.861 -3.7669
-13.924 -12.9189 -2.81675
-13.3596 -14.3634 -1.75246
-13.2835 -14.4663 -1.80858
-13.1517 -14.5332 -1.00894
-12.9467 -14.799 -1.10363
-12.9685 -14.9343 -1.21612
-13.1111 -14.6507 -0.542255
-14.7547 -14.2369 2.00605
-13.6973 -14.1945 1.15302
-12.5193 -15.141 -0.462102
-13.6794 -13.965 -1.53594
-13.2278 -14.6613 -2.44384
-13.8278 -13.9886 -0.848894
-13.1149 -14.6623 -1.58704
-13.6723 -14.2785 -0.573142
-12.9347 -14.9885 -1.80981
-13.0579 -14.5352 -0.950041
-13.4199 -14.4112 0.695168
-10.9566 -14.3398 0.0675033
-13.0459 -14.3272 2.70991
-12.7594 -14.8912 -0.416108
-12.6087 -14.8144 -0.538681
-12.5487 -14.9986 -0.911302
-13.5676 -14.1299 -1.42726
-13.4256 -14.5126 -1.20472
-13.8234 -14.4296 0.902464
-13.5135 -14.6017 -1.15858
-15.8885 -12.3345 -0.613021
-15.746 -12.6232 -0.342717
-13.6193 -13.4842 -2.5462
-13.7379 -14.3013 -3.74477
-13.8394 -13.7632 -1.16388
-14.2662 -13.4176 0.353297
-13.8102 -13.9079 -0.96656
-13.2496 -14.4398 -1.85854
-14.0482 -14.0976 -0.174707
-14.8534 -14.0599 1.34595
-14.0486 -14.027 0.672298
-13.3783 -14.5824 -0.518166
-13.0378 -14.801 -1.1217
-12.895 -15.074 -1.33777
-15.1055 -14.08 2.50149
-13.6014 -14.158 1.27962
-12.3467 -15.2448 -1.11287
-13.807 -12.89 -3.06857
-14.0327 -12.9341 -2.67749
-15.3363 -12.8664 -0.96534
-16.2891 -12.3299 0.596765
-14.5221 -13.3577 -0.788434
-13.2 -14.7865 -2.15213
-14.9112 -13.8301 1.31667
-14.9644 -13.9548 1.47719
-14.0453 -14.0234 0.792073
-14.8951 -14.0751 1.97888
-12.9049 -14.7534 -1.18062
-13.3582 -14.665 -0.273394
-13.6954 -14.0737 1.41405
-12.7699 -14.9127 -0.539134
-12.6226 -15.0067 -0.87929
-14.6159 -14.6142 3.71899
-13.4383 -14.3857 3.05849
-10.4549 -14.5714 0.423303
-14.1538 -13.7658 -4.21067
-14.4015 -13.3877 -0.628178
-14.3819 -13.497 -0.517326
-15.2784 -13.4686 1.22599
-14.8401 -14.1106 1.90355
-13.1177 -14.6047 0.242013
-12.8252 -14.8076 -0.360085
-14.5533 -14.4634 3.81909
-14.5687 -14.5555 3.7928
-13.918 -13.4965 -1.83262
-14.4884 -13.4475 0.419638
-13.643 -14.2021 1.18617
-13.6435 -14.088 -1.45928
-14.1197 -14.0587 0.777075
-14.8274 -14.4556 3.64018
-13.9222 -14.2595 0.017611
-17.0666 -11.235 0.158727
-14.3782 -12.6872 -2.40065
-16.1583 -12.6326 1.64983
-14.3927 -13.4365 0.460205
-13.8829 -13.8713 -0.741084
-14.0004 -14.0049 -0.380048
-13.3462 -14.4033 0.501629
-12.9989 -14.8084 -0.0216716
-16.3224 -12.0215 0.0837
-14.5264 -12.5249 -1.57584
-16.1884 -12.2483 0.642438
-13.712 -14.3111 -3.5573
-14.2129 -14.0846 0.569191
-12.9683 -15.0163 -1.38899
-12.8091 -14.8791 0.0281827
-12.5008 -15.071 -0.852166
-16.1217 -12.1783 -1.17148
-13.8398 -12.9424 -2.88287
-14.0673 -13.6674 -4.08488
-14.0871 -14.2311 0.331172
-14.5373 -14.5139 3.71213
-10.5469 -14.432 0.565443
-13.3648 -13.9367 -3.09005
-14.9803 -13.8753 1.70417
-13.6634 -14.0423 1.15475
-14.2165 -13.7947 0.466526
-13.7654 -13.2615 -3.43817
-13.7838 -13.4561 -2.54002
-14.4213 -13.487 -3.92991
-14.3608 -13.5393 0.419976
-13.6853 -13.9424 -1.55964
-14.1334 -14.1174 -0.135764
-13.784 -14.173 -3.62407
-14.0443 -14.2472 -0.197652
-13.0969 -14.6295 0.175153
-13.0385 -14.8864 -2.34408
-12.3801 -15.2331 -0.8662
-13.3519 -14.6191 -0.267021
-11.1899 -14.0287 0.4525
-12.9301 -14.7815 -1.50969
-13.7691 -14.2026 1.25037
-13.0735 -14.8398 -1.55077
-13.9853 -13.8339 -4.61538
-13.8558 -14.0576 -0.768219
-13.6699 -14.231 -3.55441
-14.6254 -14.3974 3.77782
-13.4614 -13.9114 -2.94319
-15.0968 -13.7778 2.08969
-14.2283 -13.815 0.448729
-13.6239 -13.6496 -2.47501
-15.8392 -12.2156 -1.28523
-15.4058 -12.897 -0.182436
-14.9716 -13.7724 2.27738
-14.9016 -14.0343 2.30895
-14.9834 -14.2319 3.17857
-14.8763 -14.4076 3.60606
-13.6787 -14.1818 -0.708973
-13.3863 -14.7135 -0.339972
-13.1841 -14.7298 -1.78943
-13.1718 -14.7189 -1.47655
-12.4685 -15.1545 -0.894877
-14.231 -13.7642 -0.488982
-14.4418 -13.5238 -3.7819
-13.9002 -14.33 -0.215012
-13.6662 -14.1776 -0.745976
-12.9769 -14.6686 -1.50519
-12.8964 -15.0319 -1.25045
-14.0239 -14.5204 0.312128
-13.6422 -14.0736 -1.22663
-13.6746 -14.0584 -1.18649
-13.2616 -14.4682 -1.71532
-12.6082 -14.988 -0.614552
-14.5674 -13.1427 -0.956277
-14.1445 -13.81 -3.77989
-13.354 -13.8737 -3.07061
-14.8773 -14.3801 3.75467
-14.7018 -14.3974 3.78467
-14.2926 -13.839 -0.411357
-14.0913 -13.5702 -1.86303
-14.0302 -13.5901 -1.77115
-13.562 -14.0664 -1.42002
-14.9508 -14.3284 3.61555
-13.5217 -14.3742 -1.22607
-14.282 -13.0622 -1.56755
-14.3489 -13.6083 0.0848566
-14.7564 -14.1082 2.17096
-13.8348 -13.9184 -0.766953
-10.5066 -14.343 0.545662
-13.6152 -14.2041 -0.689804
-13.4996 -14.4804 -0.462477
-13.2597 -14.4931 -1.57179
-13.1609 -14.5948 -1.67652
-12.9362 -14.889 -1.24927
-14.9048 -14.0831 2.35656
-14.3981 -13.6011 -0.329516
-13.4308 -14.2924 1.00393
-13.4897 -14.1229 -1.12129
-12.9521 -14.9777 -2.07677
-15.0959 -13.8798 1.93199
-13.9291 -13.5673 -2.03319
-14.7713 -14.4577 3.71941
-14.8467 -14.3246 3.61942
-13.693 -14.1204 1.33946
-13.5881 -14.0494 -1.32274
-13.5376 -14.4671 -1.30168
-14.8391 -14.2335 3.66413
-14.0071 -13.6205 -1.64373
-13.7438 -13.4028 -2.24421
-14.3203 -13.6088 0.594539
-13.9206 -13.6434 -1.9172
-13.4211 -14.4802 -1.19347
-13.6297 -14.1375 -0.623894
-13.398 -13.7543 -3.09807
-12.8561 -14.9779 -1.40973
-14.9149 -14.2307 3.61767
-15.8769 -12.1723 -1.2755
-13.0988 -14.5999 -1.51644
-14.4401 -13.6208 0.195078
-14.6559 -13.0808 -1.10176
-13.646 -13.4857 -2.34065
-14.8259 -14.3031 3.63591
-13.7734 -13.4869 -2.1917
-14.112 -13.2089 -1.3889
-13.5959 -14.1036 -1.32208
-15.0532 -13.8625 2.34254
-14.8607 -13.9456 2.25681
-15.0573 -14.1359 3.33578
-15.2356 -13.3653 0.675992
-13.6075 -13.9453 -1.89708
-13.6687 -13.9699 -1.99956
-13.5157 -14.6458 -3.09838
-13.761 -14.1166 -1.00571
-13.404 -14.4478 -1.51746
-14.9542 -14.2679 3.51298
-14.9729 -14.0091 2.17812
-15.5156 -13.2971 1.25454
-16.01 -12.359 0.00628404
-13.6767 -14.3611 -0.613752
-13.7042 -14.1057 -0.746848
-13.1093 -14.4152 -1.01796
-13.5727 -14.0476 -1.35224
-13.5987 -13.7636 -2.80092
-13.555 -14.6067 -3.07088
-14.8704 -14.1286 2.38206
-13.6269 -13.9919 -1.96093
-13.6764 -13.6753 -2.85245
-13.8042 -13.311 -2.47494
-13.8877 -13.6055 -2.81355
-13.8509 -13.8152 -1.34348
-15.4518 -13.2928 1.28907
-15.8063 -12.8269 0.779937
-13.023 -14.9873 -1.34371
-13.286 -14.3932 -1.69132
-13.0947 -14.6377 -1.79537
-13.6321 -14.0462 -1.83713
-13.0747 -14.7713 -2.16309
-14.0953 -13.7477 -3.92474
-14.9826 -14.1062 2.24888
-14.9502 -14.0045 2.02356
-16.0055 -12.3114 -0.00112239
-15.6311 -12.5966 -0.864383
-13.6008 -14.2 -1.08918
-14.0922 -13.7198 -3.87823
-13.742 -13.8009 -2.97565
-13.5673 -14.144 -1.41856
-13.6506 -13.5124 -2.27996
-13.7083 -14.0237 -1.00171
-13.3184 -14.1932 -2.64956
-15.3825 -13.2094 1.32034
-15.7405 -12.6706 0.687351
-13.4691 -14.7066 -0.274762
-12.5947 -15.0717 -0.589805
-15.9585 -12.4084 -0.0308043
-12.7895 -14.8322 -1.56021
-15.8808 -12.2198 -1.55943
-14.1404 -13.7053 -3.93338
-13.5604 -14.4369 -0.410327
-12.8201 -15.0013 -1.34461
-12.9352 -14.8081 -1.37428
-14.1776 -13.0981 -1.56211
-13.8904 -13.8912 -4.18052
-12.8707 -15.1653 -1.7405
-13.5467 -14.2368 -1.26135
-13.1592 -14.6633 -2.66231
-13.2821 -14.1429 -2.71909
-13.551 -14.1165 -1.94252
-15.016 -13.9897 2.03826
-12.5095 -15.0337 -0.639069
-12.579 -15.0038 -0.608545
-13.1325 -14.6068 -1.59299
-13.8529 -13.4242 -2.39129
-14.1055 -13.8042 -3.79981
-14.5281 -14.4007 3.77912
-14.0662 -14.3419 0.41289
-15.5653 -13.0017 0.599087
-12.9228 -15.0053 -1.22438
-12.9499 -14.967 -1.30634
-13.2745 -14.8249 -2.2602
-13.7179 -13.4308 -2.45343
-12.3518 -15.1384 -1.0621
-12.9286 -15.2084 -1.87035
-14.3134 -13.0183 -1.53725
-13.1678 -14.6599 -2.1386
-12.4531 -15.1586 -0.751036
-13.546 -14.43 -1.53804
-14.1111 -13.5228 -1.71805
-12.8796 -14.6993 -1.13644
-13.5905 -13.8631 -2.77866
-13.5149 -14.1244 -1.08383
-13.6777 -13.8571 -1.71855
-13.4558 -14.1059 -1.93361
-14.865 -14.0678 2.11792
-14.8493 -14.0654 2.1714
-13.4164 -14.4379 0.768243
-14.3285 -13.4541 0.395734
-13.0798 -14.596 -0.949486
-12.9187 -14.6869 -1.03922
-12.9878 -14.7594 -1.19329
-14.3237 -13.6386 -0.578354
-15.9338 -12.5442 0.55123
-13.8097 -13.7524 -1.84936
-14.0869 -13.4074 -1.97557
-13.6167 -14.2296 -2.54363
-13.7071 -13.4041 -2.36734
-13.783 -13.4181 -2.38725
-14.4946 -14.4868 3.80426
-13.0007 -14.7536 0.346387
-12.7211 -14.9159 -0.251276
-13.3629 -14.5544 -0.321211
-14.4499 -13.4452 0.43555
-13.0112 -14.6665 -0.869271
-12.9316 -14.6338 -1.01615
-13.252 -14.6606 -2.22928
-14.3093 -12.9693 -1.26692
-13.6239 -13.5866 -2.38394
-13.6935 -13.4466 -2.51454
-13.7672 -13.3653 -2.81958
-14.5942 -14.3758 3.7125
-13.386 -14.6071 -2.48382
-13.5125 -14.2632 0.90025
-12.9869 -14.6569 -1.00432
-13.8073 -13.0187 -3.21664
-14.2464 -12.7867 -3.09969
-14.2246 -12.894 -3.22466
-15.0246 -14.1163 2.02898
-13.6067 -13.8383 -1.49875
-12.9692 -14.8268 -1.10333
-12.9449 -15.0878 -1.91538
-13.8004 -14.0228 -1.45518
-13.5518 -13.8806 -2.81117
-14.2683 -13.8062 0.49778
-12.8187 -14.923 -1.32649
-15.0451 -14.0272 2.19975
-13.8239 -13.9623 -1.80619
-13.7215 -13.7597 -0.684667
-13.0578 -14.7073 0.357811
-13.558 -14.3537 0.74341
-15.0879 -13.9109 2.09954
-13.0093 -14.4509 -0.969636
-14.0734 -14.1343 -0.226605
-14.1692 -14.0054 -0.359419
-15.5561 -12.9744 0.718969
-13.0954 -14.86 -1.88507
-13.1339 -14.6185 -1.77336
-13.1204 -14.7904 -2.29276
-15.6169 -12.7658 -0.0905251
-16.5573 -11.9831 0.737662
-15.679 -12.5243 -0.484603
-13.6003 -14.1834 -2.51022
-14.0785 -13.3941 -1.90245
-13.3502 -14.4526 0.972287
-12.8885 -14.7963 -0.125988
-12.4698 -15.1301 -0.929374
-13.351 -14.5393 -0.531727
-12.8464 -14.9967 -1.23173
-12.8608 -15.0324 -1.34289
-15.659 -12.8766 0.53545
-13.9066 -13.6216 -1.59639
-13.5016 -14.3686 -2.38875
-13.7384 -13.6141 -2.94542
-14.1658 -13.7002 -3.97359
-15.3994 -13.3389 1.7647
-13.0324 -14.9387 -1.22268
-13.1492 -14.7773 -2.22657
-14.1969 -12.9993 -1.57546
-13.7792 -13.4345 -2.73809
-14.9732 -13.9297 1.53244
-14.067 -14.2985 0.0724633
-13.3756 -14.3859 -2.18678
-14.213 -13.2286 -1.65283
-12.6296 -15.0331 -0.680398
-13.1818 -14.8277 -2.15887
-14.8634 -14.4555 3.60896
-13.4104 -14.354 -2.21794
-13.316 -14.3928 -2.64208
-13.1206 -14.3772 2.69592
-14.8683 -14.4362 3.64954
-13.5772 -14.1803 1.33121
-14.791 -14.1712 2.32603
-12.3701 -15.2198 -1.04919
-13.2681 -14.5395 0.358483
-13.6881 -14.1752 1.28115
-14.9016 -14.0868 2.15709
-14.8356 -13.923 2.24921
-14.9398 -14.1752 1.88875
-14.7966 -13.9499 1.35663
-13.348 -14.6159 -0.574246
-12.8406 -15.2397 -1.57727
-13.0085 -14.7528 -1.06371
-15.1434 -13.7208 1.19274
-13.0911 -14.3954 -0.999211
-15.0848 -13.6861 1.12632
-14.4151 -13.4639 0.428787
-14.1831 -13.2686 0.419715
-15.3704 -13.2861 1.09178
-13.3647 -14.3616 -1.77388
-13.2876 -14.4103 -1.82586
-14.3166 -13.7675 -0.537188
-13.2838 -14.4369 -1.6966
-15.6865 -12.7744 0.545639
-13.3229 -14.4492 -2.41325
-15.372 -13.0654 -0.0161027
-13.5397 -14.5042 -3.24146
-14.1025 -13.5098 -2.00794
-14.1915 -13.374 -1.92165
-13.7611 -13.6374 -2.87707
-13.8981 -13.9726 -3.79429
-14.0915 -13.7308 -3.71023
-14.171 -13.7647 -4.23038
-14.7033 -13.2182 -3.6329
-10.4925 -14.5225 0.446106
-11.2444 -14.1452 0.489438
-14.547 -14.4883 3.7957
-11.3074 -14.0686 0.731362
-14.7621 -14.4096 2.41163
-12.6045 -15.1303 -0.519448
-12.8516 -15.0592 -1.26018
-12.9647 -14.8907 -1.17307
-15.4627 -13.4133 1.87558
-13.1019 -14.8304 -2.05572
-13.3414 -14.4698 -1.75886
-15.3404 -13.3113 0.194253
-13.8893 -13.792 -1.98618
-14.2079 -13.684 -4.00238
-13.0421 -14.274 2.82317
-14.8744 -14.1558 2.19424
-12.9198 -14.9612 -1.10631
-15.1087 -13.6035 1.31885
-13.7889 -13.9016 -0.783195
-13.1863 -14.8933 -2.08815
-13.2064 -14.6165 -2.4908
-14.3797 -12.5499 -1.69316
-16.5464 -11.8561 -0.409689
-14.2733 -12.7879 -3.09452
-14.0813 -13.6651 -4.30846
-13.3907 -14.7009 0.138254
-14.931 -13.9348 1.72993
-12.9088 -14.6052 -1.0316
-13.4271 -14.4443 -1.24806
-13.5002 -14.2907 0.839416
-12.938 -14.8878 -1.30762
-13.4606 -14.3302 -1.95999
-13.3102 -14.5389 -2.37976
-14.0149 -13.7983 -3.79935
-13.4617 -14.3794 -1.50927
-13.4514 -14.2896 -2.24357
-14.0326 -13.3187 -1.41297
-14.0842 -13.6448 -1.8175
-14.3793 -12.922 -2.9422
-14.5684 -13.3785 -3.66167
-14.1277 -13.7419 -4.33018
-14.4168 -13.4836 -3.63268
-14.0473 -13.7028 -3.88833
-14.3146 -12.8056 -2.62031
-13.9506 -13.8228 -4.11371
-13.9978 -13.8052 -4.20528
-14.2896 -12.7346 -2.70917
-14.0648 -13.8515 -3.97362
-14.4874 -12.6163 -2.19939
-13.8641 -14.0101 -4.16038
-15.9342 -12.1618 -1.21182
-13.8643 -13.9457 -4.23606
-14.1203 -13.7713 -3.74247
-14.4337 -12.4947 -1.65245
-14.1374 -13.7609 -3.54211
-16.2726 -11.8682 -0.288626
-16.3592 -11.8369 -0.283083
-14.1085 -13.9438 -3.57365
-14.1525 -13.9082 -3.50854
-16.8979 -11.5079 0.692059
-13.7855 -14.1883 -3.79072
-13.9338 -14.0843 -3.78541
-13.8109 -14.1454 -3.72988
-13.9332 -14.1597 -3.7361
-13.7459 -14.1165 -3.82485
-15.7827 -12.5536 -0.943179
-16.4148 -11.8948 0.154581
-16.0289 -12.2545 -0.0690832
-16.4987 -11.8973 0.569763
-15.5841 -12.7949 -0.815281
-15.5664 -12.8767 -0.728452
-15.5203 -12.7529 -0.736086
-15.5459 -12.7195 -0.658667
-16.1987 -12.1027 0.563817
-15.9654 -12.3437 0.149174
-15.8747 -12.3719 0.0843774
-15.9382 -12.4551 0.279181
-14.6719 -12.85 -0.832983
-15.7683 -12.5444 -0.0714083
-13.5508 -14.6255 -3.41206
-13.4928 -14.5258 -3.24385
-16.2462 -12.2033 1.32317
-15.5614 -12.8366 -0.107445
-16.1295 -12.2136 0.988911
-14.6283 -13.3446 -0.930422
-16.0016 -12.5115 0.918264
-14.6189 -13.2253 -0.951915
-15.4014 -12.9242 0.0835897
-15.7364 -12.8068 0.561112
-14.5571 -13.4695 -0.833668
-14.4418 -13.5507 -0.731238
-14.4337 -13.4032 -0.756332
-16.0789 -12.5267 1.54873
-13.3367 -14.4555 -2.56269
-13.3232 -14.4548 -2.60819
-15.3745 -13.1363 0.462749
-14.4034 -13.5535 -0.647691
-14.4477 -13.6054 -0.573283
-14.4178 -13.683 -0.722359
-14.337 -13.6073 -0.723745
-14.4673 -13.5583 -0.57684
-14.4029 -13.6277 -0.602897
-13.7013 -13.95 -1.36419
-13.7377 -14.0171 -1.40726
-14.5206 -13.5784 -0.395715
-15.4817 -13.1896 0.931975
-13.5641 -14.1097 -1.20791
-14.2573 -13.7478 -0.365706
-13.5283 -14.0545 -1.29054
-13.5207 -14.3254 -1.40415
-13.9227 -13.8827 -0.72522
-15.5102 -13.2085 1.36174
-15.7179 -12.9705 1.91701
-15.5653 -13.2405 1.32471
-13.3006 -14.3886 -1.27049
-14.0882 -14.1269 -0.196264
-13.3578 -14.3246 -1.16596
-13.6933 -14.1539 -0.509098
-14.3254 -13.9786 0.130608
-14.1862 -13.9599 0.10986
-13.9568 -14.1404 0.0379356
-13.6559 -14.2814 -0.444069
-14.2933 -14.0399 0.328754
-14.2759 -13.9302 0.472454
-12.9476 -14.9317 -1.43235
-12.9852 -14.8616 -1.15676
-15.3446 -13.6281 2.19782
-14.8675 -14.0221 1.47583
-15.3113 -13.5896 2.41417
-14.6491 -14.1199 1.39041
-14.5883 -14.301 1.38871
-14.9881 -13.9316 2.03291
-14.8135 -14.0867 1.77445
-14.8283 -14.1222 1.74057
-15.2153 -13.842 2.41921
-14.8559 -14.2187 2.05428
-13.3424 -14.4869 0.473864
-13.2814 -14.4946 0.740952
-12.8736 -14.787 0.00381479
-13.0144 -14.7138 0.257697
-12.8877 -14.7593 -0.0469562
-13.3803 -14.4659 1.00595
-14.9144 -14.2671 2.5304
-14.5448 -14.4452 2.19738
-14.8827 -14.1707 3.06629
-14.8702 -14.3182 2.99573
-14.2789 -14.9025 2.55686
-14.3314 -14.8396 2.65863
-14.3974 -13.295 -3.8895
-14.0587 -13.9821 -4.55869
-14.4696 -13.4075 -3.82224
-14.6161 -13.178 -3.47402
-14.4277 -13.4181 -3.79731
-14.2353 -13.6302 -4.02073
-14.0819 -13.7594 -4.17631
-14.0203 -13.781 -4.20641
-14.0372 -13.7145 -4.02975
-14.1241 -13.6757 -3.9972
-14.2875 -13.6436 -3.79518
-14.0753 -12.7901 -2.64169
-13.9958 -13.9007 -4.12778
-14.0499 -13.7363 -4.00214
-13.9883 -13.8924 -4.1281
-14.5007 -12.67 -2.27461
-13.9566 -13.9333 -4.13482
-14.0935 -13.7934 -3.85711
-16.3307 -11.9741 -0.303822
-16.1954 -12.0695 -0.374203
-16.622 -11.6575 0.249491
-16.1653 -12.047 -0.390324
-16.5951 -11.6709 0.359682
-13.823 -14.0785 -3.81489
-15.5883 -12.5426 -1.05331
-15.8121 -12.5054 -0.775053
-15.9671 -12.4048 -0.50649
-16.0896 -12.0701 -0.161568
-16.4664 -11.9495 0.297105
-16.0893 -12.2504 -0.242703
-15.3867 -12.751 -1.15728
-15.6162 -12.5446 -0.786075
-13.7028 -13.4093 -2.46424
-16.5138 -11.9065 0.591908
-13.6865 -13.4348 -2.54237
-16.6691 -11.7962 0.95982
-15.4539 -12.8706 -0.69033
-16.4498 -12.0061 0.479941
-15.4742 -12.8528 -0.854304
-15.5529 -12.7187 -0.688069
-16.4439 -12.0354 0.623294
-15.7099 -12.6433 -0.402141
-14.1919 -13.1075 -1.42342
-14.3244 -13.1162 -1.40492
-16.3004 -12.0816 0.631836
-16.1937 -12.0785 0.676159
-14.6387 -12.8501 -0.904285
-13.7409 -14.4337 -3.3565
-16.1789 -12.2279 0.579244
-15.6974 -12.7062 0.066616
-15.6916 -12.7512 0.0574199
-15.6963 -12.6699 -0.015968
-15.6854 -12.8117 -0.0268663
-14.6364 -13.1786 -0.808672
-15.5617 -12.925 0.00105291
-15.3357 -13.1038 -0.198006
-15.4585 -12.9177 0.0730031
-13.7187 -13.9012 -1.94153
-15.2997 -13.0899 -0.198175
-15.6639 -12.9534 0.421085
-15.9931 -12.4609 1.222
-16.19 -12.3518 1.38806
-16.1028 -12.4545 1.43969
-15.2295 -13.2811 0.0219173
-15.574 -13.0116 0.670579
-13.258 -14.5647 -2.65033
-15.8374 -12.7409 1.22554
-15.9438 -12.7143 1.39505
-13.7962 -13.9736 -1.36689
-14.4134 -13.6478 -0.660255
-13.7982 -13.9233 -1.34533
-15.5221 -13.1864 0.808049
-14.4938 -13.6125 -0.21781
-15.7553 -12.9777 1.77704
-15.7118 -12.8931 1.68657
-15.7174 -13.0072 1.86501
-13.4167 -14.3824 -1.29191
-15.5446 -13.1651 1.40811
-13.0171 -14.8358 -1.96292
-13.3721 -14.3133 -1.17932
-13.3218 -14.5286 -1.56996
-13.2005 -14.6726 -1.6703
-13.7677 -14.0325 -0.640098
-15.045 -13.6794 1.09906
-15.4968 -13.3314 1.91525
-15.0387 -13.7947 1.13659
-13.1431 -14.3721 -0.955461
-13.0592 -15.0153 -1.74024
-13.027 -14.9482 -1.7896
-13.1128 -14.4619 -0.979045
-13.0643 -14.9483 -1.75142
-13.0041 -14.8029 -1.39816
-12.9865 -14.9187 -1.36231
-15.0124 -13.7832 1.5572
-13.0667 -14.6933 -1.14372
-13.0105 -14.9425 -1.21937
-13.0854 -14.7188 -1.1446
-13.3364 -14.5195 -0.481748
-15.2402 -13.6003 2.15783
-15.0229 -13.8194 1.61229
-14.0485 -14.2615 0.507409
-14.0509 -14.0618 0.881232
-15.3655 -13.6478 2.45717
-14.817 -14.0419 1.73924
-14.7198 -14.2667 1.48541
-14.8919 -14.1634 1.83084
-13.5487 -14.2637 0.85809
-13.3202 -14.4588 0.661606
-13.0607 -14.6387 0.0946629
-13.5558 -14.2212 1.06054
-12.701 -14.9989 -0.558654
-15.1279 -13.8789 2.80841
-12.4713 -15.1512 -0.918341
-14.7163 -14.2412 1.97105
-13.0407 -14.6731 0.119271
-13.6677 -14.1359 1.38497
-13.5836 -14.2735 1.28563
-12.3531 -15.0802 -0.870897
-12.708 -14.99 -0.282245
-12.7614 -14.89 -0.269026
-12.4086 -15.2484 -0.815104
-12.4261 -15.1045 -0.737231
-12.4221 -15.1411 -0.684656
-12.7642 -14.8514 0.0140219
-14.5824 -14.4393 2.21379
-14.5695 -14.4668 2.35467
-14.8447 -14.3211 2.9241
-14.9577 -14.2934 3.03022
-14.6041 -14.5992 2.8215
-14.7382 -14.4776 3.35442
-14.4822 -14.7097 2.71681
-11.309 -14.0531 0.366252
-11.2641 -14.1151 0.332549
-11.2879 -14.099 0.529037
-11.2564 -14.2898 0.468321
-11.4316 -14.0126 0.780382
-11.3626 -13.9749 0.729966
-11.1599 -14.1333 0.463705
-11.0001 -14.2481 0.279278
-11.124 -14.2577 0.206138
-11.0063 -14.3138 0.134488
-11.4008 -14.1705 0.802029
-11.0978 -14.2202 0.625279
-11.2284 -14.3005 0.761139
-11.0684 -14.2579 0.610328
-11.1514 -14.2606 0.528072
-11.1624 -14.2938 0.5652
-11.039 -14.353 0.293703
-11.2155 -14.2545 0.557078
-12.977 -14.4303 2.85079
-10.9048 -14.3381 0.868709
-14.0833 -13.7633 -4.44694
-14.6474 -13.2415 -3.6303
-13.9374 -13.8364 -4.34471
-14.2219 -12.8068 -2.63796
-14.1346 -13.7617 -3.93919
-14.5168 -12.5103 -1.97211
-14.062 -13.7838 -3.65396
-14.0343 -13.762 -3.83602
-16.0841 -12.1108 -0.653109
-14.161 -13.0895 -2.32444
-15.7733 -12.5559 -1.0198
-16.477 -11.8088 0.623753
-13.5727 -13.3912 -2.5415
-14.2292 -12.9767 -1.44067
-15.7399 -12.5839 -0.24576
-13.5713 -14.339 -3.46905
-16.0005 -12.3821 0.13256
-15.9673 -12.4121 0.121208
-16.2951 -12.058 0.759802
-16.4877 -12.0296 1.04215
-14.2095 -13.3623 -1.71826
-13.9108 -13.7014 -2.10096
-13.9558 -13.6443 -1.96939
-14.1477 -13.4524 -1.70328
-16.0873 -12.3484 0.788795
-15.6348 -12.8385 -0.12288
-13.6835 -14.5593 -3.13329
-15.4111 -13.01 -0.508021
-13.8562 -13.6671 -1.85686
-16.1382 -12.3611 1.009
-15.1729 -13.2245 -0.358029
-15.0779 -13.2316 -0.511609
-15.8855 -12.6287 0.843579
-16.1604 -12.4544 1.27588
-15.2541 -13.3156 0.056752
-15.0537 -13.4414 -0.215097
-14.5154 -13.5571 -0.364233
-14.9528 -13.523 0.19352
-15.0893 -13.4349 0.349379
-15.4073 -13.2614 0.706705
-15.8776 -12.7977 1.77386
-14.2463 -13.9805 -0.334973
-15.4948 -13.3467 1.37445
-13.1652 -14.6317 -1.71738
-15.2404 -13.42 1.16545
-13.8343 -14.0745 -0.630456
-14.404 -13.9266 -0.0339661
-13.6532 -14.1377 -0.697744
-14.0778 -14.141 -0.0775719
-13.0962 -14.4884 -0.982136
-12.9527 -14.4528 -0.898374
-13.8439 -14.4479 0.0179725
-13.0088 -14.5965 -0.792895
-12.8952 -14.7697 -1.13837
-14.8298 -14.0339 1.33659
-14.0317 -14.1123 0.880415
-13.0074 -14.8535 -1.0204
-14.9032 -13.9793 1.7481
-14.9877 -14.0445 1.80078
-14.617 -14.2876 1.45377
-14.8229 -14.023 2.02173
-15.0229 -13.9325 2.29806
-13.7122 -13.9969 1.25712
-13.6144 -14.2751 1.0919
-13.2445 -14.4827 0.596723
-14.747 -14.2911 2.12462
-12.94 -14.6763 0.0439521
-14.856 -14.19 2.48248
-13.7486 -14.1995 1.38447
-12.5519 -14.9957 -0.435727
-13.4161 -14.4704 1.08562
-14.6132 -14.4733 2.25743
-12.7455 -14.8628 -0.0105979
-14.7783 -14.3092 2.90995
-14.6099 -14.5012 2.49949
-14.8095 -14.2559 3.09466
-14.809 -14.227 3.07466
-14.6097 -14.573 2.51215
-14.443 -14.789 2.54953
-14.2469 -14.811 2.44401
-10.9261 -14.3208 -0.247376
-11.1154 -14.2936 0.328695
-14.3294 -13.5178 -4.02601
-14.4196 -12.5896 -2.31915
-14.5045 -12.5972 -2.23969
-14.5118 -12.564 -2.28309
-14.0132 -13.0232 -2.69448
-14.0648 -13.8475 -3.92368
-15.8304 -12.2721 -1.12385
-16.5476 -11.7384 0.26053
-16.8063 -11.4942 0.678754
-15.6483 -12.6137 -1.09031
-15.5475 -12.6399 -1.13714
-15.7449 -12.4498 -0.761978
-13.7505 -13.5274 -2.40367
-16.4475 -11.9828 0.545874
-15.5678 -12.7065 -0.479041
-16.2608 -12.0927 0.709483
-16.4963 -11.9637 1.02763
-13.9353 -13.5772 -1.72687
-15.6083 -12.8578 0.670857
-15.3091 -13.1809 0.205446
-15.2125 -13.3577 0.0341877
-15.1136 -13.4828 0.240411
-15.1172 -13.5106 0.226453
-15.6039 -13.0612 1.16103
-13.3011 -14.3255 -1.77082
-13.8795 -13.9416 -0.892748
-15.823 -12.9518 1.89975
-15.6668 -13.0505 1.76969
-13.1003 -14.6874 -1.59612
-12.9378 -14.8221 -1.17752
-13.376 -14.5351 -0.440863
-12.8168 -15.0506 -1.3255
-12.9049 -15.0554 -1.24623
-14.9606 -13.8199 2.05618
-15.2236 -13.8031 2.3289
-14.7365 -14.1845 1.56353
-13.0577 -14.7985 -0.15359
-12.7505 -14.9058 -0.445305
-13.51 -14.2924 0.786876
-13.6308 -14.1465 1.41145
-13.0878 -14.6751 0.341866
-13.4822 -14.4531 1.18873
-14.5545 -14.4977 2.56307
-14.6074 -14.3567 2.87115
-11.2906 -13.9943 0.581832
-11.1628 -14.3359 0.690213
-11.2898 -14.1376 0.957695
-14.2823 -12.6695 -2.43191
-14.0756 -13.8001 -3.80991
-15.8087 -12.3227 -1.25166
-15.5756 -12.6925 -1.15427
-13.741 -14.2002 -3.79574
-13.719 -13.5146 -2.48953
-13.6502 -13.4461 -2.61826
-13.7692 -13.5196 -2.44345
-13.7199 -13.5149 -2.42803
-16.3427 -12.2221 0.757844
-14.7112 -12.8561 -0.89139
-15.6925 -12.6614 0.124011
-15.3073 -13.3622 0.703276
-13.7525 -14.0472 -1.30218
-13.2943 -14.4288 -1.82565
-14.2249 -13.9409 -0.288167
-13.5649 -14.3202 -0.591664
-13.036 -14.5751 -1.00162
-13.3422 -14.6842 -0.447391
-13.7469 -14.5195 0.00213362
-14.9595 -13.8967 1.70543
-15.2849 -13.7524 2.56225
-14.9924 -14.0261 2.21578
-12.5821 -15.0767 -0.893095
-12.5947 -15.0161 -0.717433
-14.7331 -14.3679 2.05868
-12.434 -15.1955 -0.818143
-14.7749 -14.3024 2.61487
-14.6032 -12.4458 -1.91517
-16.586 -11.5989 0.203725
-13.8082 -13.3724 -2.45238
-14.3011 -12.9485 -1.51755
-16.3624 -12.1427 0.872921
-13.887 -13.5981 -1.97736
-14.1504 -13.4697 -1.61128
-14.0987 -13.5274 -1.67152
-13.576 -14.0663 -1.40123
-13.1538 -14.8355 -2.24804
-13.4777 -14.2667 0.916045
-14.7547 -14.4032 2.87062
-14.6151 -14.5546 2.99864
-13.9114 -13.3692 -2.33319
-13.9916 -13.6353 -1.76151
-13.228 -14.3374 -2.75363
-14.422 -13.3037 -0.572986
-13.3549 -14.5055 -2.49984
-13.7088 -14.0498 -1.39694
-13.2507 -14.6039 0.206329
-13.54 -14.2135 0.933022
-12.7025 -14.856 -0.608726
-13.6454 -14.2449 1.11253
-13.7239 -14.226 1.33142
-13.8391 -13.2996 -2.78507
-15.8452 -12.4189 -0.705346
-13.4845 -13.9003 -3.39448
-14.1622 -13.1787 -1.61832
-13.4531 -14.3826 -1.23641
-15.0817 -13.7561 1.19825
-14.9042 -13.9223 1.27187
-13.3951 -14.3528 0.902634
-11.1858 -14.178 0.598604
-13.7142 -13.9759 -1.57152
-12.9333 -14.8764 -1.05191
-14.5163 -13.1688 -1.24249
-14.2752 -13.733 -0.660487
-12.9285 -15.0791 -2.08257
-14.4332 -13.6062 0.663515
-12.8409 -14.8209 -0.95973
-14.1615 -13.0406 -1.53075
-13.5931 -13.8979 -1.97398
-13.8513 -13.7278 -1.70453
-13.3917 -14.5668 -2.44278
-13.4412 -14.1816 -1.82729
-13.8281 -14.2505 -0.961834
-13.8067 -13.3937 -2.23116
-13.0558 -14.4099 -0.791686
-13.4189 -14.3563 -2.81643
-16.4688 -11.9185 0.765064
-16.2656 -11.9892 0.657334
-16.1681 -12.4186 0.868473
-16.1839 -12.0991 -0.337277
-16.1521 -12.1222 -0.0765779
-15.9467 -12.2504 -0.272981
-16.0553 -12.1705 -0.747566
-16.0151 -12.1951 -0.359135
-15.898 -12.772 0.9505
-15.8765 -12.3006 -0.520925
-15.6517 -13.0825 1.7308
-15.8407 -12.4968 -0.779723
-15.7582 -12.4043 -1.19365
-15.6723 -12.5182 -0.934614
-15.4582 -13.2486 1.44035
-15.586 -12.7939 -0.661996
-15.5033 -12.9637 0.192165
-15.5458 -12.8213 -0.661378
-15.538 -12.7916 -0.776099
-15.4576 -13.3388 1.85583
-15.5333 -12.9781 -0.156468
-15.574 -12.8306 -0.793367
-14.5762 -12.4425 -1.78931
-15.3952 -13.0003 -0.0129402
-15.2882 -13.627 2.42512
-15.1636 -13.7365 2.22426
-14.4232 -12.5636 -2.29886
-15.1235 -13.7458 1.53368
-14.9916 -13.9514 2.25525
-14.9023 -14.0681 2.10541
-14.9011 -13.9379 1.354
-14.9057 -14.0914 2.16498
-14.5427 -13.3292 -0.865648
-14.8145 -13.9995 1.3647
-14.5613 -13.4383 -0.699152
-14.75 -14.4757 3.16239
-14.4708 -13.579 -0.400149
-14.4468 -13.6119 -0.386782
-13.8883 -12.8564 -2.95719
-14.3834 -13.5915 -0.705451
-14.3423 -13.9814 0.36599
-14.486 -14.6641 2.56555
-14.2518 -13.9844 0.160394
-13.6566 -14.1546 1.17497
-13.6254 -14.2553 1.25985
-14.5491 -13.2061 -3.63634
-13.5837 -14.2919 1.00331
-13.723 -13.3444 -2.43556
-13.8983 -14.2495 -0.114513
-13.4007 -14.3927 0.979827
-13.3589 -14.4508 1.03111
-13.7422 -13.9135 -1.47683
-13.67 -13.9527 -1.55806
-14.3416 -13.5493 -3.96935
-13.2899 -14.4689 0.749533
-13.7615 -14.04 -1.14215
-13.8764 -14.3579 -0.313406
-13.3052 -14.4934 0.476825
-13.5943 -14.1355 -1.26357
-11.3695 -14.0695 0.889914
-13.5473 -14.2573 -1.40673
-11.2387 -14.0697 0.427913
-13.1792 -14.527 0.191672
-13.2797 -14.2385 -1.11633
-13.2677 -14.4167 -1.20557
-14.0789 -13.8059 -3.96149
-13.3752 -14.6078 -0.469415
-14.061 -13.7957 -3.98913
-14.0005 -13.9646 -3.72811
-13.0998 -14.6196 0.214361
-13.0277 -14.7611 0.0373619
-12.9951 -14.7865 -0.0858411
-14.0074 -13.8354 -4.17405
-13.4293 -14.2415 -2.38664
-13.9115 -13.9895 -4.15831
-13.9109 -13.8875 -4.39965
-12.9525 -14.5855 -1.01076
-13.8924 -14.0082 -4.16853
-13.4825 -14.3404 -2.56016
-12.9055 -14.8932 -0.102533
-13.824 -14.1965 -3.70102
-13.8522 -14.1089 -3.68932
-10.968 -14.5324 0.872766
-13.3707 -14.3636 -2.55862
-13.0838 -14.6342 -1.75333
-13.1262 -14.7799 -2.28243
-12.8331 -15.0219 -1.4279
-12.8872 -15.0385 -2.02786
-12.3586 -15.161 -0.855436
-16.55 -11.8996 0.751303
-16.4079 -12.0657 1.35392
-16.4132 -11.9342 0.457738
-16.4431 -11.94 0.00217943
-16.3894 -12.2981 0.9663
-15.9962 -12.481 1.23241
-16.2224 -12.2188 -0.289971
-16.125 -12.3111 0.146344
-15.9617 -12.743 1.40464
-15.9638 -12.3852 0.195868
-15.7371 -12.9414 1.72296
-15.7298 -13.0115 1.71158
-15.8172 -12.7109 0.717437
-15.8136 -12.7626 -0.043912
-15.7588 -12.3584 -1.21055
-15.6764 -12.4261 -0.97171
-15.604 -12.5657 -0.996744
-15.6458 -12.6209 -0.851209
-15.5975 -12.4898 -1.16998
-15.5674 -12.9488 -0.0393189
-15.6918 -12.9118 0.0485846
-15.4888 -12.6581 -1.2606
-15.5542 -12.6627 -1.35471
-15.5674 -13.084 0.49041
-14.3535 -12.5882 -2.23373
-15.0696 -13.9703 2.71352
-15.0988 -13.9184 2.05246
-15.1461 -13.7794 1.09955
-14.9658 -13.9549 2.28374
-15.1437 -13.8844 2.03538
-14.9636 -13.9797 2.15543
-14.9383 -14.309 3.02285
-14.9485 -14.2216 2.99573
-14.8983 -14.0091 2.15216
-14.2384 -13.0221 -1.41515
-14.2847 -13.0283 -1.52711
-14.2564 -12.8002 -2.60104
-14.228 -12.7533 -2.58503
-14.8442 -14.3409 3.00291
-14.7758 -14.343 2.92302
-14.7886 -14.1229 2.07226
-14.8016 -14.3923 2.89473
-14.6678 -14.3652 2.02333
-14.5006 -14.5069 2.48573
-14.5486 -14.4451 2.1568
-14.5727 -14.493 2.4573
-14.6291 -14.4385 2.10218
-14.5143 -14.5675 2.34226
-14.0753 -14.095 -0.413937
-14.026 -14.2649 0.525114
-13.7049 -13.4402 -2.54491
-14.012 -14.4029 0.359648
-13.7393 -14.0653 -0.974748
-13.7246 -14.1219 -0.712749
-13.2947 -14.4092 0.579816
-13.7143 -14.1201 -0.760862
-13.6551 -14.073 -1.1318
-11.4058 -14.0802 0.890926
-13.5342 -14.1444 -1.30757
-13.5212 -14.4278 -0.487763
-11.3877 -14.1486 0.837215
-11.2835 -14.1175 0.715785
-11.4135 -13.9192 0.406615
-14.1304 -13.6359 -3.97226
-14.1546 -13.6364 -3.96573
-14.1094 -13.7075 -3.78236
-14.0397 -13.9342 -3.75748
-11.2759 -14.2142 0.504158
-13.4028 -14.5148 -1.03062
-14.0721 -13.8674 -3.99955
-11.1688 -14.197 0.627708
-13.4695 -14.5558 -1.04493
-13.4201 -14.4892 -1.15281
-13.5742 -14.0975 -2.78403
-13.0769 -14.5951 -0.797986
-13.0901 -14.624 -0.73503
-13.907 -14.1406 -3.83354
-13.2729 -14.509 -1.79926
-12.9635 -14.831 -0.117168
-13.147 -14.5516 -1.6975
-13.6658 -14.1363 -3.82795
-11.027 -14.2718 0.195097
-13.2038 -14.6027 -1.52915
-12.7538 -14.9082 -0.125912
-13.0893 -14.7075 -1.50092
-10.9318 -14.4434 0.119491
-13.7279 -14.3886 -3.14475
-13.1647 -14.5734 -1.74439
-10.9675 -14.401 0.130202
-12.7346 -14.985 -0.557626
-10.922 -14.4088 0.0673387
-13.1519 -14.6442 -2.5169
-13.5173 -14.5062 -3.50317
-12.9576 -14.8594 -1.4361
-13.5665 -14.4602 -3.29449
-10.935 -14.356 0.0413923
-13.544 -14.4854 -3.35197
-12.9657 -14.88 -1.29904
-13.0017 -14.9998 -1.31499
-12.8146 -14.9491 -1.4779
-13.1457 -15.011 -1.71888
-12.3589 -15.1205 -1.06643
-16.1604 -12.4159 1.34938
-16.0828 -12.2117 -0.137132
-16.0848 -12.338 0.0962188
-15.8775 -12.7014 0.865962
-15.876 -12.7961 1.64095
-15.6113 -12.9043 0.00852908
-15.2684 -13.2922 0.630266
-14.5233 -12.8801 -1.4718
-14.3461 -13.339 0.461817
-14.3867 -12.9752 -1.33706
-14.3997 -12.941 -1.39875
-14.382 -13.4331 0.560251
-14.9549 -14.0263 2.34954
-14.2941 -12.9582 -1.41992
-14.7665 -14.2623 3.07
-14.8062 -14.2387 2.80723
-14.8687 -14.0901 1.63102
-14.8943 -13.9518 1.17361
-14.3618 -13.4152 -0.614041
-14.849 -13.8911 1.29946
-14.8094 -14.1242 1.18262
-14.4854 -13.6032 -0.384372
-14.749 -14.4428 2.77112
-14.4479 -13.5835 -0.710109
-14.5643 -14.1498 1.47468
-14.4839 -14.5496 2.39022
-13.6835 -14.1872 1.45124
-14.2116 -13.9628 -0.021399
-13.9503 -13.622 -1.3805
-14.1029 -14.0292 -0.121973
-14.5925 -13.3093 -3.53435
-14.6121 -13.2567 -3.55819
-13.6419 -13.4621 -2.45703
-13.68 -13.4041 -2.6108
-13.9688 -14.3678 0.150155
-13.6668 -14.2049 -0.545209
-13.608 -14.416 -0.391974
-14.1145 -13.82 -3.3984
-14.0646 -13.8623 -3.78998
-13.0872 -14.3994 -1.06313
-14.0087 -13.763 -4.36497
-13.3705 -14.4404 -1.84599
-12.6396 -14.8892 0.0698998
-12.8876 -14.744 -1.1291
-12.7035 -14.895 -0.562891
-13.4547 -14.5822 -3.26969
-10.7767 -14.5254 0.621068
-13.2138 -14.8686 -1.93072
-13.1479 -14.9242 -1.81745
-12.8796 -15.0735 -1.24949
-12.5264 -15.1439 -0.652437
-12.5921 -15.1054 -1.04675
-13.0414 -15.0964 -1.94023
-16.8543 -11.4107 0.750126
-16.3235 -11.9692 0.563172
-16.3117 -11.9161 0.456939
-16.238 -12.2277 0.38848
-16.1124 -12.1898 -0.131817
-15.8719 -12.4329 -0.497544
-15.533 -12.5713 -1.06113
-15.6185 -12.5823 -1.10212
-15.5813 -12.6044 -1.15571
-15.5329 -12.92 -0.299762
-14.5268 -12.509 -2.09626
-14.5808 -12.9796 -0.7391
-14.2612 -12.9163 -1.43051
-14.1958 -12.9735 -1.49383
-15.0114 -13.9506 2.25418
-14.9565 -13.5188 0.221157
-14.2483 -13.0237 -1.48259
-14.301 -13.0616 -1.52258
-14.2862 -13.0491 -1.4804
-14.1799 -13.1163 -1.66004
-14.8272 -13.8473 1.10207
-14.7991 -14.0623 1.09813
-14.6024 -14.4474 2.63045
-14.6745 -14.3479 2.10295
-14.6476 -14.1677 1.48652
-14.6287 -14.4095 2.21871
-14.6858 -14.4773 2.19348
-14.4986 -14.5323 2.31959
-13.9949 -13.9893 1.13067
-14.3224 -14.9411 2.47399
-14.0791 -14.134 -0.161481
-13.7838 -13.806 -1.20229
-13.9456 -13.7889 -1.57888
-13.9601 -13.6975 -1.70156
-13.69 -13.3381 -2.54446
-13.7074 -13.4696 -2.41763
-13.6055 -13.5066 -2.59656
-13.6561 -14.2086 -0.45099
-13.3289 -14.5863 -0.413055
-11.2708 -14.1115 0.597944
-13.356 -14.2768 -1.6787
-13.0613 -14.5681 -1.07685
-13.1036 -14.592 -1.48079
-12.86 -14.7382 -1.06307
-12.665 -14.91 -0.558232
-13.6331 -14.547 -3.33946
-12.9091 -14.7459 -1.58926
-12.4525 -15.1029 -0.286949
-12.9044 -15.0375 -1.97126
-12.916 -14.9968 -1.85699
-12.3509 -15.1878 -1.01451
-15.9582 -12.4266 0.0516212
-15.9168 -12.6944 0.845681
-15.7176 -12.4051 -1.04353
-15.7252 -12.5685 -0.922619
-15.6004 -13.0479 1.14242
-14.5313 -12.3737 -1.90659
-15.209 -13.4368 0.853665
-15.3201 -12.9997 -0.986969
-15.1147 -13.7983 2.18977
-15.0085 -13.672 1.04774
-15.064 -13.909 2.03474
-15.0127 -13.7122 1.15115
-15.0789 -13.5433 0.272197
-15.0673 -13.4112 -0.171357
-14.8306 -14.3247 2.85445
-14.8473 -14.0199 1.20388
-13.8562 -14.0318 -0.906209
-13.6809 -13.3971 -2.62057
-13.852 -13.6299 -2.0381
-13.8495 -13.7917 -2.06663
-13.6955 -13.6691 -2.80653
-13.6447 -14.194 -0.662638
-13.6176 -14.2925 -0.614232
-13.4524 -14.335 -0.526166
-13.562 -14.422 -0.587464
-13.0543 -14.7073 0.281476
-13.1655 -14.5454 -0.775729
-13.3604 -14.4114 -1.76192
-12.9996 -14.4454 -0.856726
-13.6489 -14.1862 -3.7173
-13.2179 -14.7317 -1.36445
-13.0658 -14.6676 -1.48975
-12.9677 -14.8902 -1.54594
-12.4599 -15.1372 -1.01817
-12.878 -15.1254 -1.60674
-16.0694 -12.5459 1.2994
-15.5523 -12.9173 -0.487276
-14.6682 -12.9269 -0.953074
-14.2312 -12.9305 -1.45624
-14.4522 -13.3072 -0.624174
-14.4072 -13.6043 -0.684023
-13.6289 -14.1834 1.15658
-13.9012 -13.791 -1.76506
-14.2004 -13.5964 -4.07088
-13.5138 -14.3081 -1.28822
-13.9533 -13.9028 -3.91242
-13.4234 -14.6452 -1.2447
-12.9503 -14.7683 -1.20193
-14.2911 -12.916 -1.33612
-14.6162 -13.0867 -1.00099
-14.3717 -12.9491 -1.48065
-14.3834 -13.3701 -0.589078
-14.0107 -14.0925 -0.105267
-12.896 -14.9902 -1.24641
-14.2578 -12.6702 -2.48797
-14.5616 -13.1831 -0.932988
-14.3194 -13.4671 -0.518192
-14.0264 -14.2859 0.36125
-13.3121 -14.5236 0.574465
-13.6048 -14.1027 -1.40554
-13.0631 -14.8559 -1.87153
-13.9208 -13.6911 -1.80374
-15.8388 -12.7086 0.973497
-13.9829 -13.8208 -1.49947
-13.572 -13.6511 -2.30657
-13.3442 -14.6228 -1.27207
-14.3501 -13.9582 0.405022
-13.4771 -14.5693 -0.34454
-14.8439 -14.3547 2.77414
-14.8499 -14.0902 2.05935
-14.8786 -14.0804 2.20958
-14.8209 -14.0097 2.06558
-16.5034 -12.1554 1.08818
-15.6123 -13.1737 1.47289
-16.0637 -12.4828 1.26617
-10.9383 -14.4892 0.891971
-15.1817 -13.5221 1.47478
-10.9165 -14.5436 0.869933
-13.7154 -14.0208 1.24704
-13.6428 -14.2236 1.3314
-13.5453 -14.1547 1.15941
-15.7597 -12.8733 0.820585
-13.4117 -14.3921 0.955688
-13.4226 -14.3918 0.981881
-15.6339 -12.8069 0.532667
-15.6197 -12.9634 0.63141
-13.4149 -14.4153 0.833132
-15.978 -12.2915 0.291399
-13.3327 -14.4844 0.756894
-15.9692 -12.5342 0.0260192
-15.3376 -13.1966 0.337373
-15.6769 -12.654 -0.0121155
-13.162 -14.4963 0.527269
-15.8002 -12.5721 -0.0541288
-14.3385 -13.9895 0.353109
-15.5664 -12.8906 -0.0342314
-16.1122 -12.2964 -0.384637
-13.0945 -14.5353 0.414332
-15.3196 -13.1661 -0.0468285
-14.2515 -13.938 0.14817
-13.0215 -14.774 0.238612
-14.4583 -13.6435 -0.396377
-15.5289 -12.8165 -0.816139
-15.4501 -12.7713 -0.697875
-15.4708 -12.772 -0.734259
-15.4733 -12.893 -0.80524
-12.9614 -14.7494 -0.0884948
-14.3611 -13.5225 -0.596048
-14.6115 -13.4476 -0.72455
-14.5403 -13.4245 -0.788923
-14.5714 -13.3547 -0.888831
-13.4027 -14.7218 -0.377457
-13.7275 -14.1384 -1.06828
-13.6991 -14.1958 -1.21487
-13.1479 -14.4843 -1.04847
-13.2532 -14.2522 -1.12109
-13.357 -14.292 -1.23871
-13.4627 -14.5915 -1.13062
-12.4092 -15.1352 -0.808031
-13.7704 -14.0228 -1.41581
-12.9959 -14.7836 -1.06884
-12.9887 -14.6836 -1.08901
-13.5606 -14.2897 -1.25102
-14.4836 -12.6468 -2.22226
-12.3254 -15.2238 -1.05176
-14.3859 -12.683 -2.21552
-12.9741 -14.8949 -1.2243
-12.9917 -14.8834 -1.28155
-14.0698 -13.0606 -2.25652
-13.1295 -14.5814 -1.64121
-14.3591 -12.7243 -2.62108
-13.3415 -14.4559 -1.91691
-12.9868 -15.132 -1.74654
-13.7497 -14.0419 -2.57858
-13.3918 -14.4115 -2.57764
-13.3529 -14.4297 -2.53172
-13.536 -14.531 -3.25112
-14.3345 -13.4803 -3.87826
-14.4229 -13.5004 -3.93869
-13.9812 -13.8475 -3.75602
-14.0943 -13.6768 -3.90652
-13.8703 -14.1592 -3.65064
-14.1507 -13.7488 -4.05935
-14.2704 -13.5752 -4.055
-13.9481 -13.9206 -4.11596
-14.7702 -14.2986 2.85513
-14.5061 -14.724 2.76998
-14.6588 -14.4831 2.56985
-15.3212 -13.6603 2.06947
-14.5403 -14.6402 2.38874
-14.5539 -14.5252 2.4143
-14.9499 -14.0004 2.09186
-15.916 -12.6194 1.517
-16.7627 -11.6977 1.11534
-14.4948 -14.5286 2.08072
-14.8578 -14.1127 1.75862
-15.4509 -13.323 1.27731
-16.2584 -12.1214 0.640826
-14.6484 -14.2849 1.40109
-11.4689 -14.027 0.480962
-14.6062 -14.2447 1.35333
-14.5524 -14.1075 1.4516
-11.1977 -14.2867 0.549167
-11.3966 -14.0342 0.500667
-15.4628 -13.1292 0.807993
-14.8549 -13.876 1.14068
-11.2394 -14.1235 0.493685
-13.4037 -14.4356 1.05438
-14.3718 -13.4143 0.517896
-16.2876 -11.9874 0.048102
-16.2813 -11.9187 0.0145061
-13.3998 -14.4881 0.828234
-15.9346 -12.4936 0.210984
-14.354 -14.0618 0.665084
-11.022 -14.2191 0.117002
-11.0164 -14.2796 0.225481
-10.9487 -14.284 0.161371
-11.0052 -14.3655 0.237774
-15.4722 -12.9976 0.0781186
-15.7431 -12.6002 -0.0654436
-16.199 -11.9539 -0.430496
-16.202 -12.0488 -0.327719
-15.5754 -12.8725 -0.069804
-16.2324 -12.0035 -0.417356
-14.1358 -14.2443 0.477584
-15.2354 -13.2382 -0.0170529
-15.5066 -12.8934 -0.336508
-15.4904 -12.9435 -0.282057
-14.4053 -13.7176 -0.0780125
-13.9522 -14.3247 0.111732
-15.5049 -12.7403 -0.698588
-14.1388 -13.9897 -0.283564
-15.7768 -12.4936 -1.04436
-13.0723 -14.7964 -0.0975216
-13.4124 -14.5163 -0.332563
-13.6494 -14.3901 -0.50451
-13.7227 -14.1353 -0.634918
-13.7272 -14.232 -0.764623
-14.3413 -12.9236 -1.5714
-13.0808 -14.4093 -0.929435
-12.3923 -15.1575 -0.76486
-13.3433 -14.4418 -1.12351
-14.2256 -12.8485 -2.03155
-13.5007 -14.352 -1.3632
-13.548 -14.2396 -1.36114
-12.3305 -15.2708 -1.0519
-12.3717 -15.2065 -1.06861
-13.0877 -14.6984 -1.53378
-13.9763 -12.7942 -2.46163
-13.0937 -14.8162 -1.5846
-14.2833 -12.847 -2.59054
-13.0452 -15.0801 -1.76698
-13.6462 -13.4757 -2.65372
-13.1777 -14.7451 -2.27643
-14.6421 -13.1877 -3.61097
-13.5956 -14.4792 -3.39136
-13.5502 -14.419 -3.54037
-14.2855 -13.6337 -3.98986
-13.8033 -14.0658 -3.85393
-14.2829 -13.5885 -4.14215
-13.9279 -13.9526 -4.0564
-13.9175 -13.8969 -4.25793
-14.0052 -13.9643 -4.19087
-13.9309 -13.783 -4.35522
-15.081 -13.9293 2.79102
-14.9241 -14.3821 2.91898
-14.3389 -14.8717 2.60198
-15.7786 -13.0264 1.87067
-14.6765 -14.5005 2.4108
-14.7586 -14.232 1.98558
-14.7034 -14.1811 1.44485
-10.8595 -14.57 0.484416
-15.1773 -13.4045 0.85104
-16.3564 -11.9252 -0.395244
-13.3216 -14.381 0.495304
-13.3008 -14.4212 0.573043
-16.1575 -12.0881 -0.440642
-14.0423 -14.1219 -0.157903
-15.6222 -12.6492 -0.8331
-13.9069 -14.3084 -0.193743
-15.7905 -12.4983 -1.06247
-14.4714 -13.5434 -0.624425
-13.5589 -14.4618 -0.452906
-13.5419 -14.5324 -0.437008
-12.7809 -14.9284 -0.431027
-12.7357 -14.9549 -0.489785
-12.5681 -15.1592 -0.719821
-13.2949 -14.3314 -1.24527
-12.4457 -15.1558 -0.985369
-13.0642 -14.5677 -1.56617
-12.8368 -15.0074 -1.47486
-13.1229 -14.582 -1.75192
-13.6337 -13.5788 -2.32564
-13.015 -14.9873 -2.01304
-14.2552 -13.7648 -3.34604
-13.4485 -13.897 -3.2612
-13.5639 -14.6262 -3.25977
-14.0856 -13.8199 -3.83897
-14.0149 -13.8902 -3.92659
-14.156 -13.651 -4.16429
-14.5952 -14.5203 2.63651
-14.6803 -14.4869 2.59712
-14.8646 -14.0848 2.23994
-11.4261 -13.9301 0.846822
-15.4163 -13.3028 1.50962
-15.0707 -13.8057 1.57174
-15.0384 -13.6379 1.10533
-14.8378 -14.0442 1.25501
-13.5323 -14.2935 0.932041
-14.3277 -13.4023 0.421933
-16.017 -12.1552 -0.0661059
-16.2078 -12.0908 -0.0524836
-13.0673 -14.6196 0.424541
-15.4879 -12.7857 -0.81557
-15.6321 -12.524 -1.06918
-15.6153 -12.6357 -1.2375
-15.2604 -12.8851 -1.14193
-13.405 -14.5961 -0.408885
-13.51 -14.3282 -0.647969
-13.8446 -13.841 -0.776967
-13.3462 -14.6432 -0.591595
-13.1281 -14.614 -0.768596
-14.1963 -13.0438 -1.63548
-13.6098 -14.1213 -1.04481
-12.8752 -14.6144 -0.982503
-13.5982 -14.2096 -1.33813
-13.8374 -13.6436 -1.81878
-13.6813 -13.5521 -2.35707
-13.5889 -13.568 -2.30893
-13.739 -13.462 -2.56682
-13.605 -13.5416 -2.38321
-13.3811 -14.7391 -2.03343
-12.9076 -15.1434 -1.90793
-12.9526 -15.0254 -2.00778
-14.1367 -13.8365 -3.53355
-13.6247 -14.3572 -3.17353
-14.2626 -13.5257 -3.95305
-13.8652 -14.2038 -4.04353
-14.8777 -14.3368 3.04879
-14.8877 -14.0625 2.29563
-14.8136 -14.1911 2.2904
-14.8315 -14.1709 1.78367
-15.0319 -13.6696 0.974197
-15.3327 -13.2614 0.719446
-13.2166 -14.5487 0.427575
-14.4704 -13.3419 -0.461922
-12.8862 -14.8643 -0.06549
-13.6506 -14.2993 -0.519666
-13.508 -14.373 -0.339285
-13.7023 -14.3248 -0.470955
-13.592 -14.2183 -0.682068
-13.6858 -14.3762 -0.679397
-13.151 -14.4458 -0.924473
-12.7229 -15.0482 -1.37558
-12.8831 -15.0359 -1.4463
-13.6847 -13.8708 -2.04937
-13.6737 -13.4672 -2.54107
-14.03 -13.9194 -3.6827
-14.0361 -13.7818 -3.86675
-13.5927 -14.2052 1.47964
-13.9883 -14.1029 1.13716
-14.7832 -13.9759 1.11545
-13.1094 -14.4503 -0.775155
-14.1528 -13.0199 -1.71106
-13.1143 -14.6626 -1.4796
-13.9007 -13.581 -2.09359
-13.0471 -14.7365 -1.62907
-13.7893 -14.2089 -3.76597
-14.687 -14.3525 2.76247
-15.87 -12.7239 0.771964
-14.8928 -13.9677 1.19944
-14.9949 -13.5603 0.523241
-13.2022 -14.6312 0.34357
-12.9123 -14.9649 -1.23862
-12.9656 -14.9522 -1.28302
-13.3067 -14.4501 -1.85348
-14.9457 -13.8235 1.31817
-15.6417 -12.6123 -0.943186
-13.8835 -13.414 -2.30759
-14.484 -14.6313 2.85687
-15.8442 -12.7484 1.51822
