-14.6852 -14.4642 2.5663
-15.6785 -12.6535 0.65067
-15.8023 -12.5233 0.407443
-14.5829 -14.3106 1.69843
-15.4152 -12.8441 0.0887559
-13.7615 -14.1438 1.83107
-14.6198 -13.8899 0.788222
-14.8944 -13.3202 -0.458696
-14.9889 -12.9718 -0.938916
-14.8943 -13.3014 -0.773882
-14.6796 -13.4854 -0.58793
-13.4361 -14.4703 0.390463
-14.7193 -13.3012 -1.1418
-13.069 -14.8091 0.776801
-13.5969 -14.4516 0.0555099
-13.0207 -14.7148 0.349448
-11.1277 -14.2947 1.84538
-12.6463 -15.0865 0.901312
-14.3301 -13.5451 -1.52287
-11.101 -14.1119 1.60902
-12.5957 -15.0033 0.139528
-12.9289 -14.6711 -0.822494
-12.8265 -14.5602 -0.829953
-12.4315 -15.1574 -0.690401
-12.1338 -15.6782 -0.988587
-12.2594 -15.2325 -1.66918
-15.1189 -13.9183 2.67504
-14.9887 -14.1215 2.63074
-15.7504 -12.8225 1.27117
-14.8874 -14.0622 2.53732
-14.9078 -14.1799 2.60589
-14.9156 -14.151 2.3005
-15.1687 -13.5932 1.97756
-15.5878 -13.0901 1.06534
-15.1667 -13.8205 1.79213
-15.4075 -13.0587 0.802679
-15.5024 -13.0383 0.765267
-15.2512 -13.4383 1.19571
-15.8014 -12.417 0.114379
-14.8523 -13.9121 1.4229
-14.9024 -13.9236 1.48196
-14.6665 -14.3699 1.94786
-14.6534 -13.9785 1.52611
-13.7127 -14.0591 2.03866
-15.2519 -12.9988 0.243608
-14.9601 -13.5963 0.891941
-13.0489 -14.7579 2.66859
-15.4312 -12.7789 -0.175873
-15.5951 -12.6123 -0.155862
-15.3213 -12.8277 0.181215
-13.3097 -14.6229 2.42397
-13.341 -14.5842 2.2308
-14.6843 -13.7549 0.582083
-14.9705 -13.353 0.0435147
-13.5373 -14.158 1.61226
-14.8577 -13.479 0.153273
-13.4089 -14.3068 1.57989
-13.472 -14.2584 1.52016
-13.292 -14.4846 1.5728
-14.016 -13.5149 0.573797
-15.1599 -12.9507 -0.596087
-15.0052 -13.1971 -0.270653
-13.8974 -14.2019 0.812741
-15.022 -13.0912 -0.68031
-13.7982 -14.4069 0.989824
-13.1726 -14.6384 1.25047
-14.7774 -13.288 -0.97559
-13.6263 -14.1885 0.360624
-14.6872 -13.3421 -0.998032
-13.5632 -14.473 0.468805
-12.9576 -14.7393 0.405636
-12.8318 -15.1103 0.629525
-12.4642 -15.2017 0.878041
-13.7125 -13.5052 -1.28224
-13.0449 -14.6777 -0.266719
-12.7601 -14.9228 0.186722
-12.5549 -14.8719 0.102867
-12.5355 -14.9324 0.202361
-10.472 -14.6772 2.12432
-12.9018 -14.6465 -0.602317
-12.1951 -15.4104 -0.151974
-12.2127 -15.5018 -0.383352
-12.0889 -15.5036 -0.458936
-12.2749 -15.226 -1.75057
-12.229 -15.1927 -3.25042
-15.2397 -13.6096 2.13392
-15.2892 -13.6255 2.04638
-15.8424 -12.5241 0.487175
-15.8238 -12.5219 0.434789
-14.479 -14.7069 2.64365
-15.1238 -13.5953 1.4828
-15.4594 -13.112 0.751342
-15.6442 -12.7462 0.33912
-15.6027 -12.7671 0.276746
-14.5852 -14.2368 1.76687
-15.4258 -12.6639 -0.00878278
-15.4982 -12.7793 -0.101821
-15.0693 -13.3829 0.438001
-14.6017 -13.995 0.97583
-15.2673 -13.0894 -0.108788
-15.1394 -13.1763 0.150878
-14.5387 -14.0545 1.07179
-14.7822 -13.6905 0.742302
-14.7541 -13.7344 0.642866
-14.6917 -13.7987 0.680957
-14.9222 -13.4479 0.0606732
-14.9234 -13.3285 -0.198251
-14.861 -13.3867 -0.561651
-14.6888 -13.3455 -0.472753
-14.4653 -13.906 -0.0139911
-13.7928 -14.3939 0.527938
-13.7715 -14.4822 0.567103
-14.6434 -13.502 -0.629405
-13.7408 -14.2287 0.258597
-13.6209 -14.3986 0.360393
-13.7595 -14.2222 -0.00979337
-14.5944 -13.4663 -1.07299
-11.2366 -14.1539 1.74422
-13.1544 -14.5362 0.00650376
-13.1998 -14.6281 -0.0843418
-13.3075 -14.0884 -0.454061
-12.6069 -15.2039 0.268911
-12.5023 -14.9505 0.108775
-13.3248 -13.8205 -1.07753
-12.1529 -15.337 0.542424
-13.4908 -13.5483 -1.55027
-12.1258 -15.7066 -0.164944
-13.0123 -13.7569 -1.78435
-12.7022 -14.7885 -1.15639
-12.3686 -15.1797 -0.880501
-12.8464 -14.0714 -1.99987
-12.0792 -15.6263 -1.22229
-12.6722 -14.3486 -2.20983
-14.9124 -14.1743 3.11423
-14.8067 -14.3415 2.78424
-15.5405 -13.1179 1.10618
-15.4375 -13.2229 1.21289
-15.3684 -13.0199 0.815767
-15.2597 -13.1497 0.957463
-15.0581 -13.5494 1.20286
-14.5739 -14.1361 1.5248
-14.4754 -14.5371 1.82882
-15.4136 -12.9219 0.27464
-14.4315 -14.4543 1.82037
-13.6642 -14.2768 2.15487
-14.8965 -13.4958 0.628334
-14.797 -13.4322 0.0579439
-15.0949 -12.9927 -0.43265
-14.6166 -13.775 0.177151
-14.6103 -13.8112 0.0434914
-14.4645 -13.8267 -0.0201149
-11.524 -13.6225 1.71053
-13.034 -14.61 -0.165003
-13.1266 -14.6721 -0.157478
-13.1731 -13.8416 -1.28586
-12.9571 -14.4518 -1.17869
-12.2622 -15.3591 -0.368338
-12.3277 -15.2814 -0.404806
-13.0184 -13.7761 -1.7009
-12.3745 -15.3036 -0.527266
-12.4782 -14.9977 -0.971113
-12.4465 -14.9603 -0.921393
-12.9509 -13.9151 -1.91643
-12.5605 -14.4971 -1.77319
-15.1239 -13.9351 2.78971
-15.173 -13.9639 2.69677
-15.0987 -13.6074 1.44843
-13.4988 -14.4314 2.81566
-15.0172 -13.6921 1.27996
-14.5939 -14.1641 1.77086
-13.5011 -14.3243 2.16645
-13.7023 -14.0993 1.83057
-14.6117 -13.8643 0.962635
-13.2592 -14.6508 2.14893
-13.1393 -14.6775 2.23466
-13.9303 -13.6124 0.580128
-14.7876 -13.2951 -0.704863
-12.8858 -14.7939 1.34259
-13.3397 -14.8963 0.568473
-12.9385 -14.7742 0.261999
-13.1067 -14.7033 0.141139
-12.8729 -14.9567 0.3219
-13.1458 -14.6683 0.0357983
-13.2001 -14.3406 -0.291813
-13.1005 -14.4771 -0.375814
-13.3628 -13.7958 -1.27001
-12.7992 -14.6411 -0.876539
-12.379 -15.2896 -0.470129
-12.1638 -15.5921 -0.258647
-12.2825 -15.3619 -0.56511
-12.7294 -14.4191 -1.50824
-12.2577 -15.2675 -0.693278
-15.1372 -13.7729 2.101
-15.2153 -13.6889 1.58341
-13.8122 -14.0181 1.92112
-13.4635 -14.4223 1.68555
-14.8135 -13.2689 -0.630735
-14.9146 -13.2213 -0.813506
-12.9789 -14.94 0.322324
-13.1278 -14.4457 -0.208627
-13.0403 -14.7232 -0.16533
-12.3566 -15.2809 -0.433624
-11.7534 -15.6209 0.297584
-12.9695 -14.2915 -1.47719
-12.4087 -15.3715 -0.59247
-12.0839 -15.6124 -0.258466
-12.3697 -15.105 -0.947431
-12.3525 -15.2995 -0.799148
-12.8543 -14.1125 -1.99258
-12.1993 -15.5732 -1.25701
-12.6553 -14.1508 -2.14714
-13.664 -14.0647 1.79867
-14.0725 -13.768 0.840798
-13.3572 -14.3413 1.6683
-15.0297 -13.1202 -0.410297
-14.8925 -13.2456 -0.813035
-13.2024 -14.4468 0.0333819
-13.0782 -14.5027 -0.170745
-11.9188 -15.6467 0.662352
-15.7291 -12.7994 1.12052
-14.749 -14.1135 1.6669
-13.1122 -14.6939 2.12827
-14.6423 -14.2191 1.91735
-13.0061 -14.6876 0.418853
-13.2743 -14.4768 -0.101773
-12.2429 -15.3869 0.605992
-12.1667 -15.3415 0.640803
-12.8632 -14.6617 -0.678771
-13.2955 -14.5576 2.10508
-11.5766 -14.0249 2.18676
-12.9765 -15.0413 0.00848097
-13.046 -14.858 0.411535
-12.7023 -14.6522 -1.23778
-15.0509 -13.9047 2.08057
-15.4063 -13.4875 2.15325
-15.0305 -13.7927 1.82642
-15.0798 -13.7864 1.61468
-15.2308 -13.4606 1.46471
-15.5243 -13.0972 1.14027
-15.2698 -13.3089 1.21648
-15.2249 -13.4054 1.15288
-15.1705 -13.5591 1.17898
-15.8362 -12.7808 1.06283
-11.1809 -14.2454 1.89064
-13.6109 -14.2823 1.33429
-14.7247 -13.9717 1.1734
-15.563 -12.8892 1.02138
-13.8812 -14.1632 1.21432
-13.9756 -14.0319 1.19515
-15.5251 -13.0917 0.900543
-15.4022 -13.0114 0.981077
-15.494 -13.0966 0.991027
-15.7317 -12.7051 0.746024
-14.8393 -13.6701 0.765459
-15.823 -12.725 0.712104
-15.3859 -13.0809 0.729928
-14.881 -13.6725 0.770438
-13.8966 -14.4581 0.940468
-14.0336 -14.0611 0.912328
-14.6639 -13.8062 0.791934
-14.7663 -13.7524 0.732316
-12.6395 -14.9724 0.880098
-13.7474 -14.3932 0.560696
-13.9903 -13.6075 0.452339
-15.031 -13.1983 0.273966
-12.2451 -15.2609 0.822361
-15.8498 -12.4157 0.152375
-13.0365 -14.8952 0.539495
-15.4759 -12.7902 0.27237
-15.3926 -13.0004 0.227555
-15.4289 -12.945 0.186998
-13.552 -14.399 0.436783
-15.4866 -12.9377 0.181112
-13.5583 -14.4086 0.452171
-15.2678 -13.2042 0.196676
-14.7183 -13.6233 0.311072
-15.7699 -12.5028 0.199465
-13.4445 -14.4974 0.389676
-14.6039 -13.7733 0.155475
-15.234 -12.9363 -0.052715
-12.1777 -15.3954 0.584897
-15.5072 -12.7202 -0.146423
-15.5017 -12.6805 -0.142846
-14.4906 -13.8905 -0.0883872
-15.2794 -12.8998 -0.0968451
-14.4747 -13.8159 -0.0711648
-15.3379 -12.8538 -0.131133
-13.6488 -14.3738 0.100953
-13.7174 -14.222 0.0877815
-14.9768 -13.2668 -0.307299
-14.9117 -13.3082 -0.217124
-15.2831 -12.9019 -0.31203
-14.9858 -13.274 -0.424776
-14.8502 -13.3651 -0.364079
-14.7683 -13.6122 -0.359212
-14.7111 -13.4406 -0.353785
-14.7028 -13.4368 -0.357718
-14.7126 -13.491 -0.229976
-14.7775 -13.6295 -0.372858
-14.4245 -13.8203 -0.287423
-14.9956 -13.159 -0.474023
-15.1308 -13.022 -0.433951
-14.8238 -13.2818 -0.509028
-14.5725 -13.5124 -0.453567
-15.2049 -12.8195 -0.587657
-14.9317 -13.2184 -0.417315
-14.5543 -13.6369 -0.515081
-12.6486 -14.8866 -0.195033
-14.81 -13.3155 -0.643558
-15.0303 -13.05 -0.651914
-14.7857 -13.3868 -0.710807
-14.6997 -13.365 -0.867615
-14.7325 -13.2708 -0.96772
-14.8688 -13.173 -1.00172
-14.7275 -13.2965 -1.07357
-12.4581 -15.1241 -0.565748
-12.7815 -14.6291 -0.936544
-14.6313 -13.3032 -1.20939
-14.6308 -13.2593 -1.29413
-12.1286 -15.7569 -1.00148
-14.5535 -13.3934 -1.42498
-12.3559 -15.2876 -1.70268
-12.4092 -15.1276 -1.77069
-14.6729 -14.3891 2.69512
-15.0048 -13.9323 2.43305
-13.088 -14.6976 2.71189
-15.34 -13.596 2.29625
-14.7987 -14.3752 2.53792
-15.1422 -13.8246 2.25897
-14.9026 -14.0825 2.26179
-15.0703 -13.8879 2.30549
-14.8369 -14.1682 2.36739
-15.0292 -13.7834 2.21553
-14.5549 -14.5535 2.24078
-15.42 -13.4815 2.0684
-14.8822 -13.8501 1.99896
-15.2196 -13.687 1.82108
-14.6687 -14.3025 1.96682
-15.1214 -13.5999 1.6872
-11.8264 -13.9765 2.11857
-15.0643 -13.877 1.53892
-11.8801 -13.9786 2.19639
-14.6122 -14.3458 1.75688
-15.163 -13.4747 1.56488
-14.8935 -13.9666 1.46577
-15.0739 -13.6126 1.33753
-14.755 -13.8844 1.30107
-13.4422 -14.3579 1.51635
-13.1845 -14.4164 1.54553
-13.3562 -14.4489 1.53339
-15.6966 -13.0261 1.09152
-15.2271 -13.4709 1.16237
-15.4475 -13.1776 1.08543
-11.1898 -14.2545 1.86694
-13.1405 -14.6131 1.44987
-12.9655 -14.7271 1.31228
-14.8932 -13.6223 0.85882
-10.8276 -14.5682 1.77876
-14.9378 -13.7061 0.872724
-14.7973 -13.6638 0.797321
-15.5807 -12.6918 0.638843
-14.6381 -13.8294 0.736653
-14.7394 -13.7482 0.722592
-14.8439 -13.7269 0.410304
-15.0712 -13.3793 0.477997
-14.6249 -13.6972 0.537772
-14.7853 -13.6805 0.49263
-14.7056 -13.6916 0.477477
-13.5438 -14.6354 0.590313
-15.296 -12.9881 0.275618
-10.721 -14.6035 1.38749
-15.7544 -12.4866 0.187503
-12.3011 -15.2527 0.716559
-15.7655 -12.5077 0.0276753
-15.2106 -13.0516 0.104129
-15.6158 -12.513 0.115612
-14.6276 -13.8239 0.102369
-12.1066 -15.4033 0.57102
-14.7116 -13.6198 -0.114731
-15.0607 -13.175 -0.0845368
-13.6763 -14.436 -0.0100942
-12.8514 -15.0435 0.239515
-14.7266 -13.5835 -0.188748
-12.7663 -14.9907 0.228414
-14.9886 -13.4091 -0.254416
-14.9086 -13.1704 -0.299447
-12.6887 -14.8683 0.104135
-12.7131 -14.9983 0.05208
-14.9129 -13.1063 -0.501059
-14.9709 -13.1412 -0.40657
-15.387 -12.7302 -0.574088
-13.1536 -14.5575 -0.220785
-14.8322 -13.234 -0.53881
-12.4927 -14.9381 -0.130642
-12.1729 -15.5331 -0.330127
-14.9844 -13.035 -0.800471
-14.571 -13.6437 -0.743805
-14.9045 -13.2941 -0.825566
-14.4699 -13.6482 -0.824562
-14.6571 -13.4776 -0.940648
-14.5184 -13.4707 -1.0719
-14.5558 -13.6061 -1.15357
-12.4439 -15.152 -0.813313
-14.4941 -13.5651 -1.21569
-14.5651 -13.337 -1.28019
-14.5411 -13.3856 -1.31381
-13.1153 -14.1744 -1.36114
-13.0204 -14.2733 -1.36532
-12.9074 -14.3903 -1.66759
-13.237 -13.7266 -1.75312
-12.5104 -14.4617 -1.85462
-12.6847 -14.1873 -1.77349
-13.1123 -13.7802 -1.97646
-12.2604 -15.2746 -3.29249
-14.2955 -14.8632 2.45345
-14.8536 -14.11 2.31576
-14.9906 -13.9267 2.30763
-15.3438 -13.4382 2.06611
-14.4699 -14.4602 2.25573
-15.3342 -13.6402 2.11104
-12.1317 -14.096 2.42233
-13.45 -14.5285 2.35367
-14.6762 -14.2719 2.19845
-14.7922 -14.1638 2.19957
-14.8718 -13.8633 2.07479
-15.3863 -13.4846 1.87317
-15.473 -13.2989 1.77376
-15.4417 -13.3105 1.73422
-13.7084 -13.9984 1.80105
-15.4118 -13.1458 1.38827
-15.0041 -13.6721 1.43257
-11.4481 -13.9786 1.94798
-11.4397 -13.9973 2.00313
-14.9921 -13.7005 1.2784
-13.1597 -14.4927 1.55609
-15.1775 -13.3569 1.15678
-15.4149 -13.2605 1.08018
-15.1283 -13.4734 1.22645
-15.4058 -12.943 0.92871
-14.4701 -14.0678 0.963954
-13.9183 -14.0909 1.22671
-15.0461 -13.4437 0.97411
-14.9484 -13.5623 0.826248
-12.883 -14.7748 1.30192
-15.6484 -12.74 0.673564
-15.6368 -12.7392 0.718025
-14.763 -13.6368 0.713238
-15.6916 -12.6215 0.444025
-15.9418 -12.3722 0.460454
-15.4837 -12.9054 0.57832
-15.6358 -12.818 0.437149
-15.5996 -12.8172 0.4944
-15.3609 -12.998 0.445986
-13.6022 -14.5495 0.603502
-13.9748 -13.6517 0.61031
-12.688 -14.8815 0.779626
-14.8119 -13.6353 0.365203
-15.394 -12.9667 0.211114
-15.7274 -12.4027 0.176388
-15.2037 -13.0503 0.217967
-15.6724 -12.6637 0.0832046
-14.9095 -13.4799 0.0239842
-12.0728 -15.4679 0.507057
-12.7367 -14.96 0.232294
-13.7376 -14.2464 -0.0454068
-15.398 -12.7265 -0.332596
-14.7924 -13.4634 -0.359521
-14.953 -13.1709 -0.463172
-14.8794 -13.3305 -0.575729
-12.1906 -15.4087 -0.424696
-14.8639 -13.2668 -0.782153
-12.2688 -15.3948 -0.65955
-12.3505 -15.1311 -0.865687
-12.1076 -15.7349 -0.80465
-12.1372 -15.7506 -0.958181
-13.1704 -14.4069 -0.978451
-12.0555 -15.663 -1.19212
-12.8764 -14.5777 -1.40887
-12.2887 -15.1929 -1.74379
-12.9486 -14.0193 -2.02443
-15.3904 -13.5657 2.02974
-14.9341 -13.9954 1.86722
-14.9034 -14.0118 1.94225
-14.4508 -14.5148 1.83967
-14.8287 -14.0849 1.65037
-14.5441 -14.3 1.71979
-13.6433 -14.1571 1.81995
-14.6709 -14.2276 1.7454
-14.7893 -13.9987 1.69603
-13.7089 -14.2403 1.88223
-13.7618 -13.9757 1.72078
-15.0721 -13.6281 1.42858
-10.4902 -14.467 2.15966
-11.378 -13.8848 2.06037
-15.2564 -13.4653 1.2117
-13.9744 -14.0506 1.219
-13.1657 -14.5175 1.28808
-11.1928 -14.1286 1.73289
-12.8516 -14.8111 1.20942
-12.9148 -14.7613 1.20833
-15.8056 -12.6306 0.40228
-15.4647 -12.828 0.470818
-14.8648 -13.609 0.517398
-15.4258 -12.9226 0.24946
-13.8151 -14.42 0.532197
-10.5876 -14.7393 1.30475
-13.2739 -14.8379 0.551088
-15.8435 -12.429 0.162145
-15.4315 -12.9127 -0.00841141
-11.9818 -15.6898 0.56866
-12.976 -14.8652 0.246689
-12.6658 -15.0378 0.270428
-12.5736 -14.9591 0.12174
-12.4772 -14.8167 -0.0879618
-15.183 -12.845 -0.553302
-14.4712 -13.6024 -0.560785
-14.8814 -13.2599 -0.709946
-13.7268 -14.0494 -0.322785
-14.9778 -13.0216 -0.90879
-12.2458 -15.3787 -0.546074
-12.489 -15.0382 -0.902193
-12.1364 -15.7404 -1.03847
-12.4781 -14.7668 -1.0301
-12.4321 -14.7201 -1.01597
-13.3138 -13.5976 -1.16196
-12.6367 -14.4447 -1.81512
-12.0793 -14.8379 -2.25825
-14.319 -14.7473 2.89334
-14.8702 -14.2537 2.75837
-13.5003 -14.4644 2.81234
-13.076 -14.8385 2.69363
-13.5336 -14.3592 2.31347
-13.689 -14.135 1.77521
-14.615 -14.2041 1.64847
-14.9444 -13.7738 1.39219
-15.0982 -13.5514 1.24742
-14.9774 -13.6511 1.04061
-14.8748 -13.6342 1.02194
-14.7884 -13.6297 0.700064
-14.5854 -13.8973 0.620815
-13.4253 -14.886 0.607675
-15.1731 -13.2053 0.255683
-14.5011 -13.8497 -0.0820741
-13.0417 -14.8117 0.171636
-11.8752 -15.7995 0.298967
-13.2894 -14.4411 -0.214652
-13.2979 -14.3936 -0.217658
-12.2909 -15.4866 -0.500114
-12.2668 -15.4901 -0.436807
-12.3425 -15.3201 -0.535574
-13.8272 -13.658 -0.77554
-14.5578 -13.408 -1.08084
-14.5552 -13.4932 -1.03058
-12.4065 -15.2133 -0.866228
-12.402 -14.9829 -0.949219
-12.7133 -14.6342 -1.38899
-13.1908 -13.7576 -1.43873
-12.8717 -14.4618 -1.38861
-13.2745 -13.7095 -1.65975
-12.4613 -14.6519 -2.38234
-12.6371 -14.2843 -2.2936
-13.4826 -14.4571 2.32622
-15.4674 -13.2094 1.03571
-15.367 -13.269 1.25282
-15.7488 -12.7703 0.818324
-10.9838 -14.3621 1.69495
-14.8037 -13.75 0.675237
-15.5682 -12.8195 0.613065
-12.0701 -15.3676 0.650897
-13.3995 -14.4815 0.208404
-13.2632 -14.1326 -0.459485
-12.1954 -15.5964 -1.3491
-13.3365 -13.7174 -1.18925
-11.9709 -15.5622 -1.40067
-13.0011 -14.0384 -1.97003
-12.291 -15.2147 -3.32545
-14.9412 -14.0256 2.40576
-15.3133 -13.5361 2.02129
-11.1354 -14.251 1.91531
-11.2013 -14.1809 1.68822
-12.9557 -14.6688 1.19198
-14.6875 -13.6956 0.792937
-13.7362 -14.4448 0.592818
-14.7641 -13.631 0.243785
-13.1837 -14.73 0.438891
-13.7262 -14.1639 0.0431976
-13.6467 -14.1727 -0.0781422
-12.9339 -14.6461 -0.962641
-12.1147 -14.9564 -2.16292
-15.0498 -13.6337 1.6074
-14.4439 -14.2662 1.66658
-14.9336 -13.8437 1.28597
-14.7587 -13.8879 1.04579
-12.7928 -14.8515 -0.31109
-13.8973 -13.4496 -0.781563
-13.8885 -13.6355 -0.737898
-12.3716 -15.0425 -0.948943
-13.1141 -14.2578 -1.4243
-11.2861 -14.0432 2.35976
-13.3781 -14.5994 2.08249
-13.2811 -14.6225 -0.0361545
-13.1842 -14.2938 -0.715414
-13.5821 -13.6031 -1.38514
-13.8349 -13.9457 -0.368015
-13.4686 -14.2739 -0.451525
-11.5061 -13.8799 1.92213
-13.2198 -14.2059 -0.501367
-12.7899 -14.5206 2.31605
-14.7287 -13.3525 -1.0845
-15.5839 -12.5852 -0.0661864
-15.1163 -13.1314 -0.451211
-15.2347 -13.0244 -0.386403
-14.4711 -13.6215 -0.835078
-14.9123 -13.2134 -0.510663
-15.2569 -12.9655 -0.121937
-15.0288 -13.2656 -0.26438
-13.8568 -13.5974 -0.75878
-12.7627 -14.3827 -1.53481
-14.652 -13.5538 -0.452058
-14.8573 -13.4532 -0.331622
-15.1304 -13.2866 -0.120581
-14.8814 -13.3552 -0.325945
-14.8662 -13.4133 -0.291163
-15.6842 -12.7129 0.616972
-15.5471 -12.8059 0.622903
-15.6107 -12.9711 0.631142
-13.8224 -14.0091 -0.33619
-14.5229 -13.8416 0.0237933
-13.8423 -14.0355 -0.237289
-15.7041 -12.7053 0.975997
-15.191 -13.276 0.60046
-15.0384 -13.4131 0.437601
-14.7461 -13.6033 0.166786
-14.5136 -13.7196 0.0982525
-14.9079 -13.5617 0.358047
-14.806 -13.5316 0.466242
-14.9106 -13.5761 0.540471
-15.3919 -13.2259 1.03754
-15.1889 -13.356 0.898704
-14.8648 -13.7401 0.567021
-15.5479 -13.1007 1.14814
-15.3451 -13.1491 1.0632
-15.1345 -13.3747 1.10051
-14.8677 -13.7281 0.773887
-14.7761 -13.7247 0.563808
-14.7804 -13.7309 0.734764
-14.718 -13.8431 0.676137
-14.6792 -13.909 0.748622
-15.148 -13.4542 1.20134
-15.2784 -13.4803 1.2633
-15.2079 -13.4246 1.22509
-14.5583 -14.1351 0.856792
-12.7036 -15.0326 -0.24125
-15.2201 -13.4499 1.4468
-13.565 -14.4627 0.292261
-12.4759 -14.8949 -0.0211385
-14.0441 -14.0489 0.913826
-15.1748 -13.5641 1.44947
-15.335 -13.5212 1.64671
-14.0695 -14.061 0.935797
-15.4865 -13.2372 1.80514
-15.4536 -13.4536 1.74322
-12.7208 -14.8438 0.219998
-12.8618 -14.8893 0.282547
-12.8668 -14.9095 0.207447
-13.1323 -14.9121 0.326185
-14.8144 -13.9153 1.27197
-12.1411 -15.5648 -0.164375
-14.9686 -13.8786 1.66796
-13.76 -14.1642 1.18418
-15.1726 -13.6525 1.89252
-14.9502 -13.7777 1.80865
-14.886 -13.9397 1.76882
-14.9298 -13.9328 1.94636
-13.0133 -14.5467 1.23947
-13.5868 -14.0766 1.59446
-15.0365 -13.8841 2.28699
-11.9918 -15.571 0.513512
-15.3386 -13.7701 2.47639
-15.3222 -13.707 2.46745
-13.3685 -14.3834 1.53496
-11.8576 -15.7516 0.487374
-13.1876 -14.6529 1.40011
-13.3462 -14.359 1.67287
-13.3475 -14.5018 1.60106
-13.2744 -14.4158 1.74555
-15.1348 -13.8895 2.39993
-14.6911 -14.3033 2.21666
-15.0192 -13.9868 2.3706
-15.1096 -13.9934 2.52151
-15.1711 -13.7902 2.64403
-14.76 -14.2971 2.54968
-13.359 -14.5061 2.17411
-14.7352 -14.2939 2.65943
-14.6793 -14.3578 2.70561
-14.9569 -14.3198 3.00772
-13.3021 -14.6209 2.2678
-11.3144 -14.1136 1.70802
-14.4118 -14.8227 2.60359
-14.8676 -14.4306 2.99467
-14.6925 -14.4095 3.27247
-14.3741 -13.5451 -1.4598
-12.6024 -14.2299 -2.31126
-15.4446 -12.7247 -0.0837037
-15.0591 -13.0836 -0.418565
-14.6469 -13.5134 -0.831507
-15.0983 -13.1212 -0.410506
-15.085 -13.2217 -0.445856
-15.5825 -12.7217 0.0646848
-15.2331 -12.9879 -0.0306824
-15.4297 -13.0405 0.281771
-15.6765 -12.7083 0.53508
-15.7537 -12.6831 0.561032
-12.8223 -14.4984 -1.28083
-15.3959 -12.9811 0.44229
-14.9355 -13.4776 0.293794
-14.4729 -13.8231 0.0132715
-15.0272 -13.382 0.42635
-14.6031 -13.8393 0.0792769
-15.3652 -13.2103 0.936053
-12.327 -15.2044 -0.894019
-13.6404 -14.346 -0.0622008
-14.7254 -13.723 0.612265
-14.7596 -13.7788 0.735584
-14.8953 -13.6585 0.85986
-13.1452 -14.6058 -0.0725893
-15.4204 -13.1594 1.35041
-15.4193 -13.3127 1.42613
-15.3716 -13.2765 1.434
-15.1992 -13.4181 1.29818
-15.1083 -13.4781 1.20241
-15.1491 -13.3796 1.17364
-13.048 -14.7398 0.00509381
-15.0648 -13.6098 1.20648
-13.1494 -14.7359 0.131026
-12.3394 -15.3962 -0.485878
-14.6092 -13.8948 0.885299
-13.3727 -14.712 0.33044
-14.5518 -14.1147 0.999668
-15.1474 -13.6319 1.55654
-13.0079 -14.7808 0.389659
-14.7645 -14.0475 1.39895
-14.9191 -13.8826 1.652
-14.9023 -13.8548 1.77086
-14.6955 -14.0105 1.61836
-14.9741 -13.7655 1.9083
-14.6403 -14.3075 1.74916
-14.4759 -14.3429 1.87001
-14.5098 -14.4066 1.8653
-14.5554 -14.5155 1.80796
-15.1387 -13.8371 2.22191
-13.4158 -14.4295 1.51304
-15.0425 -14.1847 3.02731
-14.5828 -14.4893 2.79541
-15.008 -14.1514 2.96525
-10.8065 -14.4621 1.59067
-12.3154 -15.3592 -3.12702
-13.3528 -13.8617 -1.06583
-15.0052 -13.2807 -0.470709
-14.999 -13.222 -0.388729
-15.5726 -12.7988 0.288846
-14.3325 -13.8205 -0.418938
-15.1252 -13.4014 0.740299
-15.0106 -13.4912 0.615055
-13.5057 -14.4077 -0.155954
-11.9827 -15.626 -0.862429
-14.6609 -14.0281 0.919343
-14.8845 -13.7204 1.17675
-12.3355 -15.4332 -0.304093
-15.3833 -13.4041 1.77326
-12.6312 -14.9497 0.24869
-12.7291 -14.9853 0.269655
-14.9795 -13.7284 1.68731
-14.487 -14.2793 1.6368
-11.9892 -15.4926 0.485193
-13.0423 -14.53 1.1217
-12.3454 -15.0454 0.937543
-12.8878 -14.8941 1.17121
-13.2082 -14.4961 1.63586
-15.0632 -13.9859 2.39259
-11.2077 -14.1003 1.65502
-15.1443 -14.0547 3.1598
-11.0967 -14.2277 1.72648
-13.4919 -13.5425 -1.49773
-13.6702 -13.5429 -1.20789
-13.2284 -13.815 -1.52753
-13.0938 -14.2575 -1.47686
-15.0809 -13.2507 -0.359935
-15.4711 -13.0318 0.8513
-14.7993 -13.9863 1.28408
-15.0407 -13.6639 1.38149
-14.7719 -14.0936 1.50196
-14.5439 -14.1901 1.67509
-13.4416 -14.3516 1.42297
-13.3706 -14.2622 1.47815
-14.6176 -14.2576 1.93183
-15.131 -13.9788 2.86188
-14.9769 -14.0736 2.66017
-13.4816 -14.5301 2.0194
-14.6329 -14.4895 2.9254
-11.9325 -14.0588 2.22898
-13.3316 -13.6904 -1.15186
-14.8352 -13.3542 -0.598381
-12.9656 -14.3794 -1.35949
-12.8751 -14.5421 -1.2614
-15.6685 -12.8623 0.955036
-12.4854 -14.7581 -1.08274
-14.3572 -13.9207 -0.0530091
-15.3888 -13.0808 0.875904
-12.3597 -15.1262 -0.83574
-15.2903 -13.5272 0.918257
-14.7101 -13.6792 0.705193
-13.5949 -14.5098 0.279874
-14.7566 -13.881 1.28646
-12.6561 -15.0522 0.242552
-14.6641 -14.2593 1.76401
-13.6179 -14.1299 1.61831
-14.6367 -14.1898 1.84268
-13.7273 -14.118 1.88623
-13.6782 -14.2149 1.89693
-13.4483 -14.2636 1.9756
-13.6325 -14.4634 2.65182
-14.5835 -14.622 3.10589
-14.4533 -13.6883 -0.612604
-14.9562 -13.6891 0.945077
-12.664 -14.9189 0.233658
-13.932 -14.0732 1.29106
-12.7358 -15.0668 0.820047
-12.1554 -15.4062 0.583272
-14.5854 -14.2606 2.13912
-13.4681 -14.3845 2.04871
-13.8277 -13.4733 -0.792833
-12.5063 -14.518 -1.8243
-13.4572 -14.0674 -0.420182
-13.0659 -14.6541 0.112742
-12.8801 -14.9137 0.433282
-13.4849 -14.1273 1.54955
-13.4402 -14.4588 2.06733
-11.3896 -13.9805 1.82406
-12.4769 -14.9557 -1.13937
-13.5493 -14.5039 0.441559
-15.0468 -13.9695 2.21238
-14.9232 -13.5559 0.783052
-14.8565 -13.659 0.688829
-12.9194 -14.8811 0.87513
-14.604 -13.6581 0.639707
-13.0688 -15.0177 0.466655
-13.0723 -14.633 1.22126
-11.9979 -15.6216 0.631606
-12.6819 -14.8459 -1.10219
-14.7003 -14.3467 2.29696
-13.4108 -14.3278 2.39621
-14.3486 -13.4306 -1.6039
-14.3858 -13.5586 -1.07359
-14.7062 -13.5252 -0.371486
-15.3207 -13.2665 0.599169
-14.6832 -13.6141 -0.311114
-14.9658 -13.4443 0.416666
-14.9804 -13.5322 0.769906
-14.4437 -13.8606 0.0440024
-15.2076 -13.4117 1.18266
-15.4583 -13.3741 1.76766
-14.772 -13.7546 0.658155
-14.8892 -13.7884 0.912486
-14.9415 -13.8094 1.32117
-14.8643 -13.791 1.45089
-15.0762 -13.8309 1.95873
-15.1105 -13.8231 2.02126
-14.8396 -13.9068 1.80178
-15.2187 -13.8619 2.35084
-15.1313 -13.856 2.32993
-14.0097 -14.1021 1.14764
-14.6947 -14.1999 1.68533
-13.5364 -14.5131 0.426335
-13.7474 -14.0838 1.08889
-14.5716 -14.0989 1.66658
-14.5582 -14.3789 1.85025
-15.0622 -14.0288 2.65686
-13.1553 -14.6835 0.142269
-14.8919 -14.2395 2.03666
-14.8331 -14.2835 2.48406
-14.688 -14.352 2.49749
-14.5626 -14.4791 2.02261
-13.6089 -14.2052 1.57478
-14.98 -14.207 3.02664
-13.0245 -14.8701 0.394894
-12.3145 -15.25 -0.741423
-12.5819 -14.8502 0.0186275
-14.64 -14.3801 2.53316
-12.4387 -14.9198 0.173469
-12.385 -15.3398 -0.55514
-14.785 -14.4103 3.36475
-12.2381 -15.4396 -0.30951
-12.9039 -14.8204 1.28033
-12.8044 -14.6783 1.22056
-13.4735 -14.3563 2.77726
-11.903 -13.9639 2.11716
-10.9874 -14.4016 2.30377
-14.735 -13.2311 -0.790759
-15.2333 -13.2311 0.25982
-15.0269 -13.2082 0.132135
-15.3751 -13.054 1.0405
-15.1345 -13.4077 1.34258
-15.0697 -13.6516 1.16036
-14.7056 -13.6481 0.77545
-14.8341 -13.7468 0.813377
-14.6402 -13.8515 0.700088
-13.9683 -13.5039 0.672204
-12.37 -14.6878 -2.33954
-12.321 -15.3072 -3.24262
-12.3614 -14.7469 -2.21526
-15.3527 -13.4915 2.0963
-12.907 -14.4731 -1.28436
-12.0956 -14.8656 -2.24785
-14.569 -14.0835 1.03259
-14.9681 -13.8691 1.96076
-15.1325 -13.843 2.28087
-13.9538 -14.3166 0.831352
-13.4426 -14.4488 0.431334
-14.7007 -14.092 1.7888
-14.6459 -14.2703 1.59004
-14.6817 -14.2884 1.70245
-13.0677 -14.7856 -0.0128761
-14.5208 -14.3259 1.83698
-14.6364 -14.3262 1.84782
-13.7747 -14.0611 1.59037
-13.4064 -14.8445 0.583983
-14.9111 -14.2575 2.81177
-12.3604 -15.3994 -0.559673
-13.1661 -14.5104 1.23297
-14.2855 -14.8925 2.50427
-14.295 -14.7595 2.54639
-12.689 -15.0615 0.813609
-13.4796 -14.4761 2.77519
-10.8233 -14.451 1.22526
-11.3093 -14.1809 2.03191
-11.31 -14.1337 2.50569
-15.2982 -12.8509 -0.237053
-15.6467 -12.9311 1.13517
-15.4214 -13.1844 1.08981
-14.6137 -13.7476 -0.157057
-12.4575 -14.399 -1.91358
-13.3212 -14.0657 -0.385693
-13.0322 -14.3764 -1.16207
-14.6808 -14.0286 0.946787
-14.9326 -13.7553 1.65682
-14.7 -13.9794 1.20859
-15.3736 -13.5049 2.56707
-14.692 -14.1266 1.63112
-13.6351 -14.3805 0.27747
-14.7393 -14.1484 1.69935
-15.0192 -13.9528 2.45812
-13.2221 -14.4942 0.119379
-15.1144 -13.9079 2.77727
-15.2386 -13.9761 2.78464
-14.7285 -14.2752 1.9593
-14.8181 -14.1271 2.08344
-13.1936 -14.6088 0.0953866
-15.1405 -13.9391 2.89608
-12.9526 -14.9354 0.276087
-13.3183 -14.4281 1.32663
-12.9332 -15.0784 0.211324
-14.3588 -14.8098 2.45217
-13.273 -14.6352 2.23938
-13.4328 -14.5748 2.54189
-15.7515 -12.738 1.09357
-14.3289 -13.9999 -0.418082
-13.7788 -13.7546 -0.428376
-14.9298 -13.6425 0.804993
-14.725 -13.8135 0.92338
-15.2346 -13.419 2.05161
-13.3071 -14.1125 -0.380257
-15.3983 -13.6368 2.38795
-14.3932 -14.2437 1.24503
-15.095 -14.0579 2.79741
-12.2057 -15.3194 -1.33991
-13.1617 -14.7701 0.36776
-13.7198 -14.1211 2.0247
-12.2694 -15.279 -0.581903
-13.3582 -14.3444 1.60369
-12.748 -15.0802 0.455489
-14.1726 -14.758 2.70406
-13.1622 -14.7694 2.21011
-13.2024 -14.7837 2.67369
-13.0364 -14.732 2.59463
-14.9811 -13.3753 -0.249321
-13.398 -13.8151 -1.25891
-14.6828 -13.7474 0.153004
-14.7335 -13.7935 0.834883
-13.6899 -14.4026 0.124998
-14.6019 -14.1382 1.6697
-12.4019 -15.1514 -0.557582
-13.7066 -14.056 2.07633
-14.7199 -14.41 2.74236
-13.0223 -14.7776 0.844672
-13.4594 -14.3645 2.01455
-12.6735 -15.0731 0.645527
-12.709 -14.997 0.713312
-13.421 -14.4345 2.3903
-12.4288 -15.1802 1.05212
-13.6388 -14.1094 -0.411032
-14.6306 -14.1758 1.82658
-14.6072 -14.2609 1.79722
-13.0522 -14.7885 0.99534
-14.5525 -14.3056 1.52655
-14.516 -14.1503 1.67497
-14.7018 -14.1765 1.84589
-13.2529 -14.453 1.3806
-13.624 -14.3147 2.2358
-13.4653 -14.4023 2.65911
-13.1234 -14.7067 2.67199
-13.7139 -13.7567 -1.04192
-14.6267 -13.961 0.980993
-12.1315 -15.5542 -1.10017
-12.0782 -15.5002 0.449714
-13.6835 -14.4542 0.672959
-13.6633 -14.0431 -0.452567
-14.6883 -14.0078 1.0565
-12.1367 -14.3954 -2.81356
-14.7276 -14.2937 2.22068
-13.7024 -14.1747 2.14239
-15.4858 -13.1325 0.991608
-15.0377 -13.0179 -0.394778
-14.8661 -13.2484 -0.768887
-14.7292 -13.3139 -1.03149
-14.8506 -13.6519 0.963014
-14.77 -13.7876 0.692559
-14.7543 -13.9111 0.834662
-13.7329 -13.5157 -1.17348
-14.0294 -13.4858 0.657607
-14.5741 -14.0852 1.05108
-14.6627 -14.0262 1.53247
-13.3665 -13.5687 -1.23651
-14.6741 -14.2133 1.7441
-13.7786 -14.2352 0.250411
-14.265 -14.7867 2.52918
-13.0787 -14.5592 -0.101289
-12.9819 -14.8034 0.100303
-13.0453 -14.8581 0.815807
-12.9123 -14.957 0.00824968
-12.3733 -15.0178 -0.875164
-12.3454 -15.1294 -0.662274
-12.2925 -15.2652 -0.781097
-12.1321 -15.7768 -0.805822
-11.8137 -15.6653 0.26981
-11.2948 -14.0127 2.36777
-15.7907 -12.7545 1.08281
-15.7355 -12.8732 1.21223
-15.3043 -13.1697 0.317231
-15.3284 -13.5691 1.9934
-15.257 -13.7547 2.20604
-14.6104 -13.5243 -1.14554
-14.5024 -13.6112 -0.980349
-14.3297 -13.5867 -1.32718
-15.1762 -13.9896 2.92749
-15.0238 -13.9656 2.50908
-14.7675 -14.0049 1.19147
-13.2854 -13.6246 -1.30956
-13.2872 -13.8115 -1.22844
-13.6455 -14.1298 -0.0792535
-13.6775 -14.4325 0.0393003
-14.3724 -14.8683 2.43139
-12.9389 -14.3513 -1.32672
-12.9658 -14.3803 -1.05794
-13.5075 -14.2396 1.52103
-12.5269 -14.3501 -2.1099
-13.2415 -14.5284 2.19615
-12.4989 -14.7324 -1.01602
-12.6883 -15.145 -0.33738
-12.5531 -14.8651 0.175318
-12.7867 -15.0574 0.593846
-12.1601 -15.6939 -0.736037
-12.1866 -15.4067 0.597321
-14.7418 -13.8731 0.674999
-15.0009 -13.9335 2.21565
-13.3994 -13.8025 -1.18918
-13.9087 -14.0711 1.499
-13.7024 -14.0847 -0.212122
-14.4391 -14.4447 1.78829
-13.3537 -14.066 -0.345092
-12.932 -14.3552 -1.11174
-13.1978 -14.515 -0.139329
-13.1585 -14.5445 -0.310707
-13.4177 -14.4764 2.82914
-12.9852 -14.9161 0.705241
-12.4315 -15.1933 -0.579387
-12.2962 -15.2801 -0.513632
-12.2154 -15.3018 -0.692862
-15.6098 -12.7311 0.598115
-15.3671 -13.5932 1.93317
-13.4231 -13.697 -1.24405
-14.5579 -14.2394 1.51296
-14.5402 -14.4227 2.32657
-13.074 -14.6 0.0197857
-13.1422 -14.5367 -0.0330259
-12.6027 -14.3205 -1.85681
-13.2042 -14.5696 0.112959
-13.0226 -14.7577 0.30017
-12.9569 -14.9288 0.334025
-12.0536 -15.2118 -3.93508
-12.2706 -15.244 -0.748843
-12.2605 -15.4149 -0.455779
-12.1879 -15.543 -0.336872
-15.2352 -13.1057 0.0264993
-14.9924 -14.2065 3.12221
-13.1016 -14.6343 0.0794535
-13.0474 -14.7969 0.0879513
-13.0118 -14.8176 0.411804
-12.3376 -15.1927 -0.660054
-12.0841 -15.3822 0.568322
-12.0711 -15.4457 0.630768
-14.7331 -13.9363 1.09086
-14.6745 -14.2457 1.78312
-14.6303 -14.1669 1.86779
-13.2088 -14.6211 0.00759447
-13.4072 -14.559 2.14656
-12.3668 -15.1161 -0.917572
-13.475 -14.4016 2.12972
-13.5829 -13.6543 -1.17113
-14.6851 -14.1522 1.31726
-13.3382 -14.6323 2.17871
-12.7997 -15.0323 0.00516663
-13.6015 -14.2981 2.73558
-12.4809 -14.5234 -1.28755
-14.9484 -13.6713 1.0749
-12.738 -14.9438 0.712743
-15.8122 -12.8474 1.22254
-15.134 -13.8085 2.05757
-14.7193 -14.4205 2.59036
-14.845 -13.7838 0.671593
-14.639 -13.8418 0.700487
-14.4513 -13.8552 0.0495007
-13.4126 -14.2349 1.58706
-13.3004 -14.4069 1.61987
-13.2175 -14.4667 -0.102959
-13.1213 -14.4527 -0.334938
-12.6715 -14.998 0.584437
-12.611 -14.8885 0.0614065
-12.5229 -14.872 -0.0765197
-12.2529 -15.1948 -0.570016
-10.8439 -14.367 1.48358
-10.8594 -14.5188 1.61063
-15.5525 -13.0888 1.30247
-15.5655 -12.7023 -0.223502
-15.3281 -13.5849 2.06365
-15.4659 -13.0953 0.451062
-15.3112 -13.2304 0.82451
-15.1902 -13.7718 2.00851
-15.2949 -13.1269 0.377131
-15.1271 -13.8548 2.109
-15.176 -13.098 -0.469414
-14.987 -13.5991 0.860813
-14.9132 -13.6422 0.950443
-14.6524 -14.2667 1.69748
-14.7091 -13.2988 -1.10918
-14.4374 -13.7443 0.0247518
-13.9898 -14.2254 0.812566
-13.61 -14.3965 0.13628
-13.2438 -13.7379 -1.35541
-13.2264 -13.8232 -1.31482
-13.129 -14.6021 0.188364
-13.1174 -14.5989 0.16568
-13.052 -14.5593 -0.118085
-11.8222 -14.0272 2.25533
-13.13 -14.2383 -0.917295
-13.0574 -14.8866 0.42272
-12.9231 -14.6687 -0.58582
-12.5388 -14.8272 -0.109302
-12.5842 -14.8496 -0.046827
-12.5614 -15.0912 0.133006
-12.5219 -14.3351 -2.28841
-12.2594 -15.2667 0.562166
-12.3611 -15.2008 -0.740916
-12.1496 -15.8481 -0.711372
-12.0284 -15.4014 -3.27247
-12.1105 -15.3487 -3.83161
-15.5108 -12.6902 0.0785357
-15.3445 -13.5864 1.93175
-15.3045 -12.9467 0.395077
-15.3725 -13.0509 0.476247
-14.9409 -13.4712 0.620438
-14.9124 -13.4012 -0.400022
-14.8256 -13.3152 -0.683142
-14.4033 -14.4661 1.8671
-13.7528 -14.0742 1.85693
-14.4286 -13.5103 -1.10311
-13.4101 -14.3235 1.55332
-13.1305 -14.7851 2.65084
-13.7059 -14.4489 0.294227
-13.6565 -14.4376 0.280168
-13.4257 -14.7562 0.264188
-13.0237 -14.3411 -1.02945
-12.7584 -14.9895 0.258345
-12.6313 -15.1379 0.812888
-12.7579 -14.466 -1.51004
-12.762 -14.7138 -1.20926
-12.5223 -14.9819 0.130849
-12.6606 -14.725 -1.29109
-12.443 -15.0365 -0.821169
-12.3916 -15.2622 -0.537046
-12.1247 -15.3876 0.529889
-12.2902 -15.0804 -1.00544
-12.1559 -15.5674 -0.980802
-15.8414 -12.4732 0.345468
-15.5788 -12.7917 -0.0650133
-15.5169 -13.1707 1.12425
-15.4961 -13.0996 1.11903
-15.3354 -13.8469 2.75923
-14.9447 -13.4834 0.622677
-14.563 -14.4614 2.29469
-14.4402 -14.7059 2.84826
-14.5199 -13.8414 -0.033904
-14.3248 -13.5659 -1.46185
-13.2743 -14.4311 -0.294461
-13.2378 -14.4035 -0.295224
-13.0356 -14.7602 0.406631
-12.8538 -14.8926 0.267242
-12.827 -14.9383 0.311651
-12.378 -15.2461 -0.642692
-12.3624 -15.2327 -0.657401
-12.2915 -15.3675 -0.715318
-15.3903 -13.0878 0.96894
-15.4264 -13.1486 1.06764
-15.0534 -13.2518 -0.166757
-13.7673 -14.0059 1.75841
-13.1241 -14.5233 -0.0303868
-13.1136 -14.6901 0.0192245
-13.0949 -14.5943 -0.110035
-13.0563 -14.6855 0.0290435
-13.0224 -14.9427 0.496003
-13.0943 -14.3405 -0.871478
-13.0418 -14.6263 -0.214748
-12.9763 -14.83 0.387579
-12.794 -14.4772 -1.38297
-12.4041 -15.1013 -0.653778
-12.2853 -15.3822 -0.615811
-12.2538 -15.3673 -0.54155
-15.5574 -13.2503 1.47788
-14.7895 -13.6021 0.924011
-12.971 -14.7871 0.863607
-13.148 -14.6673 0.557951
-13.079 -14.5956 0.0497619
-12.9155 -14.3626 -1.46383
-14.978 -13.1153 -0.354213
-13.7458 -13.6079 -1.12106
-12.2477 -15.4076 -1.40801
-15.3272 -13.6121 2.05914
-14.2117 -13.5243 0.565483
-13.7383 -14.2133 -0.0727499
-12.7821 -15.0426 0.0998998
-12.3859 -14.6761 -1.40432
-12.0964 -15.8176 -0.88208
-13.5916 -14.3395 2.37791
-13.7305 -14.3139 0.332897
-13.1419 -14.2164 -0.751713
-12.1793 -15.026 -2.03317
-14.1298 -14.011 1.60165
-15.3688 -13.6655 2.05516
-15.2154 -13.5343 2.14721
-14.9855 -13.7955 1.63402
-15.4461 -12.8114 0.169734
-14.71 -14.0749 1.46223
-14.6625 -14.108 1.49536
-13.6848 -14.1855 1.83109
-14.6962 -13.7867 0.656227
-14.8712 -13.527 0.287638
-15.1267 -12.9319 -0.540117
-15.2006 -12.9952 -0.647553
-15.0973 -13.0564 -0.566688
-15.0578 -13.1615 -0.345986
-15.0806 -13.1917 -0.393746
-15.0772 -13.1687 -0.408953
-14.8722 -13.5156 -0.32465
-14.7285 -13.525 -0.348672
-14.9108 -13.1689 -0.625924
-14.8653 -13.2996 -0.727666
-14.817 -13.3271 -0.650678
-13.8081 -14.3452 1.01052
-14.5614 -13.7721 -0.115499
-13.8774 -14.4207 0.909831
-11.8506 -14.122 2.288
-13.1452 -14.5977 1.45647
-14.747 -13.307 -1.06048
-13.6844 -14.4057 0.0380578
-14.399 -13.4673 -1.53684
-12.8784 -14.6209 -0.721221
-12.8933 -14.6347 -0.596699
-12.096 -15.3873 0.538761
-12.3144 -15.2066 -0.707946
-12.3552 -15.2694 -1.80908
-12.388 -14.1502 -2.54616
-15.237 -13.7334 2.60575
-15.2544 -13.703 2.29416
-15.2174 -13.465 1.92854
-15.0388 -13.7109 1.99581
-15.4472 -13.1005 1.26707
-14.9665 -13.7483 1.77412
-14.7498 -14.2439 2.18525
-15.4122 -13.0812 0.830407
-14.6392 -14.3688 2.1231
-15.2211 -13.394 0.915964
-15.3245 -12.9096 0.388419
-14.538 -14.2246 1.69882
-14.9303 -13.6709 0.950573
-15.2035 -13.0512 -0.00155117
-14.7718 -13.9155 0.586474
-15.0137 -13.0647 -0.395259
-13.4384 -14.434 1.61457
-13.3625 -14.2393 1.55383
-14.8606 -13.3058 -0.426129
-13.4954 -14.3454 1.53089
-14.8904 -13.2264 -0.727473
-14.8411 -13.2274 -0.852554
-14.814 -13.3438 -0.847838
-13.7627 -14.3623 0.432122
-11.2917 -14.2732 2.00808
-11.1944 -14.2997 1.79818
-11.2487 -14.125 1.67137
-13.4298 -13.5776 -1.53962
-12.6266 -15.014 0.138953
-10.8841 -14.3791 1.61683
-12.1305 -15.3214 0.569861
-12.1964 -15.5713 -0.148945
-12.3315 -15.261 -0.703667
-12.4713 -14.8436 -1.14333
-12.5828 -14.4246 -1.65971
-14.9559 -14.3314 3.12754
-15.1887 -13.7248 1.92573
-15.8081 -12.5789 0.164404
-14.3311 -14.7765 2.94489
-15.0805 -13.3594 0.903222
-15.4088 -13.002 0.327067
-15.2376 -12.9609 0.374868
-14.5086 -14.4681 1.80559
-15.2528 -13.1715 0.252097
-13.628 -14.1346 1.85762
-13.4518 -14.4557 2.05035
-14.0475 -13.6021 0.581395
-13.3661 -14.3281 1.56622
-13.3954 -14.2711 1.47503
-14.7705 -13.2595 -0.681885
-11.8017 -13.9984 2.34827
-11.4064 -14.0936 2.56019
-12.8568 -14.7097 1.24434
-14.5634 -13.6013 -1.07088
-13.6488 -14.2873 0.178503
-13.6074 -14.4304 0.180214
-13.6504 -14.2276 -0.0404795
-13.0769 -14.8427 0.432226
-12.5894 -15.1342 0.866762
-13.271 -14.0964 -0.507308
-13.0273 -14.4774 -0.326173
-10.8597 -14.4469 1.59273
-12.0076 -15.5005 0.611998
-12.3444 -15.2447 -0.683908
-12.442 -14.4753 -1.73042
-12.2117 -15.2947 -3.23118
-15.4244 -13.179 1.14342
-15.1768 -13.5397 1.31138
-14.9003 -13.8927 1.53063
-15.2612 -13.1434 0.389849
-15.0768 -13.4781 0.639865
-14.8941 -13.4828 0.590996
-15.181 -12.7445 -0.468924
-14.9234 -13.613 -0.0330115
-15.0051 -13.2648 -0.227318
-13.2081 -14.7132 2.1439
-13.4499 -14.2928 1.56506
-14.4651 -13.8458 0.0599785
-13.9198 -14.45 0.981036
-13.6683 -14.1846 -0.00133383
-13.76 -14.0406 -0.382178
-12.5611 -15.0197 0.938702
-13.076 -14.8374 0.34893
-13.2326 -14.4514 -0.303324
-12.1391 -15.4076 0.471796
-12.4095 -15.324 -0.619882
-12.5486 -15.147 -0.878645
-12.3012 -15.213 -0.837132
-15.5467 -13.0898 1.30087
-15.5929 -12.8876 0.883818
-15.6379 -12.8021 0.723145
-15.4072 -13.191 1.15217
-13.6854 -14.0574 1.93042
-15.1481 -12.9762 -0.487502
-13.176 -14.6784 2.20934
-14.5431 -13.7785 -0.120281
-11.669 -14.0207 2.20085
-11.6253 -13.9956 2.05674
-13.1328 -14.673 0.0886267
-13.1552 -14.6019 -0.0735834
-12.8998 -14.9757 0.282855
-12.9077 -14.9328 0.123863
-12.2844 -15.39 -0.444593
-12.4465 -15.034 -0.84366
-12.2939 -15.2453 -0.566703
-12.4487 -14.4638 -1.76713
-12.3666 -15.5573 -1.1577
-12.2559 -15.5174 -1.365
-15.4131 -13.4437 1.89849
-15.726 -12.8018 0.76074
-14.9996 -13.8655 1.78276
-13.6572 -14.0239 1.70817
-13.8652 -14.4535 0.918887
-13.7442 -13.6298 -1.14917
-12.294 -15.4557 -1.33797
-15.0506 -13.4359 0.558184
-13.6636 -13.975 1.74314
-13.0851 -14.3285 -1.4034
-12.4698 -14.7919 -1.24048
-12.5467 -14.6441 -1.4574
-12.2156 -15.2579 -1.6252
-13.3975 -13.846 -1.01404
-12.1731 -15.4959 0.634351
-15.353 -13.6537 2.09539
-13.9254 -14.0243 1.20491
-13.3199 -14.6377 2.1421
-14.3526 -13.7033 -0.776075
-13.6697 -13.6106 -1.29291
-13.6396 -14.1414 1.76113
-12.972 -14.9394 0.660821
-12.0923 -15.7068 -0.935842
-13.1143 -14.0429 -1.01599
-11.6442 -13.8942 2.01222
-15.257 -13.8168 2.96587
-15.0297 -13.892 2.08278
-15.033 -13.7863 1.74434
-15.7603 -12.8789 1.23726
-13.377 -14.4679 2.26958
-15.6715 -12.8117 1.04586
-15.6125 -12.9816 0.931848
-14.6524 -14.1616 1.56238
-15.4742 -12.9096 0.852398
-15.653 -12.7721 0.63987
-15.719 -12.6718 0.563425
-11.917 -13.9677 2.23762
-15.566 -12.8125 0.420018
-13.4555 -14.2348 1.51472
-15.7031 -12.7478 0.330677
-15.6047 -12.6757 0.288485
-14.5042 -14.0178 1.06547
-13.31 -14.4153 1.4787
-14.9211 -13.5337 0.635392
-15.4002 -12.9949 0.221832
-14.8259 -13.5942 0.501958
-13.7923 -14.4869 0.990649
-15.338 -12.7871 0.0174048
-15.1113 -13.279 0.16256
-14.8139 -13.5468 0.248713
-12.902 -14.839 1.28697
-14.9153 -13.3999 -0.0268999
-11.0509 -14.2643 1.80329
-14.9049 -13.3032 -0.145977
-11.1181 -14.0984 1.69047
-15.0141 -13.2516 -0.264418
-15.1111 -13.0823 -0.407428
-14.4832 -13.8005 -0.143179
-14.8692 -13.3936 -0.38171
-12.9906 -14.6906 0.782498
-15.209 -12.9667 -0.66191
-14.9974 -13.2675 -0.363311
-14.5167 -13.6139 -0.212697
-14.8852 -13.2913 -0.464183
-14.382 -13.9225 -0.019024
-14.9074 -13.2267 -0.540247
-13.7987 -14.2295 -0.00112829
-13.0851 -14.6891 0.493938
-13.7096 -14.4214 0.0767616
-15.006 -13.1892 -0.634634
-14.7874 -13.3053 -0.629883
-12.9298 -14.8026 0.022419
-14.7016 -13.325 -1.01936
-12.02 -15.4818 0.515645
-11.989 -15.5626 0.498181
-11.9315 -15.6338 0.566198
-14.6572 -13.4017 -1.09713
-14.6405 -13.3725 -1.09919
-14.3972 -13.4895 -1.5878
-14.3952 -13.3682 -1.62518
-13.5115 -13.656 -1.14411
-13.2709 -13.678 -1.67418
-14.2836 -14.7539 2.84824
-15.179 -13.7264 2.177
-15.0858 -13.7763 2.13631
-14.7266 -14.2597 2.17122
-14.7681 -14.2119 2.18261
-13.1266 -14.7569 2.6011
-15.1652 -13.695 1.46598
-13.6794 -14.1011 1.8411
-15.0782 -13.3629 0.962727
-15.0875 -13.401 0.984799
-14.7311 -13.8535 1.13091
-15.5796 -12.7515 0.354321
-13.5076 -14.2934 1.53153
-15.2095 -13.2608 0.483239
-13.2919 -14.3913 1.54003
-14.8055 -13.7466 0.619392
-14.7518 -13.8391 0.676062
-14.7798 -13.9068 0.675532
-14.7732 -13.7807 0.711899
-15.2397 -12.816 0.173978
-15.357 -12.8615 0.275141
-14.858 -13.6724 0.500422
-14.7775 -13.7379 0.446318
-15.3902 -12.9811 0.139018
-15.4539 -12.8587 0.0306964
-15.2142 -13.1013 0.0475989
-15.5651 -12.6651 -0.186292
-12.8974 -14.8559 1.22446
-12.8068 -14.8557 1.18412
-11.2609 -14.1376 1.79756
-13.6828 -14.4359 0.596847
-15.0033 -13.2735 -0.396809
-14.8296 -13.3351 -0.27341
-15.0451 -13.2202 -0.428312
-13.4958 -14.4314 0.323734
-12.4135 -15.183 0.887994
-10.7008 -14.4941 1.64303
-13.6554 -14.2094 -0.0288141
-10.9154 -14.4706 1.57963
-10.8516 -14.3388 1.53707
-13.0082 -14.768 0.332663
-13.1128 -14.5195 -0.0358367
-12.9966 -14.7858 0.0360254
-13.0878 -14.6854 -0.0551888
-14.4675 -13.6115 -0.999132
-13.4112 -14.179 -0.503728
-12.0477 -15.7891 -0.193414
-13.3602 -13.5833 -1.37545
-11.9811 -15.7365 -0.686092
-12.0191 -15.7528 -0.849542
-15.1514 -14.0228 2.7235
-14.4008 -14.6765 2.81878
-15.521 -13.3741 1.81181
-13.5601 -14.3629 2.44636
-15.7811 -12.7567 1.17806
-15.815 -12.6842 1.13145
-15.4383 -13.1829 1.19514
-13.4657 -14.4002 2.26416
-13.5676 -14.2916 2.21505
-14.7548 -14.0064 1.64531
-15.1159 -13.5864 1.28423
-15.0951 -13.645 1.3646
-14.5282 -14.0573 1.6595
-15.7835 -12.6096 0.829847
-15.3738 -13.1063 0.795646
-14.9247 -13.6187 0.868448
-15.3802 -13.0274 0.365576
-14.7803 -13.7432 0.699025
-14.6945 -13.7967 0.754853
-15.5656 -12.7726 0.150828
-15.5158 -12.6695 0.052248
-15.5428 -12.7321 0.0446117
-15.3378 -13.087 0.193472
-14.0459 -14.1224 0.875592
-15.3344 -12.8278 0.072591
-15.1059 -13.1558 0.103433
-15.0495 -13.3501 0.157696
-14.6582 -13.6479 0.181049
-13.9238 -13.9607 0.342561
-11.1682 -14.0851 1.70024
-13.7544 -14.3377 0.234238
-10.8756 -14.3982 1.69609
-13.6254 -14.3156 0.159212
-12.517 -14.9606 0.180031
-14.5439 -13.3232 -0.985185
-12.5507 -14.8242 -0.100077
-12.2637 -15.3579 0.0333251
-12.1468 -15.5899 -0.265787
-13.2456 -13.8202 -1.09017
-12.2371 -15.2525 -0.70461
-12.177 -15.2451 -0.800711
-12.3063 -15.0959 -0.971494
-12.6082 -14.2568 -1.95689
-12.4607 -14.5397 -1.80357
-12.3212 -15.1548 -1.84832
-13.4461 -14.3992 2.82318
-13.5427 -14.2499 2.34364
-13.403 -14.5435 2.33669
-13.5938 -14.3157 2.23041
-14.5579 -14.1994 1.65911
-15.5789 -12.8779 0.830381
-13.2046 -14.8568 2.19108
-15.6041 -12.633 0.087335
-14.7572 -13.7184 0.53118
-12.9477 -14.6475 1.17417
-10.77 -14.4747 1.77656
-15.0207 -13.1405 -0.870692
-12.9968 -14.8122 0.0634519
-10.6179 -14.6644 1.26715
-13.1752 -14.5181 -0.247975
-13.2836 -14.3689 -0.332
-12.3191 -15.3254 -0.483176
-12.1921 -15.517 -0.551952
-12.4751 -15.0776 -0.797089
-12.4049 -15.1156 -0.937059
-14.7512 -14.3204 2.54718
-15.1349 -13.6593 1.55353
-14.6057 -14.2209 1.76028
-15.4757 -13.1456 1.20493
-14.9207 -13.8669 1.47857
-11.5104 -14.0435 2.21015
-13.97 -13.5491 0.645065
-11.1831 -14.1788 1.69009
-12.9518 -14.8307 0.901329
-13.6508 -14.4746 0.499231
-12.7524 -14.8889 0.980314
-12.5676 -15.013 0.972871
-12.4868 -15.0863 0.949441
-12.6106 -15.0301 0.817991
-14.88 -13.2563 -0.565649
-13.7125 -14.3119 0.0309847
-14.7558 -13.3085 -0.644474
-13.5291 -14.3691 0.0978165
-14.8331 -13.1721 -0.761665
-13.2144 -14.6771 0.124105
-13.0602 -14.7262 -0.141193
-13.8493 -13.4064 -0.804748
-13.3946 -13.5256 -1.26169
-12.9023 -14.0188 -1.97086
-12.7142 -14.1082 -1.96724
-12.6762 -14.269 -2.12391
-12.1231 -14.8768 -2.23592
-14.739 -13.7714 0.706648
-13.0057 -14.7275 1.22591
-12.8759 -14.8347 1.14878
-13.8212 -14.3327 0.624662
-13.5105 -14.4796 0.116902
-12.9278 -14.9639 0.518036
-14.8556 -13.1461 -0.834301
-12.9282 -14.887 0.320786
-13.256 -14.6396 0.0391118
-12.1897 -15.5102 0.623006
-12.284 -15.3752 -0.495275
-12.9597 -13.9553 -1.99426
-15.3174 -13.2349 0.88137
-13.2656 -14.3259 1.49155
-12.9607 -14.7183 0.94805
-13.1037 -14.9018 0.322139
-12.1521 -15.4801 0.534568
-13.4697 -13.5685 -1.25296
-13.151 -14.2845 -1.23995
-13.7016 -14.2898 2.65353
-15.404 -13.2162 1.07145
-13.3628 -14.55 2.09741
-14.1434 -13.5586 0.744682
-13.1588 -14.6876 0.315149
-13.0961 -14.5111 -0.144094
-13.8038 -13.5181 -1.20974
-12.7826 -14.5111 -0.820257
-12.1036 -15.0635 -2.31168
-12.9634 -14.8372 0.250724
-12.8889 -14.9636 0.393819
-12.3517 -15.298 -0.56503
-13.0306 -14.7624 0.202487
-13.4923 -13.7747 -1.21325
-12.6024 -14.56 -1.66709
-11.3947 -14.0752 2.2687
-13.1976 -13.9478 -0.984029
-15.1236 -14.0455 2.97688
-14.9924 -14.144 2.92846
-15.2981 -13.8019 2.81099
-15.1076 -14.069 2.55041
-14.6175 -14.4303 2.59011
-14.6983 -14.4153 2.56893
-15.0271 -13.9564 2.38653
-11.3517 -14.0445 2.28667
-14.9216 -13.9533 2.18786
-13.4543 -14.5245 2.17113
-15.0489 -13.7472 2.05279
-15.4354 -13.3957 1.80414
-14.5116 -14.3389 1.87653
-13.6781 -14.0817 1.88184
-15.0216 -13.8592 1.70455
-13.5409 -14.167 1.63145
-13.2874 -14.4633 1.53104
-15.198 -13.4678 1.31296
-14.8024 -13.8583 1.23848
-15.1387 -13.5472 1.2764
-12.9413 -14.7075 1.31788
-15.4948 -13.1101 1.34915
-15.5093 -12.9902 1.26568
-15.4436 -13.1191 1.22856
-15.1317 -13.5755 1.16712
-15.7115 -12.965 1.11277
-14.9943 -13.6978 0.824186
-15.573 -12.9891 0.898932
-14.9399 -13.6292 0.716026
-14.9737 -13.5489 0.788043
-14.7331 -13.9054 0.737742
-14.7174 -13.8668 0.719517
-14.8307 -13.7456 0.708882
-13.0564 -14.878 0.489318
-15.18 -13.0576 0.257096
-13.894 -14.1521 0.217252
-14.5733 -13.7519 0.158144
-14.4693 -13.8024 0.133087
-15.8221 -12.4399 0.149317
-15.2635 -13.0016 0.0400286
-12.5325 -14.8616 0.0126317
-15.3682 -12.8446 -0.0887828
-12.5661 -14.8263 -0.100628
-15.2766 -12.8944 -0.158192
-15.6794 -12.594 -0.0484932
-15.2622 -12.8593 -0.147231
-15.4052 -12.8252 -0.123302
-15.3813 -12.8193 -0.15296
-15.4564 -12.7784 -0.151874
-14.7117 -13.3929 -0.288446
-15.0394 -13.2992 -0.357627
-14.9953 -13.2699 -0.27309
-14.9926 -13.1248 -0.339679
-14.9305 -13.1977 -0.464857
-15.1304 -13.0483 -0.422444
-14.9032 -13.2176 -0.427518
-14.9082 -13.2673 -0.421325
-12.3423 -15.2944 -0.683112
-14.9438 -13.3014 -0.680234
-15.1175 -12.9647 -0.567117
-14.7659 -13.2851 -0.96217
-14.798 -13.1003 -0.943821
-12.9216 -14.4319 -1.20076
-12.6116 -14.5294 -1.56623
-14.9376 -14.2621 2.95736
-14.6139 -14.5166 2.97911
-15.3296 -13.6733 2.49887
-15.0873 -13.94 2.13262
-15.3307 -13.519 2.1644
-15.2037 -13.5682 2.1019
-14.6565 -14.2585 1.97363
-11.668 -13.9019 2.02033
-15.3908 -13.4051 1.79173
-15.1526 -13.4637 1.52625
-13.1774 -14.5221 1.62684
-13.4686 -14.2238 1.60425
-15.0172 -13.6261 1.42058
-15.0997 -13.5958 1.42105
-13.3607 -14.366 1.49513
-15.4361 -13.3737 1.41354
-15.2149 -13.4702 1.39683
-15.3231 -13.3443 1.32323
-15.0171 -13.6916 1.23968
-15.4849 -13.1455 1.33526
-15.4481 -13.0875 1.26046
-15.2532 -13.3232 1.23477
-15.1843 -13.4612 1.28513
-15.6474 -12.9091 1.17715
-13.8445 -14.1798 1.10151
-15.6317 -12.8379 1.03689
-15.4435 -13.0628 0.949817
-15.096 -13.6166 0.931497
-15.2439 -13.506 1.00193
-12.3918 -15.2781 0.784303
-14.7438 -13.9192 0.882962
-15.4283 -13.0682 0.774358
-15.693 -12.7491 0.780185
-15.5889 -12.7139 0.83527
-15.813 -12.6779 0.747369
-15.8775 -12.5443 0.882299
-15.7537 -12.6737 0.826354
-15.6689 -12.7067 0.798447
-13.7612 -14.4283 0.660462
-13.7458 -14.3994 0.546985
-14.7385 -13.7368 0.520713
-14.0318 -13.6142 0.712711
-15.7172 -12.7135 0.555417
-15.0585 -13.3539 0.435297
-13.0658 -14.9189 0.495799
-15.8809 -12.4854 0.427049
-14.8148 -13.5926 0.287795
-12.8625 -14.9709 0.194771
-14.6611 -13.6003 0.203817
-15.1407 -13.2034 0.135232
-12.4953 -14.9193 0.20506
-14.8807 -13.4759 0.0170704
-12.9523 -14.7675 0.0466844
-15.7738 -12.3947 0.0771101
-15.6548 -12.5659 0.0959011
-14.4527 -13.8152 -0.0393342
-12.5554 -14.9493 -0.0947264
-15.3422 -12.8513 -0.137139
-13.1544 -14.5709 -0.156115
-13.1998 -14.4764 -0.192154
-14.9309 -13.2706 -0.277913
-14.7463 -13.5899 -0.240822
-15.1563 -12.9695 -0.368199
-12.2586 -15.4058 -0.588476
-13.726 -13.9455 -0.510546
-14.6933 -13.4464 -0.647609
-12.4411 -15.2579 -0.816212
-12.9977 -14.5385 -0.71323
-15.0338 -12.9794 -0.870085
-12.049 -15.5982 -1.12458
-14.7998 -13.1509 -0.949501
-13.1245 -14.3052 -1.07454
-14.5401 -13.4175 -1.12472
-13.3286 -13.7758 -1.10883
-12.9716 -14.1919 -1.33332
-12.5717 -14.3974 -1.6204
-12.5846 -14.1841 -2.20192
-12.3212 -14.1866 -2.61745
-14.6021 -14.5703 2.3445
-13.3968 -14.4956 2.40658
-13.4375 -14.6358 2.30303
