-12.7689 -12.882 0.797976
-15.1641 -12.956 -1.26454
-16.3306 -12.5599 -0.0123079
-16.1329 -12.8914 0.0677469
-16.1408 -12.9262 -0.0488779
-15.9129 -13.0473 0.225197
-14.0351 -13.6927 -0.88256
-15.779 -13.3631 0.605162
-15.6634 -13.7329 1.06274
-15.1918 -12.2316 -2.14481
-15.1711 -13.2319 0.491497
-14.5296 -13.8558 1.68248
-14.2283 -13.146 -2.05282
-16.1987 -12.8545 0.467166
-16.0247 -13.1305 0.416387
-14.2535 -13.7682 0.891209
-14.9872 -12.3881 -1.93471
-14.0886 -13.8153 -0.321646
-15.0874 -13.2787 0.670488
-16.0913 -12.9323 0.0892274
-14.1344 -13.5321 -1.39443
-14.6024 -12.6632 -2.0104
-13.3686 -14.1228 -1.57972
-16.1439 -12.4206 -1.59172
-15.8148 -12.9549 -0.598859
-16.6062 -12.6856 0.870428
-16.0459 -12.8931 -0.135171
-15.8408 -13.2271 0.654087
-15.9217 -13.1722 0.389062
-15.943 -13.2775 0.666558
-16.0802 -13.1823 1.06792
-16.1501 -13.271 1.23039
-16.037 -13.2257 1.03652
-16.2708 -13.2762 1.34336
-16.2583 -13.3142 1.72897
-16.1389 -13.3173 1.44085
-16.1698 -13.225 1.43806
-16.0135 -13.4024 1.163
-15.9351 -13.4022 1.22467
-15.8387 -13.4597 0.983335
-16.0307 -13.524 1.57103
-14.1301 -13.7248 -1.32213
-15.7512 -13.7013 1.30688
-13.8497 -13.6365 -1.01954
-13.9835 -13.6558 -0.91959
-13.7782 -13.5904 -0.9911
-15.6925 -13.8365 1.73924
-15.5737 -13.8826 1.37021
-15.4475 -13.9008 1.24734
-15.5924 -13.923 1.83399
-15.4366 -14.0451 1.90023
-15.531 -13.9806 1.9097
-15.3379 -14.0846 1.79594
-15.2827 -14.1309 2.20702
-15.2395 -14.1764 2.14792
-11.823 -13.2658 -0.115864
-16.5116 -12.3152 -0.901164
-16.4184 -12.3208 -1.0618
-15.7353 -12.1463 -1.53892
-16.0682 -12.6252 -1.10572
-14.9715 -12.3699 -2.11069
-16.6622 -12.5072 0.705898
-15.9513 -12.9833 0.0487761
-16.0515 -13.2581 1.10607
-13.8184 -13.6914 -1.75598
-13.9004 -13.5625 -1.02739
-14.1752 -13.7406 -0.695526
-15.824 -13.5427 1.74566
-14.0681 -13.8472 -0.478404
-15.4353 -13.9817 1.61091
-12.2105 -13.0037 0.838481
-15.4316 -12.6981 -0.0236389
-16.2071 -13.1701 1.72209
-15.5812 -13.6531 1.09673
-16.103 -13.6149 2.2699
-15.8576 -13.6349 1.90732
-15.0121 -14.307 1.84573
-14.2455 -13.8384 1.56753
-11.4197 -13.4015 0.640364
-16.09 -12.3775 -1.8909
-16.505 -12.3722 -0.617776
-15.1039 -12.3451 -1.94826
-14.5521 -12.9335 -1.80388
-15.9205 -13.1609 0.53425
-15.6649 -13.6567 0.984889
-15.8577 -13.6368 1.38638
-14.2878 -13.6442 -0.776492
-14.0245 -13.6717 -0.751856
-13.7189 -13.9374 -0.26072
-13.0995 -13.1497 1.20781
-16.2238 -13.2135 1.6421
-15.0635 -13.2023 0.791315
-13.4543 -14.0722 -2.43072
-14.1221 -13.7965 -0.766345
-15.4399 -13.872 1.19917
-14.6535 -13.3897 0.951074
-14.2965 -13.6236 0.852442
-14.8629 -13.363 0.709382
-15.5094 -13.7095 1.01261
-15.4656 -13.8997 1.22242
-15.0694 -14.2344 1.84317
-11.4867 -13.3268 0.652558
-15.6715 -13.5743 0.799749
-14.1598 -13.6149 0.0841381
-12.324 -13.0483 0.728386
-12.2187 -13.1154 1.016
-14.6832 -13.3938 -1.14185
-16.0048 -12.3567 -1.61788
-16.0052 -13.3594 1.1709
-15.9774 -13.4753 1.54408
-14.689 -13.0505 -1.96658
-15.7527 -13.7372 1.49987
-15.4413 -13.9073 1.18447
-15.5029 -13.9753 1.83626
-15.4671 -14.0928 1.16307
-14.1202 -13.419 -1.47149
-13.709 -13.8793 -2.64161
-13.931 -13.6388 -0.988308
-13.8593 -13.7057 -0.900616
-13.9546 -13.7774 -0.55566
-16.2046 -12.5148 -0.875534
-16.0082 -12.9412 -0.158525
-16.1873 -13.2072 1.39453
-15.64 -13.9045 1.61325
-14.364 -13.2337 -1.61829
-14.1582 -13.7531 -0.856448
-13.8914 -13.6234 -0.804482
-13.1565 -14.1309 -1.04159
-16.4722 -12.0297 -1.18372
-16.057 -12.4095 -1.79817
-15.8991 -13.1782 0.305722
-16.0504 -13.4138 1.71331
-14.1872 -12.521 -3.65433
-14.5019 -13.4731 -1.10265
-13.681 -13.785 -1.94754
-13.797 -13.6026 -0.965153
-16.1318 -12.3711 -1.80594
-16.1904 -13.4369 2.22997
-15.7872 -13.561 1.74066
-14.5418 -13.2312 -0.965828
-15.2728 -12.5101 -1.13063
-14.5447 -13.2886 -1.06843
-15.3726 -13.8883 1.25637
-15.3698 -12.6722 -0.822337
-14.1889 -13.7861 -0.547962
-16.0059 -12.8998 -0.472155
-15.7303 -13.0885 0.0652584
-16.3173 -13.1128 1.43101
-16.3697 -12.4178 -0.77055
-16.2033 -12.5225 -0.846648
-15.9068 -12.8344 -0.706911
-15.5075 -13.9206 1.80453
-15.5084 -12.0733 -1.48029
-14.253 -13.6606 -0.637887
-14.1881 -13.7045 -0.644495
-13.9449 -13.6421 -1.1352
-13.9312 -13.633 -1.10985
-13.8433 -13.5733 -0.949192
-13.7845 -13.7017 -1.84991
-13.5472 -14.0733 -2.39953
-16.1395 -13.3681 1.87547
-15.6427 -13.6587 0.94443
-14.8025 -13.2777 0.929505
-14.1835 -13.6298 -0.798551
-14.0242 -13.9163 -0.787264
-13.8736 -13.9134 -0.50592
-13.5777 -13.8678 -2.44611
-13.3491 -14.2188 -1.50845
-16.7231 -12.4904 0.366325
-16.7338 -12.5688 0.835879
-16.0651 -12.9966 -0.0633846
-14.8619 -13.155 0.88934
-14.0503 -13.936 1.48106
-13.8441 -13.6951 -1.73879
-15.4861 -12.6444 -0.0397331
-15.1169 -13.1652 -0.571697
-13.5658 -13.9677 -1.59291
-15.9136 -13.6845 1.71272
-15.006 -13.3825 -0.480488
-15.2343 -12.4733 -1.78671
-17.0194 -11.9279 -0.391084
-16.5429 -12.2628 -1.13417
-15.4622 -13.7834 1.80194
-15.9821 -13.0353 -0.0990285
-16.1504 -12.3872 -1.61733
-15.2933 -12.5771 -1.08633
-13.993 -13.6153 -0.989747
-13.8065 -13.6664 -1.17234
-13.1553 -14.3059 -0.775759
-16.7902 -12.2544 0.0212392
-16.3118 -12.6841 0.0756043
-15.9833 -13.0444 0.114296
-15.6232 -13.5463 0.993377
-15.0497 -13.6067 0.156074
-14.6534 -12.9955 -1.76991
-14.5961 -12.8858 -2.00033
-16.6572 -12.5772 0.890145
-16.8656 -12.2852 0.0212071
-16.2323 -12.9931 0.940878
-16.3218 -12.4922 -0.552347
-15.2125 -13.0416 -0.858775
-14.4356 -13.451 -0.865443
-14.1513 -13.8034 -0.743002
-14.1942 -12.7456 -2.83101
-13.7941 -13.5858 -1.92205
-13.8733 -13.4666 -4.52376
-17.2419 -11.9408 0.270111
-16.637 -12.6332 0.594721
-16.605 -12.5727 0.633117
-16.7049 -12.5997 0.56992
-16.3313 -12.7155 0.0886338
-16.2694 -12.6445 -0.026129
-15.1058 -13.4179 -0.404722
-14.0396 -13.6627 -1.26797
-13.895 -13.6363 -1.89715
-16.6953 -12.6523 1.06121
-16.7659 -12.5415 0.478151
-16.0841 -12.3891 -1.82324
-14.1018 -13.5591 -1.37515
-14.1245 -13.6872 -0.127096
-15.0409 -13.2678 -0.5229
-14.9976 -13.197 0.623962
-13.759 -13.4685 -3.15797
-16.2953 -13.256 1.74211
-16.9664 -12.0735 0.162648
-15.637 -13.97 1.81983
-16.4927 -12.5352 0.185849
-16.0447 -13.2674 0.887677
-16.6131 -12.3747 -0.270999
-16.6201 -12.3807 -0.237223
-16.6819 -12.2609 -0.379127
-15.8424 -13.4221 0.84106
-15.5917 -13.5994 0.95865
-16.3506 -12.5192 -0.404916
-14.4713 -13.3492 -1.14137
-14.4644 -13.4011 -1.09209
-12.942 -13.0842 1.23428
-14.3466 -13.4472 -1.14936
-13.9504 -13.5784 -1.00929
-13.5441 -13.9436 -0.65526
-14.6324 -12.4315 -2.98787
-13.8177 -13.7041 -1.92099
-13.3565 -14.1231 -2.07577
-13.7546 -13.2793 -3.14791
-16.2147 -13.3468 1.89896
-16.3508 -13.188 1.34149
-16.4252 -12.7397 0.460769
-16.1608 -12.9823 0.355217
-15.9614 -13.0917 0.191017
-16.4857 -12.2797 -0.6629
-16.3771 -12.5446 -0.412243
-16.7552 -12.0945 -1.01726
-14.9165 -13.2559 1.02557
-14.7933 -13.2488 1.01111
-16.4702 -12.2464 -1.01691
-15.9185 -12.8293 -0.65145
-15.8417 -12.8061 -1.07644
-15.0278 -13.6196 0.0363679
-14.9789 -13.2732 -0.666603
-15.0028 -13.1452 -0.811674
-14.7637 -13.1439 -1.27564
-14.5176 -13.2738 -1.09754
-14.8554 -12.4474 -1.9901
-14.4955 -12.9206 -2.46808
-14.4061 -12.8403 -2.57041
-14.4103 -12.8764 -2.30374
-13.4601 -14.1514 -2.06872
-16.3828 -13.0821 1.6092
-16.306 -12.5724 -0.460815
-16.3241 -12.4233 -0.430607
-16.6658 -12.0245 -1.24504
-14.726 -13.575 -0.673318
-14.2911 -13.5628 -0.754216
-13.4503 -14.1607 -1.64954
-13.2161 -14.1565 -1.40864
-16.2756 -12.8861 0.840591
-16.5318 -12.6626 0.377723
-16.2889 -12.799 0.106792
-16.0434 -12.7801 -0.365294
-15.1765 -13.4632 0.202622
-14.4152 -13.372 0.399249
-14.4224 -13.4768 -0.724279
-14.5566 -13.0093 -1.88729
-13.8898 -13.6644 -1.94631
-13.8489 -13.5517 -2.01718
-16.9792 -12.1473 0.350504
-16.9988 -12.0423 0.172276
-17.0184 -12.1214 0.184403
-16.7288 -12.3622 -0.285449
-16.3545 -12.2612 -1.15197
-15.4457 -12.6336 -0.0558357
-16.0613 -12.4264 -1.41656
-14.5091 -13.4584 0.595023
-15.1585 -13.0892 -0.786146
-15.2061 -13.0348 -0.904773
-14.3031 -13.6287 -0.65954
-14.5135 -13.3691 -0.97496
-14.6384 -12.9931 -1.77513
-14.225 -12.8177 -2.57736
-13.9145 -13.372 -2.34862
-16.4368 -12.805 0.772574
-16.6593 -12.4332 0.0387945
-16.5514 -12.3339 -0.682737
-14.5163 -13.8088 1.68909
-14.18 -13.8944 1.22821
-15.204 -13.0968 -0.80789
-14.5092 -13.4779 -1.07832
-14.6894 -12.7153 -2.23691
-13.8176 -13.7564 -1.7197
-14.5879 -13.7103 1.66028
-14.9105 -12.8976 -1.42936
-14.0068 -13.7157 -0.777445
-14.8296 -12.8093 -1.44691
-14.1183 -13.4836 -1.33042
-12.5444 -13.0475 1.1705
-14.2728 -12.9761 -2.71038
-13.371 -14.2166 -2.17024
-14.4206 -13.0052 -2.50233
-13.8731 -13.3066 -3.19619
-16.1338 -13.3068 1.51291
-16.4834 -13.0173 0.715064
-16.9504 -12.1719 0.307838
-15.7738 -13.3841 0.900025
-15.8613 -13.4885 0.879951
-15.8509 -13.2513 0.482279
-16.0444 -12.9845 0.0786888
-16.0695 -13.0191 0.126853
-15.9904 -13.0005 0.0880609
-16.3489 -12.3204 -0.697634
-16.5568 -12.2316 -1.2205
-16.4755 -12.0463 -1.32243
-16.2138 -12.3656 -1.64404
-13.7738 -13.7175 -0.0185703
-14.6254 -12.9709 -1.85361
-15.1909 -12.2994 -2.25983
-14.5643 -13.0683 -2.15443
-14.1488 -12.8247 -2.6128
-13.6449 -13.478 -2.87478
-16.4227 -13.2433 1.71718
-16.0436 -13.2589 1.15243
-16.79 -12.4017 0.398579
-17.0122 -11.9931 -0.352257
-16.9458 -12.0026 -0.342152
-16.3256 -12.5244 -0.400259
-16.7624 -12.1129 -0.984512
-15.957 -12.8674 -0.556709
-14.9663 -13.23 -0.702605
-15.3171 -12.3918 -1.50939
-14.5786 -13.3286 -0.972417
-13.8752 -13.9217 -0.927229
-13.8734 -13.638 -1.08204
-12.3169 -12.9169 0.350414
-14.4875 -12.92 -2.43887
-16.3375 -12.8576 0.821909
-16.4058 -12.8453 0.814956
-16.4298 -12.6381 0.465828
-15.9154 -13.0069 0.491646
-16.3553 -12.6272 -0.0430116
-16.3073 -12.6207 -0.450474
-16.6982 -12.0723 -0.850221
-16.7561 -11.98 -1.0328
-16.5299 -12.277 -0.855497
-16.3927 -12.2434 -1.66381
-14.4764 -13.3581 -0.99788
-14.1591 -13.7582 -0.758988
-14.3126 -13.5733 -0.912321
-14.7221 -13.0533 -1.14525
-14.4182 -13.3614 -1.08365
-14.9854 -12.3281 -1.869
-13.8592 -13.6476 -1.89911
-13.6458 -13.7801 -1.86498
-13.6679 -13.7099 -1.98118
-14.299 -13.0886 -2.27254
-14.5228 -12.499 -2.71168
-13.6503 -13.8636 -2.61368
-16.6959 -12.552 0.855358
-16.6261 -12.5824 0.739163
-16.404 -12.8742 0.818028
-16.6704 -12.5552 0.554948
-16.7323 -12.0667 -0.936416
-14.4252 -13.4474 -0.996537
-14.5726 -13.1209 -1.15332
-14.4881 -13.1547 -1.27276
-15.4809 -12.1066 -1.88455
-13.7682 -13.5248 -1.0137
-13.3494 -14.3368 -1.44238
-13.7826 -13.8426 -1.79586
-11.8224 -13.2729 0.00847113
-13.8126 -13.1075 -3.33678
-16.5744 -13.0899 1.55539
-15.8541 -13.624 1.74922
-16.9965 -12.2417 0.510328
-17.0798 -11.9612 -0.314759
-14.7893 -13.5887 -0.605964
-14.4151 -13.4872 -1.13036
-13.812 -13.7634 -1.7806
-13.9931 -13.261 -2.16167
-15.6076 -12.192 -1.40963
-14.3851 -13.6302 -0.608773
-13.554 -13.6087 -2.97976
-15.4964 -12.8154 0.0504604
-14.3029 -13.4049 -1.52508
-14.6443 -13.6119 1.36726
-14.0102 -13.7215 -1.09404
-14.885 -12.6319 -1.67462
-16.0315 -13.3518 1.03777
-15.7513 -13.5545 0.909483
-17.2003 -12.0398 0.410495
-15.8707 -13.2488 0.52511
-17.1452 -11.8522 -0.113496
-16.0357 -12.9204 0.00158709
-16.3766 -12.5431 -0.0231788
-16.0261 -12.8695 -0.204741
-13.0025 -12.9756 0.90629
-16.3001 -12.5519 -0.549015
-16.3505 -12.5862 -0.44231
-16.5981 -12.2686 -0.80474
-13.8416 -13.9345 -0.937419
-13.8082 -13.6065 -1.09069
-16.2342 -12.8587 0.35941
-14.3623 -13.5931 0.564838
-16.8109 -12.1779 -0.163462
-16.4235 -12.5596 -0.196373
-15.974 -12.7911 -0.52856
-14.9321 -13.3383 -0.402292
-13.6012 -14.017 -0.39195
-14.311 -13.3785 -1.17689
-16.0935 -13.5946 2.16488
-15.1082 -14.198 1.98087
-16.1956 -13.3312 1.46947
-16.2371 -13.207 1.43026
-14.6981 -13.3412 1.05729
-15.8724 -13.1522 0.556134
-16.2522 -12.734 0.036106
-16.0464 -12.9087 0.0260763
-16.0682 -12.7705 -0.256112
-12.6619 -12.9531 1.0276
-12.7194 -12.9472 1.10316
-14.9239 -13.3192 -0.82356
-16.4867 -12.2621 -1.16104
-14.6722 -13.2736 -1.14544
-13.8598 -13.5484 -1.11397
-13.7074 -13.8983 -1.72778
-13.3678 -14.1246 -2.18192
-16.209 -13.4161 1.83283
-16.5759 -12.9273 1.38359
-15.9468 -13.4208 1.26564
-16.6445 -12.4512 -0.284879
-13.9336 -13.8369 0.144489
-13.763 -13.9396 -0.228584
-15.1385 -13.1874 -0.769976
-14.3174 -13.7818 -0.794736
-13.0888 -14.2146 -0.937465
-13.6776 -13.7362 -1.89554
-14.4359 -12.5524 -3.04552
-15.5864 -13.9845 1.88205
-16.2465 -13.3005 1.57941
-16.7672 -12.3733 0.331296
-14.3484 -13.5249 -0.715004
-14.5699 -13.2345 -1.01776
-13.3405 -14.0759 -0.656279
-14.4102 -13.3833 -1.09267
-14.6168 -12.4645 -2.90517
-16.2623 -13.2397 1.60699
-13.3205 -14.0399 -0.648654
-13.9103 -13.5141 -2.04762
-14.7231 -12.7792 -2.18303
-15.1223 -13.225 -0.780628
-13.4394 -14.0458 -0.534854
-16.4172 -13.1282 1.45567
-16.0608 -13.4453 1.48655
-16.0243 -13.4468 1.51265
-16.646 -12.9373 1.40011
-16.0868 -13.3223 1.21277
-16.1309 -13.3035 1.18534
-15.728 -13.4388 0.840464
-16.3502 -12.8415 0.872522
-16.1908 -12.9863 0.690097
-16.8819 -12.3866 0.824732
-17.0301 -12.3899 0.802602
-14.3639 -13.5809 0.579345
-16.9637 -12.3352 0.674957
-16.5922 -12.8097 0.657828
-16.6803 -12.6284 0.547383
-17.0443 -12.3105 0.695789
-16.0008 -13.0003 0.339107
-17.1114 -12.1737 0.605807
-16.1828 -12.8933 0.294204
-17.077 -12.0869 0.520076
-17.0362 -12.1362 0.375133
-17.1984 -12.0141 0.38379
-16.0401 -12.919 0.192896
-16.9892 -12.0926 0.219567
-17.0681 -12.0579 0.441824
-16.0164 -12.8698 -0.0373657
-16.0415 -12.9779 -0.216813
-15.4144 -12.6715 -0.0244373
-16.1891 -12.7073 -0.248618
-16.8781 -12.1656 -0.150046
-16.5597 -12.427 -0.155744
-16.4153 -12.5007 -0.318011
-17.1976 -11.8735 -0.237577
-16.7844 -12.0155 -0.325082
-15.7358 -12.9601 -0.797235
-16.4212 -12.315 -0.659798
-12.9538 -14.1997 -1.16023
-16.4962 -12.399 -0.779255
-16.4204 -12.4373 -0.596618
-16.8541 -12.0302 -0.702088
-14.9836 -12.4594 -1.8242
-15.6749 -13.5236 0.894229
-12.6981 -12.7944 0.940236
-17.1256 -12.1368 0.63452
-15.8873 -13.1423 0.146125
-16.8729 -12.2507 0.346592
-17.0641 -12.0829 0.306801
-16.8512 -12.2955 0.114424
-16.5273 -12.4469 -0.271137
-16.7892 -12.1951 -0.281307
-16.3155 -12.6107 -0.495007
-14.1629 -13.718 -0.843323
-16.144 -12.6359 -0.657953
-13.0434 -14.2274 -1.15866
-13.9222 -13.5998 -1.02866
-16.3214 -12.2968 -0.792397
-13.8808 -13.5118 -1.24649
-14.7264 -12.83 -1.20542
-13.3906 -14.0357 -2.10692
-15.0373 -12.3898 -1.91594
-15.0199 -12.2304 -2.48508
-15.7321 -13.8755 2.06952
-16.4896 -13.0341 1.4376
-14.5571 -13.6235 1.28383
-12.8944 -13.1098 1.23739
-12.98 -13.003 1.15303
-16.719 -12.6379 0.907289
-16.1276 -13.0566 0.678345
-16.7453 -12.5705 0.764527
-16.1634 -13.1121 0.396209
-17.0754 -12.0971 0.291414
-13.659 -13.9813 -0.323665
-14.9269 -13.3468 -0.591354
-14.1652 -13.8553 -0.921392
-14.3759 -13.5477 -0.904668
-16.6315 -12.2269 -0.792594
-15.0337 -14.2635 1.99903
-15.6508 -13.8599 1.84621
-16.1781 -13.2854 1.90698
-16.8128 -12.4879 0.376197
-16.0962 -13.0799 0.200419
-16.4203 -12.1407 -1.72199
-15.0763 -12.3255 -1.92228
-14.7848 -12.4442 -2.67382
-16.2549 -13.318 1.72595
-16.3786 -13.147 1.62057
-16.0433 -13.3195 1.29175
-12.4603 -12.8931 0.796505
-16.7016 -12.479 0.377242
-15.1346 -13.4044 0.0608118
-14.4867 -13.4755 -0.781056
-15.5918 -12.2923 -1.33518
-14.9569 -12.3172 -2.4718
-13.7763 -13.991 1.28956
-16.7844 -12.6878 0.820174
-13.9831 -13.7178 -1.0594
-15.2378 -13.296 -0.370269
-15.0522 -13.2317 -0.36776
-14.966 -13.3125 -0.819865
-14.3105 -13.7493 1.14834
-13.1465 -13.0267 1.15649
-15.9511 -13.5044 1.53722
-16.006 -13.3542 1.55047
-15.8273 -13.6692 1.25357
-16.2133 -13.1992 1.39456
-16.0559 -13.3634 1.17903
-16.2612 -13.1701 1.32483
-15.5266 -13.7119 0.996486
-15.8623 -13.5048 1.04491
-15.1713 -13.3129 0.430333
-16.2736 -13.0362 0.753089
-16.6194 -12.7274 0.93005
-16.4881 -12.7386 0.843744
-16.6032 -12.7571 0.941072
-16.6755 -12.6816 1.04597
-16.2271 -12.8778 0.747562
-16.4853 -12.7711 0.804817
-16.1862 -13.048 0.456573
-16.7718 -12.5368 0.899547
-16.5338 -12.6335 0.742516
-16.5845 -12.7233 0.720723
-16.5417 -12.6264 0.609363
-16.5137 -12.658 0.542245
-16.8368 -12.4642 0.822611
-17.0519 -12.378 0.782676
-16.9795 -12.39 0.684182
-16.7024 -12.5806 0.60839
-17.0805 -12.3725 0.745184
-17.1433 -12.1603 0.793576
-16.0628 -13.0048 0.150722
-13.9328 -13.683 -1.01467
-16.1112 -12.9916 -0.0704442
-16.1287 -12.9 -0.117449
-13.9171 -13.5511 -1.1264
-13.8388 -13.5471 -1.2389
-17.1537 -12.1469 0.4454
-13.7154 -13.5962 -1.3301
-16.7918 -12.2806 0.195862
-17.2408 -12.1107 0.489261
-16.2597 -12.6834 -0.180484
-16.058 -12.7293 -0.373115
-17.175 -11.9847 0.343213
-16.0291 -12.7824 -0.544549
-16.6719 -12.4731 -0.0873461
-16.5542 -12.4291 -0.19759
-16.669 -12.2757 -0.230336
-16.2068 -12.4996 -0.515523
-16.9086 -12.15 -0.0845506
-16.9872 -12.0749 -0.107771
-16.0426 -12.6796 -0.784409
-16.7336 -12.2219 -0.274945
-16.8036 -12.1243 -0.36251
-16.7594 -12.1459 -0.434905
-17.1018 -11.9172 -0.243729
-16.0787 -12.5138 -1.09207
-16.4884 -12.2573 -0.859712
-14.5206 -12.9391 -2.09288
-16.798 -12.0858 -0.982925
-16.0186 -12.3861 -1.55737
-16.1164 -12.3613 -1.6013
-14.761 -12.3958 -2.60305
-12.3398 -13.084 1.28301
-14.4228 -13.7827 1.36573
-16.0509 -13.4322 2.00916
-16.079 -13.3689 1.58698
-16.2763 -13.2267 1.57702
-16.0791 -13.3419 1.27553
-16.3119 -13.167 1.46343
-15.7972 -13.5516 0.860441
-16.5706 -12.9228 1.32792
-13.8236 -13.8459 0.187942
-16.1115 -13.1124 0.836431
-16.1218 -13.1738 0.812454
-16.4059 -12.891 0.872757
-14.9903 -13.5897 0.056313
-13.1958 -14.0344 -0.838655
-16.6961 -12.64 0.786192
-16.498 -12.6646 0.645187
-17.001 -12.3997 0.853502
-16.1303 -12.9894 0.122601
-16.0102 -12.8768 -1.43051e-06
-16.0626 -12.9724 -0.138818
-16.1937 -12.763 -0.201582
-16.1777 -12.7202 -0.373086
-17.0009 -12.1252 0.259598
-16.5031 -12.4953 -0.366152
-16.183 -12.5385 -0.8385
-13.9074 -13.6729 -2.00621
-16.5927 -12.2701 -0.680904
-16.522 -12.2828 -0.824224
-16.4536 -12.2676 -1.22078
-16.2388 -12.2398 -1.58157
-16.1001 -12.261 -1.84533
-14.5823 -12.4774 -2.915
-15.8473 -13.5249 1.94958
-12.8931 -12.7356 0.831626
-15.7155 -13.5096 1.01837
-16.503 -13.1832 1.41123
-16.5017 -12.8921 1.35394
-16.6005 -12.7339 0.980503
-14.3291 -13.7538 -0.316538
-14.4432 -13.8563 -0.194391
-15.8252 -13.0641 0.373812
-16.7195 -12.5547 0.797631
-16.466 -12.8027 0.538746
-16.2457 -12.8431 0.220752
-15.9375 -12.8969 -0.0991974
-16.0138 -12.9907 -0.272028
-16.2187 -12.6688 -0.249266
-15.0214 -13.2668 -0.856397
-16.3513 -12.5184 -0.423896
-17.0309 -11.9587 0.0736131
-16.2003 -12.531 -0.894224
-17.0469 -11.9199 -0.26812
-14.9186 -12.3965 -2.07111
-14.1895 -12.7919 -2.77102
-14.5182 -12.6129 -3.0328
-13.9396 -13.415 -4.40288
-16.1692 -13.4698 1.86311
-12.8791 -12.8353 0.89144
-16.0279 -13.4515 1.36733
-16.2977 -13.1751 1.39371
-13.4958 -14.0797 -0.401759
-16.0529 -12.9535 0.0496998
-13.6352 -13.9353 -1.2457
-16.6877 -12.2577 -0.17588
-16.255 -12.4947 -0.788726
-16.3337 -13.2687 1.5453
-15.0684 -13.2306 0.457792
-14.9744 -13.3648 -0.460419
-16.8434 -12.5382 0.492553
-15.9462 -13.0048 -0.0335413
-13.776 -13.6097 -1.85264
-15.0888 -12.3879 -1.87197
-15.089 -12.2045 -1.99231
-14.6876 -13.2869 1.40269
-15.9709 -13.3632 1.15107
-16.4297 -12.9696 1.1577
-13.6889 -13.9164 -0.45888
-16.2544 -12.7239 0.0163263
-15.0688 -12.992 -1.28985
-15.1413 -12.2722 -1.96722
-15.5581 -13.5936 0.813447
-16.1719 -12.84 0.0801041
-13.8471 -13.1828 -3.30579
-14.0807 -13.6825 -1.42707
-13.9245 -13.5633 -1.72457
-13.9899 -13.8059 -0.73307
-14.4836 -12.9504 -2.46672
-14.6192 -12.8198 -1.8081
-15.3581 -12.3124 -1.79352
-14.9654 -12.1599 -2.3644
-14.108 -13.9947 1.66509
-14.9602 -12.3174 -2.03921
-16.293 -12.4744 -1.16251
-17.1403 -12.0651 0.323323
-16.3075 -12.5997 -0.648899
-15.1826 -12.8616 -1.31773
-14.3159 -13.2695 -1.94047
-16.4018 -12.8125 0.161826
-16.2977 -12.787 0.247032
-16.5383 -12.8015 0.703476
-16.0911 -13.0964 0.283662
-16.3859 -12.8972 0.564575
-16.403 -12.9476 0.734872
-16.5698 -12.9325 1.17513
-16.1774 -13.1718 0.876762
-16.0135 -13.254 0.791767
-15.9556 -13.2716 0.807912
-15.9443 -13.2772 1.16783
-15.9841 -13.3357 1.15479
-14.0342 -13.8267 -0.284821
-15.9798 -13.3971 1.20764
-14.4672 -13.5188 0.515697
-12.9947 -14.2676 -0.853197
-15.6661 -13.6471 1.52963
-16.0517 -13.5828 2.10478
-15.8582 -13.6934 1.86063
-15.7005 -13.9287 1.92337
-15.4716 -14.1073 1.83055
-15.1454 -14.2018 1.82341
-14.9206 -12.3254 -2.13818
-14.5542 -12.9085 -2.0527
-16.2237 -12.6722 -0.255032
-16.0357 -12.8078 -0.445662
-13.8337 -13.7141 -1.76714
-15.9251 -13.1504 0.148587
-16.5115 -12.8723 0.856543
-16.0428 -13.0601 0.386839
-16.1228 -13.1245 0.54086
-16.098 -13.1433 0.467742
-14.7665 -13.3614 -0.508599
-15.7999 -13.4141 0.922096
-13.91 -13.9308 -0.520037
-13.8167 -13.8222 -0.257643
-14.8295 -13.2626 1.0819
-12.3274 -12.9823 0.504728
-11.8217 -13.2286 0.1238
-16.395 -12.2498 -1.12943
-14.6749 -12.7361 -2.46118
-16.0274 -12.946 -0.0216895
-16.2236 -12.7438 0.367198
-16.4813 -12.7516 0.464211
-15.846 -13.258 0.179336
-15.0666 -13.3853 -0.338231
-13.7092 -13.6263 -1.11543
-15.2146 -13.2543 0.432729
-14.8524 -13.2583 0.762808
-15.9804 -13.1496 0.15918
-15.3549 -12.9688 -0.0279445
-14.3922 -13.8247 -0.261542
-14.3235 -13.7033 -0.291233
-15.5665 -13.6751 1.13035
-15.6957 -13.6521 1.15149
-15.4426 -13.7971 1.00855
-16.1112 -13.3685 1.83277
-15.5956 -13.8713 1.27034
-14.5047 -13.4378 1.10501
-14.4171 -13.7149 1.5973
-16.3336 -12.3887 -1.17444
-16.5528 -12.7016 0.374397
-13.9555 -13.6241 -1.07833
-15.109 -13.1499 0.440906
-14.8434 -13.241 0.807603
-15.5109 -13.6674 1.0166
-13.1152 -14.3033 -0.711437
-16.4738 -12.6869 0.560133
-16.1754 -12.8445 0.341293
-14.2776 -13.758 -0.0163633
-14.7414 -13.3778 0.641536
-15.9058 -13.6013 1.52769
-16.205 -13.079 1.0487
-14.0849 -13.8124 -0.219512
-12.7546 -12.5411 0.541183
-14.1937 -13.8469 -0.649075
-12.5914 -12.9613 1.27656
-16.2203 -12.8846 0.127497
-15.1242 -13.4393 0.30517
-14.6099 -13.8102 -0.0857061
-16.8553 -12.1955 -0.116824
-15.9329 -12.8994 -0.58508
-15.1191 -12.8526 -1.45459
-15.9816 -12.907 0.0167789
-16.4579 -12.8686 0.705408
-16.5862 -12.8763 0.883083
-15.9723 -13.2941 0.785592
-16.0814 -13.2039 0.919341
-16.052 -13.3193 1.41796
-15.9884 -13.3682 1.14135
-15.5981 -13.6096 0.676397
-15.2044 -13.1923 0.70534
-16.0806 -13.4698 1.72993
-16.1057 -13.3713 1.72892
-15.6654 -13.6171 1.02109
-15.6324 -13.6156 1.17626
-13.9637 -13.8364 -0.470813
-14.5477 -13.3485 0.543117
-15.8643 -13.7283 1.92564
-14.3985 -13.4639 0.557252
-15.3862 -14.0016 2.46798
-14.4066 -13.7898 1.73246
-15.9094 -13.3712 1.15949
-13.9381 -13.6537 -0.940926
-15.836 -13.6374 1.38399
-14.2776 -13.4938 0.181326
-15.571 -13.8966 1.50951
-14.4308 -13.6695 1.20629
-14.3881 -13.7484 1.44022
-16.1276 -12.3522 -1.83341
-16.0673 -12.3894 -1.54559
-15.0831 -12.1807 -2.03412
-16.0099 -12.9804 -0.158517
-15.7687 -13.6872 1.91839
-13.7295 -13.8695 -0.323827
-15.6171 -13.9927 2.31573
-15.2415 -14.2149 1.78352
-15.8232 -12.8841 -0.5878
-16.0719 -12.98 0.045896
-16.362 -12.8948 0.732446
-15.716 -13.5036 0.912136
-15.5581 -13.6634 1.04123
-14.3063 -13.4211 0.300754
-15.3743 -13.8893 1.19294
-15.5299 -13.9311 1.58384
-15.5143 -13.5612 0.817319
-14.0772 -13.6787 -0.917959
-14.3254 -13.7978 -0.184168
-13.8319 -13.8741 -0.456747
-13.3079 -13.9731 -0.861664
-15.1457 -14.3199 1.70644
-14.1687 -14.004 1.38115
-14.6809 -12.9159 -1.96289
-14.9971 -13.4036 0.468122
-15.6124 -13.537 0.902748
-13.8904 -13.6579 -0.9671
-15.8545 -13.2052 0.398694
-14.5317 -13.3181 -1.07554
-15.0863 -13.2049 0.663187
-14.2707 -13.5848 0.173956
-14.4205 -13.771 1.7408
-13.7627 -13.7444 -0.361628
-15.983 -13.0177 -0.116271
-16.2466 -13.2139 1.65673
-15.8792 -13.5161 1.8071
-15.6451 -13.6269 1.01634
-15.779 -13.6685 1.5923
-15.571 -13.8773 1.67945
-13.8536 -13.5802 -1.03348
-13.9031 -13.7551 -0.910068
-16.6658 -12.492 0.362721
-15.9713 -12.8765 -0.116097
-15.8032 -13.5554 1.09352
-15.2069 -13.2449 0.48543
-14.0195 -13.6942 -1.34999
-15.3347 -13.9869 1.30549
-16.0703 -12.3327 -1.90574
-15.906 -13.1636 0.133663
-11.6905 -13.3873 0.750073
-16.1274 -12.5666 -0.878673
-15.3376 -12.4992 -1.46567
-15.9659 -12.9981 0.0880494
-15.0554 -14.2162 1.75271
-15.5335 -12.6615 -0.126283
-14.0091 -14.0193 1.59133
-13.8726 -13.8668 -0.309494
-14.1184 -13.8674 1.37097
-15.9248 -13.0582 -0.0596572
-15.8767 -13.105 0.0587539
-15.2246 -14.1975 1.57612
-13.9734 -13.6601 -0.910745
-14.2483 -12.7534 -2.74689
-13.7837 -13.6337 -1.07397
-13.8492 -13.6132 -0.962461
-13.9194 -13.6025 -1.0856
-15.5146 -13.8993 1.43705
-16.0503 -12.2655 -1.79024
-13.6695 -13.777 -1.82097
-14.4562 -12.942 -2.20095
-13.9107 -13.6087 -0.953016
-15.6096 -12.0929 -1.43422
-13.8607 -13.5779 -0.986458
-16.0175 -13.0551 0.0283482
-15.9098 -12.8617 -0.129146
-15.7254 -13.6211 0.997065
-13.7789 -13.6904 -2.02941
-16.035 -12.9966 -0.152359
-15.9348 -13.0325 -0.0550686
-15.6471 -13.6288 0.93429
-14.3126 -13.8833 -0.225704
-15.3068 -12.6939 -0.557904
-14.1326 -13.6924 -1.27395
-16.4187 -13.1485 1.51684
-16.2197 -13.3231 1.68122
-16.0488 -12.9824 0.120197
-14.4848 -13.2765 -1.12035
-14.2705 -13.7187 -0.673933
-13.8798 -13.593 -1.14075
-13.7741 -13.721 -2.60618
-15.7475 -13.5527 0.934202
-14.5417 -13.3035 -1.30289
-15.9286 -12.9792 -0.0641754
-14.8567 -13.2659 0.908624
-14.7134 -13.655 -0.191058
-15.1165 -13.2413 -0.659265
-13.9043 -13.6438 -1.54173
-16.4293 -12.3781 -0.964849
-14.247 -13.2756 -1.87775
-16.7566 -12.656 0.832999
-14.1553 -13.6288 -0.280233
-14.2367 -13.386 -1.56086
-13.72 -13.7106 -2.05683
-16.3973 -12.6917 0.123718
-14.3729 -13.6192 -0.854887
-13.5567 -13.9936 -1.86477
-16.274 -13.3228 1.65881
-16.7126 -11.9851 -0.83998
-16.2638 -12.7726 0.100724
-16.5096 -12.2633 -0.799804
-16.5473 -12.1547 -1.14818
-14.8097 -13.5936 -0.319605
-13.4553 -14.1396 -1.39515
-15.3124 -13.012 -0.894124
-14.9535 -13.2999 -0.473597
-14.4163 -13.5321 -0.987284
-15.999 -12.8389 -0.258298
-14.959 -13.1843 1.03599
-14.0473 -13.7653 -0.749362
-16.5196 -13.0429 1.45594
-15.9817 -13.2381 1.04943
-16.2427 -12.7877 -0.356091
-15.8972 -12.8351 -0.648271
-16.1753 -12.3968 -1.2104
-14.1488 -13.8833 1.04713
-14.7739 -13.5529 -0.230832
-13.7779 -13.6453 -1.88745
-16.3411 -13.1131 1.54189
-16.7693 -12.2793 4.17233e-07
-16.8629 -12.2924 0.108681
-16.5728 -12.3675 -0.0611497
-16.3666 -12.6207 -0.519849
-16.2853 -12.5335 -0.452414
-15.9945 -12.8149 -0.26728
-16.499 -12.2964 -1.05182
-14.405 -13.434 0.561772
-14.4383 -13.4913 -0.926639
-14.3686 -13.5531 -0.900294
-13.7198 -13.9303 -1.8176
-12.0962 -13.1459 0.346842
-16.6758 -12.6611 0.849561
-16.083 -13.3389 1.17396
-16.6858 -12.3562 -0.214482
-15.8605 -12.8815 -0.710204
-14.5704 -13.3132 -1.14447
-14.3721 -13.2925 -1.40952
-14.24 -12.8978 -2.48664
-16.9852 -12.1638 0.458321
-16.2847 -13.3003 1.6263
-16.3734 -13.1002 1.61532
-16.7459 -12.5643 0.770558
-16.7073 -12.6557 0.806695
-17.1116 -12 0.0542024
-16.373 -12.9306 0.817429
-16.3735 -12.8333 0.768693
-16.3756 -12.9478 0.788223
-16.6895 -12.3792 -0.27841
-16.1953 -12.9368 0.44112
-16.2003 -12.9956 0.381505
-16.3792 -12.864 0.0668528
-15.8217 -13.2347 0.364883
-15.5513 -12.1232 -1.43894
-15.2812 -12.9874 -0.797996
-14.9521 -13.524 -0.319633
-14.565 -13.0258 -1.79996
-13.7533 -13.7514 -2.15585
-16.985 -12.2249 0.616325
-16.3631 -12.8685 0.802268
-16.8103 -12.293 0.102839
-14.6701 -12.6859 -2.40003
-13.5746 -13.9396 -2.59772
-14.2599 -13.5644 -0.928248
-14.4321 -13.3688 -1.20386
-14.3344 -13.3966 -1.06071
-12.5245 -13.0687 1.0721
-13.816 -13.7385 -2.02204
-14.9525 -12.8869 -1.44673
-14.161 -13.528 -1.33633
-14.2982 -13.3981 -1.44241
-14.9909 -13.2076 -0.614002
-14.261 -13.2902 -1.74312
-14.6618 -13.2997 -0.895086
-16.1228 -13.477 1.90555
-16.1042 -13.1988 1.4635
-16.6911 -12.5931 0.512354
-16.5032 -12.7596 0.422846
-16.7562 -12.2966 0.0581771
-16.8577 -12.2477 -0.0285062
-16.705 -12.4123 -0.336716
-16.7156 -12.0663 -0.986157
-14.5403 -13.4686 0.712528
-14.5525 -13.3823 0.581868
-16.454 -12.2461 -1.20905
-15.1211 -13.1318 -0.769481
-15.0382 -13.3116 -0.753719
-14.37 -13.5541 -0.741875
-13.8245 -13.7092 -1.75486
-16.3127 -13.2303 1.73614
-16.2442 -13.2107 1.59849
-16.1968 -12.7745 0.130146
-14.4442 -13.671 1.54839
-16.362 -12.6285 -0.505605
-16.5721 -12.2162 -0.82679
-16.6618 -11.9824 -1.23761
-15.0285 -13.4174 0.0584215
-16.4727 -12.2198 -1.1618
-14.3533 -13.7054 -0.760618
-14.5347 -13.3404 -0.904634
-14.4728 -13.3179 -0.978679
-14.1157 -13.8032 -0.755748
-14.5071 -12.9252 -2.39493
-13.7382 -13.6997 -1.86993
-13.9422 -13.5077 -2.0427
-13.7257 -13.7682 -1.93603
-14.7601 -12.4308 -2.68147
-13.7183 -13.8052 -2.03932
-14.2263 -12.6267 -2.7015
-16.4534 -13.1417 1.57788
-16.6953 -12.4565 0.576075
-16.7664 -12.4931 0.156132
-16.8043 -12.1065 -0.228203
-16.8445 -12.072 -0.354819
-16.7536 -12.1118 -0.914122
-15.5836 -12.2445 -1.3819
-14.1961 -13.8193 -0.615863
-14.2597 -13.7253 -0.670612
-14.0474 -13.831 -0.635592
-14.1875 -13.7632 -0.885933
-14.2471 -13.7053 -0.772483
-14.3631 -13.5129 -1.14895
-13.5142 -13.9634 -1.77895
-13.4497 -13.9897 -2.40497
-13.9357 -13.1126 -3.36395
-16.4521 -13.0828 1.49406
-16.3991 -12.9437 0.769278
-16.304 -12.9225 0.364014
-16.2407 -12.7804 0.148073
-15.2179 -13.3257 0.0128346
-14.379 -13.5537 -0.89125
-14.7356 -12.8317 -2.18877
-16.754 -12.4361 0.410692
-14.496 -13.6217 1.13699
-15.6417 -12.1834 -1.38667
-16.1151 -12.1334 -2.13063
-13.9206 -13.3119 -3.04525
-16.4454 -13.0324 1.68006
-16.3806 -12.9967 0.876702
-16.13 -12.927 0.255383
-17.152 -11.8669 -0.108091
-16.5334 -12.4984 0.152466
-16.6286 -12.4346 -0.249766
-15.2105 -13.3767 0.0485574
-16.6433 -12.1893 -0.821315
-15.0044 -13.4202 0.0057492
-16.0326 -12.824 -0.726003
-16.4423 -12.2706 -0.922087
-15.2509 -12.9772 -0.775067
-16.2464 -12.4202 -1.61752
-14.2696 -13.4772 -1.04662
-13.8834 -13.5449 -1.06225
-14.2438 -12.869 -2.54167
-13.8478 -13.1881 -3.10887
-16.3392 -12.9622 0.746352
-17.3201 -11.9226 0.249875
-14.4389 -13.7473 1.4594
-16.8519 -12.2111 0.00247657
-16.2368 -12.7288 0.108876
-16.6211 -12.4142 -0.0823873
-16.1246 -12.7024 -0.456259
-16.6094 -12.2413 -0.946457
-16.4795 -12.285 -1.1802
-14.3451 -13.5321 -0.922322
-14.7483 -13.0343 -1.23199
-14.3654 -13.2984 -1.12907
-13.8526 -13.7007 -1.83399
-13.6553 -13.7093 -1.87481
-16.5118 -12.9987 1.54145
-15.531 -13.8575 1.77934
-16.1198 -13.3831 1.51629
-16.0987 -13.3585 1.47366
-16.9272 -12.2012 -0.0716159
-16.9512 -12.1105 -0.114677
-16.3818 -12.6317 0.118758
-14.4237 -13.5385 0.53724
-14.4831 -13.493 0.497593
-16.8425 -12.0654 -0.974912
-14.222 -13.7378 -0.819879
-14.5465 -13.1096 -1.16739
-14.6443 -13.096 -1.16969
-12.4056 -12.9955 0.539533
-13.4076 -14.0009 -0.713029
-13.2736 -14.133 -0.727173
-14.6962 -12.5533 -2.79841
-16.2506 -13.0821 1.03124
-15.141 -13.4097 -0.0969587
-15.5974 -12.3035 -1.30978
-16.6841 -12.6088 0.762839
-16.7157 -12.504 0.356856
-15.7816 -13.5053 0.922976
-15.5573 -12.2892 -1.27314
-14.4806 -13.2104 -1.84739
-14.4626 -13.4857 0.610856
-15.2321 -13.2623 0.0281512
-13.8265 -13.1627 -3.22508
-14.8831 -13.3388 -0.364373
-14.1347 -12.8949 -2.61501
-16.2607 -12.6754 0.1024
-16.8332 -12.1831 -0.0350261
-16.664 -12.3488 -0.175626
-15.086 -13.2313 -0.722209
-17.0413 -12.0435 0.349218
-16.1002 -12.9518 0.364194
-16.5832 -12.3238 -0.152569
-16.0759 -12.9532 -0.130465
-16.4589 -12.4485 -0.243393
-14.1798 -13.8436 -0.0684759
-15.9491 -12.6101 -1.13482
-16.446 -12.1882 -1.09997
-14.6913 -12.4612 -2.78169
-16.3009 -12.8893 0.840238
-16.0931 -13.101 0.74003
-14.2605 -13.4905 0.290828
-16.6054 -12.2388 -0.798619
-14.1229 -13.7691 -0.846753
-13.9238 -13.7044 -1.01371
-13.738 -13.5928 -1.16064
-14.4399 -12.5665 -2.99145
-16.3414 -13.1949 1.66984
-15.5678 -14.0427 1.89718
-16.8881 -12.122 -0.0489233
-13.3804 -14.1065 -0.323218
-12.3359 -13.0354 0.574961
-14.9153 -13.307 -0.70508
-14.5929 -12.5478 -2.95793
-16.6415 -12.8413 1.46245
-14.5742 -13.413 0.659103
-14.5891 -13.4517 0.647039
-13.1929 -14.1973 -0.886054
-16.6538 -12.6235 0.485336
-12.9342 -13.0047 1.06102
-14.2465 -13.5609 0.272339
-15.2709 -13.3438 -0.224832
-14.8538 -13.2889 -0.786719
-14.3879 -13.2359 -1.3163
-15.8717 -13.5472 1.09093
-17.0069 -12.3581 0.821357
-16.5762 -12.6302 0.645672
-17.1146 -12.2139 0.597249
-16.9794 -12.1656 0.503738
-17.126 -12.1109 0.513442
-16.7689 -12.4825 0.471116
-15.9536 -12.9601 0.0916494
-14.9463 -13.3255 -0.419864
-14.7036 -13.357 -0.550891
-16.71 -12.1109 -0.600214
-13.8847 -13.6717 -1.02978
-15.614 -13.9143 1.90424
-16.2568 -13.208 1.37535
-16.7722 -12.5824 0.907915
-12.6982 -12.9183 1.07976
-14.8659 -13.3688 -0.631997
-13.4468 -13.9603 -0.611591
-14.905 -13.409 -0.655057
-13.0621 -14.2736 -0.867482
-14.1006 -13.6933 -0.829435
-15.915 -12.938 -1.03666
-13.798 -13.5127 -1.20196
-13.7586 -13.0484 -3.33927
-15.7289 -13.8937 1.73721
-16.3505 -12.9943 1.50467
-16.2459 -13.169 1.37453
-15.6776 -13.4763 0.928326
-17.148 -12.1716 0.504817
-14.6783 -12.4493 -2.76394
-16.2977 -12.8566 0.606654
-16.7608 -12.3883 0.361947
-13.9352 -13.8331 0.178133
-13.6415 -13.8839 -0.380876
-15.0448 -12.2875 -2.38678
-13.9097 -13.6706 -2.05053
-15.7623 -12.2482 -1.80777
-14.4834 -13.7009 1.20993
-15.4152 -12.7418 -0.209856
-14.4111 -13.7577 1.3188
-15.4135 -13.0041 0.277432
-14.6975 -13.6843 -0.458978
-15.5721 -12.1829 -1.22987
-16.0105 -13.5245 2.16587
-14.3165 -13.8807 1.46454
-16.0982 -13.3354 1.55467
-15.7986 -13.6068 1.18914
-15.9859 -13.2718 0.78318
-13.9035 -13.881 -0.185572
-16.2757 -12.8138 0.209166
-16.8665 -12.3649 0.493287
-17.178 -12.1498 0.539
-16.0715 -12.8709 -0.137919
-14.9038 -13.3716 -0.49722
-14.0275 -13.7971 -0.774835
-14.0408 -13.744 -0.888661
-14.0094 -13.8247 -0.931811
-13.486 -14.0956 -1.49965
-17.1047 -11.8703 -0.162384
-16.0959 -12.5968 -1.0589
-16.5569 -12.2905 -0.97162
-14.3674 -13.2804 -1.75965
-14.4706 -12.4614 -2.99306
-12.7706 -13.0218 1.08369
-14.6711 -13.3975 0.921898
-16.1847 -13.0623 0.769355
-16.9222 -12.4001 0.793581
-16.8709 -12.3384 0.439883
-16.2927 -12.6988 0.183926
-16.0992 -12.9347 -0.114356
-17.0489 -11.9555 -0.277185
-16.6845 -12.0915 -0.607143
-16.1286 -12.6415 -1.03262
-14.0794 -13.1769 -2.1132
-15.7954 -13.609 1.32083
-16.7463 -12.6771 1.0338
-16.7618 -12.564 0.779363
-14.0951 -13.6841 0.12289
-16.7376 -12.5306 0.710773
-16.0705 -12.9889 0.126763
-16.1794 -12.7892 0.0506213
-14.1934 -13.8399 -0.55836
-16.022 -12.9507 -0.0752267
-16.0356 -12.8884 -0.0659432
-15.9466 -12.7752 -0.605396
-17.1226 -11.9328 -0.259592
-16.2248 -12.3228 -1.50595
-14.9685 -12.3987 -1.96199
-14.4775 -12.4893 -3.03711
-14.1165 -13.67 -0.1699
-13.6256 -13.9967 -0.252461
-16.1004 -12.8983 -0.0800223
-13.058 -14.2413 -1.10964
-16.5915 -12.3746 -0.142873
-15.1303 -13.0625 -1.28523
-16.004 -12.6438 -1.18453
-16.404 -12.2256 -1.27601
-16.1912 -12.3624 -1.66624
-16.0331 -13.3086 1.07822
-16.1554 -13.1474 1.17656
-14.0934 -13.7994 0.0938684
-16.7542 -12.3913 0.437345
-13.2009 -14.1749 -0.769297
-15.6367 -13.541 0.781797
-15.3973 -12.9172 0.140617
-15.8201 -13.8331 2.17848
-16.1041 -13.4158 1.50166
-16.275 -13.2512 1.68271
-16.0872 -13.3529 1.18866
-15.9814 -13.2275 0.708409
-16.3595 -12.9851 1.01666
-16.4749 -12.8435 0.681889
-16.8103 -12.5673 0.813395
-16.8903 -12.3454 0.899813
-16.7162 -12.5657 0.646126
-16.2604 -12.8373 0.263028
-16.522 -12.6275 0.474336
-16.5086 -12.6958 0.412128
-17.173 -12.0701 0.577609
-16.7632 -12.2142 0.0326784
-16.6127 -12.3801 -0.256739
-16.4546 -12.3995 -0.224654
-16.4217 -12.4624 -0.32285
-16.8166 -12.2107 -0.265358
-16.7382 -12.1243 -0.316338
-16.3531 -12.4003 -0.807236
-16.6836 -12.1693 -0.761283
-16.4502 -12.2207 -0.865035
-16.2467 -12.3901 -1.28654
-16.5226 -12.1675 -1.23752
-16.5102 -12.1535 -1.22686
-14.9268 -12.4043 -2.00288
-16.0812 -12.3332 -1.76266
-14.1156 -12.7891 -2.68091
-14.1293 -12.8186 -2.9645
-14.4186 -12.5323 -3.11824
-14.1006 -13.3027 -4.49964
-12.4286 -13.1123 1.45387
-15.9507 -13.434 1.53831
-15.8349 -13.4561 1.40124
-16.4411 -12.9323 1.36945
-15.6887 -13.3777 0.915247
-16.3765 -13.0433 1.12529
-16.6901 -12.5628 0.76216
-16.7572 -12.613 0.788414
-15.9566 -12.9884 0.093995
-15.0247 -13.2014 -0.787699
-16.1694 -12.7947 -0.272716
-17.0636 -12.0984 0.226465
-15.2356 -12.9524 -1.16679
-16.097 -12.5971 -1.0823
-16.5574 -12.3946 -0.91436
-16.2581 -12.3725 -1.2364
-14.5097 -12.9502 -2.17338
-16.17 -12.3591 -1.4777
-16.1609 -12.3352 -1.55414
-14.7292 -12.3697 -2.72396
-15.7022 -13.7653 1.46133
-15.6641 -13.7395 1.06262
-16.0921 -13.277 1.20862
-16.0524 -13.134 0.813539
-15.8631 -13.1544 0.262557
-16.3418 -12.9146 0.593876
-13.9246 -13.6531 -1.04065
-16.0988 -12.8007 0.0734041
-15.934 -12.8396 -0.0439174
-17.1223 -12.0402 0.504466
-16.7941 -12.2751 0.209869
-16.383 -12.2723 -1.08383
-16.4778 -12.2802 -1.05303
-15.023 -12.4553 -1.87794
-16.1083 -12.3813 -1.49188
-15.5578 -13.7283 0.952342
-14.2839 -13.4908 0.510561
-16.0574 -13.0043 0.439132
-16.0468 -12.5228 -0.904348
-13.9064 -13.2559 -2.12026
-16.0829 -12.6416 -1.07639
-15.9118 -12.6453 -1.18749
-15.3875 -12.2378 -1.75323
-14.6495 -12.4084 -2.72913
-15.6414 -13.5666 0.895467
-15.6742 -13.52 0.871249
-16.2786 -13.0862 1.14213
-13.7973 -13.7776 -0.424035
-14.2392 -13.6912 -0.788506
-15.9352 -12.7054 -0.89449
-16.2673 -12.1909 -1.65823
-16.105 -12.2907 -1.7326
-15.7532 -13.5437 0.995732
-16.2654 -13.0854 1.32237
-16.8741 -12.2656 0.293057
-16.2613 -12.2892 -1.52235
-15.475 -12.2134 -1.91015
-15.9854 -13.3923 1.23515
-14.9287 -13.2643 0.854452
-14.0547 -13.6779 -0.0893516
-15.1718 -12.8811 -1.31316
-15.0747 -12.1585 -2.20334
-13.7134 -13.8213 -1.11572
-16.2113 -12.909 0.2934
-14.3508 -13.3151 -1.2028
-14.4095 -12.6585 -2.88817
-15.874 -13.8576 2.2434
-15.571 -13.9261 1.72344
-16.088 -13.5479 2.26509
-15.8355 -13.6706 1.88302
-16.2165 -13.4774 1.9894
-15.8033 -13.6651 1.41334
-15.6759 -13.6875 1.42289
-14.6307 -13.3333 0.914608
-16.2972 -13.2518 1.96958
-16.331 -13.3048 1.85006
-16.2739 -13.4423 1.71421
-15.9771 -13.4179 1.33734
-16.0026 -13.3588 1.27315
-16.0647 -13.2753 1.27686
-16.0943 -13.4401 1.19102
-15.8493 -13.552 0.981236
-16.0077 -13.359 1.04504
-16.0182 -13.3212 1.1177
-16.0201 -13.2966 0.97887
-16.2612 -13.0587 1.25161
-16.4845 -12.9776 1.43013
-15.8913 -13.2732 0.699443
-16.0562 -13.15 0.748494
-14.0834 -13.8076 -0.933992
-16.6726 -12.8384 1.40613
-16.4652 -12.9202 1.24316
-13.9043 -13.6061 -1.21691
-13.9571 -13.4654 -1.1972
-15.4314 -12.9826 0.128104
-16.5463 -12.7769 0.959708
-16.3949 -12.9115 0.650117
-16.6012 -12.7685 0.985355
-16.3914 -12.9224 0.576714
-16.7388 -12.595 0.73464
-16.8293 -12.5245 0.806739
-16.2649 -12.783 0.142552
-16.7517 -12.4126 0.518451
-15.9657 -12.9046 -0.494363
-16.681 -12.4723 0.353099
-15.9058 -12.6883 -0.839375
-16.2482 -12.704 -0.683994
-15.9649 -12.7261 -1.08397
-16.5485 -12.4061 -0.611636
-16.6931 -12.1801 -0.329439
-16.7532 -12.1944 -0.305962
-16.9838 -12.1444 -0.162297
-17.1976 -11.9858 0.116652
-17.2601 -11.9062 0.271002
-16.5482 -12.3004 -0.914526
-16.1854 -12.3537 -1.5508
-14.9645 -12.3736 -2.04486
-15.1015 -12.3388 -2.10833
-16.6962 -12.0108 -0.953929
-16.0963 -12.2412 -1.61683
-16.4599 -12.1603 -1.47252
-15.7699 -13.8229 2.26374
-14.5434 -13.3524 0.88393
-14.8636 -13.177 0.920261
-13.9427 -13.822 -0.480192
-15.7749 -13.3228 0.452109
-13.9094 -13.635 -1.05955
-14.7555 -13.3631 -0.579238
-15.7909 -13.1685 0.130179
-16.4728 -12.8776 0.829658
-15.9363 -13.1199 0.117176
-13.8064 -13.7608 -1.74813
-16.5001 -12.6959 0.501751
-16.4098 -12.7738 0.291009
-16.2658 -12.7415 0.0967284
-15.9702 -12.5541 -1.12542
-14.6023 -12.8196 -2.40591
-16.2135 -12.2646 -1.21744
-16.7017 -12.0897 -0.703249
-16.3911 -12.1948 -1.38806
-15.6184 -12.161 -1.56026
-16.5212 -12.1357 -1.35676
-15.0171 -14.2153 1.8483
-14.2057 -13.8928 1.39405
-15.5461 -13.8949 1.92131
-15.4971 -14.0116 1.7929
-15.6568 -13.7433 1.34748
-15.8204 -13.7807 1.46555
-15.6073 -13.6453 0.905982
-16.0804 -13.2779 1.43624
-13.6101 -13.8812 -1.19261
-14.962 -13.4148 -0.315354
-15.871 -13.137 0.321238
-16.334 -12.9505 0.84324
-16.2029 -12.9759 0.493177
-16.0326 -12.9286 0.00661597
-15.2204 -12.7324 -1.13184
-15.4293 -12.3913 -1.41353
-16.1366 -12.4212 -1.48575
-14.8349 -12.384 -2.49204
-14.3545 -13.6325 0.531311
-15.4858 -13.7212 1.02864
-15.3836 -13.7783 0.991327
-15.7947 -13.478 0.99405
-14.2594 -13.8454 -0.32772
-14.417 -13.7366 -0.234745
-16.1069 -12.8474 -0.0872101
-16.3437 -12.6037 -0.393548
-16.397 -12.3762 -1.16152
-15.1394 -12.2391 -1.98721
-14.7354 -13.444 1.19892
-13.9545 -13.781 -1.01742
-14.0183 -13.7275 -1.02694
-13.6919 -13.5974 -1.14524
-16.3991 -12.6977 -0.0784543
-16.4354 -12.4985 -0.3611
-16.4557 -12.2787 -0.900528
-14.5601 -12.5997 -2.70317
-15.3624 -12.2274 -1.92757
-12.1041 -13.1085 0.414728
-14.2592 -13.5388 0.839536
-14.3647 -13.4453 0.830613
-13.8057 -13.7465 -0.523117
-16.0534 -13.3331 0.868162
-13.4733 -14.0842 -1.35323
-14.0522 -13.8238 -0.222883
-16.1799 -13.0935 1.04584
-14.4579 -13.1833 -1.47127
-14.0807 -13.3913 0.614174
-15.9921 -13.076 0.30918
-16.0794 -12.9367 -0.0749442
-13.3093 -14.0088 -0.467664
-15.0916 -12.2557 -2.46986
-16.5273 -12.2363 -1.41389
-16.5507 -12.1447 -1.4441
-16.4726 -12.2182 -0.977535
-16.3875 -12.2798 -1.07727
-16.3177 -12.3439 -1.14228
-16.9768 -12.0027 -0.14185
-17.1238 -12.0073 0.191962
-16.8434 -12.2183 -0.354691
-16.9309 -12.1006 -0.188328
-16.7918 -12.1738 -0.226506
-16.0515 -12.4964 -1.08715
-16.3163 -12.4614 -0.826756
-16.7525 -12.3304 -0.180054
-16.5617 -12.3443 -0.239202
-16.2582 -12.4839 -0.77643
-16.4061 -12.5809 -0.518339
-16.307 -12.5619 -0.383474
-16.2774 -12.4715 -0.571772
-16.8737 -12.4892 0.512168
-16.8605 -12.4619 0.699414
-17.0004 -12.3447 0.77513
-16.8078 -12.5178 0.616524
-16.84 -12.3265 0.769734
-15.8162 -12.9187 -0.581663
-16.6743 -12.4551 0.690596
-16.3495 -12.75 0.151065
-16.4428 -12.6653 0.376589
-16.5012 -12.7968 0.409672
-16.7519 -12.5904 0.839734
-16.7424 -12.7139 0.810597
-16.4666 -12.8008 0.596455
-16.7384 -12.5581 0.922105
-14.1434 -13.3524 -1.42322
-14.1622 -13.3285 -1.47059
-16.1727 -12.9428 0.496233
-16.3298 -12.8862 0.540275
-16.3769 -12.8722 0.854403
-14.4197 -13.5055 -0.991599
-14.82 -13.3292 -0.457994
-16.2385 -13.0581 0.730865
-16.6005 -12.7939 1.29523
-14.0038 -13.6825 -1.17366
-13.8462 -13.4639 -1.00469
-16.3438 -13.0365 1.07639
-16.4626 -12.8873 1.21437
-16.4345 -13.0265 1.27939
-13.9771 -13.7122 -0.956617
-15.9856 -13.3504 0.950836
-16.085 -13.2187 0.970249
-14.2328 -13.7374 -0.519698
-16.3032 -13.1346 1.39131
-16.0312 -13.3813 1.34035
-15.9669 -13.3739 1.2364
-16.3677 -13.1326 1.77956
-15.5617 -13.6541 0.951575
-13.8997 -13.8299 -0.120711
-16.0631 -13.3526 1.55514
-16.2315 -13.4923 1.70063
-16.1143 -13.3462 1.71895
-16.1554 -13.4407 1.73782
-16.0852 -13.3887 1.72145
-15.6107 -13.8968 1.7999
-13.9661 -13.9557 1.59002
-14.781 -12.282 -2.57288
-16.769 -12.1699 -0.792534
-16.4 -12.2633 -1.31242
-16.0936 -12.4198 -1.74503
-16.4471 -12.2646 -1.12871
-14.3669 -12.5936 -3.19637
-16.6408 -12.2386 -0.7681
-16.6404 -12.2649 -0.685096
-17.0199 -12.1195 -0.045448
-16.4744 -12.3333 -0.698138
-16.6764 -12.2309 -0.256143
-16.6743 -12.2659 -0.314138
-16.5869 -12.3934 -0.447271
-17.0692 -12.1824 0.510085
-16.5788 -12.3692 -0.242404
-16.5768 -12.2942 -0.127166
-16.2683 -12.6373 -0.357936
-16.9935 -12.3657 0.570427
-16.9809 -12.3872 0.743921
-16.852 -12.3677 0.535763
-16.1833 -12.65 -0.340516
-16.6311 -12.5277 0.379443
-16.8799 -12.4521 0.814899
-16.7095 -12.4684 0.604816
-16.7617 -12.4908 0.682795
-16.8309 -12.5632 0.86698
-16.3818 -12.6578 0.258526
-15.8721 -12.9778 -0.213675
-16.7898 -12.5868 0.991385
-16.3985 -12.7914 0.43632
-16.1181 -12.8603 0.0916276
-16.2381 -12.9871 0.302688
-16.4877 -12.8603 0.670295
-16.4631 -12.791 0.805148
-16.4566 -12.8121 0.642094
-16.0669 -13.0046 0.381451
-14.2752 -13.4104 -1.31243
-16.001 -13.1328 0.239523
-13.5526 -13.8254 -1.95861
-16.3936 -12.9547 0.914666
-13.8993 -13.5195 -1.23444
-16.0712 -13.1661 0.689373
-13.802 -13.5951 -1.20959
-16.0615 -13.0851 0.656525
-13.8612 -13.5661 -1.04821
-15.7875 -13.1731 0.532542
-15.8608 -13.2515 0.618419
-13.7985 -13.6795 -0.983038
-16.036 -13.1975 0.835019
-13.9187 -13.672 -0.884106
-16.1597 -13.109 1.08086
-13.8998 -13.6936 -0.878234
-14.0361 -13.7105 -0.931333
-16.3082 -13.019 1.14713
-16.0595 -13.1966 0.972271
-16.454 -12.9966 1.45105
-16.4054 -13.2467 1.40883
-15.9892 -13.3038 1.1353
-15.721 -13.6021 0.795041
-15.8871 -13.5137 1.24983
-14.3869 -13.4983 0.460371
-13.3017 -14.1007 -0.462813
-16.015 -13.4244 1.70865
-15.6653 -13.6951 1.44337
-15.9951 -13.5752 1.64231
-16.2551 -13.5926 2.0724
-15.798 -13.829 1.9759
-12.9634 -13.0825 1.0595
-14.2741 -12.5231 -3.08413
-16.4593 -12.2043 -0.894425
-16.284 -12.7202 -0.4701
-16.4907 -12.4086 0.091618
-16.8926 -12.4815 0.70426
-14.1697 -13.2403 -2.13296
-15.7199 -12.9656 -0.820834
-16.2688 -12.7426 -0.0698457
-16.4705 -12.6753 0.468379
-16.584 -12.6893 0.704822
-15.9276 -13.0788 -0.0473802
-14.9062 -13.2362 -0.888348
-16.032 -13.0333 0.100595
-16.2306 -13.03 0.374921
-15.1233 -13.2414 -0.66375
-16.4404 -12.8826 0.685202
-15.917 -13.1165 0.0873366
-16.5236 -12.8487 0.76754
-16.4083 -12.7906 0.783147
-16.3003 -12.9939 0.436384
-16.0792 -13.0654 0.424004
-14.4672 -13.3629 -0.982731
-16.181 -13.0214 0.570896
-14.0703 -13.7164 -1.27685
-14.0379 -13.7155 -1.11722
-13.8543 -13.6338 -0.925374
-13.8386 -13.7816 -0.937091
-14.5225 -13.711 -0.497118
-16.3056 -13.0834 1.21104
-14.1865 -13.6778 -0.717001
-16.3035 -13.0865 1.44748
-13.9446 -13.8377 -0.520077
-16.0236 -13.3476 1.14658
-16.5124 -13.1467 1.61941
-15.5782 -13.6043 0.8491
-16.2479 -13.2623 1.32475
-16.1855 -13.2721 1.40539
-14.0926 -13.5252 0.14659
-14.5042 -13.3655 0.605294
-15.6177 -13.6517 1.01926
-15.6717 -13.6995 1.1774
-16.1298 -13.4138 2.02153
-16.0029 -13.5781 2.01493
-15.8795 -13.684 1.9272
-12.1216 -13.0829 0.171727
-12.9949 -12.9504 1.14963
-15.7687 -13.8375 2.23738
-16.642 -12.1634 -0.771673
-14.5484 -12.412 -2.9696
-16.3949 -12.3444 -1.03612
-17.0749 -11.9891 -0.0055272
-16.8782 -12.1125 -0.22009
-17.1 -12.2347 0.484476
-16.6234 -12.3748 -0.0696681
-16.7905 -12.4747 0.350105
-16.2628 -12.6735 -0.275046
-16.8001 -12.3959 0.442127
-15.9767 -12.8038 -0.689048
-15.901 -12.864 -0.626091
-16.1784 -12.9005 -0.0811745
-16.0481 -13.0638 0.0204591
-15.9552 -13.0267 0.165574
-16.1685 -12.929 0.376361
-16.3537 -12.9396 0.911316
-14.2924 -13.5697 -0.88617
-13.9339 -13.5756 -1.10732
-13.8618 -13.702 -0.940802
-14.2176 -13.6282 -0.779142
-13.8795 -13.662 -0.852483
-16.3372 -13.0597 1.06634
-16.3749 -13.0622 1.22222
-13.9063 -13.8114 -0.587291
-14.035 -13.8433 -0.467631
-13.916 -13.8467 -0.523705
-16.049 -13.3215 1.19761
-15.6774 -13.4443 0.947942
-16.0741 -13.4219 1.56535
-16.0662 -13.5138 1.5961
-16.2272 -13.4335 1.88413
-15.7572 -13.7867 1.38469
-15.8247 -13.5853 1.61915
-14.8113 -13.2819 1.37786
-15.8658 -13.6244 1.79373
-15.9699 -13.632 2.01082
-16.0394 -13.5662 2.16414
-15.7479 -13.8156 1.72826
-15.8862 -13.6396 2.00632
-15.2389 -14.1748 1.20733
-12.6674 -12.838 0.91593
-14.2978 -13.938 1.33394
-16.0023 -13.6909 2.47705
-17.1954 -12.143 0.202459
-15.0035 -12.4649 -1.77626
-14.3205 -12.7184 -2.73154
-16.6296 -12.288 -0.288401
-16.7853 -12.29 -0.242392
-16.6598 -12.43 0.0187492
-15.108 -12.9647 -1.26563
-14.7821 -12.8898 -1.23036
-13.9324 -13.2546 -2.10716
-15.2099 -13.0412 -0.901261
-15.9667 -13.0125 -0.128924
-16.4674 -12.7999 0.487831
-16.0625 -13.0375 0.0653695
-15.1644 -13.2037 -0.610722
-16.2233 -12.9505 0.397874
-16.0154 -13.0134 0.22594
-16.3303 -12.8233 0.686881
-14.9567 -13.2858 -0.577904
-13.9152 -13.5843 -1.08736
-13.9263 -13.6181 -0.999439
-13.9056 -13.5987 -0.903555
-16.5439 -12.9239 1.42685
-13.96 -13.7953 -0.707443
-15.7479 -13.3883 0.826919
-13.9338 -13.7942 -0.645434
-15.9898 -13.3114 1.07897
-13.9642 -13.9125 -0.506205
-15.6651 -13.6061 0.962659
-16.0488 -13.3245 1.54265
-15.8896 -13.5562 1.57106
-15.8243 -13.6177 1.90593
-16.1326 -13.6677 2.2124
-15.6454 -13.9101 1.8712
-13.1523 -13.056 1.10238
-15.7893 -13.8623 2.11922
-15.7262 -13.8456 2.10627
-12.4565 -12.9539 1.11751
-15.4756 -12.1091 -1.85004
-16.4614 -12.3785 -0.725225
-16.2701 -12.5749 -0.440931
-14.7484 -12.8025 -1.23103
-13.9857 -13.1557 -2.00434
-15.445 -12.6979 -0.0149122
-13.9998 -13.4691 -1.98662
-14.4806 -13.5376 -0.86763
-13.9007 -13.6508 -1.11116
-13.8577 -13.6264 -0.9416
-13.9969 -13.6573 -0.775996
-13.817 -13.7171 -0.954825
-16.0528 -13.3214 1.08262
-16.134 -13.4714 1.58195
-15.5129 -13.92 1.53764
-15.5138 -13.9545 1.81833
-15.8185 -13.8955 2.21484
-12.6923 -13.0756 1.04845
-14.8985 -12.3513 -1.91516
-16.1609 -12.7933 0.0339243
-16.1402 -12.9695 0.389057
-16.3707 -12.8877 0.763351
