-13.2093 -14.5672 1.57434
-11.7838 -16.3544 1.41386
-13.057 -14.884 1.57398
-13.2178 -14.5046 1.70133
-13.2291 -14.6614 1.67211
-13.179 -14.5445 1.80413
-15.0032 -13.6327 1.71914
-14.6179 -14.131 1.78947
-14.9053 -13.747 1.75168
-15.0299 -13.6968 1.86542
-15.0789 -13.4602 1.90696
-14.765 -14.0156 2.07364
-13.3836 -14.4895 2.19662
-14.7682 -13.982 2.18101
-14.7392 -14.0349 2.25663
-15.0703 -13.8748 2.44245
-13.3755 -14.576 2.32944
-11.2515 -14.4964 2.26979
-14.5512 -14.5363 2.36292
-15.004 -13.9938 2.4857
-14.9031 -13.9093 2.78725
-13.2526 -14.5718 -1.6938
-11.4944 -15.6832 -1.7749
-14.4497 -13.2531 -0.958653
-14.071 -13.739 -1.05915
-13.6616 -14.3187 -1.20509
-14.1176 -13.7675 -1.05354
-14.1159 -13.8749 -1.05593
-14.6169 -13.1891 -0.863751
-14.314 -13.5102 -0.778914
-14.5886 -13.4419 -0.536072
-14.8207 -13.0222 -0.462629
-14.8954 -12.9815 -0.46814
-12.0124 -15.5975 -0.822746
-14.5849 -13.3407 -0.394021
-14.2086 -13.9085 -0.265244
-13.7678 -14.3741 -0.296505
-14.3099 -13.7671 -0.195383
-13.9109 -14.3542 -0.270076
-14.7237 -13.4104 0.128628
-11.7774 -16.2041 -0.137044
-13.062 -14.9875 0.0161534
-14.1369 -14.0676 0.153429
-14.211 -14.0789 0.271245
-14.347 -13.9116 0.314091
-12.6407 -15.2933 0.22049
-14.8694 -13.2296 0.479927
-14.9172 -13.3515 0.589776
-14.8668 -13.3204 0.601687
-14.6973 -13.5156 0.564626
-14.599 -13.612 0.519065
-14.6111 -13.5229 0.454932
-12.5941 -15.4076 0.355508
-14.5845 -13.7403 0.569962
-12.721 -15.3538 0.440302
-11.9285 -16.2596 0.284427
-14.1283 -14.1602 0.483493
-12.9777 -15.2446 0.551426
-14.1455 -14.3399 0.662845
-14.7544 -13.645 0.873111
-12.66 -15.3337 0.731525
-14.4336 -14.13 0.94954
-14.6109 -13.8791 1.09356
-14.6191 -13.8186 1.20053
-14.4155 -14.0362 1.162
-14.704 -13.684 1.28241
-14.454 -14.2834 1.37586
-14.3351 -14.299 1.54474
-14.3786 -14.3568 1.54697
-14.429 -14.4719 1.50914
-14.9522 -13.637 1.54071
-13.2578 -14.6121 1.55222
-15.1298 -13.7311 2.39997
-14.6958 -14.1429 2.4019
-15.0751 -13.7227 2.34449
-10.8088 -14.9203 2.40268
-11.2405 -17.0327 -2.14591
-12.4442 -14.8688 -0.947586
-14.0456 -13.9474 -1.03985
-14.0487 -13.8676 -0.977968
-14.6785 -13.1948 -0.634729
-13.5264 -14.5196 -0.653004
-14.4849 -13.6784 0.0693072
-14.3625 -13.8147 0.011431
-12.923 -15.0899 -0.0141774
-11.5415 -16.6328 0.103455
-14.212 -14.2699 0.534231
-14.4278 -13.8747 0.624696
-11.9774 -16.2395 0.462283
-14.9875 -13.3363 0.943329
-12.3007 -15.5798 0.757188
-12.4058 -15.5958 0.756795
-14.6467 -13.7157 1.06803
-14.2751 -14.3087 1.3105
-11.8572 -16.0951 1.30558
-12.8258 -14.8695 1.32897
-12.22 -15.4933 1.49972
-12.763 -15.2164 1.5149
-13.1046 -14.6615 1.74377
-14.9523 -13.7344 1.75866
-11.1344 -14.5123 2.24914
-15.2339 -13.5562 2.45786
-11.0719 -14.6238 2.38077
-12.4059 -14.6827 -1.46881
-12.6472 -14.5742 -1.25491
-12.202 -14.9798 -1.3474
-12.1737 -15.3982 -1.14585
-14.1392 -13.8766 -0.968189
-14.768 -13.2553 -0.0270303
-14.4259 -14.1032 0.817753
-14.616 -13.7409 0.752022
-14.4753 -14.1414 1.05405
-14.3211 -14.2061 1.30565
-13.2445 -14.5629 1.44154
-13.1735 -14.4698 1.48993
-14.4682 -14.1832 1.53747
-15.1321 -13.5768 2.16817
-14.9543 -13.7457 2.05296
-13.4661 -14.5451 2.02444
-14.7758 -14.0977 2.50666
-11.9567 -14.2145 2.55185
-12.3691 -14.7355 -1.06503
-13.867 -14.0754 -1.08785
-12.1053 -15.4924 -0.968361
-12.0758 -15.6268 -0.809102
-14.9479 -13.0406 -0.0341404
-11.7932 -15.8215 -0.473518
-13.6606 -14.4999 -0.297832
-14.7057 -13.3036 0.0326247
-11.8076 -16.1087 -0.113482
-14.7104 -13.7241 0.216917
-14.1369 -13.9997 0.232006
-13.1362 -15.0433 0.386694
-14.3654 -14.0079 0.805118
-12.3429 -15.6757 0.770865
-14.4708 -14.2306 1.36994
-13.4169 -14.2734 1.51128
-14.4508 -14.144 1.43224
-13.5851 -14.1678 1.72216
-13.5602 -14.2618 1.77171
-13.3714 -14.3104 1.92459
-13.7537 -14.2719 2.54383
-14.7999 -14.1736 2.72165
-13.5668 -14.4397 -0.90114
-14.432 -13.9075 0.382404
-12.322 -15.5515 0.725652
-13.6221 -14.2833 1.10294
-12.5652 -15.5043 1.28201
-12.0224 -15.9643 1.32413
-14.4899 -14.1265 1.73832
-13.4321 -14.4001 2.01743
-12.8864 -14.3636 -0.938047
-11.5811 -15.8182 -1.22387
-12.7444 -14.8544 -0.331375
-12.6212 -15.2917 0.426851
-12.5757 -15.4608 0.843981
-13.2731 -14.3072 1.48669
-13.4248 -14.4679 2.06217
-11.3256 -14.3265 2.31958
-11.8097 -16.0266 -0.4716
-13.132 -14.9936 0.547238
-14.8886 -13.7757 1.5936
-14.3342 -13.8347 0.208498
-14.2677 -13.9687 0.168447
-12.7166 -15.2907 1.23005
-14.0158 -14.0119 0.197626
-12.7834 -15.5272 0.84602
-12.8992 -14.933 1.43845
-11.9273 -16.1713 1.47117
-11.9918 -15.8877 -0.526561
-14.6551 -14.1465 1.8719
-13.4532 -14.2472 2.33903
-13.17 -14.5104 -1.84855
-13.3625 -14.4654 -1.33873
-13.8347 -14.1828 -0.796673
-14.6086 -13.5714 -0.15327
-13.8454 -14.2511 -0.711221
-14.2614 -13.8361 -0.16991
-14.3806 -13.8097 0.173347
-13.7551 -14.4035 -0.249886
-14.6752 -13.5438 0.454278
-15.0514 -13.301 0.908213
-14.1986 -14.0781 0.190102
-14.3798 -14.019 0.398086
-14.5354 -13.9082 0.763755
-14.4909 -13.8602 0.901014
-14.8262 -13.7186 1.31564
-14.8728 -13.6883 1.36096
-14.5775 -13.8655 1.26102
-15.0651 -13.6119 1.64206
-14.9758 -13.6228 1.64712
-13.6658 -14.3453 0.955652
-14.4686 -14.1949 1.2731
-13.1178 -15.0085 0.539462
-13.3988 -14.3762 0.974352
-14.3274 -14.1193 1.26591
-14.4153 -14.3296 1.51163
-15.0257 -13.6945 2.01305
-12.719 -15.3002 0.435257
-14.7509 -14.1024 1.54812
-14.8152 -14.0144 1.9882
-14.6944 -14.0918 2.06123
-14.4821 -14.3712 1.69485
-13.4124 -14.3589 1.49352
-15.0748 -13.7597 2.42364
-12.6945 -15.4147 0.7547
-11.8125 -16.2022 0.0188141
-12.1771 -15.5617 0.534377
-14.6633 -14.113 2.11551
-12.0935 -15.5967 0.737103
-11.9434 -16.2221 0.192584
-15.0139 -13.8713 2.845
-11.8849 -16.2586 0.487779
-12.791 -15.1116 1.59128
-12.6538 -15.007 1.52873
-13.6132 -14.1507 2.67821
-11.8822 -14.1622 2.43307
-11.1462 -14.6248 2.98898
-13.6999 -14.0293 -1.26716
-14.4342 -13.6515 -0.448606
-14.2022 -13.6926 -0.510969
-14.7285 -13.2296 0.180992
-14.645 -13.4997 0.621836
-14.586 -13.7933 0.536992
-14.144 -13.9494 0.289798
-14.2947 -14.0163 0.312418
-14.1031 -14.1722 0.292805
-13.3908 -13.9296 0.375102
-11.3567 -16.1515 -1.61302
-11.2068 -17.0182 -2.26737
-11.3912 -16.1705 -1.48085
-15.0561 -13.3239 1.27205
-12.0868 -15.5649 -0.857583
-11.1543 -16.3233 -1.40141
-14.1639 -14.2983 0.679892
-14.7317 -13.7666 1.35937
-14.9622 -13.6253 1.59828
-13.5761 -14.6511 0.737298
-13.0175 -14.9569 0.554977
-14.4789 -14.0606 1.33834
-14.4124 -14.2961 1.21825
-14.4779 -14.2748 1.31572
-12.6173 -15.4541 0.345124
-14.3662 -14.2878 1.49666
-14.4785 -14.2714 1.47257
-13.5452 -14.1988 1.42138
-13.0988 -15.2888 0.809077
-14.9658 -13.8809 2.25965
-11.9307 -16.2826 0.211192
-12.9671 -14.8027 1.38958
-14.4204 -14.6472 2.3271
-14.4138 -14.5075 2.32838
-12.5182 -15.5066 1.2885
-13.6419 -14.2639 2.70572
-10.7316 -15.0193 2.05893
-11.3405 -14.4619 2.58655
-11.45 -14.2727 3.00956
-14.2974 -13.4361 -1.02351
-14.9856 -13.0533 0.155808
-14.8103 -13.3326 0.246625
-13.844 -14.3384 -0.514302
-11.4892 -15.7385 -1.32253
-12.6237 -14.858 -0.259928
-12.2171 -15.4218 -0.807315
-14.2378 -14.2597 0.553692
-14.5999 -13.7558 1.06085
-14.3116 -14.1312 0.775901
-15.1959 -13.1907 1.70213
-14.4382 -14.1424 1.20497
-13.1483 -14.9172 0.338944
-14.5043 -14.1368 1.25941
-14.9204 -13.6882 1.82328
-12.7396 -15.1205 0.345195
-15.0814 -13.5374 2.07684
-15.2144 -13.5853 2.06467
-14.5837 -14.1786 1.53455
-14.6705 -13.9904 1.58365
-12.729 -15.2394 0.361405
-15.1419 -13.5277 2.18645
-12.6096 -15.5209 0.683725
-13.1186 -14.6788 1.40928
-12.6031 -15.678 0.667156
-14.4607 -14.5764 2.23605
-13.3436 -14.6015 2.31562
-13.5587 -14.4337 2.53078
-15.0367 -12.8713 0.036337
-13.5584 -14.6894 -0.604434
-12.986 -14.524 -0.515337
-14.3629 -13.9092 0.249299
-14.2318 -14.0584 0.463102
-14.9188 -13.2826 1.24697
-12.6208 -14.9022 -0.238574
-15.2006 -13.3671 1.56452
-14.0815 -14.4053 0.968806
-15.0975 -13.6754 2.14013
-11.5739 -16.4628 -0.481144
-12.7983 -15.3125 0.663189
-13.6131 -14.1294 1.85245
-11.8152 -16.1861 0.186292
-13.2091 -14.5106 1.6304
-12.4886 -15.6267 0.946754
-14.3367 -14.4721 2.50905
-13.2577 -14.7501 2.35638
-13.414 -14.6176 2.77438
-13.2267 -14.612 2.73727
-14.0965 -13.9722 -0.804581
-12.4298 -14.8784 -1.15056
-13.9868 -14.2356 -0.24979
-14.2138 -14.0655 0.374049
-13.1666 -14.9782 0.188346
-14.3646 -14.152 1.27008
-11.9219 -16.0428 0.136296
-13.6007 -14.0537 1.88687
-14.797 -14.0683 2.29202
-12.7864 -15.1903 1.14469
-13.4114 -14.3926 1.9834
-12.4639 -15.5706 1.14161
-12.4996 -15.4739 1.17361
-13.4823 -14.3487 2.35838
-12.3541 -15.5762 1.61552
-12.9271 -14.8704 -0.365622
-14.4383 -14.1364 1.41558
-14.4254 -14.2285 1.41769
-12.8544 -15.1512 1.27721
-14.3149 -14.3596 1.19667
-14.2869 -14.1718 1.30343
-14.5108 -14.123 1.41251
-13.075 -14.6935 1.4847
-13.6128 -14.2591 2.12519
-13.585 -14.2311 2.58398
-13.3236 -14.5545 2.77609
-12.772 -14.7206 -1.05961
-14.1818 -14.1916 0.583524
-11.6092 -16.6203 -0.177704
-11.9343 -16.1028 1.24865
-13.3072 -14.8607 0.707378
-12.927 -14.8175 -0.428306
-14.2682 -14.2057 0.646911
-10.9601 -16.0466 -2.05599
-14.6516 -14.1165 1.77991
-13.6364 -14.1462 1.97974
-14.8367 -13.306 0.123813
-14.0438 -13.6721 -1.04809
-13.8331 -14.0238 -1.2813
-13.6507 -14.1816 -1.4652
-14.3291 -13.879 0.420364
-14.2118 -14.0991 0.230929
-14.2566 -14.1743 0.398322
-12.71 -14.5307 -1.2489
-13.4415 -13.9099 0.338919
-14.1737 -14.2937 0.695828
-14.3661 -14.0809 1.09679
-12.3571 -14.6423 -1.18481
-14.4663 -14.1919 1.33668
-13.2492 -14.7715 0.233842
-14.3864 -14.5419 2.32848
-12.5613 -15.2657 0.201625
-12.5677 -15.4464 0.479125
-12.8167 -15.2725 1.13234
-12.5088 -15.6277 0.455072
-11.7895 -16.0166 -0.181986
-11.8379 -16.0604 0.0510268
-11.7848 -16.2311 -0.0072341
-11.7269 -16.7408 0.150628
-11.671 -16.3442 1.20439
-11.3774 -14.2022 2.85577
-15.0745 -12.8857 0.019148
-15.0777 -12.9648 0.185334
-14.5038 -13.5677 -0.432802
-15.0226 -13.4314 1.20486
-15.0443 -13.5503 1.46975
-13.5509 -14.429 -1.48014
-13.5066 -14.4732 -1.27377
-13.2516 -14.5758 -1.54795
-15.1935 -13.5618 2.21796
-14.94 -13.6842 1.87209
-14.3764 -14.1527 0.746851
-12.273 -14.7267 -1.21347
-12.3316 -14.8785 -1.09076
-13.0202 -14.7877 -0.0573392
-13.1394 -15.0341 0.121036
-14.4799 -14.6364 2.22811
-12.0827 -15.459 -0.937644
-12.1809 -15.4014 -0.690997
-13.3095 -14.4195 1.48303
-11.4966 -15.7442 -1.53621
-13.2821 -14.5174 2.25739
-11.8176 -15.7753 -0.422867
-12.2471 -15.9365 0.252451
-12.1917 -15.5312 0.690788
-12.5552 -15.5585 1.05659
-11.7545 -16.638 0.184951
-12.0555 -15.9569 1.32797
-14.1974 -14.1886 0.245388
-14.8389 -13.746 1.60076
-12.446 -14.845 -1.09017
-13.6515 -14.2206 1.3004
-13.0322 -14.779 -0.208035
-14.2999 -14.4244 1.50697
-12.6647 -14.8421 -0.232154
-12.1305 -15.3979 -0.737002
-12.6561 -15.2218 0.119984
-12.582 -15.3065 -0.0182712
-13.5967 -14.2548 2.77363
-12.7436 -15.368 1.06356
-11.9528 -16.0857 0.118432
-11.8579 -16.1633 0.24143
-11.7409 -16.2478 0.106183
-14.7776 -13.0322 -0.379056
-15.0491 -13.4681 1.14433
-12.4342 -14.7593 -1.17508
-14.3036 -14.3005 1.16534
-14.5255 -14.2278 1.9662
-12.595 -15.2679 0.324919
-12.6341 -15.2163 0.239766
-11.6257 -15.6303 -1.33367
-12.7358 -15.1958 0.364215
-12.6471 -15.3375 0.63891
-12.6268 -15.4965 0.733987
-10.7619 -17.1699 -2.84977
-11.7679 -16.2039 0.0233878
-11.8649 -16.2772 0.340254
-11.8507 -16.3704 0.504367
-14.3534 -13.6039 -0.696304
-15.1102 -13.7286 2.50769
-12.6428 -15.279 0.380565
-12.6254 -15.4363 0.446706
-12.6764 -15.3613 0.760307
-11.8435 -16.1206 0.0718469
-11.9462 -15.9544 1.32522
-11.962 -15.9969 1.40298
-14.3053 -14.1225 0.646656
-14.4828 -14.2107 1.38088
-14.4465 -14.1155 1.45124
-12.724 -15.2761 0.279413
-13.4329 -14.5423 2.17081
-11.792 -16.1233 -0.193443
-13.4622 -14.3908 2.09432
-12.5955 -14.6783 -1.16636
-14.3585 -14.2631 0.925155
-13.3899 -14.6097 2.23983
-12.4161 -15.7128 0.505074
-13.7127 -14.0936 2.58692
-11.6918 -15.6626 -0.721563
-14.4535 -13.852 0.499377
-12.5165 -15.4205 1.15068
-15.1479 -12.9284 0.165451
-14.9012 -13.6606 1.3836
-14.7607 -14.1247 2.1552
-14.277 -14.0932 0.188486
-14.1002 -14.163 0.291018
-13.7626 -14.3959 -0.248473
-13.235 -14.4058 1.57053
-13.1705 -14.5714 1.67862
-12.6745 -15.1628 0.135011
-12.5227 -15.2314 -0.0534578
-12.4321 -15.5185 1.06649
-12.2229 -15.5814 0.575059
-12.1017 -15.618 0.469999
-11.786 -16.1048 0.180159
-10.799 -14.8587 2.26842
-10.8751 -14.9617 2.42016
-14.9688 -13.1622 0.378485
-14.5252 -13.2606 -1.12869
-15.043 -13.425 1.27362
-14.6759 -13.438 -0.376882
-14.6487 -13.4697 0.0472885
-14.9351 -13.6344 1.31232
-14.5015 -13.5101 -0.386114
-14.9165 -13.6896 1.44499
-14.1722 -13.7546 -1.13668
-14.4226 -13.8445 0.272386
-14.3834 -13.8665 0.387803
-14.4446 -14.2592 1.31414
-13.6093 -14.1934 -1.53457
-13.7215 -14.3002 -0.295983
-13.5876 -14.5665 0.685664
-13.0925 -14.9782 0.220728
-12.2443 -14.8526 -1.21382
-12.2547 -14.9229 -1.14916
-12.6896 -15.2122 0.464201
-12.6724 -15.2174 0.445931
-12.5319 -15.2741 0.194092
-11.8525 -14.1893 2.60042
-12.3438 -15.2052 -0.647198
-12.7359 -15.418 0.774864
-12.3145 -15.5349 -0.169302
-12.0998 -15.5839 0.423511
-12.1628 -15.5807 0.473359
-12.2335 -15.757 0.70832
-11.4444 -15.785 -1.70271
-12.0883 -15.8269 1.23772
-11.8472 -16.1501 -0.00731614
-11.7809 -16.7775 0.250879
-10.9403 -17.15 -2.18386
-10.8686 -17.2612 -2.73582
-14.5462 -13.1634 -0.838071
-15.0259 -13.4648 1.14795
-14.4797 -13.3331 -0.419394
-14.5848 -13.399 -0.337716
-14.2939 -13.8023 0.0317595
-13.9988 -14.0505 -0.916081
-13.8291 -14.0655 -1.17309
-14.2897 -14.4248 1.59559
-13.5934 -14.1324 1.67625
-13.3862 -14.4238 -1.39108
-13.2416 -14.5002 1.56334
-13.3404 -14.6342 2.77496
-13.2331 -14.9685 0.351241
-13.1805 -14.9678 0.349963
-13.0201 -15.3005 0.486383
-12.2351 -15.3489 -0.692106
-12.4315 -15.5998 0.738853
-12.4782 -15.5857 1.32479
-11.8878 -15.6442 -1.02284
-12.0152 -15.7863 -0.683037
-12.1743 -15.6588 0.68942
-11.9009 -15.8335 -0.725403
-11.8727 -16.0098 -0.148059
-11.939 -16.1425 0.187062
-11.9762 -15.9666 1.27932
-11.6904 -16.1251 -0.260876
-11.6648 -16.5935 -0.0717626
-14.8836 -12.8387 -0.746835
-14.5948 -13.2952 -0.963674
-14.9067 -13.2981 0.246503
-14.8718 -13.2349 0.229323
-15.2746 -13.4598 1.97909
-14.3005 -13.8127 0.0358595
-14.5468 -14.2715 1.94023
-14.6163 -14.348 2.549
-13.8042 -14.4003 -0.348987
-13.2094 -14.5978 -1.67571
-12.6736 -15.181 -0.0670723
-12.6334 -15.1593 -0.0641812
-12.6864 -15.3059 0.733607
-12.5052 -15.4945 0.693629
-12.4999 -15.5273 0.754253
-11.8966 -16.161 0.0897776
-11.8755 -16.1546 0.0773672
-11.8203 -16.3079 0.0801886
-14.7317 -13.2817 0.119538
-14.8025 -13.3049 0.21544
-14.1614 -13.8219 -0.782203
-13.5692 -14.0962 1.56362
-12.615 -15.205 0.244037
-12.6501 -15.3488 0.336202
-12.5814 -15.2997 0.197956
-12.5973 -15.348 0.360943
-12.7319 -15.4527 0.86717
-12.3413 -15.292 -0.567918
-12.5112 -15.3681 0.125709
-12.6391 -15.3845 0.751754
-11.9559 -15.6119 -0.913769
-11.8902 -16.0246 0.0341731
-11.8421 -16.2922 0.177321
-11.8278 -16.2592 0.251007
-15.0489 -13.2608 0.580324
-14.2516 -13.8509 0.389595
-12.7443 -15.1994 1.17973
-12.8125 -15.159 0.815307
-12.6063 -15.254 0.349868
-12.0285 -15.5141 -1.05387
-14.0164 -13.7587 -0.967789
-12.7534 -14.6004 -1.18051
-11.614 -16.5622 -0.533163
-15.0463 -13.4522 1.27683
-13.5991 -13.9533 0.210402
-13.1262 -14.8539 -0.0570183
-12.425 -15.6957 0.600058
-11.6026 -15.8535 -0.761088
-11.682 -16.8068 0.101709
-13.6223 -14.243 2.27188
-13.2396 -14.8262 0.344349
-12.392 -15.1327 -0.504185
-11.3185 -16.3998 -1.18701
-13.8749 -14.107 1.31383
-15.0953 -13.4991 1.27478
-14.9469 -13.3647 1.37056
-14.6523 -13.7947 1.03473
-14.5313 -13.2576 -0.703564
-14.403 -14.1429 1.03096
-14.3727 -14.1696 1.08404
-13.5443 -14.2533 1.70157
-14.1326 -14.1179 0.219098
-14.1558 -13.9645 -0.239066
-14.0752 -13.6248 -1.23037
-14.1309 -13.7089 -1.33447
-14.0651 -13.7541 -1.21368
-14.1032 -13.7907 -0.971772
-14.1188 -13.8311 -1.01453
-14.1074 -13.8144 -1.03352
-14.0019 -14.1403 -0.805142
-13.8615 -14.1731 -0.782322
-13.8955 -13.8999 -1.18377
-13.8526 -14.0598 -1.22979
-13.8314 -14.0678 -1.13762
-13.4881 -14.6403 0.952472
-13.8096 -14.3548 -0.454299
-13.5435 -14.7344 0.859127
-11.9061 -14.2657 2.64676
-13.0201 -14.8195 1.62394
-13.6589 -14.1819 -1.49887
-13.1404 -15.0082 0.110857
-13.2417 -14.5188 -1.79226
-12.229 -15.5362 -0.293025
-12.2769 -15.5096 -0.17934
-11.9512 -15.9669 1.29584
-11.8123 -16.1509 0.0382887
-11.589 -16.5414 -0.969582
-11.2169 -15.7042 -1.94827
-15.1207 -13.4106 1.83752
-15.0537 -13.4749 1.53804
-14.8808 -13.3657 1.15092
-14.7764 -13.5982 1.32955
-14.8625 -13.1962 0.380081
-14.6599 -13.7095 1.15684
-14.6541 -14.0777 1.72781
-14.7167 -13.3151 -0.0160008
-14.5582 -14.2274 1.73587
-14.6181 -13.6068 0.200565
-14.4897 -13.2978 -0.441063
-14.3282 -14.2322 1.33819
-14.4053 -13.8916 0.390347
-14.3056 -13.5645 -0.726926
-14.2122 -14.2522 0.166187
-14.0301 -13.7192 -1.02924
-13.3054 -14.5827 1.64004
-13.1802 -14.4259 1.55591
-13.9246 -13.9743 -0.949632
-13.3212 -14.5179 1.52321
-13.8621 -13.9876 -1.2561
-13.7844 -14.0324 -1.35627
-13.7827 -14.1441 -1.3136
-13.3043 -14.838 0.43867
-11.336 -14.5584 2.59386
-11.1966 -14.6587 2.43657
-11.1823 -14.526 2.25847
-12.3435 -14.7358 -1.47983
-12.2816 -15.6747 0.674421
-10.8727 -14.8249 2.38218
-11.9787 -15.891 1.29708
-11.9111 -16.3388 0.681962
-11.8403 -16.1991 0.051335
-11.7814 -15.9224 -0.502797
-11.6764 -15.6709 -1.11948
-15.1015 -13.8493 2.55589
-14.9038 -13.6154 1.22446
-14.8277 -12.9977 -0.875929
-14.5507 -14.3978 2.68843
-14.4748 -13.5943 0.221367
-14.5726 -13.3941 -0.498315
-14.414 -13.3605 -0.414482
-14.3746 -14.4332 1.50844
-14.4391 -13.5953 -0.476984
-13.487 -14.2037 1.72951
-13.431 -14.4688 2.0423
-13.4625 -14.041 0.293792
-13.204 -14.5057 1.58936
-13.1979 -14.4763 1.48207
-13.7663 -14.0189 -1.17017
-11.8506 -14.1361 2.68439
-11.5471 -14.2071 3.02073
-12.7157 -15.0233 1.54326
-13.54 -14.4845 -1.37758
-13.1184 -14.8577 0.219656
-13.1077 -14.9972 0.2707
-13.0536 -14.8677 0.00232551
-12.7481 -15.3713 0.76641
-12.4512 -15.5707 1.38573
-12.5518 -14.9298 -0.348909
-12.4405 -15.2629 -0.0112211
-10.8568 -14.8991 2.3849
-11.9079 -16.0618 1.41875
-11.8541 -16.1761 0.0614539
-11.5351 -15.7566 -1.1297
-11.1035 -17.0154 -2.22784
-14.8254 -13.3107 0.293598
-14.7032 -13.6291 0.615053
-14.5648 -13.9279 0.990166
-14.4759 -13.5257 -0.360161
-14.429 -13.7872 0.0112696
-14.2445 -13.8276 0.0215226
-14.1077 -13.4197 -1.22978
-14.1423 -14.1376 -0.52682
-14.1031 -13.8582 -0.820246
-13.2736 -14.7118 2.26733
-13.2763 -14.463 1.55436
-13.7764 -14.3822 -0.245352
-13.6072 -14.7355 0.919686
-13.0719 -14.8131 0.0218412
-13.0358 -14.7825 -0.392835
-12.4199 -15.4437 1.43038
-12.7255 -15.3918 0.688722
-12.6358 -15.2077 -0.0576141
-11.9794 -16.0015 1.22687
-11.9475 -16.2241 0.121722
-11.9802 -16.1197 -0.203292
-11.7688 -16.1979 -0.0748687
-14.9632 -13.1643 0.378961
-14.8634 -13.095 -0.0706806
-14.8492 -13.058 -0.253914
-14.8136 -13.3214 0.309854
-13.5445 -14.1019 1.75936
-14.1173 -13.6482 -1.17679
-13.2527 -14.6627 2.3279
-13.7923 -14.3646 -0.451601
-11.6923 -14.2175 2.59391
-11.61 -14.2427 2.46782
-12.6823 -15.3092 0.389863
-12.6491 -15.2888 0.215623
-12.569 -15.563 0.716033
-12.5285 -15.57 0.556392
-11.8854 -16.2475 0.336999
-11.8699 -16.0139 -0.170405
-11.8356 -16.1469 0.184271
-11.5301 -15.7561 -1.16844
-11.8185 -16.6136 -0.299238
-11.6541 -16.6518 -0.467486
-15.0547 -13.3321 1.05995
-14.9422 -13.036 -0.24549
-14.7165 -13.8139 1.18553
-13.4559 -14.1413 1.55466
-13.5407 -14.764 0.87958
-12.7491 -14.6298 -1.20017
-11.6848 -16.5809 -0.469938
-14.3755 -13.7752 -0.0670734
-13.461 -14.0836 1.57218
-12.1977 -15.4439 -1.05728
-11.7457 -15.9034 -0.605097
-11.7356 -15.8209 -0.865729
-11.5001 -16.4905 -0.762319
-12.4964 -14.833 -0.917271
-12.0695 -16.0314 1.38921
-15.088 -13.4775 1.31337
-13.5848 -14.2642 1.01298
-13.3644 -14.6281 2.21299
-13.4335 -14.5153 -1.01777
-12.6389 -14.6641 -1.31529
-13.4753 -14.2382 1.63914
-12.7246 -15.4051 1.03268
-11.6429 -16.7189 0.0246597
-12.2659 -15.0524 -0.784138
-11.597 -14.1582 2.39486
-15.2458 -13.3773 2.18434
-14.8249 -13.7439 1.45933
-14.723 -13.7468 1.1197
-15.1085 -12.9597 0.202495
-13.417 -14.4222 2.2691
-14.9635 -12.9647 0.0352675
-14.9123 -13.1669 -0.00783205
-14.3903 -14.201 1.1626
-14.7473 -13.139 -0.0587774
-14.8369 -13.0533 -0.342738
-14.8608 -12.9742 -0.458608
-11.9263 -14.1275 2.54063
-14.7076 -13.1685 -0.508612
-13.2577 -14.4229 1.49133
-14.8027 -13.1188 -0.648084
-14.6847 -13.0748 -0.676584
-14.0978 -14.2337 0.712156
-13.1461 -14.6213 1.54821
-14.2911 -13.8591 0.0676292
-14.5368 -13.4205 -0.594339
-14.1794 -13.9679 -0.0111553
-13.4959 -14.7821 0.975775
-14.386 -13.2935 -0.817992
-14.3038 -13.7405 -0.489534
-14.0957 -14.0017 -0.252768
-12.7945 -15.1274 1.60279
-14.0944 -13.9352 -0.574298
-11.0548 -14.6403 2.47443
-14.0359 -13.8813 -0.705876
-11.0579 -14.51 2.30767
-14.0998 -13.856 -0.86045
-14.1229 -13.7284 -1.06461
-13.7341 -14.3992 -0.449272
-13.9609 -14.0427 -0.88847
-12.7237 -15.1307 1.07425
-14.1297 -13.6853 -1.35756
-14.0624 -13.9031 -0.942256
-13.7119 -14.2401 -0.571623
-13.9355 -13.9693 -0.995648
-13.693 -14.4884 -0.273467
-13.925 -13.9288 -1.08896
-13.2044 -14.8405 -0.00478037
-12.7412 -15.2063 0.780708
-13.177 -15.0084 0.143099
-13.9877 -13.9108 -1.21461
-13.8042 -14.0443 -1.11543
-12.4986 -15.4753 0.422715
-13.6297 -14.1916 -1.44299
-11.8919 -16.072 1.32165
-11.874 -16.1573 1.3358
-11.8504 -16.2105 1.43383
-13.5832 -14.293 -1.48137
-13.5612 -14.2679 -1.48593
-13.2317 -14.5556 -1.83278
-13.1966 -14.4525 -1.89812
-12.5349 -14.6799 -1.11999
-12.1789 -14.8901 -1.53043
-14.4771 -14.4115 2.60776
-14.9575 -13.5415 1.45874
-14.8688 -13.6117 1.46181
-14.6317 -14.0996 1.72589
-14.6645 -14.0461 1.71165
-13.3188 -14.6231 2.72306
-14.7611 -13.7302 0.801041
-13.5251 -14.1711 1.69041
-14.4882 -13.5797 0.277633
-14.5099 -13.6079 0.305108
-14.2971 -14.0323 0.662511
-14.6922 -13.1293 -0.588903
-13.3228 -14.4672 1.50666
-14.4732 -13.6142 -0.228467
-13.1395 -14.582 1.60368
-14.2192 -14.0786 0.14251
-14.2005 -14.155 0.234561
-14.2402 -14.2158 0.243395
-14.2183 -14.0863 0.245966
-14.3375 -13.2845 -0.637512
-14.4829 -13.2831 -0.567317
-14.2248 -14.0386 -0.00170583
-14.1478 -14.1263 -0.0105922
-14.5039 -13.4338 -0.6711
-14.5134 -13.3438 -0.82138
-14.3378 -13.5957 -0.671846
-14.5268 -13.2141 -1.1041
-12.7779 -15.163 1.5511
-12.6818 -15.1855 1.54072
-11.2277 -14.498 2.37415
-13.284 -14.8666 0.632856
-14.0608 -13.9183 -0.973236
-13.9389 -13.959 -0.792457
-14.0822 -13.8727 -1.02842
-13.0378 -14.9672 0.435851
-12.2993 -15.6306 1.46989
-10.728 -14.9468 2.49035
-13.0577 -14.8464 0.00682179
-10.911 -14.9191 2.36259
-10.8141 -14.8149 2.30797
-12.6435 -15.339 0.675735
-12.6022 -15.2043 0.241362
-12.5621 -15.4476 0.411111
-12.6062 -15.37 0.274199
-13.4689 -14.4833 -1.28064
-12.7019 -14.9906 -0.365525
-11.8018 -16.5755 0.741703
-12.3195 -14.6992 -1.30688
-11.6056 -16.6837 0.294807
-11.6041 -16.7446 0.137596
-15.1256 -13.6582 2.04641
-14.5658 -14.3338 2.52589
-15.1218 -13.2802 0.930276
-13.6141 -14.2478 2.35018
-15.0896 -12.8598 0.11012
-15.0958 -12.8016 0.0383896
-14.8522 -13.2971 0.338066
-13.4865 -14.3495 2.22027
-13.5496 -14.2501 2.11679
-14.4777 -14.0172 1.16816
-14.6478 -13.6885 0.620222
-14.6596 -13.7218 0.715523
-14.2763 -14.0871 1.26138
-14.9762 -12.8267 -0.248958
-14.6765 -13.3539 -0.0300775
-14.3693 -13.8679 0.302896
-14.56 -13.4097 -0.447856
-14.2145 -14.054 0.222247
-14.1575 -14.0974 0.312822
-14.6323 -13.213 -0.766318
-14.5403 -13.1512 -0.869098
-14.5763 -13.2096 -0.867791
-14.4886 -13.5234 -0.578003
-13.6363 -14.4434 0.700216
-14.4044 -13.3157 -0.755587
-14.2597 -13.6427 -0.574361
-14.2578 -13.8163 -0.457208
-13.951 -14.1359 -0.242652
-13.356 -14.4671 0.204191
-11.1053 -14.4887 2.29839
-13.2423 -14.8761 0.252797
-10.8881 -14.8198 2.46254
-13.097 -14.893 0.216185
-12.1774 -15.6243 0.730645
-13.4883 -14.1977 -1.36546
-12.1128 -15.5768 0.427689
-11.9786 -16.0738 0.774052
-11.8387 -16.3978 0.594051
-12.3283 -14.8493 -0.949124
-11.7488 -16.2023 0.0761522
-11.6664 -16.2315 0.00361363
-11.7172 -16.1276 -0.230392
-11.5935 -15.5999 -1.44387
-11.5472 -15.8376 -1.1857
-11.5245 -16.4488 -1.02547
-13.607 -14.1805 2.73968
-13.5498 -14.1743 2.23148
-13.4732 -14.4701 2.3428
-13.5831 -14.2651 2.12941
-14.3322 -14.2182 1.28928
-14.8349 -13.1037 -0.118195
-13.3102 -14.8336 2.34914
-14.6257 -13.0958 -0.872448
-14.1459 -14.0843 0.0683297
-12.7722 -14.9755 1.43573
-10.8231 -14.8798 2.58762
-13.9332 -13.935 -1.44861
-12.5743 -15.4642 0.443145
-10.5891 -15.232 2.21367
-12.6082 -15.2604 0.0275762
-12.6609 -15.1326 -0.120508
-11.896 -16.1941 0.274446
-11.796 -16.4109 0.298644
-11.9172 -16.0376 -0.124693
-11.8232 -16.1243 -0.222725
-14.7606 -14.0395 2.08001
-14.7473 -13.6732 0.881157
-14.407 -14.2021 1.37373
-14.8828 -13.2546 0.326313
-14.5662 -13.917 0.929566
-11.5487 -14.2544 2.65522
-13.3945 -13.9804 0.361416
-11.1352 -14.5786 2.30907
-12.744 -15.2314 1.23144
-13.2369 -14.9366 0.56263
-12.586 -15.2853 1.37806
-12.4333 -15.4262 1.45812
-12.3652 -15.512 1.47955
-12.4388 -15.4847 1.30752
-13.8985 -13.9678 -1.09649
-13.1469 -14.9185 0.0716278
-13.7713 -14.0555 -1.11869
-13.0008 -14.9734 0.20212
-13.7886 -13.9533 -1.28475
-12.7694 -15.2929 0.399436
-12.5666 -15.438 0.213895
-12.8908 -14.3015 -0.972813
-12.3691 -14.606 -1.22749
-11.8223 -15.3453 -1.60557
-11.6623 -15.4504 -1.52337
-11.6187 -15.6545 -1.61431
-11.1855 -16.3271 -1.39564
-14.1828 -14.0831 0.248803
-12.8558 -15.0286 1.48699
-12.7344 -15.1685 1.48238
-13.4019 -14.7446 0.590675
-13.0096 -15.0742 0.253937
-12.6519 -15.477 0.920893
-13.7868 -13.9483 -1.36494
-12.588 -15.4643 0.719423
-12.7802 -15.2785 0.299277
-12.0852 -16.0465 1.37761
-11.8695 -16.249 0.286667
-11.8584 -15.2857 -1.66057
-14.6696 -13.4558 0.0988864
-13.0897 -14.5379 1.54982
-12.742 -15.1098 1.24249
-12.7577 -15.4577 0.672689
-12.0215 -16.0494 1.29961
-12.451 -14.6352 -1.2305
-12.2923 -15.3449 -0.937911
-13.7856 -14.0992 2.47978
-14.7955 -13.3702 0.243143
-13.3768 -14.5539 2.13639
-13.5856 -13.9391 0.404271
-12.7662 -15.251 0.594223
-12.5578 -15.2314 0.144622
-12.7687 -14.5358 -1.30256
-12.0919 -15.4737 -0.384325
-11.1847 -16.529 -1.41089
-12.5942 -15.4346 0.631676
-12.584 -15.519 0.818083
-11.9012 -16.1894 0.182428
-12.6312 -15.3708 0.548003
-12.5227 -14.8154 -1.14695
-11.7197 -15.7988 -1.09683
-11.4598 -14.2799 2.75146
-12.3343 -14.9432 -0.804145
-15.1668 -13.6056 2.29344
-15.0497 -13.7287 2.31333
-15.2432 -13.4058 2.02598
-15.0501 -13.7597 1.91225
-14.666 -14.1458 2.1876
-14.7344 -14.1286 2.14035
-14.9108 -13.7125 1.75607
-11.4174 -14.2504 2.77268
-14.7606 -13.7823 1.6038
-13.4769 -14.4967 2.17052
-14.8073 -13.614 1.38836
-15.043 -13.3129 0.954134
-14.3698 -14.2891 1.53912
-13.5302 -14.1405 1.72319
-14.7167 -13.8292 1.10548
-13.3545 -14.3133 1.55573
-13.1472 -14.6533 1.61548
-14.7095 -13.5582 0.591528
-14.3924 -13.9957 0.741566
-14.6598 -13.6513 0.596119
-12.8137 -14.9891 1.58536
-14.93 -13.1748 0.443971
-14.8994 -13.0852 0.331741
-14.853 -13.226 0.350609
-14.6315 -13.7121 0.505084
-15.0481 -13.0847 0.124912
-14.4397 -13.9482 0.262271
-14.8682 -13.1886 -0.0244702
-14.3477 -13.9225 0.161039
-14.382 -13.8208 0.196362
-14.2111 -14.201 0.314035
-14.1842 -14.1718 0.291852
-14.2652 -14.0474 0.217058
-12.7499 -15.3896 0.834123
-14.349 -13.4944 -0.480565
-13.334 -14.6897 0.147651
-13.8851 -14.251 -0.211515
-13.7902 -14.3184 -0.190701
-14.8099 -12.8692 -0.930113
-14.3631 -13.498 -0.719325
-12.131 -15.5799 0.546419
-14.3996 -13.3768 -0.909555
-12.1277 -15.5773 0.423207
-14.3052 -13.4556 -0.933338
-14.6555 -13.0917 -1.02967
-14.2873 -13.4208 -0.928138
-14.4222 -13.3647 -0.957268
-14.391 -13.3709 -0.979006
-14.4545 -13.3233 -1.01084
-13.8347 -14.0318 -0.756412
-14.1099 -13.9265 -0.941189
-14.0833 -13.8781 -0.858078
-14.0358 -13.7615 -0.956304
-13.96 -13.8758 -1.03401
-14.1308 -13.6985 -1.093
-13.9473 -13.8863 -0.986456
-13.9633 -13.9309 -0.969304
-11.8621 -16.2232 0.0757607
-13.9393 -14.0379 -1.20895
-14.0661 -13.6651 -1.24394
-13.6971 -14.129 -1.4198
-13.6959 -13.9451 -1.46051
-12.1134 -15.4988 -0.795767
-11.7475 -15.7382 -1.01476
-15.028 -13.8378 2.38684
-14.7764 -14.1091 2.5687
-15.1702 -13.3757 1.69628
-14.9014 -13.7674 1.50061
-15.0576 -13.3317 1.34831
-14.9312 -13.4119 1.3412
-14.5156 -14.1667 1.56465
-11.6231 -14.1603 2.3973
-14.9994 -13.3307 0.958354
-14.7189 -13.4945 0.799911
-13.0782 -14.6923 1.75133
-13.2902 -14.3837 1.56691
-14.596 -13.6959 0.785042
-14.6684 -13.6576 0.753247
-13.1886 -14.5638 1.53549
-14.942 -13.4111 0.589144
-14.747 -13.533 0.664246
-14.8066 -13.4239 0.531855
-14.5636 -13.813 0.635852
-14.924 -13.2136 0.443354
-14.8591 -13.1858 0.370364
-14.7141 -13.439 0.465687
-14.6884 -13.5621 0.568258
-14.9923 -13.0195 0.188453
-13.5129 -14.452 0.982305
-14.9286 -12.9969 0.0456269
-14.7725 -13.2577 0.0797146
-14.547 -13.827 0.309747
-14.6831 -13.6838 0.301994
-12.2715 -15.7547 1.40576
-14.2602 -14.1685 0.447938
-14.7154 -13.3181 -0.0756311
-14.9053 -12.9841 -0.231565
-14.8134 -12.9461 -0.159344
-14.997 -12.9129 -0.315706
-15.0656 -12.738 -0.245535
-14.9596 -12.8917 -0.226687
-14.8788 -12.9412 -0.218714
-13.3728 -14.831 0.666178
-13.3242 -14.8401 0.558907
-14.1291 -14.1071 0.0690259
-13.4827 -14.0142 0.422294
-14.8653 -13.0161 -0.454611
-14.3362 -13.7342 -0.203704
-12.7684 -15.4253 0.847979
-14.9439 -12.8208 -0.680358
-14.1152 -14.033 -0.205159
-12.5108 -15.5897 0.644851
-13.95 -14.0836 -0.234967
-14.31 -13.674 -0.543004
-12.155 -15.5801 0.749298
-14.0874 -13.9976 -0.503867
-12.5191 -15.4321 0.429223
-14.7373 -12.8541 -0.993991
-14.6627 -13.024 -0.897001
-13.734 -14.3849 -0.340961
-12.1431 -15.693 0.46382
-14.3642 -13.4009 -0.944582
-12.6217 -15.2848 0.131914
-12.6373 -15.2012 0.0607708
-14.0212 -13.8877 -0.843319
-13.9181 -14.1995 -0.671557
-14.1534 -13.6045 -1.07128
-11.8282 -16.3093 0.216488
-12.9529 -14.7357 -0.525554
-13.7382 -14.194 -1.06719
-11.9155 -16.2179 -0.0852745
-12.328 -15.4422 -0.342327
-13.9142 -13.7811 -1.49387
-11.5336 -16.6789 -0.164305
-13.7061 -13.9944 -1.45311
-12.3125 -15.3171 -0.772668
-13.4684 -14.3298 -1.46804
-12.3937 -14.8035 -1.00236
-12.0807 -15.3066 -0.994873
-11.6703 -15.6344 -1.08718
-11.4958 -15.6087 -1.68106
-11.1429 -15.7681 -1.98459
-14.6176 -14.3548 2.00284
-13.4753 -14.4042 2.3964
-13.5156 -14.5637 2.32571
-15.008 -13.39 1.25528
-14.8947 -13.4272 1.18307
-14.5986 -13.8183 1.14974
-14.6125 -13.8986 1.07372
-14.3769 -14.2128 1.18656
-11.1542 -14.4912 2.36845
-10.912 -15.0188 2.44897
-14.7735 -13.4768 0.531825
-14.7073 -13.4127 0.178148
-14.3674 -13.9069 0.39631
-13.2907 -14.9462 0.704602
-11.966 -16.2388 1.41791
-14.2539 -14.0601 0.0104424
-14.8134 -13.0934 -0.383267
-14.9454 -12.9154 -0.554657
-13.9496 -14.2123 -0.327011
-14.8291 -12.8698 -0.90127
-14.3659 -13.5754 -1.1674
-12.9473 -15.013 -0.392987
-12.5371 -14.8649 -0.184744
-11.8331 -16.2878 0.152745
-11.8093 -16.3048 0.0395731
-11.7924 -15.4631 -1.57384
-11.1185 -16.3812 -1.28892
-11.4409 -15.7246 -1.48434
-10.9413 -17.194 -2.72717
-15.0412 -13.5719 2.23434
-14.9116 -13.8956 2.18638
-14.5514 -14.3058 2.37808
-15.0386 -13.625 1.70028
-13.5837 -14.3929 2.28463
-14.7458 -13.9551 1.55668
-14.8328 -13.7078 1.39413
-11.3105 -14.596 2.65448
-11.5457 -14.188 2.36521
-14.5633 -13.9778 1.18072
-14.9713 -13.0319 0.209702
-12.7331 -15.0823 1.44754
-12.1933 -15.799 1.50581
-12.9399 -15.2813 0.551403
-12.5868 -15.5099 0.713149
-13.1066 -14.926 0.0978025
-13.8437 -14.4083 -0.375049
-14.4803 -13.3678 -1.05078
-14.0401 -13.7548 -1.08192
-12.151 -15.6024 -0.40527
-11.5045 -15.7631 -1.14936
-11.1576 -17.2085 -2.01598
-15.1244 -13.4861 1.87802
-14.4031 -14.1384 1.37231
-13.0749 -14.5546 1.83843
-13.7239 -14.3669 0.994166
-14.4553 -13.835 0.649829
-14.1835 -14.2033 0.777239
-14.4254 -13.8734 0.389216
-14.2513 -14.0689 0.230355
-14.285 -14.0538 0.295762
-14.6516 -13.3341 -0.106585
-13.1238 -15.3488 0.878668
-14.1611 -13.9091 0.130225
-14.6229 -13.2309 -0.244924
-13.2614 -14.8791 0.420225
-12.6813 -15.3248 0.370524
-12.6426 -15.1737 0.386226
-11.8425 -16.1779 0.323589
-14.0707 -13.7649 -1.05955
-12.001 -15.9528 0.0801526
-11.8152 -16.1622 0.0812008
-13.8918 -14.0264 -1.29418
-13.053 -14.2418 -0.857626
-13.0782 -14.1999 -1.03744
-11.9712 -15.9345 -0.664733
-12.0945 -14.9657 -1.46513
-13.4756 -14.329 2.21964
-13.5639 -14.1294 1.69282
-14.36 -14.1794 1.23943
-14.7606 -13.7446 0.958152
-14.6071 -13.665 0.751932
-14.2644 -14.1518 0.262374
-12.4521 -15.5416 1.21726
-11.9765 -15.9219 1.30552
-12.6824 -15.0477 -0.056909
-11.5627 -16.7023 -0.420213
-14.7381 -13.5192 0.97932
-10.9255 -14.8422 2.44625
-12.8608 -15.0938 1.53962
-12.8196 -15.0724 1.58338
-14.1596 -14.1337 0.506583
-11.9356 -16.0033 1.2737
-13.4099 -14.2145 0.211116
-12.1099 -15.8335 0.159432
-13.5915 -14.2575 2.19351
-13.3585 -14.5179 2.01231
-13.0632 -14.5479 -0.473407
-12.2522 -15.5684 -0.382527
-12.5095 -14.6565 -1.18249
-11.8808 -16.0208 1.46805
-12.6614 -15.4586 0.775426
-12.7249 -15.3702 0.673918
-11.2357 -16.408 -1.29515
-11.2598 -16.4594 -1.25201
-14.6246 -14.1549 1.84012
-10.9543 -14.9016 2.42288
-14.0955 -14.0743 0.118379
-11.9536 -15.4403 -1.11494
-11.3451 -15.879 -1.98405
-11.7471 -14.0258 3.14871
-13.2725 -14.5504 2.81693
-13.4113 -14.7478 2.76741
-14.4513 -14.4222 2.6469
-14.5376 -14.3457 2.55552
-15.0157 -13.8953 2.51625
-15.0769 -13.8209 2.38094
-15.0344 -13.7506 2.30795
-13.3571 -14.5185 2.23144
-15.1319 -13.4667 2.11801
-14.7847 -14.1004 2.05035
-14.844 -13.7891 2.01124
-14.7369 -14.06 2.07837
-15.19 -13.5365 1.94667
-15.1321 -13.6356 1.88082
-14.8209 -13.7689 1.71026
-14.7412 -14.0797 1.71823
-13.1611 -14.5885 1.70114
-15.1557 -13.394 1.76673
-15.1405 -13.3475 1.63791
-13.0153 -14.9069 1.67272
-14.8281 -13.6311 1.61376
-14.7554 -14.0099 1.53321
-14.9364 -13.7673 1.65103
-15.0841 -13.4766 1.57503
-14.7108 -13.8535 1.52785
-14.5159 -14.245 1.47619
-11.7007 -16.235 1.39542
-14.3374 -14.1976 1.52551
-15.1615 -13.1876 1.62284
-13.375 -14.3593 1.56315
-13.3945 -14.2996 1.499
-14.7963 -13.6199 1.35736
-14.8132 -13.8236 1.22487
-12.4965 -15.5251 1.13435
-14.7983 -13.6323 1.30364
-14.832 -13.7759 1.22412
-15.1299 -13.2093 1.39645
-14.8087 -13.6926 1.3495
-14.5122 -14.1129 1.23558
-14.6692 -13.7485 1.28293
-14.6001 -13.7235 1.2239
-15.0667 -13.3683 1.11333
-13.5583 -14.4103 0.992938
-14.2552 -14.4468 0.991361
-15.0526 -13.2613 0.857215
-15.0758 -13.2592 0.884195
-14.8451 -13.3917 0.8548
-14.7691 -13.65 0.900607
-14.8072 -13.5227 0.81678
-13.6756 -14.5085 0.734395
-14.5925 -13.7186 0.683683
-14.6806 -13.6012 0.648459
-14.7173 -13.6487 0.641713
-12.0008 -15.6062 0.482748
-12.2055 -15.5877 0.544814
-13.1453 -14.8355 0.666283
-13.11 -14.9402 0.54337
-14.7221 -13.4793 0.608303
-12.1611 -15.5968 0.504544
-14.1007 -14.2733 0.448724
-12.2895 -15.8415 0.315395
-14.7987 -13.5732 0.515083
-14.7225 -13.5557 0.456581
-14.6743 -13.667 0.526362
-13.1379 -14.9756 0.414653
-14.4886 -13.8645 0.418295
-14.1955 -14.2023 0.384485
-12.347 -15.7506 0.30216
-11.7876 -16.1751 0.0754162
-14.267 -13.9474 0.246437
-14.2221 -14.032 0.178392
-14.8533 -13.2556 0.199717
-14.8893 -13.2472 0.224007
-14.9082 -13.1308 0.255683
-14.5702 -13.6342 0.123784
-14.6008 -13.6433 0.0933967
-14.6184 -13.4608 0.136143
-11.7213 -16.2692 -0.234978
-14.3871 -13.8875 0.0848897
-14.6951 -13.443 0.111072
-12.6359 -15.187 -0.0986725
-14.2233 -13.9171 -0.067623
-14.7988 -13.2278 0.0312011
-14.222 -13.8839 -0.0512332
-14.1918 -14.0016 0.0701669
-15.146 -12.9493 0.114499
-13.9612 -14.2895 -0.234358
-13.8607 -14.2322 -0.166962
-13.8593 -14.2814 -0.234331
-13.9536 -14.1459 -0.186214
-14.2752 -13.8315 -0.172581
-13.7009 -14.5779 -0.259785
-14.0414 -14.1037 -0.262413
-14.4536 -13.6957 -0.146069
-13.8593 -14.3244 -0.253647
-13.9456 -14.189 -0.300828
-13.7751 -14.3109 -0.358396
-14.9737 -12.9078 -0.0681795
-14.3091 -13.7411 -0.386805
-14.2981 -13.7643 -0.397423
-14.9538 -12.9181 -0.251409
-13.6612 -14.4112 -0.579
-15.0142 -12.8841 -0.31326
-14.1805 -13.8208 -0.547551
-14.2629 -13.7952 -0.411607
-14.2473 -13.664 -0.429546
-14.9258 -13.0628 -0.315983
-14.2851 -13.7418 -0.431704
-14.7537 -13.1502 -0.549137
-14.7121 -13.1435 -0.460283
-14.7435 -13.127 -0.484104
-14.8543 -12.9718 -0.4004
-13.8578 -14.1056 -0.82046
-13.9449 -14.1467 -0.706798
-13.6405 -14.4399 -0.866816
-13.8032 -14.0661 -0.852028
-14.134 -13.8258 -0.676597
-14.1252 -13.7672 -0.816914
-14.1454 -13.7535 -0.740217
-14.1637 -13.7577 -0.847744
-14.7014 -12.9752 -0.626164
-13.7005 -14.2079 -0.923446
-14.941 -12.8794 -0.606984
-14.9679 -12.7189 -0.693647
-14.9854 -12.6853 -0.723095
-14.1679 -13.8092 -0.845456
-14.2465 -13.5835 -0.836225
-13.6939 -14.2452 -1.07751
-13.5426 -14.4731 -1.12362
-14.0064 -13.9055 -1.05191
-14.4844 -13.3978 -1.00381
-14.1435 -13.6382 -0.994423
-14.8631 -12.8327 -0.899433
-14.6367 -12.9932 -0.914581
-14.5607 -13.2077 -1.01276
-14.0923 -13.7084 -1.1538
-14.7299 -12.9548 -0.971592
-14.5693 -13.0799 -1.06353
-14.7692 -12.8465 -0.890288
-12.2949 -14.8464 -1.21386
-12.4239 -14.7251 -1.1951
-12.3707 -14.8358 -1.10374
-13.6542 -14.1728 -1.46393
-13.6841 -14.146 -1.53692
-13.8395 -13.831 -1.44303
-14.0376 -13.6673 -1.44076
-13.7008 -14.0839 -1.53489
-14.1854 -13.6235 -1.4279
-11.982 -15.1338 -1.66355
-12.1231 -14.8219 -1.60881
-13.2323 -14.5553 -1.85374
-10.6183 -14.7996 3.0538
-14.7589 -14.1601 2.3042
-15.2377 -13.5081 2.38652
-15.0515 -13.8859 2.33368
-14.8807 -14.0979 2.21103
-10.5924 -15.2915 2.15191
-15.2106 -13.5084 1.93794
-13.4571 -14.2973 1.77115
-15.0561 -13.5676 1.71724
-14.8636 -13.6121 1.58475
-11.8647 -16.2638 1.43703
-14.2522 -14.3826 1.55063
-12.3646 -15.6095 1.4021
-14.6927 -13.8378 1.27847
-14.5909 -13.8546 1.16942
-14.6778 -13.904 1.1653
-14.5707 -13.8966 1.00184
-14.3705 -14.0818 0.960438
-14.4414 -13.9873 0.950923
-15.145 -13.1726 1.01142
-12.4182 -15.6494 0.765902
-14.571 -13.6221 0.912761
-11.8257 -16.2395 0.601349
-14.1135 -14.2822 0.674187
-14.4943 -13.7918 0.729264
-12.9651 -15.1575 0.502347
-12.1842 -15.6427 0.583224
-12.654 -15.2979 0.53473
-12.6318 -15.2959 0.251271
-14.0409 -14.1522 0.295289
-14.1634 -14.0972 0.268887
-14.2093 -14.0059 0.196388
-14.181 -14.0434 0.0408094
-13.2745 -14.5752 -0.0759355
-14.1916 -13.7626 -0.33065
-14.1028 -13.9532 -0.514801
-11.9771 -15.7934 -0.737495
-14.7372 -12.9951 -0.46818
-12.1609 -15.3986 -0.922367
-14.6132 -13.253 -0.601113
-13.9118 -13.9433 -0.98433
-13.6057 -14.4344 -1.03057
-13.8414 -13.9488 -1.05235
-13.549 -14.2863 -1.17662
-14.6221 -13.159 -0.997679
-11.5735 -15.6924 -1.20173
-13.9053 -14.0169 -1.16296
-14.5893 -13.2481 -1.04723
-12.2317 -14.8735 -1.18912
-13.8293 -13.9069 -1.34367
-14.1641 -13.6714 -1.24691
-13.2806 -14.539 -1.71147
-13.3257 -14.4667 -1.76585
-11.2904 -15.5949 -1.81323
-11.566 -14.1242 2.52701
-11.661 -14.1762 2.66107
-11.2367 -14.5255 2.4211
-13.2007 -14.6392 2.27793
-15.1088 -13.4923 1.91328
-14.9785 -13.7538 1.88441
-12.0063 -15.9848 1.27344
-14.6863 -13.8705 1.38764
-12.4664 -15.5024 1.30613
-14.4429 -14.2592 1.1323
-14.2397 -14.4014 1.18428
-14.6862 -13.8326 1.0556
-13.4938 -14.7907 0.862341
-14.3045 -14.2091 1.00069
-14.5378 -13.9248 0.891446
-14.9698 -13.3182 0.993055
-11.9874 -16.0763 0.790672
-12.4135 -15.6272 0.73692
-12.3152 -15.6078 0.564497
-14.5334 -13.9896 0.54759
-14.207 -14.1321 0.607132
-14.0989 -14.3422 0.535989
-14.1511 -14.2635 0.477997
-14.5415 -13.6591 0.51973
-12.6463 -15.4243 0.390641
-11.8959 -16.1767 0.295974
-14.3358 -13.9529 0.50441
-13.5008 -13.9652 0.212645
-12.9702 -15.1079 -0.0612436
-14.5256 -13.5796 0.0987139
-14.3842 -13.7503 -0.198224
-12.9778 -14.9777 -0.348201
-13.816 -14.3835 -0.550373
-13.5975 -14.5642 -0.606671
-14.6653 -13.0993 -0.692853
-14.0853 -13.9084 -0.903559
-12.9528 -14.4668 -0.810589
-14.1183 -13.8932 -1.03942
-14.0215 -13.8818 -0.973742
-13.8541 -14.0208 -1.04879
-12.7321 -14.5565 -1.2127
-11.1011 -16.9545 -2.13083
-14.357 -14.4883 2.61025
-11.678 -14.1209 2.39343
-13.1682 -14.7392 2.39151
-13.1508 -14.7135 1.66087
-13.3341 -14.178 1.45327
-14.4501 -14.2545 1.41227
-14.4167 -14.1457 1.32209
-14.945 -13.5761 1.25761
-14.617 -13.9768 1.15198
-12.8902 -15.2682 1.03787
-12.8402 -15.1884 1.06324
-15.0901 -13.3054 1.17014
-13.021 -15.289 0.723165
-14.4199 -13.9771 0.756449
-13.1466 -14.9691 0.41342
-12.6128 -15.2692 0.235212
-14.195 -13.995 0.253504
-14.1647 -14.1889 0.199521
-14.1518 -14.1596 0.136377
-14.0723 -14.0867 -0.00744296
-12.6851 -15.0631 -0.0403674
-11.7364 -16.1525 -0.262822
-13.0787 -14.7749 -0.306509
-12.6597 -14.9263 -0.31806
-11.8845 -15.8112 -0.418173
-11.8982 -15.7285 -0.532705
-12.9767 -14.5618 -0.450629
-13.6203 -14.3826 -0.875904
-12.9392 -14.4766 -0.915439
-13.5818 -14.4708 -1.09987
-12.3048 -14.9351 -1.06328
-13.9108 -13.9452 -1.09591
-12.6986 -14.5871 -1.21496
-12.2826 -14.7713 -1.46608
-11.2806 -15.7948 -1.88236
-14.6737 -14.1428 2.63924
-14.3616 -14.2423 1.47819
-14.3316 -14.3322 1.51503
-11.976 -15.9274 1.40754
-14.5152 -14.2804 1.51951
-13.3924 -14.2837 1.51079
-14.3377 -14.254 1.38017
-14.4079 -14.0897 1.20529
-14.3841 -14.0878 1.12197
-12.8856 -15.28 1.02083
-13.7104 -14.2118 1.11381
-13.0835 -15.2569 0.90882
-14.513 -14.0228 0.806297
-13.1694 -14.7664 0.515022
-14.2376 -14.217 0.437946
-14.6748 -13.677 0.235384
-14.5213 -13.6361 0.217997
-14.7959 -13.3467 -0.0024708
-12.1988 -15.6551 -0.511401
-13.0509 -14.5864 -0.657438
-14.9629 -12.8192 -0.586062
-13.9347 -14.0259 -1.12285
-13.8362 -14.1027 -1.18151
-12.3087 -14.8682 -1.09157
-12.3086 -14.8191 -1.15331
-12.7002 -14.5355 -1.28294
-12.4592 -14.6768 -1.37903
-11.459 -15.8562 -1.6276
-11.0519 -17.0562 -2.11946
-11.9189 -15.1873 -1.67209
-13.8862 -13.6536 2.9109
-13.3439 -14.6498 2.72589
-13.6842 -14.2059 2.63535
-13.5886 -14.1204 1.75275
-13.5883 -14.0691 1.46337
-12.6312 -15.4373 1.22234
-12.5538 -15.4002 1.18854
-12.2417 -15.5598 0.724132
-13.3688 -14.8342 0.689322
-13.4842 -14.2027 0.538159
-12.8604 -14.9946 -0.307589
-12.7914 -14.9619 -0.331575
-12.4426 -14.9352 -0.325114
-12.3917 -15.3225 -0.421526
-12.1329 -15.4546 -1.09198
-14.211 -13.6477 -1.33076
-12.3362 -14.6644 -1.36928
-11.1464 -16.0359 -1.96463
-11.103 -15.7781 -1.91762
-11.2358 -15.6396 -1.9997
-12.4966 -15.3231 1.25549
-12.6512 -15.4884 0.841682
-14.2118 -13.8241 0.0220293
-14.3133 -13.3668 -1.27589
-12.7079 -14.7056 -1.47929
-13.3058 -14.5803 1.92845
-14.8363 -13.6411 1.5141
-13.6281 -14.463 -0.441931
-12.0308 -15.5059 -1.0712
-11.3064 -16.6219 -1.23617
-12.995 -14.4352 -0.924309
-12.7204 -15.2833 1.1502
-13.3857 -14.7913 0.551046
-12.8409 -14.9461 1.37187
-13.0274 -14.7953 1.36724
-12.743 -15.4414 0.74384
-14.2888 -14.1232 0.572122
-14.2068 -14.0637 0.141012
-11.4331 -14.2426 2.64102
-14.5427 -14.0127 1.11921
-13.8936 -14.2984 1.08856
-14.117 -14.0525 0.061122
-11.9041 -15.8561 -0.442079
-11.9974 -15.7095 -0.497351
-13.3568 -14.2786 -1.69891
-11.4351 -15.6647 -1.24178
-14.0673 -13.7445 -1.08273
-13.9733 -13.9556 -1.15208
-14.5001 -13.2807 -0.698189
-14.554 -13.2854 -0.71236
-14.6046 -13.3237 -0.648049
-13.7912 -14.1969 -0.812553
-14.7043 -13.1199 -0.362534
-14.7745 -13.212 -0.393207
-14.6474 -13.3374 -0.389519
-12.2028 -15.3917 -0.720522
-14.2389 -13.7068 -0.473024
-14.0203 -14.1376 -0.594263
-13.0162 -14.7515 -0.38255
-14.8348 -13.1973 -0.0583419
-14.1396 -13.9884 -0.0924155
-14.1996 -13.8688 -0.073248
-14.8399 -13.3149 0.186601
-11.8893 -16.0789 -0.137478
-14.5925 -13.5461 0.220292
-14.2685 -14.0307 0.240723
-12.6403 -15.3067 0.187793
-14.9931 -13.3938 0.487682
-14.2091 -14.0388 0.411795
-14.7633 -13.5596 0.597134
-12.5915 -15.2721 0.388736
-13.6362 -14.1253 0.62124
-13.0982 -14.9702 0.609805
-13.0199 -15.1992 0.529996
-12.159 -15.5674 0.514705
-14.9719 -13.3878 0.92535
-15.1041 -13.3004 0.888829
-14.4348 -13.9121 0.805045
-12.4472 -15.6412 0.642777
-12.6462 -15.4904 0.70628
-12.5622 -15.3302 0.724762
-14.39 -14.0815 0.816462
-12.5289 -15.4759 0.703311
-14.1414 -14.3758 0.940939
-14.6191 -13.9144 0.994133
-14.3924 -14.1812 0.957643
-15.0903 -13.3558 1.31257
-14.6678 -13.8732 1.36931
-14.706 -13.9011 1.37581
-12.5757 -15.4878 1.20249
-12.1406 -15.804 1.26434
-14.3838 -14.3479 1.50999
-14.825 -13.8 1.57079
-14.8515 -13.5848 1.50499
-15.0888 -13.3773 1.66836
-12.3646 -15.572 1.4964
-13.1971 -14.6226 1.57673
-13.4767 -14.2737 1.78699
-14.6862 -14.0637 1.78353
-14.4744 -14.2871 1.73505
-15.0687 -13.7403 1.87916
-15.1769 -13.579 1.94354
-14.6001 -14.1356 1.9846
-14.7769 -13.9695 2.00059
-14.6992 -13.9571 1.97292
-14.9386 -13.8214 2.10337
-15.0637 -13.8514 2.2274
-14.7915 -14.0683 2.10844
-13.6592 -14.2154 2.25511
-10.5506 -15.1936 2.13892
-14.6173 -14.3026 2.28845
-15.1405 -13.6738 2.39109
-14.4232 -14.3582 2.66278
-13.161 -14.6126 2.80095
-10.5494 -14.9007 3.02523
-11.57 -15.5827 -1.71752
-12.7356 -14.6371 -1.22936
-14.7017 -13.1364 -0.939357
-13.9753 -13.8295 -1.07246
-12.096 -15.4048 -0.93385
-13.6152 -14.4575 -0.53931
-14.1713 -14.0064 -0.261116
-13.967 -14.2658 -0.1899
-14.8271 -13.1875 0.000549914
-14.8024 -13.1928 0.0431646
-12.6012 -15.3102 -0.0920906
-14.7332 -13.3393 0.309633
-14.293 -13.9043 0.24555
-14.1513 -14.1453 0.198636
-14.1267 -14.1498 0.195726
-14.8024 -13.4527 0.466011
-14.2625 -14.2097 0.501612
-14.6488 -13.5746 0.671836
-12.6648 -15.3025 0.699895
-14.3421 -14.2977 1.50209
-14.8422 -13.7596 1.59244
-14.9735 -13.6519 1.67852
-13.4612 -14.1585 1.67009
-13.1064 -14.6709 1.63945
-13.4497 -14.4017 1.70562
-13.1496 -14.6633 1.65512
-15.0538 -13.4979 1.90782
-14.9019 -13.8338 1.98792
-14.6317 -14.2417 2.31143
-14.689 -14.1648 2.29275
-10.794 -14.9291 2.39158
-13.6934 -14.2382 2.69088
-11.8893 -15.2807 -1.60061
-12.3431 -14.8457 -1.1856
-12.225 -14.9144 -1.1205
-12.3594 -14.913 -0.926344
-12.9985 -14.8271 -0.393984
-13.8713 -14.2305 -0.194858
-13.2228 -14.7805 -0.214866
-12.6015 -15.119 -0.0933945
-13.1215 -14.8458 -0.0150538
-14.9075 -13.2235 0.35745
-14.2098 -14.0011 0.327911
-13.2711 -14.8351 0.444244
-12.9786 -15.3206 0.52518
-13.6116 -14.3238 1.17746
-13.5705 -14.3834 1.01781
-14.3772 -14.1864 1.23832
-13.2609 -14.4762 1.43028
-14.9423 -13.637 1.57529
-14.8258 -13.7485 1.43491
-14.4577 -14.2386 1.52927
-14.8386 -13.6954 1.62527
-15.0065 -13.6101 1.61597
-11.8236 -16.2447 1.38128
-14.8445 -13.8256 1.77336
-11.2494 -14.3628 2.27483
-14.3889 -14.5096 2.2453
-14.3658 -14.4863 2.58738
-13.5073 -14.2982 2.59111
-10.7018 -15.2397 2.5331
-11.5369 -15.9006 -1.63746
-12.3161 -14.7369 -1.13992
-13.6227 -14.3163 -0.888995
-14.6511 -13.4818 0.303505
-12.8092 -15.4777 0.797151
-14.5004 -14.0998 1.20035
-14.5739 -14.2121 1.35914
-13.0082 -14.6662 1.42939
-14.4771 -14.2115 1.3767
-13.0546 -14.7311 1.57885
-14.5262 -14.2372 1.73762
-14.8949 -13.7721 1.87831
-11.2625 -14.5371 2.52737
-13.9863 -14.0387 -1.14898
-13.2463 -14.8102 0.242586
-13.3374 -14.8355 0.51933
-12.6187 -15.3766 1.04452
-13.4958 -14.2903 2.02907
-12.6308 -14.5641 -1.34769
-13.9314 -14.1025 -0.625319
-14.2875 -13.8567 -0.0401775
-12.4465 -15.5957 0.765347
-12.4182 -15.4459 1.23882
-13.31 -14.6449 2.48953
-12.7282 -14.9497 -0.363662
-12.3337 -15.3528 -0.356624
-12.3389 -15.5237 -0.329514
-14.3908 -13.7425 0.276741
-14.5617 -13.8235 0.54556
-14.459 -13.95 0.809742
-14.2539 -14.174 0.982548
-12.0962 -15.5768 -0.77723
-12.7118 -15.4336 0.354827
-12.619 -15.3229 0.66947
-12.6475 -15.2455 1.18537
-12.0791 -15.8089 1.30082
-11.3783 -14.2618 2.24073
-14.4657 -13.9656 1.041
-11.9434 -16.1098 1.48973
-11.9962 -15.968 -0.126471
-12.6353 -15.4764 0.779607
-14.7331 -12.9308 -0.979886
-14.4617 -13.3941 -0.635092
-14.5127 -13.4972 -0.331672
-13.7532 -14.2069 -0.754876
-12.2276 -14.8441 -1.10349
-14.8286 -13.3146 0.0253438
-11.546 -15.7548 -1.32772
-14.8117 -13.3666 0.619719
-14.1156 -14.0407 0.109032
-14.6059 -13.6291 0.62137
-15.0761 -13.182 0.986067
-14.1087 -14.0684 0.278749
-15.1079 -13.257 0.934828
-14.827 -13.4873 0.875377
-14.6354 -13.77 1.14774
-13.2767 -14.9596 0.348861
-14.7565 -13.8488 1.31114
-12.337 -15.6175 0.127378
-14.9047 -13.4957 1.54919
-13.0334 -14.966 0.522734
-14.6628 -13.9907 1.29053
-14.5348 -14.0199 1.30487
-14.9702 -13.6932 1.64592
-14.2523 -14.2978 1.34371
-15.1656 -13.3901 2.16821
-13.5256 -14.1194 1.49988
-15.1496 -13.4783 2.132
-14.7116 -13.884 1.8435
-12.4374 -15.6496 0.657259
-12.1789 -15.6788 0.71493
-13.2467 -14.4221 1.46917
-13.4078 -14.4207 1.53862
-14.7746 -14.0483 2.01772
-14.6485 -14.3121 2.31022
-13.6035 -14.285 2.25401
-14.6794 -14.1232 2.65035
-14.6162 -14.1904 2.55219
-12.1715 -14.1236 2.34124
-13.8767 -13.9979 -1.12676
-14.4449 -13.4394 -0.472512
-13.8787 -14.0891 -0.880358
-14.9456 -13.1937 0.335994
-14.1809 -14.0611 0.224822
