-16.9306 -11.857 -0.925833
-17.0949 -11.663 -1.2284
-20.7966 -11.2069 0.434973
-20.5227 -11.7421 -0.0185841
-20.8333 -11.4301 0.224287
-20.1499 -11.8593 0.20781
-20.7526 -10.9916 -1.08259
-20.7266 -11.3351 -0.390244
-20.1217 -11.7698 0.423836
-20.3678 -11.2695 -0.485079
-20.2961 -11.7863 -0.607583
-20.3626 -11.001 -2.50156
-19.7669 -11.0343 -2.04875
-19.8691 -10.8395 -2.17343
-19.3861 -11.2694 -0.47472
-19.4351 -11.7828 0.423864
-19.7087 -11.4773 -2.39033
-19.786 -11.5051 -1.30466
-19.4347 -11.4783 -1.56553
-19.1279 -11.1233 -2.27348
-19.4529 -11.4149 -2.00984
-19.3332 -11.3997 0.547708
-18.8498 -11.929 -2.00315
-18.9761 -11.2974 -2.28877
-18.3995 -11.6343 -1.12569
-18.1009 -11.7495 -0.653416
-17.2707 -12.1436 -0.40384
-17.5557 -11.9062 -0.228949
-17.3617 -11.7582 -0.0544438
-17.1193 -11.8578 -1.02576
-16.9818 -12.1898 0.769473
-16.7155 -12.5908 -0.16357
-16.6532 -11.6226 -2.18968
-16.4502 -11.5731 -1.55095
-17.2877 -10.0586 1.16455
-16.5396 -11.9926 -1.82999
-15.8784 -11.7715 -2.09907
-16.5876 -10.1839 1.47772
-20.1 -11.456 -1.20105
-20.3847 -11.5966 0.377231
-20.2629 -11.4358 -0.822551
-20.7953 -10.9108 -1.5386
-20.1064 -11.2226 -1.26063
-20.3953 -11.2366 -0.655461
-19.4408 -11.6984 -0.451019
-19.8102 -11.9814 -0.500778
-19.9178 -11.1022 0.00812763
-19.6252 -11.6302 -1.00254
-19.5462 -10.9807 -2.88175
-19.4694 -11.2868 -2.15247
-19.502 -10.8627 0.938758
-19.1039 -11.3042 -2.6214
-18.8362 -11.519 -3.21255
-18.5662 -11.6332 -1.4134
-18.0937 -11.7339 -0.76554
-18.003 -12.2675 -1.02236
-17.5946 -11.7461 -2.98878
-17.0293 -12.4118 -0.43143
-18.0705 -11.3366 -2.10192
-17.5719 -11.6245 0.632846
-16.9762 -11.0353 -1.76094
-17.4862 -11.1309 -2.19162
-17.0711 -11.9531 -0.173607
-16.6973 -11.8492 0.205038
-16.8302 -12.063 -0.600983
-16.9637 -11.8733 -0.467327
-20.8617 -11.6368 0.0380826
-20.56 -11.3247 0.35472
-20.4974 -11.5 -0.309607
-20.6549 -11.4752 -1.19878
-20.2212 -11.1985 -0.655563
-20.1052 -11.3526 -0.816384
-20.0904 -10.771 -2.1345
-20.2265 -11.5832 -1.05252
-19.7811 -11.4689 -0.470633
-19.8203 -11.4428 -2.03644
-19.5112 -11.3365 -1.18919
-19.2699 -11.6895 -1.68055
-19.2294 -11.3441 -1.63656
-18.6634 -11.3781 0.676277
-17.9263 -10.9726 -2.48539
-18.0023 -11.5094 -2.85183
-17.561 -11.6163 -1.1267
-17.8623 -11.644 -0.723136
-17.5653 -11.8188 -0.261945
-17.895 -12.0131 0.329735
-16.7465 -11.7124 -0.318239
-16.8799 -11.7231 -0.474766
-17.6382 -10.2954 1.12629
-17.5915 -9.80641 1.50051
-16.7873 -11.4483 -2.2132
-16.1091 -11.8901 -0.447974
-16.4002 -12.4384 -1.0317
-16.4664 -11.9528 -1.52451
-16.0273 -11.4886 -1.33488
-16.4473 -10.9175 -2.63724
-20.2948 -11.2108 -0.185296
-20.0456 -11.6983 1.28243
-19.9136 -11.0249 -1.1461
-19.9736 -11.8806 -0.669059
-19.7217 -10.6973 -2.16903
-19.4772 -11.8764 -0.017652
-19.7451 -11.5554 -0.161667
-19.6089 -11.1447 -1.88984
-19.6636 -11.4814 -2.43285
-19.0765 -11.2853 1.25663
-19.035 -12.0006 -1.43985
-18.783 -11.6611 1.13827
-17.8863 -11.9401 -1.36325
-18.1712 -11.5774 -1.95865
-18.0695 -10.5398 -2.68607
-17.4914 -11.5222 -1.06915
-16.7739 -11.1875 -0.67379
-16.8416 -11.9455 -1.22268
-16.5623 -12.2295 -1.11896
-16.411 -11.6607 -1.96656
-20.2322 -11.2704 0.189622
-20.3189 -12.1008 -0.143185
-20.4522 -11.7955 -0.208707
-20.1325 -11.5516 -1.42222
-19.77 -12.0866 -0.77026
-19.3235 -11.5313 -2.319
-19.2353 -11.3165 -1.3897
-17.6389 -11.582 -1.05841
-18.1736 -11.5324 -0.0996706
-17.5721 -12.3174 -0.981031
-17.4473 -11.76 -0.471449
-17.5269 -10.6858 1.68983
-16.0462 -12.1655 -0.613039
-20.5346 -11.6755 -0.548889
-20.7055 -11.3561 -0.0583737
-19.6834 -11.5744 -0.751925
-19.839 -11.3342 -0.308938
-19.8006 -11.6829 -0.507977
-19.2411 -11.6664 -1.39877
-19.3636 -11.9198 -1.34514
-17.5037 -11.9453 -0.347433
-15.543 -12.4516 -1.61704
-16.7089 -10.6666 2.10517
-19.9464 -11.2038 -2.17284
-18.7107 -10.9894 -1.10503
-18.0451 -10.8172 -2.10186
-18.737 -11.1091 -1.09248
-16.6634 -12.0825 -1.40009
-15.5616 -12.1463 -1.86185
-17.9423 -11.0942 -1.84627
-16.8077 -11.5539 -0.504986
-17.0632 -11.2993 -2.57918
-16.7267 -11.7127 -1.10613
-16.5854 -11.6897 -1.887
-19.1489 -10.9907 0.403226
-17.7087 -11.1058 -2.04141
-18.9134 -11.3741 -0.917823
-17.5213 -11.3221 -2.67851
-17.5939 -11.7244 -1.33244
-16.9963 -11.4072 -2.46776
-20.472 -11.9753 0.692693
-20.1797 -11.6034 0.488241
-18.6026 -11.1729 1.75537
-20.1569 -11.1173 0.0452996
-20.5472 -10.9072 0.173912
-20.6733 -11.4017 -0.538119
-20.4075 -11.5308 -0.134093
-19.9021 -11.7702 -0.203969
-20.3313 -11.2259 -0.353685
-20.6168 -11.4486 -0.0849896
-20.3236 -11.437 -0.719438
-19.8525 -11.6158 0.0871764
-19.8376 -11.4405 -0.767165
-20.5294 -11.9944 -1.40541
-20.3545 -11.4115 -0.68173
-20.4261 -11.378 -0.601741
-19.0962 -11.1425 0.521204
-19.7832 -11.2842 -1.026
-19.8838 -11.06 -1.22792
-20.3457 -11.6545 -1.33407
-18.6792 -11.6392 0.34368
-20.4307 -10.9679 -1.35424
-19.7406 -11.3185 -0.795156
-19.4985 -11.197 -1.1805
-20.3421 -11.0929 -1.40655
-20.4137 -11.2705 -1.96161
-20.6726 -11.2052 -1.99399
-17.57 -11.4276 0.38951
-17.5731 -11.7662 0.196477
-20.1566 -11.3126 -1.39737
-19.7416 -11.7285 -1.6518
-19.9217 -11.6315 -1.52153
-19.6767 -11.0646 -1.43707
-17.5439 -11.6847 0.255923
-20.1198 -11.1581 -1.79685
-20 -11.0081 -1.76828
-20.6716 -10.8243 -1.73543
-20.7202 -10.9002 -2.0829
-17.8765 -12.2169 -0.267014
-20.4282 -10.2024 -1.72823
-16.6902 -12.1282 0.442582
-19.6662 -11.3424 -2.12837
-16.7804 -12.2338 0.194225
-18.9254 -11.427 -1.42415
-19.1712 -11.8409 -0.97921
-19.3056 -11.3406 -1.22791
-17.0918 -11.8398 -0.0912236
-17.027 -11.6569 -0.482866
-17.166 -11.7851 -0.539675
-18.4802 -11.6862 -1.72725
-20.8451 -11.3045 -2.7146
-17.248 -11.5981 -0.356494
-16.9195 -11.526 -0.557267
-16.989 -11.8677 -0.127209
-19.3773 -11.1488 -1.89844
-19.4489 -11.7054 -1.73868
-19.3293 -11.0872 -2.33824
-20.2218 -11.3045 -2.16909
-19.4002 -11.0706 -1.75536
-19.6328 -10.6895 -2.54817
-19.7647 -10.8455 -2.09844
-19.8474 -11.4542 -1.96898
-19.4079 -11.1156 -2.26692
-16.9941 -11.9898 -0.715179
-19.0753 -11.4193 -2.10234
-19.1014 -10.8345 -2.07746
-19.2823 -10.9397 -2.36606
-18.5623 -11.4602 -2.29807
-20.7727 -11.9763 0.537619
-20.232 -11.9192 0.0129059
-18.8589 -11.7243 0.0447655
-20.6358 -11.3292 -1.36028
-20.6012 -11.2648 -0.2717
-20.8462 -11.0972 -0.547526
-20.4585 -11.2502 -0.783941
-19.9334 -11.3819 -0.728564
-20.0804 -11.5995 0.0206811
-20.112 -11.2122 -0.988679
-19.7701 -11.6621 -0.818982
-19.8414 -11.7021 -0.975098
-20.284 -11.2891 -1.2058
-18.1455 -10.1555 1.16391
-20.6255 -11.2565 -1.47665
-19.5215 -11.2957 -1.08184
-20.1828 -11.3116 -0.901834
-20.2221 -11.1654 -0.906941
-20.04 -11.2025 -1.62277
-20.0714 -11.052 -1.02091
-20.1043 -10.87 -1.69157
-20.1186 -10.7755 -1.45787
-20.6465 -11.3355 -1.73211
-19.7494 -11.2134 -1.691
-20.2356 -11.2837 -2.0007
-20.4866 -11.233 -1.48713
-20.1312 -11.2824 -1.46655
-18.9442 -11.029 -1.59743
-17.8702 -11.8973 -0.865457
-18.2142 -11.6388 -1.11811
-19.3182 -11.8632 -1.70868
-17.4535 -12.1055 -0.642704
-17.2574 -11.5531 -0.401572
-17.4636 -11.9076 -0.324881
-18.9548 -11.593 -1.62427
-17.0022 -11.9147 -0.31169
-18.8367 -11.668 -1.56838
-17.0606 -12.1429 -0.652166
-19.4527 -11.08 -2.1798
-16.7166 -11.91 -0.169434
-16.7873 -11.8781 -0.231374
-17.1422 -11.9312 -0.586998
-16.7097 -11.6852 -0.525514
-18.3287 -11.643 -1.57605
-20.1328 -11.2553 -2.00556
-16.9079 -11.7702 -0.143159
-17.2114 -11.3618 -0.693904
-17.6671 -11.7658 -1.13004
-17.1053 -11.5216 -1.04305
-19.4163 -11.1065 -2.20288
-19.0116 -11.7394 -2.13924
-19.3421 -11.1016 -2.60842
-19.2573 -11.0661 -2.74835
-18.7613 -11.4715 -2.32512
-19.2688 -11.1707 -2.33165
-16.7937 -11.9006 -1.36533
-18.2958 -11.399 -3.14638
-18.2729 -11.7441 -2.9714
-16.1723 -11.7514 -1.92817
-20.7251 -11.8456 0.0061271
-20.4912 -11.4367 -0.594239
-20.1318 -11.9923 0.569615
-20.1326 -11.3183 0.28993
-20.4688 -11.6385 -0.673378
-20.1209 -11.8879 -0.298972
-20.5999 -11.369 -0.820958
-20.4812 -11.4508 -0.282501
-20.4859 -11.2146 -0.846398
-20.4033 -11.4701 -0.93492
-17.8399 -9.83876 1.52122
-17.843 -10.3075 1.31784
-17.635 -10.5205 1.45528
-19.946 -11.9058 -0.745828
-20.0148 -11.1032 -1.0672
-18.9315 -11.8058 -0.198407
-20.019 -11.296 -1.27043
-20.1272 -10.9197 -1.30985
-17.5365 -11.7253 0.168353
-19.4006 -11.7442 -0.806371
-20.3822 -11.283 -1.15317
-20.2982 -11.2385 -1.8545
-20.1161 -10.7745 -1.57579
-21.0601 -10.5466 -2.02349
-17.2429 -10.6588 1.46874
-20.565 -10.991 -1.87905
-19.1364 -11.6268 -1.56503
-20.3564 -11.76 -1.30237
-18.7954 -12.3603 -0.809593
-17.4685 -11.709 -0.301427
-20.0027 -11.5821 -1.84345
-16.3523 -12.6948 -0.404417
-17.3503 -11.7107 -0.447689
-16.9656 -11.8349 -0.609189
-19.4357 -11.3661 -2.09617
-19.6489 -10.9117 -2.32775
-16.519 -11.8559 -1.36263
-16.7957 -11.378 -1.74168
-16.9768 -11.5284 -1.71702
-17.8468 -11.7217 -2.76967
-17.3879 -12.1625 -2.9224
-15.8291 -10.9999 -1.82529
-20.8129 -11.5627 0.104344
-20.6681 -11.1637 0.329197
-20.6354 -11.1632 -0.833109
-20.5166 -11.1248 -0.378611
-19.9991 -11.5132 -0.399396
-20.1801 -11.3767 -0.546077
-20.654 -10.7151 -0.547545
-20.0422 -11.6664 -0.237123
-18.8604 -10.9461 0.136515
-19.6169 -11.4655 -1.16078
-20.4337 -10.9839 -1.41509
-18.3698 -11.8197 -0.351644
-18.0666 -11.6853 -1.26055
-17.8606 -11.7957 -0.583975
-19.8249 -10.9813 -2.33036
-19.7334 -11.0465 -1.61652
-17.7253 -11.7003 -0.523985
-17.494 -11.8908 -0.415362
-17.1159 -11.6715 0.00059752
-17.2342 -11.8962 -0.653969
-17.1492 -11.6003 0.0865342
-16.7587 -11.3855 -0.354701
-19.6747 -11.0702 -2.48816
-19.4102 -11.3237 -2.08342
-19.0139 -11.5027 -2.68638
-19.01 -11.421 -2.8469
-18.9682 -11.2552 -2.54439
-18.6607 -11.4552 -2.43235
-18.5891 -11.3839 -2.77094
-18.9113 -11.1558 -2.42936
-18.8279 -11.3158 -2.4959
-17.867 -11.1904 -2.41137
-17.4155 -11.1894 -2.83447
-17.1078 -10.8549 -2.12923
-19.9142 -12.0603 0.545857
-21.1002 -11.0411 -0.252505
-20.8879 -11.3732 -0.328771
-20.0652 -11.5258 0.608651
-19.7463 -11.7571 0.646054
-20.6888 -11.0244 -0.758955
-18.3156 -10.6163 1.39667
-20.194 -11.0995 -0.777405
-19.813 -11.3554 -0.473624
-19.4533 -11.7862 0.205164
-19.61 -11.5247 -1.33963
-20.3149 -10.9857 -2.08446
-19.4041 -11.6128 -0.628178
-19.3366 -11.3195 -1.03034
-19.3374 -11.4642 -1.38391
-17.2161 -11.3863 0.451024
-20.8909 -10.9759 -1.90195
-18.7808 -10.8547 -1.20077
-17.0714 -11.6683 -0.310361
-18.7928 -11.5857 -0.645668
-18.757 -11.8339 -1.38506
-20.4814 -10.89 -2.17866
-18.7823 -11.7688 -1.75331
-19.8669 -11.1778 -2.3511
-17.2952 -11.9794 -0.662819
-17.0315 -11.4372 -0.0342422
-18.1814 -12.1113 -0.913179
-17.2177 -11.8553 -0.652863
-16.5806 -11.2291 -0.79938
-20.0363 -11.2838 -2.83936
-18.4506 -11.5782 -2.69739
-17.9071 -10.9298 -2.31105
-16.6093 -11.7185 -2.22567
-20.6538 -11.223 1.06987
-19.0651 -11.1046 0.998618
-20.8808 -11.3064 -0.103636
-20.0077 -11.7886 0.0566256
-18.4995 -11.6257 0.95446
-20.3578 -11.3336 -0.61424
-19.7668 -11.6023 -0.578321
-19.6362 -11.5945 -0.679739
-18.4476 -11.4205 0.319895
-19.7861 -11.6776 -1.68388
-17.2367 -11.59 0.494832
-18.4454 -11.7215 -0.421248
-19.2946 -12.0255 -1.3756
-17.1443 -12.2365 -0.638026
-19.7569 -11.2653 -2.57148
-16.3441 -12.4922 -1.20418
-18.5547 -11.1597 -2.59456
-18.3808 -11.7309 -2.79813
-17.8526 -11.1761 -2.72802
-17.3572 -10.9388 -1.83569
-17.2457 -11.1746 -2.38413
-16.136 -11.4 -2.1434
-16.287 -11.3532 -2.60751
-20.1849 -11.8014 0.173094
-20.696 -11.5852 -0.430787
-20.6928 -11.348 -0.135229
-19.2791 -11.167 0.612224
-20.1088 -11.6744 -0.215799
-19.9614 -11.2839 -0.852894
-20.4426 -11.4708 -1.23259
-17.4468 -11.7834 0.501195
-18.876 -11.5179 -1.25153
-17.587 -11.7334 -0.687934
-19.1565 -11.0516 -1.88213
-18.9248 -11.47 -2.43975
-19.1232 -11.2978 -2.38022
-16.5016 -11.2747 -2.18948
-19.1262 -10.8869 1.35847
-20.5205 -11.3968 -0.595226
-17.8991 -11.854 0.366284
-17.5976 -11.73 0.118077
-17.8937 -12.018 -0.361736
-19.2508 -11.5522 -0.904395
-19.8952 -11.3017 -2.02347
-16.9362 -11.5196 -0.979189
-18.3124 -12.0023 -0.342383
-18.9955 -11.467 -1.03357
-17.022 -11.5962 -1.79327
-17.8136 -11.9475 -0.220309
-17.5421 -12.2866 -0.0736449
-18.8357 -11.7421 -2.17432
-19.1195 -10.9023 -2.03173
-20.58 -11.2618 -1.68848
-20.4965 -11.3345 -1.84872
-20.2005 -11.1293 -1.3894
-20.1033 -11.2392 -1.13282
-19.487 -11.3527 -1.99673
-20.1572 -11.0054 -1.0229
-20.0065 -11.3092 -1.16163
-20.2459 -10.8473 -1.1454
-20.1269 -11.5178 -1.42358
-20.1813 -11.501 -1.17606
-16.9924 -11.8733 -0.875477
-20.2344 -11.5676 -1.2049
-17.0951 -12.2495 -0.479959
-20.6228 -11.6085 -1.00991
-20.1169 -11.1409 -0.585874
-20.0166 -11.309 -1.21372
-16.8652 -11.6453 -0.304765
-19.9207 -11.6827 -0.372133
-20.1866 -11.3947 -0.516707
-20.5944 -11.8188 -0.242275
-20.2515 -11.1977 -0.526337
-20.596 -11.5682 -0.0276185
-20.9725 -11.8107 -0.340377
-18.401 -11.1398 0.825862
-19.7551 -11.6234 1.20673
-19.4222 -11.2671 -2.52136
-18.0581 -11.6774 -2.03703
-19.7032 -11.1086 -1.97665
-20.534 -11.2624 -1.50299
-20.454 -11.1218 -1.22884
-19.9307 -11.0192 -0.904818
-16.4356 -11.9465 -1.48733
-19.6499 -11.6422 -1.35121
-19.3386 -11.0673 -1.52992
-19.6111 -11.2973 -1.27473
-20.3899 -11.491 -0.921801
-20.33 -11.0547 -1.60073
-19.9912 -11.5245 -1.3794
-19.7796 -11.3936 -1.08237
-18.3397 -11.9121 -0.89414
-20.1203 -11.2149 -0.764283
-20.1818 -11.2575 -0.8857
-17.1413 -11.5078 0.132066
-16.7892 -11.3104 -0.24331
-19.4878 -11.3323 -0.663437
-19.9575 -11.6158 -0.745869
-19.8649 -11.6209 -0.74741
-17.1077 -11.6117 -0.528782
-17.195 -11.8376 -0.623855
-19.8489 -11.6631 -0.292693
-20.7113 -11.2491 -0.27519
-19.7813 -12.1028 0.0888231
-20.5852 -12.0248 0.283045
-21.243 -11.4189 0.367678
-20.5964 -11.0348 -1.17495
-18.9918 -11.3043 -0.809967
-20.116 -11.5222 -1.03979
-16.6126 -11.6286 -0.206441
-20.8092 -11.2307 -0.8689
-17.0131 -11.8173 -0.309103
-17.8401 -12.3418 0.178467
-20.5265 -11.212 -0.292225
-20.9505 -11.4726 -0.610154
-20.4551 -11.5682 0.177816
-20.3213 -11.8593 -0.23413
-20.5781 -11.5033 -0.134424
-19.5514 -11.8983 0.848646
-18.4908 -10.7055 1.34416
-20.0552 -11.1509 -1.62366
-19.4781 -11.1074 -1.49559
-16.3751 -12.0387 -1.37541
-18.8394 -11.1138 -0.999365
-18.5792 -11.6649 -0.990883
-17.0687 -11.8286 -0.756028
-17.4258 -11.8645 -0.123728
-20.2482 -12.1837 0.044179
-20.0825 -11.9634 0.884062
-18.8254 -11.3627 1.27002
-20.8758 -11.6977 0.86766
-17.5059 -11.6495 -1.78294
-16.7274 -11.9351 -1.0128
-17.8121 -11.2742 -0.492648
-20.4802 -11.0609 0.0321574
-17.2695 -11.4901 -0.0886245
-20.3771 -11.1947 -0.310005
-17.6286 -11.7864 -0.531335
-20.7724 -11.4073 -0.734836
-17.743 -11.5761 -0.18785
-19.9292 -11.62 -0.426729
-20.092 -12.1057 -0.260931
-19.167 -11.2146 -1.56913
-19.2275 -11.3805 -1.74099
-17.984 -12.3299 -0.106265
-20.5999 -11.4529 -0.848999
-20.1383 -11.7912 0.111726
-17.9475 -11.9043 0.924463
-19.7839 -11.4201 0.544004
-19.3979 -11.2681 -0.491175
-17.6496 -11.8828 -0.360946
-17.2237 -11.764 0.0675277
-20.065 -11.7779 0.219785
-16.4345 -11.9893 -0.098435
-20.6214 -11.3998 0.232968
-17.4611 -10.2499 0.993088
-17.2424 -11.1342 -1.93287
-17.218 -11.0882 -2.30955
-20.1989 -11.6152 -0.801609
-19.2448 -11.4654 0.568083
-19.2163 -11.4191 -0.306125
-19.4547 -11.9563 0.386924
-15.7338 -12.0566 -2.12596
-17.2566 -10.2331 2.02936
-20.574 -10.5268 -1.40719
-20.2338 -11.0041 -2.16979
-20.1529 -10.8175 -1.68533
-19.9683 -11.2449 -1.70996
-19.5915 -11.3895 -1.85421
-20.6449 -11.5835 -1.17363
-19.9751 -11.4709 -2.07818
-18.3129 -11.3384 -3.01868
-20.5652 -11.1394 -0.648568
-20.3114 -11.1721 -0.452221
-19.7973 -11.6419 -0.503538
-20.1381 -11.1738 -1.15718
-19.1822 -11.6889 -1.40756
-17.7453 -11.4399 -1.52364
-20.1503 -11.181 -0.760695
-20.0781 -10.9439 -0.582171
-20.4736 -11.6448 0.669354
-18.2182 -11.8465 -0.963915
-20.5944 -11.6972 0.210235
-20.4045 -11.8056 0.478085
-18.1495 -11.6291 -0.905334
-17.4157 -11.4562 -0.945428
-17.6109 -12.2427 -0.733336
-18.9663 -11.0971 0.122645
-17.1288 -11.645 -0.292622
-17.0545 -11.6193 -0.570174
-17.021 -11.9578 -0.644024
-17.3115 -11.7926 -0.0552124
-17.1672 -11.6192 -0.74275
-17.2614 -11.7514 -0.570685
-17.0501 -11.6186 -0.616382
-20.6004 -10.9245 -1.97299
-19.801 -11.0069 -1.84742
-20.4884 -11.2353 -1.09119
-19.8593 -11.0828 -1.18783
-18.5726 -11.6024 -1.4452
-19.1099 -11.7915 -1.42985
-17.7015 -11.4433 -2.79678
-20.5554 -11.4349 -0.159317
-19.4998 -11.5634 -0.992234
-20.3797 -11.1803 -0.395945
-20.6539 -11.7474 -0.347709
-20.2636 -11.3886 -0.529698
-17.0738 -11.7064 -1.79002
-19.9343 -12.0438 0.13501
-20.1987 -11.3268 0.651285
-20.5959 -11.5505 0.575325
-19.4753 -11.8792 0.337648
-19.4196 -11.692 -0.555283
-18.9988 -11.2307 0.124848
-19.0168 -11.0797 -0.19655
-16.687 -11.8291 -0.184965
-16.671 -11.6001 -0.262723
-17.3791 -11.9292 -0.057041
-16.971 -11.8427 -0.0286858
-20.236 -11.228 -1.90294
-20.0186 -10.7638 -1.94579
-20.389 -12.07 -1.32639
-20.2227 -11.2312 -1.12316
-19.3849 -11.6445 -1.27273
-20.7682 -11.4695 -0.350609
-16.8524 -11.3958 -2.20722
-20.6089 -11.6885 -1.045
-20.6423 -11.5119 -0.169634
-19.9069 -11.8461 -0.109574
-20.822 -11.8412 -0.197312
-20.4863 -11.6228 0.6824
-17.8087 -11.5811 -1.16666
-18.0994 -11.6747 -0.694229
-21.0291 -11.6034 0.567316
-17.8654 -11.9116 -1.00762
-19.9317 -11.3632 0.00410583
-17.5028 -11.5872 -0.512619
-17.2276 -11.7797 -0.591552
-16.927 -12.2698 -0.0632246
-17.3241 -11.4544 -0.43196
-17.3315 -11.9713 -0.0634283
-17.1303 -11.6082 -0.636961
-16.6815 -11.7337 -0.360376
-17.1635 -11.8518 -0.454855
-15.754 -11.7608 -0.995968
-17.6335 -11.7926 -0.00540866
-17.3541 -12.0464 -0.0753785
-18.6521 -11.4459 -1.89614
-20.7704 -11.1297 -0.719474
-20.3755 -11.1359 -0.124776
-19.1377 -11.6923 -1.67744
-19.5171 -11.4921 -0.843608
-19.3698 -11.727 -1.51995
-20.4633 -11.5825 -0.598775
-20.4003 -11.3125 -0.90411
-16.183 -12.116 -2.26216
-20.1016 -12.0404 0.365918
-20.1322 -12.0359 0.402865
-17.1205 -11.8726 -0.95304
-19.1063 -11.9933 0.435422
-20.0511 -11.8681 0.60947
-19.4992 -11.6175 0.961463
-16.2949 -11.8285 -0.708893
-19.5468 -11.7525 0.858629
-16.9732 -11.9184 0.0425556
-16.6909 -12.18 -0.341599
-17.204 -11.6109 0.236497
-18.5847 -10.7884 1.18766
-18.8657 -11.2366 -2.74878
-18.1024 -11.2931 -2.86727
-18.1788 -11.149 -2.63127
-18.6847 -10.6835 -1.11225
-18.5547 -10.9621 -1.30845
-18.1099 -11.2675 -1.36541
-20.0742 -11.737 0.149978
-20.119 -11.148 0.281997
-20.0843 -11.6547 0.0818249
-19.9526 -12.2009 0.329271
-16.3008 -11.7569 -1.18557
-16.8759 -11.834 -1.54989
-16.3318 -12.1079 -1.04153
-17.2437 -11.4985 -0.324592
-16.8379 -11.7906 -0.538111
-20.1033 -11.6594 0.392498
-20.5389 -11.363 0.171267
-17.2237 -11.7863 -0.553813
-16.8302 -12.1218 0.365675
-19.1507 -11.73 -0.610401
-20.5235 -11.9127 -0.248896
-17.5108 -11.6523 -1.65879
-19.0518 -10.9951 -0.869087
-15.2777 -12.0786 -2.01988
-17.8975 -11.7246 -0.782249
-19.4624 -11.7542 0.329689
-17.6182 -11.7552 -0.182791
-17.7919 -11.6032 -0.496355
-17.2035 -10.6628 0.929012
-18.699 -11.0394 0.629412
-18.0532 -11.7849 -1.92634
-19.3875 -10.8975 0.480557
-18.1049 -11.4488 -1.71319
-18.0599 -11.5646 -2.33926
-20.8433 -10.7596 -0.809614
-20.8549 -11.3863 -0.455692
-19.7639 -11.6636 -1.01544
-18.7962 -11.0963 -2.7674
-20.2954 -11.4732 0.103176
-18.6686 -11.4512 -1.6908
-17.8493 -11.392 -2.54298
-19.0939 -11.1896 1.25247
-18.3781 -11.2329 -0.034398
-17.3108 -11.9099 -0.732521
-17.2398 -11.7489 -0.135572
-15.7588 -12.5632 -0.591474
-17.8949 -10.4524 0.633385
-20.6792 -11.4133 -1.986
-20.0638 -11.1108 -2.2313
-19.5813 -10.9847 -2.39911
-20.579 -11.5281 -0.399333
-20.8186 -11.5738 0.0491658
-20.8024 -11.8018 -0.940795
-19.9379 -11.3441 0.0567289
-20.4235 -11.251 0.0546197
-20.7651 -11.506 0.836224
-20.8177 -11.6383 0.255597
-20.43 -11.3895 0.695908
-20.2487 -11.7816 0.440526
-20.0501 -12.1645 0.1725
-18.7962 -11.6194 -2.51737
-19.5374 -11.8123 -0.816794
-19.5748 -11.261 -1.39012
-19.0252 -11.1718 0.188904
-19.4326 -11.3538 -0.583557
-18.0938 -11.6974 -1.70706
-18.6848 -11.1513 -0.0980476
-18.1605 -11.4083 -0.842878
-18.5038 -11.2379 0.433976
-17.7204 -11.6013 -0.243138
-17.2809 -11.9747 -0.0283323
-18.2899 -11.5226 -0.0489619
-17.1074 -11.5297 -0.054978
-16.7312 -11.8695 0.659259
-17.8213 -9.86173 0.380569
-20.0286 -10.8001 -2.11194
-20.5168 -11.3617 -0.556197
-20.7631 -11.6869 -0.250054
-20.3929 -11.576 -0.502175
-19.9653 -10.8613 -0.946558
-20.2901 -11.1502 -0.367107
-19.7897 -11.7864 -0.368036
-19.2054 -11.523 -2.22758
-19.7476 -12.4967 0.531542
-18.9756 -11.3323 -0.0687497
-19.0307 -10.7825 0.0986501
-17.1291 -11.1968 -1.75438
-17.2066 -11.7112 -0.914034
-17.2278 -11.2492 -0.744051
-18.3272 -11.4675 0.00107621
-17.2799 -12.0342 -1.03667
-15.9664 -11.7121 -2.13635
-17.3909 -12.3208 -0.466323
-16.523 -11.9066 -1.66371
-15.8859 -11.801 -1.7439
-17.3223 -11.9219 -0.0742863
-16.9089 -11.874 -0.271958
-17.1279 -11.819 -0.669571
-17.4535 -11.6336 -0.52767
-16.9877 -11.7159 -0.3786
-16.1943 -12.5957 -0.246567
-16.6232 -12.5423 -0.0973619
-17.3656 -10.4034 1.17755
-20.1391 -11.8395 -0.693769
-20.5056 -11.7196 0.167865
-20.2976 -11.7026 0.278915
-19.213 -11.4777 -1.77732
-20.0099 -11.2267 -0.0524726
-19.2297 -11.3212 -1.1716
-18.3288 -11.6191 -1.85561
-18.4097 -11.6161 -1.77423
-18.004 -11.2396 -2.48765
-17.6961 -11.9919 -0.31143
-17.6405 -12.065 -1.19577
-18.3087 -11.6222 -0.222967
-17.4786 -11.8878 -0.4195
-17.5176 -11.948 -0.0746217
-17.7285 -11.6148 0.334389
-17.181 -11.6508 0.143007
-16.9404 -11.7183 -0.396164
-16.2204 -12.0126 -1.4297
-16.8276 -12.2266 0.246835
-19.9772 -11.5325 -0.210731
-19.3251 -11.5761 0.0068075
-19.6863 -11.69 -0.309152
-19.8621 -12.1394 0.223355
-19.5047 -11.5381 -1.24041
-17.6823 -11.4468 -2.54481
-17.71 -11.3623 -1.74019
-17.8105 -11.5049 -1.96039
-19.1183 -10.9361 0.863346
-17.9715 -11.8203 -0.92779
-17.3703 -11.3456 -2.24237
-17.5199 -11.668 -1.32347
-17.6575 -11.3883 0.138731
-16.3341 -11.7139 -1.45872
-15.415 -12.0194 -2.3413
-15.897 -12.196 -0.363435
-17.1245 -10.4915 1.43961
-20.6389 -10.7381 -1.94066
-19.5075 -11.1192 -2.35422
-20.0314 -11.3484 0.527173
-18.9884 -10.8014 -0.896404
-18.4311 -11.8035 0.0942848
-19.2292 -11.7446 -1.88955
-19.0294 -11.4633 -1.45088
-18.7415 -11.365 -0.717299
-19.7763 -11.5359 -2.19666
-19.0842 -11.3468 -0.443269
-19.3664 -10.9509 -0.206543
-17.7126 -11.7239 -1.32908
-17.6946 -11.2044 -1.91417
-18.2068 -11.886 -0.730067
-16.5395 -11.8978 -0.561802
-17.9179 -11.5475 -1.51824
-17.0864 -11.6751 -1.19536
-20.9008 -10.5941 -0.565495
-21.104 -10.7459 -1.56897
-20.2329 -10.8769 -1.86191
-20.7598 -11.2007 -1.91867
-20.7286 -10.8193 -1.70402
-20.3835 -10.8796 -2.01783
-20.0549 -10.9531 -1.23497
-19.7671 -11.0077 -1.74843
-19.4683 -11.4515 -2.01493
-19.5048 -11.7068 -1.64142
-18.6545 -11.7337 -1.1068
-18.8353 -11.195 -0.069849
-18.5553 -11.378 -1.60617
-18.5235 -11.343 -1.84723
-17.6406 -11.0864 -0.894928
-17.9247 -11.6626 -0.830426
-17.5115 -11.5575 0.951551
-20.6944 -11.5069 0.425713
-20.8426 -11.1132 -0.382518
-20.3578 -11.6266 0.024029
-20.4009 -11.2911 -1.25662
-20.6772 -11.0084 -1.28904
-20.6291 -11.2427 -1.63944
-20.4304 -11.269 -0.689691
-19.821 -11.0812 -1.88162
-20.3367 -11.2814 -0.900532
-19.9995 -11.5071 -1.11331
-19.666 -11.4021 -1.04068
-20.0531 -11.9109 -0.892186
-19.9063 -11.8427 -0.7896
-20.08 -11.3912 -1.69418
-19.5348 -11.2755 -1.06538
-19.6525 -11.2437 -1.30648
-19.7695 -11.3944 -0.907317
-19.3835 -11.7932 -1.71695
-18.4765 -11.4074 -2.924
-18.7406 -11.8427 -2.81025
-17.829 -11.7834 -0.642893
-18.0092 -11.3107 -0.865434
-17.6289 -10.1873 1.50701
-17.9123 -10.2098 1.45182
-16.6582 -11.7986 -0.776527
-17.1141 -11.8532 -0.816815
-17.1445 -11.7669 -0.576382
-17.2542 -10.4307 1.36275
-20.6132 -11.4799 0.949048
-21.2034 -11.2709 0.0925805
-20.4923 -11.5397 -0.909596
-20.6469 -11.1292 -0.939546
-19.9225 -11.0987 -1.85788
-20.0606 -11.4806 -0.992036
-19.7742 -11.0899 -1.53433
-19.2483 -11.5063 -1.24015
-19.4331 -11.3313 -1.54043
-19.8117 -11.4799 -0.127104
-19.2263 -11.4555 -0.381279
-19.4898 -11.3746 -1.24703
-19.1825 -11.5744 -1.34257
-19.1388 -11.3315 -1.21117
-18.916 -11.2249 0.304411
-18.8672 -11.5281 -2.30172
-18.624 -11.4166 0.766565
-18.989 -11.389 -2.91992
-17.8687 -10.3428 1.34879
-17.1 -11.8176 -0.628262
-17.0138 -12.1761 -0.69458
-17.3715 -11.7777 -0.280293
-17.4094 -10.8415 -2.19243
-17.1258 -11.3892 -2.26844
-16.4185 -11.7887 0.392793
-16.8122 -11.5838 -1.33344
-16.4881 -11.8537 -2.0121
-20.1371 -11.7311 0.517697
-20.7618 -10.8843 -0.00569474
-20.5785 -11.1039 -0.350518
-19.8687 -11.1555 0.180762
-19.9122 -11.4507 -1.29452
-19.3438 -11.7818 -1.0707
-19.5553 -10.9798 -2.87154
-19.1864 -11.7646 -1.15497
-19.4044 -11.0684 0.1447
-18.6232 -11.7117 1.42201
-19.1314 -11.2056 -1.17787
-19.4789 -11.117 -1.66713
-18.9881 -11.5083 -1.75352
-19.0221 -11.2715 -3.00898
-18.422 -11.4197 -3.05073
-16.8748 -11.934 -0.0374026
-16.6712 -11.3275 -0.463356
-16.6494 -11.4865 -1.3593
-16.9414 -11.6239 -1.62103
-16.4541 -11.7419 -2.10803
-17.0307 -10.3227 1.26072
-20.7194 -11.092 -0.726768
-20.0477 -11.8936 -0.473655
-20.0273 -11.0434 -1.61077
-20.2369 -11.1619 -2.51565
-20.156 -11.5279 0.461266
-19.7304 -11.685 0.451734
-20.1734 -11.6019 0.262863
-19.8817 -11.1726 -0.0751091
-19.9019 -10.4898 -2.30727
-19.4573 -11.0036 -2.06948
-20.3984 -11.1349 -1.66188
-19.8863 -10.8728 -2.28005
-19.206 -11.402 -2.05099
-19.4508 -11.5935 -2.20282
-19.1175 -11.1928 0.438773
-19.3085 -11.3781 -2.19355
-18.6732 -11.2655 -0.99033
-18.4149 -12.3183 -0.731904
-17.9892 -11.4502 0.270004
-17.6047 -11.6969 0.122261
-17.6621 -11 -2.83948
-16.4669 -12.1806 -1.08947
-20.5033 -11.1081 -0.163745
-20.691 -11.739 0.219297
-20.5027 -11.9218 -0.367737
-19.7309 -11.2416 -1.03487
-19.6715 -11.388 -1.11624
-19.6414 -11.4767 -1.20239
-18.6298 -11.1943 0.102067
-17.5986 -11.6916 0.513157
-18.0886 -11.9544 0.132707
-17.6028 -12.0496 -0.465711
-17.1945 -11.9835 -0.562415
-17.577 -10.2623 1.23524
-17.003 -10.306 1.89878
-20.716 -11.3368 -0.0484512
-20.3732 -11.6078 -0.422017
-20.5867 -11.3472 -0.63676
-20.4471 -11.2511 -2.11304
-19.9379 -11.7477 -0.0268448
-20.5341 -11.5801 -1.37499
-19.7636 -11.5644 -0.899738
-19.9094 -11.7054 -1.28416
-18.5305 -11.2796 -3.12983
-18.3369 -11.784 -0.664248
-18.0407 -11.6988 -1.53575
-18.0275 -11.4372 -1.91568
-18.1618 -10.2716 0.886354
-17.3587 -11.155 -1.94511
-19.2272 -11.4558 -1.32161
-18.9319 -11.0515 -0.193451
-17.3783 -11.7022 -1.36249
-19.3975 -11.4298 0.642962
-17.313 -11.2415 -1.6775
-18.3004 -12.1067 -1.15215
-17.8756 -11.831 -1.44743
-19.1298 -11.2556 -0.747302
-21.0544 -11.1947 -0.272411
-20.2873 -11.8944 -0.241776
-20.3435 -11.4633 -0.663018
-20.5579 -11.6144 -0.314979
-19.8191 -11.4738 -0.576317
-20.3896 -11.5249 -0.580356
-20.2638 -11.3059 -0.768801
-20.6417 -11.1443 -0.540474
-20.4082 -11.2345 -1.16975
-20.5834 -10.9217 -1.87019
-20.2084 -11.2288 -1.7314
-20.2186 -11.3458 -1.5454
-20.3002 -11.1677 -1.80549
-20.0053 -11.2471 -1.42133
-20.4003 -11.0812 -1.98336
-20.0121 -10.9997 -1.94142
-20.5584 -10.5625 -1.47784
-20.3358 -10.9209 -2.07839
-20.0927 -11.0034 -1.56495
-20.253 -10.9495 -1.6736
-19.8586 -11.0201 -1.94306
-20.2773 -11.2591 -1.35546
-19.8283 -11.5819 -1.26397
-19.7435 -11.2801 -1.29618
-20.5092 -11.2091 -1.70017
-19.4232 -11.7818 -1.15259
-19.1515 -11.7681 -1.53277
-20.6611 -11.2912 -1.81366
-19.9616 -10.9426 -2.27316
-19.8835 -11.592 -2.39646
-19.9935 -10.8531 -2.22437
-18.1559 -11.7042 -1.79698
-18.2312 -11.8985 -1.05949
-18.6016 -11.5404 -1.59012
-18.663 -11.3299 -1.43505
-19.3708 -11.3101 -2.40258
-19.6302 -11.3494 -2.34344
-16.7675 -11.4378 -0.845158
-16.7037 -12.1745 -1.07057
-18.7317 -11.2553 -2.54559
-16.8789 -11.6128 -0.838586
-18.5785 -11.1428 -2.37804
-18.0809 -11.4035 -3.09476
-20.7834 -11.524 0.194779
-20.7538 -11.2959 0.367824
-20.9174 -11.5614 0.49838
-21.0665 -11.0934 -0.344877
-20.0429 -11.8664 0.670478
-19.9457 -11.6036 -0.4048
-19.8757 -11.2897 0.229073
-20.3229 -11.1999 -0.497598
-20.6896 -11.4489 -0.870096
-20.3176 -11.5113 -1.27239
-20.2017 -11.3017 -0.55069
-21.13 -11.0762 -1.33044
-20.3935 -11.7241 -0.546673
-20.363 -11.2332 -1.37383
-20.4158 -11.7487 -1.10337
-20.5412 -11.4781 -0.994223
-19.4045 -10.9707 -0.144283
-20.4845 -11.0834 -1.47771
-21.058 -11.205 -1.97405
-19.4115 -11.5392 -0.780412
-18.0178 -10.363 0.978161
-20.2348 -11.3772 -1.90351
-19.7687 -11.6756 -1.08558
-17.9373 -10.4155 1.39739
-20.6336 -10.8421 -1.87111
-19.3866 -12.1848 -0.76977
-18.9426 -11.6358 -1.09414
-18.6676 -11.336 0.142788
-19.7869 -11.5749 -1.7598
-17.2283 -10.4004 1.21343
-17.489 -11.7077 -0.0229152
-17.4182 -11.633 -0.02752
-17.978 -11.5315 -0.718739
-18.3165 -11.8859 -0.519407
-17.9417 -11.4491 -0.984533
-18.6276 -11.6732 -1.53631
-17.8221 -11.6643 -0.0453871
-19.3977 -11.6335 -1.9381
-19.1065 -11.7136 -1.59547
-18.0901 -11.8239 -0.844694
-17.524 -11.8807 0.0949123
-17.0798 -12.0011 -0.411013
-16.9435 -11.7511 -0.377982
-17.2524 -11.6619 -0.169534
-16.6497 -11.957 -0.807003
-16.8531 -11.6304 -0.293622
-19.1314 -11.0013 -2.91599
-18.5145 -11.7307 -2.87465
-18.5828 -11.4499 -2.53552
-16.3885 -12.0167 -1.60925
-16.4706 -11.8309 -1.75334
-20.5718 -11.2308 0.688164
-19.9297 -11.7446 -0.367748
-19.7517 -11.7161 -0.604212
-20.2894 -11.5009 -0.932447
-20.2001 -11.0902 -1.52349
-19.8563 -10.859 -1.29441
-20.1895 -10.5975 -0.725347
-18.7205 -11.4569 -0.0789151
-20.2914 -11.3841 -1.72675
-17.8359 -10.3243 1.46313
-19.6309 -11.4715 -1.20588
-19.513 -11.754 -1.08782
-19.2729 -11.632 -0.844021
-20.3475 -10.6181 -1.28518
-19.48 -11.2012 -1.38132
-19.9941 -11.3579 -1.09371
-19.9361 -11.1321 -1.83087
-19.9862 -11.2144 -1.54
-17.6795 -11.363 0.24476
-18.0438 -11.7375 0.464064
-17.3985 -12.0377 -0.261913
-18.3792 -11.8697 -0.184878
-19.1781 -11.9188 -1.59894
-18.9756 -11.9352 -1.72561
-17.4861 -12.1375 -0.266729
-17.1413 -11.8494 0.112212
-16.4685 -12.1676 0.183959
-16.2007 -11.5635 0.731051
-19.2825 -10.9864 -2.21325
-17.1627 -11.7668 -0.016387
-17.6893 -11.9991 0.00588991
-19.1539 -11.5275 -2.71504
-19.684 -11.3365 -2.51753
-16.8355 -11.8811 -0.342755
-19.0683 -10.8375 -2.29678
-17.8097 -11.6497 -0.84713
-18.9525 -11.2327 -1.95957
-16.3045 -11.918 -1.37639
-18.4389 -11.3799 -2.77287
-18.2142 -11.8868 -2.93484
-16.1393 -11.2618 -2.19087
-17.013 -10.934 -2.50145
-20.8884 -11.6833 0.374228
-20.0104 -12.2968 0.59008
-19.9375 -11.8928 0.0626988
-20.9369 -10.938 -0.982482
-21.1693 -11.1201 -0.670342
-18.8032 -11.3959 1.26625
-20.7693 -10.9971 -0.585104
-19.5787 -11.7583 -0.0840478
-20.1317 -11.382 -0.995473
-20.0745 -11.9457 -0.921551
-20.0918 -12.1108 -0.334011
-17.3375 -9.96069 1.8415
-20.2521 -10.7585 -1.34193
-19.742 -11.0423 -1.45365
-20.3055 -10.7045 -1.83681
-19.1883 -11.7875 -1.93567
-19.5402 -11.3026 -2.21003
-17.0036 -11.7464 0.436529
-16.8069 -12.1618 0.379207
-18.6104 -11.4694 -1.29017
-16.6977 -11.7209 -0.340578
-16.5817 -11.7065 -0.862981
-17.6346 -11.9655 -0.22035
-16.8558 -11.6921 -0.617339
-18.2872 -10.6151 -2.39169
-17.2002 -11.2596 -1.78477
-20.454 -11.0866 0.500737
-20.439 -11.213 -0.626574
-21.0257 -11.2682 -0.680693
-19.2514 -11.5376 1.05562
-20.6335 -11.8373 -0.917473
-18.8132 -11.0952 -0.10636
-18.7402 -11.4864 -0.891562
-18.2465 -11.6385 -0.552198
-18.4147 -11.5687 -0.93671
-16.5302 -11.9566 -0.364848
-17.4903 -11.7832 -0.542712
-17.9167 -12.0283 -0.984497
-17.5023 -11.3205 -0.355539
-17.0948 -12.0839 -0.225015
-16.8423 -11.4724 -0.202076
-17.9212 -11.587 -1.83623
-18.1204 -11.6023 -2.83662
-17.3365 -11.5045 -2.53815
-20.8858 -12.0015 0.276699
-20.4666 -11.4059 1.14154
-20.9093 -11.5852 0.323708
-20.3773 -11.4902 0.000593474
-19.4734 -10.9406 0.592974
-20.2967 -11.4462 -0.527415
-19.3845 -11.5885 0.360644
-20.2456 -11.2463 -1.23537
-20.03 -11.322 -1.16573
-17.716 -10.9463 0.915031
-19.732 -11.2805 -1.71542
-19.9343 -10.9183 -1.71762
-19.4664 -11.5395 -1.07257
-17.6474 -9.85731 1.14832
-20.4977 -11.262 -2.11971
-17.1602 -11.5945 -1.01608
-19.2835 -11.602 -2.90354
-18.1919 -11.4608 -2.39755
-19.829 -11.6748 1.20579
-19.555 -11.6386 1.06971
-20.1278 -11.359 -0.800643
-17.5927 -11.88 0.376587
-16.6725 -11.2819 -0.0887808
-17.9993 -11.0796 -2.23351
-18.7235 -11.4053 -0.673762
-17.5308 -11.7285 0.329689
-17.5018 -11.1402 -1.22744
-17.4506 -10.8787 -2.48487
-19.7093 -11.9507 -0.0516601
-19.8721 -11.2026 -1.39525
-18.8012 -11.9233 -0.12531
-16.9791 -12.1524 -0.548797
-16.7647 -11.378 -0.633954
-16.8917 -12.4265 -0.480985
-18.4329 -11.451 0.754652
-19.1527 -11.4776 -2.22808
-19.5159 -11.3884 -2.93953
-20.0923 -11.1182 -2.82065
-20.1481 -10.9251 -2.37304
-20.2995 -11.1871 -1.95159
-19.6842 -11.2335 -2.13344
-18.3283 -11.788 -1.54695
-20.6041 -11.1878 -1.80897
-19.1823 -11.2887 -1.40294
-20.6638 -11.5235 -1.64396
-20.4685 -10.8827 -1.44132
-20.9104 -11.4533 -1.22008
-19.408 -11.1236 -0.985755
-20.0086 -11.0907 -1.42421
-20.3543 -10.8418 -0.918846
-16.1904 -12.209 -0.619017
-19.409 -11.6511 -0.943781
-18.5512 -11.9977 -0.861843
-17.2931 -11.7084 -0.539679
-20.2403 -11.7321 -0.623869
-19.8906 -11.2649 -0.990942
-20.6043 -11.5686 -1.07149
-20.4097 -11.2186 -1.28697
-20.8392 -11.5286 -0.720991
-17.2906 -11.8477 -0.62797
-17.6583 -12.2815 -0.65898
-19.847 -11.1739 -0.139375
-20.1878 -11.7817 -0.385554
-20.7061 -11.2303 -0.71413
-20.0626 -11.1841 -0.248805
-17.8659 -12.0293 0.0449183
-16.9685 -11.994 0.426817
-20.2971 -11.7228 0.151583
-20.2986 -11.727 0.082338
-16.8372 -10.4741 0.791357
-20.4876 -11.3843 0.148492
-19.084 -11.4755 -2.50742
-18.5915 -11.53 -2.03462
-20.1817 -10.6549 -2.32038
-19.106 -10.9972 -2.61109
-20.2935 -10.877 -2.21535
-18.7094 -11.8821 -1.9383
-19.0078 -11.8071 -1.68279
-19.312 -11.3343 -1.80022
-20.0046 -11.6907 -0.983194
-17.5656 -11.3028 -0.470265
-20.162 -11.0617 -0.804293
-17.0355 -11.7295 -0.207165
-20.1203 -11.572 -0.355051
-20.7962 -11.2762 -0.49607
-19.9977 -11.8385 -0.610497
-20.457 -11.7387 -0.21867
-20.2886 -11.7615 -0.625322
-20.6448 -11.3894 -0.0998448
-17.9644 -11.5533 0.42186
-20.1112 -12.1808 0.478796
-19.8127 -11.4936 0.523773
-19.1923 -11.2791 0.760149
-20.6665 -11.4544 0.521467
-20.2267 -10.7087 -1.80266
-20.4822 -11.0994 -1.68451
-18.7979 -11.6119 -2.20814
-20.1283 -10.835 -1.783
-18.8153 -11.5002 -2.03668
-20.3864 -10.8676 -1.41404
-19.9131 -11.4758 -1.45928
-17.0293 -11.655 -1.49609
-19.7046 -11.6795 -1.30543
-17.8005 -11.6167 -0.763418
-20.6965 -11.4686 -0.927097
-20.7892 -11.4234 -0.670476
-20.6313 -11.1547 -0.628231
-20.1546 -11.5995 0.0898917
-20.0624 -11.6897 -0.0377949
-20.1885 -11.8199 0.219572
-20.1926 -11.366 0.00549065
-20.8136 -11.7262 0.532854
-20.8636 -11.0938 0.493743
-19.7595 -11.0335 -2.2594
-19.8237 -11.3066 -1.41245
-19.4179 -11.2478 -1.25519
-19.5524 -11.8 -1.23869
-19.226 -11.4743 -1.19538
-16.7336 -11.7227 -0.435809
-20.0644 -11.5643 -0.104163
-20.6688 -11.0373 -0.450676
-19.5108 -11.479 -0.686868
-19.8813 -11.6028 0.225217
-20.2215 -11.2268 -0.379558
-16.9238 -11.7356 0.459387
-18.7241 -11.2426 0.858531
-20.0256 -11.8177 0.70699
-18.0045 -10.1319 0.94056
-18.7848 -11.7759 1.41246
-17.5405 -11.4052 -2.2137
-16.933 -11.5126 -1.34198
-19.5571 -11.3438 -0.765362
-16.7118 -11.6541 0.366808
-17.8766 -11.6394 0.351271
-20.4666 -11.4011 -0.129495
-18.2727 -11.203 0.208792
-16.9453 -11.9607 0.353819
-18.8732 -11.1935 -1.87581
-17.2391 -11.6711 -1.79967
-16.1507 -11.8835 -0.923146
-19.782 -10.9461 -0.663558
-17.2121 -12.1281 0.264658
-19.1968 -11.2751 -0.457312
-17.9936 -12.0416 -0.0407417
-17.0413 -11.7563 0.0611977
-19.8509 -11.8892 0.0747688
-16.8394 -11.6629 0.546732
-20.4106 -11.3443 -0.770593
-18.9804 -11.0175 0.431754
-18.2986 -11.0824 0.290051
-18.5907 -10.9253 0.458981
-17.9979 -11.8654 0.0820533
-20.5602 -11.3257 -0.0849684
-17.5525 -11.9681 0.469508
-19.8197 -11.8678 -0.275624
-19.5582 -11.1602 -1.55977
-18.5948 -11.2879 -0.677669
-16.6266 -12.284 0.695912
-19.4239 -11.1538 -1.41664
-18.5442 -10.7486 1.65154
-18.5052 -11.5036 1.17437
-19.0182 -11.1072 0.57456
-19.3402 -11.1252 -2.59791
-18.6007 -11.2619 -2.74027
-18.6781 -11.297 -2.39949
-20.1535 -11.2611 -1.43931
-19.544 -11.8704 -0.81914
-19.7538 -11.4676 -1.50337
-19.4138 -10.8952 -1.35679
-20.3008 -11.4845 -0.0760186
-18.1706 -12.074 -0.728339
-19.4301 -11.8455 -0.220839
-19.8518 -11.2188 -0.160447
-20.3327 -11.5029 -0.0938244
-20.1987 -11.4707 0.0733436
-18.5029 -11.716 -0.441715
-20.3489 -11.507 0.0174707
-20.2678 -11.2913 0.566702
-17.1332 -12.2038 -0.719359
-17.4718 -11.6395 -0.770283
-19.9887 -11.522 0.554809
-18.3471 -11.5326 0.11258
-18.0495 -11.2978 -2.63586
-18.5088 -11.3894 -2.18288
-20.5993 -10.7699 -1.68148
-19.5675 -11.4307 -1.45189
-15.7591 -11.7654 -1.99055
-20.1954 -11.6192 -0.223046
-18.1911 -11.4134 -0.934792
-20.0874 -11.7534 -0.0178905
-19.0266 -11.2719 -0.42103
-19.1265 -10.9162 -0.12134
-17.0874 -11.6488 -0.24568
-20.9032 -11.1124 0.772349
-17.7429 -11.7614 -0.00747758
-16.7929 -11.7472 0.261066
-17.6897 -11.9511 -0.144783
-17.5879 -12.045 -0.324419
-18.7841 -11.8788 1.81402
-19.0893 -11.4503 -2.17891
-18.4748 -11.6679 -2.46784
-20.396 -11.0399 -1.50072
-19.1754 -11.4408 -1.51626
-17.3279 -11.3409 -1.93713
-19.2815 -11.4907 -1.72937
-20.2445 -11.6705 -1.54103
-20.3083 -11.6373 -0.590016
-19.8796 -11.6152 -0.154391
-16.8026 -11.763 -1.57272
-16.2262 -11.7345 -1.66244
-19.8671 -11.4657 0.103439
-20.62 -11.6611 0.405031
-18.9865 -10.9216 0.52331
-17.2975 -11.3352 -0.491201
-17.7718 -11.5639 -0.0745355
-17.3603 -11.4827 0.00992682
-17.2967 -12.0374 0.0838725
-17.6145 -12.0683 -0.0743628
-19.9357 -11.7213 0.977159
-19.1061 -11.7426 0.538214
-18.5206 -11.1378 -1.96468
-20.2712 -11.2131 -1.22248
-19.0499 -11.6327 -1.42208
-19.0556 -11.8794 -1.35013
-18.6135 -11.1394 -1.52527
-20.3546 -11.0095 -0.220665
-19.4042 -11.5915 -1.06139
-19.2021 -11.1229 -1.08208
-17.618 -12.0297 -0.178035
-17.2526 -11.904 -0.324978
-17.0132 -11.7549 -0.376039
-19.6198 -11.1828 -2.18561
-18.9364 -11.4826 -2.07893
-19.6085 -11.6584 -0.406922
-17.831 -11.5618 -1.30756
-17.032 -11.9946 -0.825718
-19.2208 -11.6101 -0.138944
-20.2775 -11.7377 0.437596
-20.5586 -12.0273 -0.0623533
-20.6839 -11.4392 0.698035
-20.6397 -11.0673 1.00107
-16.6083 -11.7285 -0.648994
-19.3564 -10.7407 0.198549
-18.1357 -11.2483 -2.74616
-20.488 -11.218 -0.798061
-18.5519 -11.3844 -0.847947
-19.1959 -11.1737 -0.249889
-18.6678 -11.1204 0.596973
-18.9855 -10.9665 1.05279
-18.0645 -11.1622 -1.66065
-20.5119 -11.1254 -0.434905
-18.7814 -11.77 -0.212386
-18.7808 -11.043 -1.74949
-17.2316 -11.441 -1.85006
-17.9625 -11.4482 -2.69179
-20.054 -11.573 -0.131773
-20.5012 -11.8515 0.434381
-20.2998 -11.4096 0.213753
-20.1927 -11.4885 0.689959
-18.0953 -11.666 -1.38082
-16.6799 -11.5592 -1.61778
-17.5506 -11.9882 -0.956815
-18.0944 -11.0985 -0.0924766
-19.2103 -11.5078 1.17654
-16.9759 -11.9911 -0.562438
-17.2397 -12.0605 -0.673846
-20.3305 -11.2348 -0.529697
-20.4038 -11.4921 -0.23926
-17.7074 -11.0613 -1.07615
-19.741 -11.8856 -0.171534
-16.013 -11.5869 -2.52869
-16.6306 -11.6334 -0.868619
-17.141 -11.7079 -1.01072
-17.1676 -11.7235 -0.408911
-16.4087 -11.8345 0.243543
-19.4091 -11.11 -2.2978
-20.0229 -11.0953 -2.10295
-18.7953 -11.3021 -2.80575
-20.0131 -11.209 -1.09369
-19.1522 -11.5956 -0.67138
-19.4076 -11.5315 -1.16315
-20.3774 -11.6383 -0.0142755
-20.1341 -12.0593 0.346253
-16.2645 -12.0197 -1.96751
-17.7532 -11.4688 -0.840059
-17.0796 -12.2351 -0.600598
-17.1364 -11.8314 -0.196972
-17.7822 -10.1584 1.53132
-20.8351 -11.5945 -0.451179
-20.349 -11.2199 -0.78557
-18.8318 -11.6469 -2.28121
-20.3822 -11.0346 -0.315226
-21.1383 -11.5478 0.328801
-19.8639 -11.6939 -0.318721
-16.5065 -12.4816 -0.282305
-17.6891 -12.1026 0.396824
-16.8031 -12.375 0.249676
-20.5556 -10.9148 -1.4625
-19.883 -11.8255 -1.4771
-20.4842 -11.6593 -0.106264
-17.8563 -11.9353 -0.484474
-20.5247 -11.386 -0.829634
-17.3499 -10.5889 1.52343
-18.9595 -10.9144 -0.895661
-20.0447 -11.6655 -0.458358
-16.3527 -11.5905 -1.39199
-17.8818 -12.1208 0.332224
-18.9635 -10.8177 -2.37066
-18.894 -11.0417 -0.0938494
-16.8517 -11.5689 -0.638533
-17.8926 -10.201 0.863599
-20.5314 -10.7138 -1.73273
-21.0387 -11.6699 -0.822803
-20.5918 -11.3042 -0.39429
-20.526 -11.1766 -0.848215
-19.5381 -11.2486 -2.13336
-19.556 -11.7528 -0.094794
-19.139 -11.2233 -2.23114
-19.4481 -11.2876 -0.642056
-18.7168 -11.6882 -2.49681
-19.1242 -11.4808 -1.20461
-19.1332 -11.5453 -1.36632
-17.5759 -12.2726 -0.653332
-17.5355 -12.071 -0.253896
-17.4364 -11.9234 -0.0563804
-17.1108 -12.2429 0.199467
-16.2614 -11.657 -2.28241
-17.2354 -12.0274 -0.248951
-16.7551 -12.4612 0.466666
-20.4182 -11.5106 -0.543986
-20.4542 -11.6131 -0.0217578
-19.7621 -11.2131 -1.11606
-19.9508 -11.165 -0.731745
-20.1666 -11.3715 -0.390669
-19.8389 -11.5253 -1.20267
-19.2104 -11.8306 -0.823008
-18.3934 -11.5228 -1.40274
-17.1143 -11.721 -2.40536
-18.4733 -11.0154 1.72985
-17.9763 -11.1466 0.125259
-16.3693 -11.7575 -1.12103
-19.6193 -10.7902 -1.85125
-20.0722 -10.943 -1.9487
-20.3136 -11.0417 -0.000536516
-18.9216 -11.5619 -2.61633
-19.5798 -11.6351 0.206445
-18.8724 -11.4386 -1.81888
-16.6526 -11.044 -2.29022
-17.4559 -11.7986 -0.945627
-20.618 -10.9269 -0.458824
-20.3978 -11.8788 -0.0906659
-19.768 -11.0257 -2.49953
-20.2554 -11.3808 -0.927215
-19.1826 -10.961 -1.69202
-19.7663 -11.5152 -0.326008
-19.442 -10.973 -1.4924
-20.4566 -11.7737 0.873128
-18.9022 -11.5896 -2.47684
-18.5449 -11.1481 -2.70207
-17.63 -11.7431 -0.297072
-17.4963 -11.4946 0.564998
-17.4441 -11.4707 -1.01954
-16.8995 -11.6338 -1.38396
-19.7416 -11.0735 -2.01626
-20.3748 -11.694 0.233976
-18.917 -11.3543 -0.859142
-19.4311 -10.758 0.0794311
-17.0938 -12.0642 -0.107673
-16.971 -11.8105 -0.775769
-19.9059 -11.3696 -0.525604
-20.2996 -11.2804 -0.546248
-19.7178 -10.9612 -2.17757
-18.9371 -11.1947 -2.21812
-19.0038 -11.6832 -2.56744
-18.8396 -11.4976 -2.74427
-18.416 -11.1146 -2.2835
-16.7981 -12.017 -0.667546
-17.2907 -11.7503 -0.68905
-16.6558 -10.8913 -2.77418
-20.8722 -11.0624 0.0702676
-20.7797 -11.0192 -0.504012
-20.3886 -11.4571 -0.0927483
-20.4412 -10.9028 -1.61434
-19.8201 -11.6789 -0.550676
-19.8186 -10.8004 -2.54982
-19.7829 -11.8163 -1.81381
-19.7477 -10.8451 -2.39434
-19.416 -11.0914 -2.91386
-20.1398 -11.7878 -0.489941
-19.1294 -11.6666 -0.493152
-19.4539 -11.6117 -1.83387
-19.7907 -11.9205 -1.14572
-19.4415 -11.6124 -1.45405
-18.6711 -11.359 -1.44271
-18.6061 -11.4084 -2.87576
-18.2899 -10.9624 0.018415
-18.0899 -11.3845 -0.946078
-17.6056 -12.059 -0.844677
-17.1137 -11.4013 -1.1482
-17.3422 -10.9479 -2.64906
-17.3555 -11.036 -2.30979
-16.7328 -12.0448 0.148437
-20.7629 -11.5908 0.1411
-20.8667 -11.4933 0.0391243
-20.209 -11.2432 -0.772636
-20.5156 -11.524 -0.87362
-19.5994 -11.7224 -0.333258
-20.0379 -11.184 -0.496621
-19.4386 -11.0444 0.506011
-18.9127 -11.002 -2.14832
-18.7007 -10.9728 -1.6128
-18.8197 -11.6693 -2.04819
-17.8696 -12.0736 -0.466832
-17.1805 -12.1106 -0.0537468
-17.0552 -11.3853 -1.93168
-16.7329 -11.7945 -2.18063
-16.0009 -11.6487 -1.82753
-15.743 -11.6783 -1.73239
-20.5923 -11.3003 -0.724086
-20.5618 -10.9849 -1.87962
-20.3371 -10.9114 -1.71627
-20.2003 -11.5093 -1.33786
-20.4426 -10.8579 -2.12383
-19.6457 -11.3255 -1.44642
-20.267 -11.3674 0.933389
-19.6899 -11.3668 -0.815604
-18.8909 -11.3439 -1.45004
-19.2629 -11.2367 -2.54041
-18.6775 -11.35 -2.58956
-18.7235 -11.7346 -1.80412
-19.6978 -11.2044 -2.37442
-18.1497 -11.9267 -0.138847
-17.1788 -12.1175 -0.0959973
-16.8462 -12.7102 -0.193209
-16.8445 -11.8266 -0.232569
-20.4919 -11.2473 -0.233947
-20.5858 -11.4955 -0.19542
-21.1393 -11.0969 -0.20692
-20.6384 -11.409 -0.748186
-20.0611 -11.2592 0.0271036
-19.9715 -10.9319 -2.09609
-19.5705 -11.3073 -1.88786
-19.7385 -11.0782 -2.28979
-19.2066 -10.9235 -1.5575
-19.1038 -12.1002 -1.42985
-19.3295 -11.5317 -1.20069
-18.9327 -11.217 -1.84362
-18.3213 -11.0471 0.24552
-17.9746 -11.7747 0.363656
-17.8755 -11.5143 -1.13188
-17.5606 -11.9503 -0.229092
-16.5093 -11.6397 0.346171
-17.266 -9.91288 1.76419
-16.0269 -11.6632 -1.83242
-20.3157 -10.9505 -0.853106
-18.9303 -11.3924 -1.76619
-19.0927 -11.6268 1.29897
-18.6777 -11.9662 -0.884879
-16.6149 -11.7638 -1.45679
-20.3547 -11.3492 0.111354
-20.373 -11.4526 -0.309353
-20.7701 -11.7892 -0.00143775
-18.8033 -11.22 -2.66042
-16.636 -11.9448 0.214164
-19.0831 -11.3132 -2.95925
-17.5168 -11.0795 -2.31745
-16.2363 -11.7423 -2.06175
-19.876 -11.4174 -1.11098
-18.9057 -10.8634 -1.72994
-16.8852 -11.9909 -1.18375
-19.4307 -11.3571 0.404793
-17.96 -11.8447 -0.768899
-20.7135 -11.3495 0.730046
-20.4133 -11.4847 -0.941123
-20.5386 -10.4636 -1.91877
-20.8584 -10.9 -1.39264
-20.446 -11.0596 -1.30866
-19.5469 -11.4021 -0.718731
-20.6806 -11.1586 -1.74452
-20.2394 -11.0878 -1.72019
-20.1166 -11.3094 -1.58312
-19.5078 -11.2833 -1.27735
-19.3717 -11.116 -0.886761
-19.551 -11.4582 -1.2007
-19.2387 -11.0722 -1.43533
-18.7975 -10.9789 -0.28418
-19.6693 -11.0311 -1.19164
-19.7128 -11.1555 -2.03623
-19.0811 -11.0522 -2.02634
-19.7006 -11.3705 -2.16919
-18.5926 -11.5371 -1.59873
-19.2599 -11.7601 -1.49651
-18.9536 -10.8004 -2.13852
-19.1027 -11.6532 -1.55143
-18.9794 -11.5481 -1.83059
-17.9602 -10.3431 1.60768
-19.0644 -11.1676 -2.84952
-19.3862 -11.6981 -2.26246
-18.8264 -12.1421 -2.4699
-18.4847 -11.924 -0.907984
-18.763 -11.4391 -2.32776
-16.8404 -11.9445 -0.120326
-17.2739 -12.1166 -1.00218
-20.7047 -11.0981 -0.385026
-20.2649 -11.1639 -0.713915
-19.7485 -11.4447 -0.662735
-20.0441 -11.1184 -1.13553
-20.481 -11.3248 -1.70843
-20.4252 -10.9033 -1.88311
-20.0695 -11.7163 -0.793327
-20.1903 -11.3239 -2.30213
-20.06 -11.1906 -1.83891
-20.4275 -11.0398 -2.03142
-19.8616 -11.7446 -1.01176
-20.1876 -10.4625 -2.49806
-19.3507 -11.2464 -0.328943
-19.6226 -11.0314 -0.535232
-20.0406 -10.9545 -2.10166
-19.424 -11.4117 -2.25857
-19.4448 -11.0088 -2.47956
-19.1561 -11.4581 -1.92176
-17.2645 -10.3755 1.09064
-17.0371 -11.0007 1.55575
-18.8406 -11.4754 -2.13442
-19.3851 -10.8179 -2.39576
-19.0776 -11.3677 -2.85638
-18.8601 -11.0449 -2.50648
-18.8997 -11.2759 -2.8399
-17.5457 -12.0894 -0.499601
-18.6768 -11.4158 -2.93504
-17.2799 -11.261 -0.602142
-17.3597 -11.3735 -1.82863
-16.6758 -11.1195 -2.45377
-16.8701 -11.2658 -2.38633
-15.9216 -11.4477 -2.01338
-15.9313 -11.5998 -2.53154
-20.7767 -11.7279 0.699801
-20.6489 -11.4523 0.137623
-20.4239 -10.9011 -1.31808
-19.6284 -11.8884 -0.908461
-19.1568 -11.3385 -0.97432
-19.8987 -11.5172 -2.09417
-19.1682 -11.3117 -1.59545
-18.9729 -11.5452 -1.69616
-19.3299 -11.1452 -2.1366
-17.6204 -11.6861 -0.739953
-17.3085 -12.0755 -0.856662
-17.4531 -11.1252 -0.653519
-17.6573 -11.1139 -1.24515
-16.6875 -12.0475 -1.26671
-16.1694 -12.0859 -2.59677
-19.6085 -11.7144 -1.09379
-19.7931 -11.4888 -1.26138
-19.8055 -11.0981 -1.36662
-19.3259 -11.7381 -1.9419
-17.6785 -11.9206 0.694524
-18.7245 -11.2992 -2.99278
-17.4579 -11.674 -0.68231
-17.074 -11.2804 -0.226059
-16.8818 -12.186 -0.00047498
-18.6056 -11.7567 -2.67545
-17.0049 -11.4255 -2.44477
-16.5211 -11.5766 -2.23774
-20.7907 -11.5712 0.00957252
-20.047 -11.4666 -0.781414
-19.9759 -11.5643 -0.617381
-18.8112 -11.3796 0.120893
-19.1679 -11.8787 -1.45667
-18.615 -11.5432 -0.94039
-17.1722 -11.6365 0.163928
-16.7702 -11.7547 -0.269886
-16.6816 -11.7001 0.60724
-16.3189 -11.9139 0.534554
-16.9353 -11.6543 -1.48759
-18.5418 -11.3402 0.648506
-18.0588 -11.8573 0.119069
-17.579 -11.5846 -0.44291
-16.6288 -12.0185 1.0888
-20.1874 -11.2485 -0.573747
-19.9051 -11.1673 -1.0435
-19.3793 -11.6706 -0.843173
-15.8469 -11.2854 -2.96027
-20.2735 -11.7424 -1.06314
-17.1549 -12.0416 -1.03532
-20.8839 -11.46 -0.546001
-16.9029 -11.749 -0.736013
-17.3716 -11.573 0.0401359
-17.7413 -11.5929 -1.77261
-17.298 -11.6236 -1.36209
-20.2722 -11.6204 -0.00328662
-18.4538 -10.8555 -0.141694
-20.3048 -10.5611 -1.8213
-20.2433 -11.6075 -1.0708
-20.2162 -11.4849 -0.724399
-19.7876 -11.2798 -0.967088
-20.5364 -11.2802 -1.34658
-20.2837 -11.171 -1.32406
-19.603 -11.5849 -1.45363
-20.3607 -10.6521 -1.70896
-20.2955 -10.8635 -1.76653
-20.1976 -11.3662 -1.0731
-20.5302 -11.1316 -1.42838
-19.8586 -11.5194 -1.10551
-19.6645 -11.869 -1.03884
-20.5543 -10.7247 -1.87359
-21.0972 -10.8195 -1.85669
-18.401 -11.7403 -0.535653
-19.4403 -11.3788 -1.2641
-17.9776 -11.3952 -1.18976
-19.1202 -11.3626 -1.47586
-16.9147 -11.2078 -0.725759
-19.1621 -11.7861 -2.1317
-16.9802 -11.5044 -0.570246
-19.6856 -10.5769 -2.26771
-18.9751 -11.2449 -1.91192
-19.5269 -11.1359 -2.2868
-19.1557 -11.1936 -2.17043
-18.8643 -10.9866 -2.26568
-19.5696 -11.1942 -2.52743
-18.4662 -11.0102 -2.31663
-18.6028 -11.6671 -2.89746
-20.5816 -11.5079 0.9093
-20.5727 -11.6283 0.072316
-20.889 -11.3541 -0.468722
-20.4631 -11.0553 0.0384588
-20.6897 -11.5997 -0.508634
-18.3417 -10.61 1.42395
-17.6503 -9.78481 1.34287
-19.625 -11.2302 -0.999197
