-20.2906 -10.8658 -1.36242
-20.2773 -10.7803 -1.83414
-19.7015 -10.6056 -1.31491
-20.1055 -10.9477 -2.02644
-20.6601 -10.6013 -2.01742
-20.8134 -10.6414 -2.36317
-19.5102 -11.3382 -0.836448
-20.0628 -10.9907 -1.49612
-19.7841 -11.18 -1.26103
-19.46 -11.0736 -1.7409
-18.382 -11.2211 -0.0485722
-19.5148 -11.4824 -1.35422
-19.3908 -10.9419 -0.687898
-20.7253 -11.1002 -2.49513
-20.6562 -10.4072 -2.08259
-19.3664 -11.5964 -1.10902
-19.8151 -11.6629 -1.19959
-20.3709 -10.7817 -2.13312
-18.8625 -11.656 -1.32631
-19.306 -11.0101 -0.954991
-20.1535 -10.6724 -2.61918
-19.2806 -11.714 -1.70416
-19.5858 -11.2819 -2.06252
-16.8932 -11.522 0.378538
-19.9857 -10.8631 -2.59878
-18.7738 -11.0635 -1.96453
-17.1226 -11.426 -0.331788
-18.6014 -11.535 -1.3335
-19.3964 -10.8364 -2.34692
-19.4202 -10.9091 -1.94133
-17.5454 -11.9499 -0.753836
-19.5392 -10.9671 -2.3683
-18.9987 -11.0412 -2.66994
-19.5424 -10.6889 -2.64354
-17.0209 -11.9628 -0.581138
-18.8848 -11.4679 -1.36209
-19.6131 -11.2136 -2.47201
-19.2433 -11.2896 -1.84463
-19.2797 -11.93 -2.59129
-18.4479 -11.6679 -1.88605
-19.3618 -11.1924 -1.69068
-18.9922 -11.2527 -2.4568
-16.8871 -11.2494 -0.771298
-19.6071 -10.8673 -2.7035
-17.0815 -11.4625 -0.648416
-18.4396 -11.4141 -1.92914
-18.5176 -11.4752 -2.16267
-18.4216 -10.717 -2.1966
-20.5349 -11.3516 0.1821
-20.9128 -11.2313 0.139501
-19.9531 -11.2745 -0.629576
-19.016 -10.8793 1.37844
-19.898 -11.6888 -0.682411
-20.3596 -11.1271 -1.13589
-19.5897 -11.1338 -1.0712
-20.1956 -11.3453 -0.966271
-20.3901 -11.0757 -1.37642
-20.0391 -11.3077 -0.560136
-20.3012 -10.526 -1.82816
-20.2206 -11.1281 -0.937108
-20.5175 -10.365 -1.02604
-20.8626 -10.8577 -1.85053
-20.4292 -11.1515 -1.58735
-19.8474 -11.0769 -1.75719
-19.944 -11.1727 -1.47411
-18.3665 -11.5126 -0.0121859
-19.0329 -11.3347 -0.630534
-20.3219 -10.8926 -1.91012
-19.6532 -11.4531 -1.62407
-19.9837 -11.1291 -1.05468
-18.4947 -11.5332 -0.508897
-19.5398 -11.2781 -1.16665
-18.4196 -11.2492 -0.0644783
-19.3236 -11.3897 -0.923531
-20.5539 -10.7412 -1.80273
-19.1866 -11.556 -1.39965
-19.2788 -11.6225 -1.40387
-20.5283 -11.2749 -1.79293
-18.3673 -12.0749 -0.0278814
-20.3197 -11.0435 -1.72538
-19.854 -10.9608 -1.92106
-17.1648 -11.1942 0.522597
-17.385 -11.3592 0.0121929
-18.4101 -11.741 -0.394471
-19.5902 -10.8434 -2.30502
-17.9629 -11.8275 -0.818265
-17.5283 -11.532 -0.478185
-19.7408 -10.9281 -2.76317
-18.5402 -11.4966 -1.56237
-18.987 -10.6964 -1.62947
-18.8182 -11.2866 -1.44168
-19.9661 -11.0941 -2.68092
-19.458 -11.0009 -2.33992
-19.0255 -11.4089 -1.98588
-19.7208 -11.0772 -2.52072
-18.7018 -11.5492 -1.61309
-19.1492 -11.3458 -1.7196
-19.1426 -11.3757 -2.27906
-19.4609 -10.4979 -2.2342
-16.612 -11.833 -0.758997
-17.1422 -11.0489 -0.355467
-18.9494 -11.2363 -1.74413
-16.3619 -11.9983 -0.753422
-17.0284 -11.985 -0.725824
-19.1793 -11.0378 -2.15444
-19.1063 -11.0979 -2.91203
-19.2944 -10.732 -2.86792
-19.0548 -11.1779 -2.30484
-16.0443 -11.9448 -0.161421
-18.3684 -11.1282 -2.69918
-18.6405 -11.2161 -2.9092
-20.1057 -11.2186 0.315231
-20.3159 -11.3497 0.188108
-20.9671 -11.2338 -0.0604713
-21.4461 -11.1106 -0.100312
-20.6707 -10.9736 -0.210677
-20.1704 -11.8007 -0.159386
-20.7131 -10.7227 -0.625181
-19.7523 -10.7612 -0.525725
-18.2142 -10.2197 1.65444
-19.976 -11.2318 0.186363
-20.0806 -11.0903 -1.01411
-19.4553 -11.6505 -0.210984
-19.6848 -10.9209 -0.544739
-20.9902 -11.1603 -0.164349
-20.3252 -11.078 -0.827328
-19.3162 -11.0103 -0.927516
-20.0076 -11.2134 -1.30292
-19.9333 -11.1651 -1.34768
-20.6305 -10.7212 -1.62713
-19.4509 -11.0691 -0.55274
-19.7275 -11.476 -0.883733
-20.49 -10.4684 -2.10253
-19.1507 -11.1439 -1.66119
-19.1324 -11.1326 -1.62702
-18.1569 -11.9156 0.046768
-18.4207 -11.0205 -0.371059
-18.2222 -11.7707 -0.516016
-19.8947 -11.1165 -1.28462
-18.4638 -11.3253 -0.807804
-19.8562 -10.8775 -1.6889
-17.9249 -11.394 -0.503034
-19.5137 -11.3899 -1.22839
-17.4705 -11.6142 0.122067
-17.4606 -11.5837 0.0242195
-17.6714 -11.5987 -0.373523
-19.1472 -11.3333 -2.03539
-19.4413 -11.2438 -1.98991
-19.7565 -10.8071 -2.4033
-18.4051 -11.4671 -1.90861
-19.264 -11.1931 -2.66876
-19.583 -11.0828 -2.89606
-17.2239 -10.7668 -0.982808
-18.5091 -11.4981 -1.87395
-18.3916 -11.2755 -2.82799
-16.1214 -11.9618 -0.698173
-18.5645 -11.4782 -2.69141
-18.2519 -11.0198 -2.30919
-18.5461 -10.9878 -2.37756
-18.0938 -11.6097 -2.44067
-15.807 -11.7814 -0.515498
-17.9962 -11.5407 -2.35706
-17.9892 -11.5953 -2.61116
-16.8369 -11.1101 -2.37539
-20.0592 -11.5778 0.540581
-20.3416 -10.963 0.415898
-20.909 -11.2441 0.0338385
-20.1078 -11.1257 0.196707
-19.0692 -10.9081 0.768237
-19.8293 -11.2437 -0.0884299
-20.1481 -10.9073 -0.330484
-19.4025 -11.6198 -0.00833085
-20.64 -10.951 -0.9655
-20.1794 -11.3407 -0.881871
-19.5955 -11.6627 -0.402131
-18.8997 -11.2555 -0.165205
-16.5038 -9.80614 1.5701
-19.0266 -11.1651 -0.446172
-20.252 -11.2655 -1.85892
-19.3094 -10.9663 -0.702586
-19.4165 -11.5326 -1.02498
-19.4874 -11.1699 -1.64182
-18.7152 -11.3954 -1.34881
-19.3698 -11.3027 -1.18817
-19.041 -11.5718 -1.38337
-19.1107 -11.6736 -1.07147
-19.8043 -11.2682 -1.66964
-19.7722 -10.7344 -2.72252
-19.633 -10.8288 -1.97684
-18.5682 -11.4187 -0.919563
-18.7666 -11.4527 -2.12042
-18.9174 -11.3295 -1.39134
-18.4128 -11.6568 -1.5619
-18.2121 -11.2744 -1.52701
-18.2771 -11.7125 -1.443
-17.4797 -11.5429 -1.05616
-19.2939 -10.7324 -2.18306
-19.4241 -11.0011 -2.77371
-17.1893 -10.7789 -2.13493
-15.9533 -12.2067 -0.618784
-16.9852 -10.5408 -2.81914
-16.9087 -11.0132 -2.8668
-16.474 -11.127 -2.94652
-16.104 -11.7128 -2.69309
-18.9513 -10.747 0.758179
-19.8277 -12.065 0.134523
-20.6695 -11.3738 -0.816842
-18.6884 -11.0806 0.824462
-19.9942 -10.7839 -1.55302
-17.5586 -9.68428 1.22048
-18.5151 -11.6535 0.0910043
-19.9024 -10.6449 -1.85089
-17.195 -11.5056 0.0897093
-17.9687 -11.2672 0.131975
-18.0652 -11.5989 -0.732783
-18.8319 -11.3949 -1.07464
-19.3201 -11.0072 -1.93921
-17.4018 -11.7802 -0.110058
-18.0824 -11.4639 -0.424663
-18.7139 -11.0235 -2.22119
-19.3729 -11.2453 -2.27706
-17.4531 -11.4233 -0.278434
-16.7739 -11.639 -0.423706
-18.6377 -11.3575 -2.18318
-17.1216 -11.4659 -0.755438
-18.8407 -11.3633 -2.39847
-17.2713 -10.6956 -1.53572
-19.174 -11.5082 -2.48269
-16.5975 -11.4318 -2.69354
-20.1674 -11.1674 0.866934
-20.7783 -10.953 0.149862
-21.2833 -10.9297 -0.0630797
-20.3396 -11.3195 0.294419
-20.6148 -10.8335 -1.42566
-16.5667 -9.7109 2.1147
-16.4654 -10.0492 1.52263
-19.45 -10.555 -1.72466
-16.2489 -10.2022 1.2307
-18.9275 -11.0004 -2.73083
-17.643 -11.741 -0.465575
-18.8574 -10.6619 -2.58864
-18.678 -11.5465 -2.39256
-16.633 -10.9751 -2.30836
-16.2487 -10.7074 -2.75844
-18.9546 -10.8895 1.02274
-19.7589 -11.2965 0.588716
-20.2831 -11.1095 -1.01023
-20.6818 -10.7897 -1.23667
-19.8174 -10.8577 -1.67348
-17.2294 -11.7624 -0.0324868
-19.7995 -10.9723 -1.89161
-19.4581 -11.689 -1.2069
-18.6846 -11.7137 -0.266469
-16.7857 -11.9527 0.298846
-17.623 -11.8293 -0.87881
-17.2096 -11.9037 -0.310081
-16.5816 -11.3593 -1.3087
-17.1313 -11.3068 -1.85212
-18.8174 -10.7411 0.33043
-19.7778 -11.3774 -0.966683
-20.1087 -10.9165 -1.35385
-20.1488 -11.3751 -1.31003
-17.7825 -11.5909 -0.289706
-18.089 -11.7025 -0.659495
-18.1186 -11.2967 -0.599965
-17.4285 -11.0485 -2.52641
-19.9119 -11.0001 -1.38362
-18.166 -11.3186 -0.775326
-18.6422 -11.0986 0.735004
-17.8212 -11.5013 0.103538
-19.0199 -10.9035 -0.568563
-17.5507 -10.7698 -2.67269
-17.6954 -11.2272 -1.68571
-20.1213 -10.6224 -2.52236
-19.7595 -11.1597 -2.73969
-19.2247 -11.4431 -2.63684
-19.7223 -10.8975 -2.10361
-19.4927 -10.8225 -2.43891
-19.0547 -11.5562 -1.68753
-19.6608 -10.9696 -1.98112
-19.4705 -11.588 -2.1084
-20.1687 -10.8992 -1.77649
-19.6139 -10.729 -1.66781
-18.6369 -11.4998 -1.08882
-19.1061 -11.3353 -1.38343
-19.2291 -11.6336 -1.35134
-19.8248 -11.0717 -1.26616
-20.6545 -10.7473 -1.34811
-20.4427 -10.775 -1.75775
-19.9978 -11.0009 -2.3281
-19.7463 -11.2366 -1.43931
-19.964 -10.6606 -1.40147
-18.9253 -11.6006 -1.20597
-19.1911 -11.7729 -1.21851
-19.2391 -11.0619 -1.42134
-19.7856 -11.3316 -1.42852
-19.9224 -11.046 -1.18805
-20.2392 -11.1712 -1.79347
-17.4733 -11.0396 -0.39595
-20.1566 -11.1262 -1.01354
-16.4357 -11.6165 -0.6016
-17.6899 -11.7727 -0.561542
-20.3337 -11.2239 -1.43436
-20.0698 -10.9142 -0.684219
-19.4177 -11.0026 -0.733555
-20.1249 -11.3038 -1.09737
-20.177 -10.9175 -1.45606
-19.969 -11.3179 -1.10184
-20.4036 -10.8087 -0.925138
-19.6961 -11.2654 -0.98333
-20.3921 -10.6663 -0.626024
-20.5156 -11.3501 -0.621969
-16.4091 -11.5707 -0.359069
-21.0766 -10.9001 -0.974928
-19.7209 -11.4079 -1.18635
-17.0834 -11.3099 -0.665011
-18.9619 -11.6564 -0.25439
-18.8139 -11.4691 0.0868928
-20.0269 -10.9328 -0.321754
-20.2993 -10.777 -0.276004
-20.1284 -11.1086 -0.0770249
-20.0171 -11.1724 -0.00472157
-20.1253 -11.2127 -0.324942
-20.0331 -11.4949 -0.321043
-19.9613 -10.9104 -0.759654
-20.2203 -11.3516 -0.0542122
-20.6967 -10.8119 -0.0253379
-20.504 -11.4189 0.474318
-19.3444 -10.9993 0.417464
-19.8639 -11.4454 0.441672
-20.2595 -11.0484 0.101714
-20.6261 -11.3138 -0.0287416
-17.8249 -11.4569 0.540172
-20.4701 -10.6137 0.0639611
-19.1202 -11.0292 0.246514
-20.5693 -11.2866 -0.116679
-19.8776 -11.5615 0.560891
-16.3848 -9.9537 1.1331
-18.7221 -11.4679 -3.12176
-16.3076 -11.0958 -2.7549
-19.8539 -10.5622 -2.74879
-18.7269 -11.0461 -2.33209
-18.5392 -11.4503 -1.79411
-19.9833 -11.2962 -2.24394
-18.8228 -11.3584 -2.08356
-19.0388 -11.4867 -1.23502
-20.2243 -11.3735 -1.39324
-20.0697 -11.1934 -1.45121
-19.7317 -10.8387 -1.29478
-19.5955 -11.1494 -1.11559
-20.1061 -11.0832 -1.46494
-19.7389 -11.7853 -1.13176
-17.0661 -11.3394 -0.540726
-16.8066 -11.4107 -0.508795
-17.1226 -11.4943 -0.488328
-20.3247 -11.1288 -0.155717
-19.6145 -11.063 -0.197343
-20.8582 -11.1318 -0.083918
-18.3715 -11.4695 0.191138
-16.2504 -11.9164 0.264051
-20.6033 -11.1246 0.248457
-18.9479 -10.8678 0.266836
-20.0037 -11.4601 0.574125
-20.5628 -11.0048 0.418299
-20.5286 -11.2573 0.188969
-21.0518 -11.1847 0.459183
-20.4898 -11.002 1.17321
-17.7521 -9.83903 1.59337
-16.6459 -9.55234 1.87113
-16.2938 -11.5409 -2.1639
-18.4168 -11.147 -2.59085
-19.681 -11.3094 -2.77145
-16.9791 -11.0874 -2.55049
-20.2851 -10.7358 -2.11738
-19.2897 -11.0311 -1.75479
-18.5878 -11.0923 -1.86589
-18.0233 -11.1341 -1.77776
-18.683 -11.5389 -1.45218
-16.7327 -11.462 -0.792446
-20.234 -10.7182 -1.58575
-17.5343 -11.3223 -0.927557
-19.2158 -11.1012 -1.14414
-16.9573 -12.0223 -0.561
-19.6304 -11.4505 -1.19905
-19.0161 -11.6788 -0.509122
-19.2562 -11.4333 -0.827636
-17.2856 -11.486 0.103171
-17.4492 -11.6731 -0.227815
-17.5032 -11.9207 -0.13885
-20.3067 -11.3495 0.441927
-20.3846 -11.0066 -0.35964
-20.0206 -11.0294 0.0753794
-16.7495 -11.3678 0.119993
-20.7234 -11.3495 0.733567
-19.0319 -11.0122 1.08233
-17.5104 -9.95105 1.65362
-17.9708 -11.6174 -2.37633
-17.784 -11.3448 -1.17662
-18.989 -11.5456 -1.67566
-20.7343 -10.9808 -1.38084
-19.3277 -11.0998 -1.6361
-19.196 -11.05 -1.00872
-17.5996 -11.6953 -1.10561
-19.5489 -11.1468 -1.16587
-19.6644 -11.1454 -1.76757
-19.0985 -11.4405 -1.3876
-17.2855 -11.7173 0.102188
-17.1087 -12.2488 -0.173551
-19.7615 -11.3403 -0.187986
-19.9263 -11.4035 0.0551695
-19.4581 -11.5233 0.0202072
-19.3304 -10.8855 0.0146231
-19.4402 -11.9227 -0.177132
-19.5497 -11.9275 0.554695
-20.0657 -11.4177 0.799446
-20.3794 -11.6608 0.582105
-20.4321 -11.0319 0.463503
-18.7844 -10.8985 1.03838
-18.2126 -9.89722 1.56145
-19.3043 -11.2973 -2.48282
-16.4 -11.8133 -2.48472
-19.1955 -11.1634 -1.74237
-18.7479 -11.4134 -1.51556
-19.293 -11.1817 -1.19814
-17.8576 -11.498 -1.08484
-18.2314 -11.4509 -0.978274
-17.3229 -11.3947 0.287278
-20.457 -11.5328 -0.445148
-17.7344 -12.0886 -0.0202597
-17.9003 -11.989 -0.136487
-16.5902 -11.9056 0.474271
-19.1123 -10.9391 -0.00405422
-19.0383 -10.7689 0.381587
-20.1807 -11.5611 0.0302113
-16.8008 -10.3701 1.36169
-17.3646 -9.91046 1.16655
-19.4277 -11.1757 -2.08511
-18.6772 -11.4329 -2.08212
-17.5025 -11.1416 -1.46475
-19.4818 -11.3773 -1.12867
-17.7123 -11.6137 -1.23868
-19.4642 -11.4892 -0.482043
-19.184 -11.7858 0.170092
-18.7472 -10.9742 1.25344
-18.9331 -10.39 0.0478785
-17.4316 -11.6489 0.14715
-20.057 -11.5221 0.0222291
-18.5238 -11.2509 -1.19366
-19.5027 -11.0758 -1.03742
-16.913 -11.8365 0.36126
-18.9558 -10.7906 0.444122
-19.5119 -11.0226 1.16887
-19.6893 -11.1925 -1.21073
-17.0873 -11.5457 -0.531828
-18.8935 -10.6822 0.241877
-18.8302 -11.3022 -0.130513
-16.4732 -11.9158 -1.46884
-17.2585 -11.9519 -1.17695
-18.5722 -11.4918 -0.225464
-17.0485 -9.97178 1.15841
-18.0912 -11.2339 -1.42345
-19.613 -11.3802 -0.433908
-19.8547 -10.954 -1.80408
-19.6395 -10.912 -1.22346
-19.2205 -11.5179 -1.67697
-20.0279 -11.1866 -1.33671
-20.0492 -10.9743 -0.804736
-21.0983 -10.5553 -0.696574
-20.1598 -11.148 -1.08919
-19.5777 -11.3401 -0.687749
-18.9678 -11.3567 -0.865129
-19.5783 -11.4937 -1.4009
-18.6269 -10.5604 -0.714556
-19.6051 -11.3594 -0.684116
-19.7106 -11.0618 -0.451312
-20.4323 -11.3375 -0.127248
-20.081 -11.5046 -0.0413955
-19.6514 -11.441 -0.325956
-19.8036 -11.125 -0.144535
-20.9932 -10.9634 0.663686
-20.2917 -11.2816 -0.180677
-18.6259 -11.4222 -0.150768
-18.4856 -11.3814 -0.651222
-17.5271 -11.7828 -1.32792
-21.1775 -10.8085 0.420995
-19.347 -11.4452 -0.176735
-20.5602 -11.0135 0.624361
-19.9601 -11.4465 0.32981
-20.6593 -11.44 0.506896
-16.9977 -11.6499 -0.661942
-17.1909 -11.8903 -0.0248913
-16.2451 -12.3754 -1.13709
-16.6834 -11.5488 0.0567437
-16.6049 -11.4233 -0.472733
-17.1982 -11.6647 -0.292926
-15.9173 -11.8962 -0.721512
-18.2736 -11.2617 0.941159
-18.6618 -11.2094 -3.00103
-19.3208 -10.922 -2.11971
-20.0929 -10.6562 -1.72768
-18.2733 -11.0144 -2.68078
-20.5262 -11.1664 -1.6738
-21.1263 -10.5918 -0.457153
-18.8403 -11.4328 -1.21014
-19.0074 -11.7441 -1.47698
-20.4175 -10.8734 -0.918662
-20.498 -10.8186 -0.228099
-19.5831 -11.3 -0.785432
-16.9879 -12.0335 -1.39976
-20.2921 -11.3926 -0.463604
-18.4862 -11.0415 -0.441044
-20.294 -10.8768 -0.14062
-16.9043 -11.4978 -1.09569
-17.7621 -11.7137 -0.6412
-17.2752 -11.4337 -0.599197
-16.93 -11.6092 -0.598765
-17.0521 -12.0837 -0.520415
-19.7814 -11.2428 0.219201
-17.2132 -11.78 -0.257624
-20.7189 -11.2649 0.687134
-19.789 -11.5226 0.631715
-16.4745 -12.0091 -1.22932
-19.9021 -11.2807 0.551071
-17.5214 -11.8345 0.00462756
-16.8789 -11.3713 -0.58962
-17.8816 -11.4352 -0.517761
-17.0905 -11.7078 -0.481999
-20.1264 -11.7185 0.690992
-15.7174 -12.1111 -0.731191
-17.5726 -11.7318 0.110891
-19.9949 -11.2386 1.64163
-16.6411 -11.7565 -0.126978
-19.778 -11.7008 1.55382
-16.3786 -11.8763 0.485716
-18.5885 -10.8596 -2.75341
-19.2581 -11.3405 -2.38536
-19.421 -11.5097 -2.43015
-18.6384 -11.3552 -2.21957
-18.606 -11.0761 -1.54897
-20.5993 -11.0105 -1.43467
-20.3908 -11.1301 -1.37487
-17.2761 -11.2031 -1.97876
-19.0344 -11.3662 -1.88531
-18.8786 -11.7556 -1.07774
-20.1863 -11.159 -0.753986
-21.2043 -11.2165 -0.0598007
-19.7672 -11.2679 -0.430829
-20.4808 -11.1284 0.399291
-17.3558 -11.3617 -1.31267
-19.0987 -11.9067 -0.46001
-19.4172 -10.5871 -0.473147
-16.7536 -11.8166 -0.830495
-17.0236 -11.9389 -0.788844
-17.6777 -11.4559 -0.106972
-18.163 -11.2926 0.203417
-16.8696 -11.6775 0.192903
-18.407 -11.5145 0.846234
-16.4494 -11.9759 -0.0403648
-17.5889 -10.409 1.21646
-17.992 -9.98195 0.533882
-17.3554 -9.92458 1.80077
-16.441 -10.6444 2.15179
-18.8748 -11.0568 -2.61451
-19.5823 -11.0939 -2.1872
-19.0313 -11.6512 -2.42272
-19.4588 -11.2961 -1.91783
-18.636 -11.3816 -2.14007
-18.8765 -10.4532 -0.904985
-21.0432 -11.1218 -0.419186
-17.5698 -11.7348 -0.706802
-20.1353 -11.7788 0.110023
-20.9298 -11.6851 0.512042
-20.7098 -11.0342 0.446476
-17.0511 -11.476 -0.167818
-16.8439 -11.64 -0.568413
-18.9453 -12.0444 -2.70626
-18.1757 -11.3468 -2.72661
-18.1515 -11.194 -2.63999
-18.9531 -11.2178 -1.36592
-20.8882 -10.5265 -0.0165025
-16.1653 -11.4636 -2.5691
-17.8696 -11.5543 -1.37853
-19.8024 -11.8883 0.474163
-19.8835 -11.4187 0.681027
-20.1571 -11.1564 0.68323
-17.801 -11.3756 0.632388
-20.2349 -10.6637 -2.52518
-17.5915 -10.9239 -2.35399
-17.1441 -11.8341 -1.21481
-16.6795 -11.7906 -1.18301
-16.9483 -11.4584 -1.01995
-20.5049 -11.3029 0.675689
-17.1465 -11.6734 0.0156942
-17.0465 -11.3451 -2.10197
-18.8815 -10.9037 -1.30834
-19.2346 -11.5049 0.173224
-19.9472 -10.8998 1.20226
-19.2629 -10.7085 -0.776336
-17.3274 -11.4813 -0.33894
-18.1806 -11.4364 0.338887
-17.7063 -11.3453 -0.64844
-17.3999 -11.1152 -0.554414
-17.7162 -12.0734 -0.0435393
-18.8534 -11.1185 1.37063
-19.3139 -11.3121 0.118359
-19.3052 -11.3923 -0.700514
-18.9701 -10.8311 0.0857629
-18.2507 -11.4207 -0.838032
-18.3376 -11.0482 0.670614
-17.7401 -11.387 -1.12666
-18.7188 -10.9437 1.03576
-17.0297 -11.2507 -0.508258
-17.6011 -11.766 -0.177089
-19.6506 -10.9818 -1.66978
-18.9959 -10.9698 -1.06115
-20.3396 -11.1435 -0.330656
-19.2307 -11.5609 -1.59471
-19.5777 -11.4071 -0.298605
-16.2558 -11.4198 -2.84563
-17.3669 -11.7433 -0.322969
-16.7957 -11.5484 -0.341292
-17.4958 -11.8394 0.0572769
-16.8447 -11.6936 0.075186
-15.8882 -12.2702 -0.865778
-17.6639 -10.01 1.17799
-20.1941 -10.9559 -1.9627
-19.858 -11.4597 -1.3767
-20.7424 -11.1325 0.195374
-19.4893 -11.4735 -1.23575
-20.5093 -11.5266 0.277366
-20.852 -11.1254 0.297827
-18.1573 -11.2679 -1.17067
-17.718 -11.3659 -0.579846
-19.3689 -10.6427 0.907517
-17.3577 -11.7575 -0.644218
-17.5922 -11.7525 -0.797497
-17.974 -11.5051 -0.176605
-18.8759 -11.5079 1.28396
-17.3959 -11.6236 -0.438073
-17.038 -11.4104 -0.326253
-16.5268 -11.1375 -0.0793195
-21.0107 -11.2013 0.681982
-18.1111 -10.9464 -2.67802
-19.0401 -11.4908 -1.36832
-19.6762 -11.3981 -0.183783
-19.8087 -11.1069 0.56858
-18.8249 -11.7148 -0.151859
-17.4805 -11.1779 -1.27517
-17.2278 -11.1659 -1.06289
-17.0429 -11.1914 -1.1665
-18.5604 -10.9615 0.342361
-17.2906 -11.4457 -0.548949
-17.2453 -11.7773 -0.0802766
-16.8145 -11.3887 0.103122
-16.4192 -12.1284 -1.29723
-20.7946 -11.0935 -1.30215
-18.849 -11.2011 -1.75526
-19.0536 -11.3862 -2.03915
-19.2859 -10.5268 -0.94664
-19.2169 -11.3963 -0.167667
-17.4869 -10.9486 -2.0309
-18.0168 -10.9705 -0.635153
-16.898 -11.75 -0.852239
-19.7867 -11.1903 -1.20073
-17.2441 -11.4637 -2.33889
-19.022 -11.1939 0.191055
-16.6688 -11.7728 0.438114
-18.7259 -11.4666 -2.61734
-18.8081 -11.067 -2.46794
-18.2539 -11.2914 -1.84119
-19.1394 -11.0121 0.153803
-16.4766 -11.9327 -1.26431
-16.8162 -11.8569 -0.110586
-18.0823 -11.0316 -2.2885
-17.0362 -12.0128 -1.32421
-16.9834 -10.9417 -1.84711
-17.7524 -11.3983 -1.38457
-19.1904 -11.2597 -1.2678
-18.5974 -11.3703 -0.402481
-18.4847 -10.508 -0.627196
-20.3897 -10.4809 -2.07265
-20.1711 -10.7142 -2.25506
-20.1351 -10.5987 -2.13577
-19.3497 -11.1574 -1.24063
-18.2451 -11.8652 -0.295323
-18.2315 -11.1452 -0.3284
-17.5604 -11.1665 0.0287602
-17.1772 -11.3366 -1.46212
-17.5004 -11.6704 0.171057
-16.1646 -11.6159 -2.25236
-20.2704 -11.5173 -1.36353
-19.7779 -11.1298 -2.54935
-19.9147 -11.4762 0.170476
-18.9471 -11.1911 -2.49423
-19.3106 -11.3992 -1.78805
-19.0977 -11.1117 -1.94122
-19.2519 -11.3595 -0.0086109
-18.8372 -11.2346 -1.23469
-18.815 -11.035 -1.30166
-18.8717 -11.471 -2.91865
-17.51 -11.121 -2.68518
-18.374 -10.8443 -1.34758
-17.8461 -11.6779 -2.63572
-18.6595 -11.7416 -0.509692
-17.3931 -11.284 -1.48171
-18.1001 -11.5983 0.331232
-16.8989 -11.4181 -1.66359
-16.7275 -11.4428 -1.42268
-17.0462 -11.4467 -2.47108
-17.1787 -11.8594 0.0455364
-16.7163 -12.0683 -1.79578
-17.7001 -10.1611 1.85701
-17.7155 -9.4787 1.12001
-16.7542 -11.8156 -1.78466
-16.1021 -11.7648 -0.962008
-15.9343 -12.6255 -0.715491
-14.246 -12.6368 -2.30557
-20.1625 -11.1681 -1.92778
-19.6121 -10.5493 -2.78804
-20.4143 -11.398 -0.639703
-20.408 -10.9285 0.31754
-19.7048 -11.4367 -0.360619
-19.3786 -11.2272 -1.1118
-19.0064 -11.5693 -2.80621
-19.527 -11.5916 -0.779826
-20.032 -11.444 0.718765
-19.3899 -11.2682 -1.39725
-19.343 -11.5689 -1.4162
-19.1612 -11.323 -0.746845
-18.3511 -11.7144 -1.54423
-18.074 -11.7431 0.055258
-17.4542 -10.8729 -2.26174
-17.3409 -11.9061 -1.37508
-16.3829 -12.2249 -1.16173
-17.1232 -12.0159 -0.434632
-16.6062 -11.1529 -1.85296
-16.4504 -11.5791 -1.56932
-16.2228 -12.0523 -0.669685
-16.3549 -11.5855 -1.1058
-16.4821 -11.9474 -0.488607
-16.4923 -12.0282 -0.142989
-20.5911 -10.9056 -0.548632
-20.7195 -10.7294 -0.294372
-19.7923 -10.993 -1.5341
-20.3586 -11.0993 0.172536
-19.5629 -10.8014 -1.33558
-20.1144 -11.2811 -1.0461
-18.9031 -11.2168 -2.77417
-19.0443 -11.3652 -2.2591
-19.5881 -11.8688 -1.94204
-19.1731 -11.4961 -0.948895
-19.9335 -11.588 0.541838
-19.3124 -11.6716 -0.149003
-18.5363 -11.5711 -0.392354
-17.3006 -11.4664 -0.799785
-17.3659 -12.6354 -1.70152
-17.694 -11.5729 -0.767946
-17.226 -11.3246 -0.239913
-17.3811 -11.9993 0.0106321
-16.3035 -11.4343 -1.28013
-16.3897 -12.0825 -0.974506
-20.5317 -10.5257 -0.878746
-19.999 -10.8553 -1.52772
-19.1096 -10.9559 -1.10313
-19.8249 -11.6671 -0.281874
-18.6571 -11.1174 -1.33886
-18.1333 -11.3983 -1.66596
-17.146 -11.6811 -1.02563
-16.774 -12.0133 -0.724407
-16.1927 -12.0826 -1.00291
-16.632 -12.0251 -1.23703
-16.5787 -12.0897 0.264617
-15.7155 -11.6565 -2.30005
-15.9411 -11.8585 -0.67015
-18.9298 -10.8926 -2.26127
-19.1863 -11.706 -1.42917
-17.2222 -10.7643 -1.34215
-16.6116 -10.0053 2.38077
-19.7438 -10.4049 -1.66328
-20.5418 -10.8669 -2.20503
-17.8077 -11.3081 -2.83896
-16.3345 -11.3519 -2.15345
-17.0079 -11.5998 -1.36734
-16.8 -11.4946 0.251759
-18.079 -11.6138 -1.24099
-18.3532 -11.6635 -0.969969
-20.7141 -11.4114 -0.589628
-20.5273 -11.1749 -2.20317
-20.0975 -10.9133 -0.58625
-19.4498 -11.0548 -1.6164
-18.9234 -11.2021 -2.54264
-19.2325 -11.3391 -1.29516
-18.7209 -10.4597 0.566811
-18.9227 -10.7605 0.537
-18.6731 -11.2842 -2.21597
-19.2262 -11.0894 -2.51075
-17.5831 -11.2861 -0.914234
-17.5927 -10.0521 1.73888
-17.5468 -9.73001 1.28273
-17.5522 -11.1696 -2.32206
-16.7412 -11.023 -0.485166
-20.7828 -10.6767 -0.0527947
-20.3251 -10.4758 -2.47168
-20.243 -10.7818 -2.48254
-20.5062 -10.747 -2.06875
-20.1312 -10.6765 -2.56581
-20.1337 -11.2073 -0.901157
-20.0827 -11.0186 -1.42487
-20.0726 -10.7752 -1.34859
-19.8834 -11.1249 -1.47097
-20.0965 -10.8603 -2.57812
-19.5174 -11.1349 -0.744816
-19.7199 -11.0167 -1.98187
-19.645 -11.5661 -1.56347
-19.0774 -11.3215 -0.425437
-19.3175 -11.4491 -2.17285
-19.7192 -10.9085 -2.2539
-19.4416 -11.0493 -1.08188
-18.6857 -11.0761 -0.0384355
-19.5233 -11.4455 -1.46526
-19.0954 -10.6789 -1.78068
-19.2033 -10.6531 -2.11491
-18.6695 -11.7271 -2.5681
-18.1589 -11.5232 -0.60011
-18.3694 -11.6358 -0.985179
-18.2688 -11.5345 -1.09912
-17.2142 -11.7311 -0.923579
-17.4492 -11.7862 -0.351303
-17.5628 -11.3341 -2.16723
-17.5928 -11.372 -0.683791
-17.4926 -11.3502 -0.815871
-17.3913 -11.5508 -1.03993
-15.6234 -12.2777 -2.10145
-16.1748 -12.3968 -1.61034
-21.1507 -11.4175 0.253881
-20.7151 -11.2407 0.96495
-21.0559 -10.7345 -1.42656
-20.3237 -11.1829 -0.233662
-19.8707 -10.4256 -2.2401
-19.9065 -11.3477 -2.52704
-19.8411 -10.4899 -2.78422
-19.7194 -11.4201 -0.235992
-19.9183 -10.8193 -2.38766
-19.1517 -11.5492 -1.12201
-19.2806 -10.9272 0.824525
-19.2442 -11.401 -1.98478
-18.9029 -10.7394 1.12147
-19.1134 -10.7896 -1.85241
-18.8474 -11.081 -1.50179
-18.4799 -11.1536 -0.688634
-18.4633 -11.2446 -2.61212
-18.5588 -11.5683 -3.02734
-18.0268 -11.5964 -0.540812
-18.1705 -11.1786 -1.00824
-18.2055 -11.1827 -1.01915
-17.4168 -9.79045 1.43621
-17.3381 -11.4933 0.345905
-17.378 -11.2381 -1.8078
-17.4266 -11.4554 -2.07968
-17.268 -11.1561 -2.23984
-16.4529 -11.5203 -1.51302
-16.0135 -11.2338 -2.07597
-20.2424 -11.0002 -0.253862
-20.9849 -10.9026 -0.643878
-20.4933 -11.205 0.163699
-20.9379 -10.8244 -2.3313
-20.4777 -10.4421 -2.20941
-19.839 -10.9694 -0.654662
-20.1861 -10.8069 -1.10936
-19.7117 -11.4043 0.240334
-19.2253 -11.578 -1.08732
-18.8835 -10.9048 0.194293
-19.8826 -11.1498 -1.89627
-19.0814 -11.5202 -1.69427
-19.7078 -11.1278 -2.75787
-18.8989 -10.979 -0.709159
-18.1962 -10.7509 1.56384
-18.0944 -11.0375 -0.836628
-17.4811 -11.4376 -0.572128
-17.1594 -11.421 -0.694882
-17.9066 -11.8174 -1.29536
-17.9174 -11.273 -1.33183
-17.1632 -11.8636 -0.65927
-17.3414 -11.1249 -2.38676
-16.5835 -11.9617 0.447961
-16.6895 -11.7986 -0.84065
-16.2327 -11.9498 -0.39423
-15.8251 -12.086 -1.05304
-20.593 -11.077 -0.448878
-20.2837 -10.9322 -1.92027
-19.8286 -11.0049 -0.761836
-20.0645 -11.1564 -0.870828
-19.7918 -11.0687 -1.15452
-19.5644 -10.7548 -2.2164
-19.8634 -11.7302 -0.789115
-19.4529 -10.8599 -1.25222
-18.9942 -11.414 -1.57975
-18.887 -11.2463 -2.50093
-17.7207 -11.5785 0.368026
-17.359 -11.7427 -0.424216
-17.5733 -11.6883 -0.146686
-16.9856 -11.5132 0.545262
-16.4987 -12.3091 -0.281153
-16.5644 -11.2087 -2.87914
-20.8178 -11.2629 -0.0738453
-20.3832 -10.8923 -0.654222
-19.7099 -11.6358 0.155118
-19.9857 -10.9708 -1.18658
-19.2581 -10.6809 -2.75902
-18.9125 -11.2656 -1.12834
-18.3755 -11.1073 -0.414975
-18.3728 -11.1167 -1.56629
-17.9843 -9.70985 1.1059
-17.262 -11.3933 -0.719284
-16.4491 -11.585 -1.8995
-20.9742 -10.6634 -1.8459
-20.4135 -11.1052 -1.77196
-18.31 -10.8874 -1.82274
-17.1843 -11.2024 -0.747238
-19.8604 -11.7021 0.254725
-17.3506 -11.8797 -1.02968
-17.661 -11.449 -0.246343
-17.749 -11.6551 -2.16328
-16.8098 -11.5865 -1.81554
-19.1182 -11.1305 1.29475
-16.5765 -11.1745 -1.11995
-17.4712 -11.2686 -2.61658
-16.6282 -12.026 -1.59401
-16.006 -11.4505 -2.49348
-16.295 -11.8337 -2.33437
-17.6252 -11.0179 -1.246
-17.7621 -11.3763 -0.492027
-20.5319 -11.0869 0.565327
-20.6466 -11.2868 0.440374
-20.5147 -10.4823 -0.600644
-20.5527 -11.3295 -0.0574909
-20.0749 -11.8577 -0.416202
-19.4658 -11.5008 -0.38931
-20.4306 -10.4153 -2.48103
-18.9292 -11.4329 0.680615
-19.5821 -11.4611 -0.960325
-19.0422 -11.2404 -0.773478
-17.7587 -10.6989 0.26672
-19.3301 -11.2347 -2.23434
-17.8642 -10.1891 1.297
-19.1389 -11.0103 -1.50505
-20.0768 -11.0686 -1.99486
-19.2239 -11.5835 -1.99896
-19.5549 -11.3528 -1.52199
-19.1224 -11.6266 -1.87067
-19.8502 -11.2263 -2.34259
-19.3231 -11.1166 -1.45206
-19.0889 -10.3346 -2.23571
-17.6004 -11.7362 -0.128707
-19.0039 -11.1481 -1.48289
-19.4944 -11.1349 -2.77858
-18.8301 -11.1138 -2.52868
-18.6678 -11.1956 -1.51729
-19.14 -10.8437 -2.39527
-18.7781 -11.2621 -2.51011
-17.1061 -11.7352 0.098556
-18.9307 -10.5769 -3.00291
-18.8656 -11.2604 -2.14422
-18.5961 -10.8726 -2.83775
-19.1299 -11.2998 -2.64118
-15.9073 -10.0363 1.70466
-17.3244 -11.6712 -0.759067
-18.5673 -10.9182 -2.88612
-16.7063 -11.4785 -0.21992
-18.3841 -11.179 -3.03594
-18.1035 -10.9823 -3.7429
-17.3025 -11.0116 -2.3144
-15.9922 -11.7635 -0.883759
-16.953 -11.3121 -2.22355
-16.6216 -11.2817 -1.55031
-20.4412 -10.8538 0.304854
-20.5585 -11.0795 -0.439203
-19.9166 -11.572 -0.415131
-20.5154 -11.304 -0.207922
-20.4252 -10.9879 -1.08989
-18.683 -10.9428 1.54354
-18.9669 -10.6474 1.20851
-19.5095 -11.0448 -1.14856
-19.7832 -11.2806 -0.172673
-20.2235 -10.519 -1.65734
-20.7877 -10.7326 -1.64232
-19.0528 -10.9659 0.348384
-19.5085 -11.3026 -1.60796
-20.2625 -10.7755 -2.31964
-19.8581 -10.9461 -1.74738
-18.3725 -11.5748 0.40138
-19.937 -10.988 -2.2928
-19.4729 -11.4067 -0.856167
-18.6003 -11.3333 -0.598508
-18.648 -11.2331 -0.191637
-19.8782 -10.8461 -2.49411
-19.1784 -11.3658 -1.26473
-19.1577 -10.9481 -2.39676
-17.8346 -11.6485 0.726674
-19.5494 -11.0101 -2.64426
-18.4873 -11.1997 -1.62934
-18.2649 -11.2313 -0.751381
-18.9859 -11.2483 -2.76001
-19.3396 -10.8394 -2.58631
-19.5193 -11.2087 -2.45556
-16.9843 -11.6757 0.159419
-18.5406 -11.0223 -2.72074
-18.8399 -11.2517 -2.72623
-17.6861 -11.4452 -0.615656
-17.5082 -11.4283 -1.47706
-17.2295 -11.3468 -2.50815
-15.8304 -12.3618 -0.351419
-16.6078 -11.7963 -2.22866
-21.042 -10.9455 0.106287
-21.1395 -11.1155 -0.0239036
-20.9745 -11.0631 0.0850788
-19.7797 -11.1268 0.0782047
-20.81 -11.0979 -0.0700489
-20.2545 -11.0123 -1.06741
-19.5816 -11.5693 -0.0722445
-20.8431 -11.4084 -0.798547
-19.7049 -11.0393 -0.958675
-19.996 -10.9711 -2.51003
-18.299 -11.1512 0.212628
-19.3556 -11.4022 -1.59166
-18.8881 -10.9485 -1.34394
-18.1607 -11.603 -0.0994249
-17.5311 -11.2261 0.102394
-18.0868 -11.6285 -0.822022
-17.5519 -11.6734 -0.870263
-16.7186 -9.99139 0.841889
-17.6672 -11.9668 -1.70398
-16.697 -11.3699 -0.100315
-17.3432 -11.8244 -1.39111
-16.8637 -11.6612 -0.517603
-18.0979 -11.7095 -2.3464
-17.2799 -11.1004 -2.11883
-16.4318 -12.241 -1.7164
-15.82 -11.0942 -2.30918
-19.8943 -11.807 0.683954
-20.2339 -11.0563 -0.158225
-19.6238 -11.6243 1.03652
-20.0175 -11.1706 -0.34962
-20.1894 -11.0358 -0.800266
-20.4755 -11.4404 -1.20783
-20.3266 -11.342 -0.398323
-19.9694 -11.0116 -0.986104
-19.8549 -10.8982 -0.456761
-18.9068 -10.4961 0.303046
-20.3791 -10.8647 -2.30971
-19.5676 -11.3764 -1.41623
-19.7678 -11.6077 -1.20904
-19.4424 -10.9428 -2.12648
-17.4529 -9.96496 1.53959
-18.6236 -11.242 -0.795389
-17.2327 -9.77271 1.56126
-16.4231 -10.3143 2.23959
-18.8471 -11.5993 -2.30531
-16.6182 -11.3499 0.391042
-18.3905 -11.288 -2.16978
-16.3177 -10.8956 -2.40205
-20.2519 -11.22 0.766114
-20.8374 -11.3854 0.809896
-20.3036 -11.1292 -0.830261
-19.4366 -10.9474 0.908084
-19.8855 -11.3428 -0.78207
-20.1154 -11.0368 -0.258021
-19.1264 -11.1072 -0.232703
-19.7021 -11.0424 -0.650202
-19.7551 -11.0356 -1.40113
-19.9398 -11.0046 -1.12806
-20.3392 -11.4237 -2.62764
-19.1386 -11.4623 -1.19192
-18.9569 -11.3315 -0.435844
-17.7496 -10.0468 1.33745
-19.5763 -11.3613 -1.98256
-18.0688 -11.393 -0.657807
-19.1096 -11.3275 -1.38
-17.5826 -11.4567 -0.0592207
-18.3578 -11.531 -0.644641
-17.7714 -11.5908 -0.0569593
-18.9262 -11.1264 -2.57525
-17.9079 -12.0923 -0.730832
-16.7753 -11.2808 -0.170734
-17.2643 -11.2861 -1.47863
-16.2211 -11.6377 -0.556259
-16.6548 -11.7086 -0.712632
-16.3241 -11.593 -1.16891
-16.5014 -11.4159 -2.26504
-16.3059 -11.2097 -2.27627
-16.2091 -11.1457 -2.2919
-14.9836 -11.9764 -2.21316
-19.2019 -11.2482 -1.28062
-17.3839 -9.45033 1.45369
-18.5245 -11.1653 -2.87623
-17.4039 -11.4402 -0.281069
-18.8672 -11.3523 -2.66854
-15.3787 -11.7798 -2.18968
-20.0169 -11.1842 -0.896647
-19.8932 -11.4243 -2.0689
-19.8404 -10.9092 -1.79132
-18.5492 -11.7223 -0.664641
-17.0052 -10.1646 1.13524
-18.1491 -11.6809 -0.88301
-18.578 -11.2601 -2.81756
-18.058 -10.6661 -2.01478
-19.9483 -11.3632 -0.350478
-19.4323 -10.4925 0.461924
-20.1597 -10.8589 -1.74345
-18.4657 -11.0402 0.449093
-18.3581 -11.4811 -1.07655
-18.2062 -11.14 -1.02973
-19.3316 -11.0024 0.213924
-20.9691 -10.8993 0.513666
-20.1625 -11.6668 0.369189
-20.554 -11.1026 -0.798258
-20.1997 -10.8753 -0.271459
-17.7789 -9.77291 0.999532
-21.3339 -10.739 -0.651181
-17.8268 -9.70816 1.86001
-19.8551 -11.3908 -0.269498
-21.0316 -11.1263 -0.70995
-20.4359 -11.0451 -0.852672
-20.1566 -11.1228 -0.769625
-20.0634 -11.3226 -0.894226
-20.522 -11.0761 -0.748165
-20.2711 -10.9286 -0.924544
-19.0347 -11.2092 0.121507
-18.8752 -11.2822 -0.689913
-20.1218 -10.6337 -1.25187
-20.567 -10.2213 -1.29714
-20.4552 -10.6325 -2.11446
-19.4307 -11.2989 -1.09707
-20.8009 -10.9315 -1.25773
-19.7833 -11.4235 -1.36622
-19.4857 -11.0209 -1.18128
-19.3317 -11.2361 -0.826595
-20.6147 -11.0795 -1.46741
-20.2061 -10.8332 -1.78097
-20.4024 -10.8232 -2.19089
-19.0147 -11.4691 -1.24178
-19.6014 -11.0446 -1.38795
-20.0231 -10.5432 -1.91982
-20.6268 -10.4924 -1.64847
-19.6663 -11.1976 -1.28413
-20.7276 -11.0614 -1.56528
-19.2545 -10.7583 -1.14599
-19.2121 -11.1632 -1.29259
-19.5985 -11.1872 -1.77012
-20.3214 -10.6397 -1.84887
-18.7964 -10.9718 -0.844416
-18.5095 -10.8391 -1.60186
-19.2732 -11.1462 -1.98996
-19.8816 -11.3059 -1.70745
-19.5359 -10.8125 -1.8378
-18.568 -11.6189 -2.3596
-18.7722 -10.9165 -2.4502
-18.8875 -11.0566 -2.21096
-18.9117 -10.758 -2.5956
-19.4748 -11.6939 -2.76654
-19.0507 -11.015 -2.07593
-15.8927 -12.4766 -1.2399
-20.7655 -11.4133 0.628924
-21.4835 -11.0534 -0.0583412
-20.3286 -11.4131 0.298194
-20.3712 -11.3272 0.838465
-20.0983 -11.7036 1.01264
-19.8975 -11.5871 1.0071
-20.5045 -11.1492 0.12104
-20.1274 -11.3681 0.283105
-19.9995 -10.8386 0.131923
-20.673 -11.4191 0.190403
-19.9973 -11.6163 -0.311181
-20.2815 -10.9689 -0.92312
-19.6302 -11.0756 -0.823356
-18.5556 -11.4557 0.313342
-19.6773 -11.5557 -0.842121
-19.1867 -11.4122 -0.617682
-19.5041 -11.3491 -0.6494
-20.2217 -11.1174 -1.31548
-18.1944 -11.3964 -0.454014
-19.3681 -11.6736 -0.890201
-19.6353 -10.8292 -1.77458
-20.3446 -11.0244 -1.47343
-16.6005 -11.2207 0.451712
-17.5591 -11.6031 -0.0141644
-19.2751 -11.5889 -1.45731
-19.2005 -11.2767 -1.63482
-18.5389 -11.7608 -0.997993
-17.0555 -11.641 -0.0827401
-20.2153 -11.1566 -2.14462
-17.0287 -11.3901 0.218159
-17.2446 -11.7444 -0.458686
-19.9181 -10.9533 -2.26201
-18.928 -11.6379 -1.84875
-19.3829 -10.8257 -1.71791
-19.637 -11.1938 -2.953
-19.3538 -11.2943 -2.72643
-18.7448 -11.4295 -2.60075
-19.6845 -10.707 -2.35769
-18.9999 -10.9567 -2.65895
-19.2416 -10.8639 -2.16277
-18.5088 -11.5614 -2.26418
-18.8361 -11.0897 -3.10752
-16.7753 -11.0671 -1.50307
-16.8215 -11.4357 -1.7194
-16.0235 -11.3488 -2.39129
-20.9923 -11.5538 0.999863
-20.2855 -11.1329 0.0714187
-19.8467 -11.6425 0.728725
-19.276 -11.6071 0.101646
-20.2958 -10.8207 -0.657873
-19.5695 -11.5638 -0.309684
-20.318 -11.6471 -0.712759
-17.1016 -9.87908 1.49375
-17.7476 -10.9745 0.052638
-18.689 -11.1834 -0.136826
-20.311 -10.8547 -1.60145
-20.3489 -10.6208 -1.44399
-19.1657 -10.8273 -0.720915
-18.9849 -10.7925 -0.67695
-20.0648 -10.6636 -1.56777
-17.9695 -11.4283 -1.09846
-17.4559 -11.3495 -1.08343
-19.0437 -11.0726 -1.39416
-19.2966 -11.4919 -1.4858
-19.0586 -11.62 -1.42602
-18.0893 -11.6079 -1.16941
-20.1818 -10.4569 -1.81635
-17.8191 -11.4049 -1.12844
-20.6206 -10.9991 -2.13481
-16.3551 -12.0456 -0.402972
-18.6009 -11.523 -1.56534
-18.8543 -10.9622 -1.91239
-17.1891 -11.2543 -0.794195
-16.1037 -11.8016 -0.444724
-19.6053 -10.5583 -2.30022
-19.43 -10.9663 -2.57103
-20.1435 -10.5239 -2.43159
-16.8117 -11.6652 -1.12706
-19.1598 -11.5111 -2.10411
-17.8537 -11.0449 -1.97142
-18.6611 -11.5886 -2.27509
-16.2941 -11.3234 -1.28059
-17.7146 -11.1208 -2.39667
-17.2994 -11.1428 -2.39598
-17.2126 -11.6203 -2.13603
-17.5491 -9.36826 1.36025
-20.1496 -11.1227 -0.108752
-19.431 -10.9794 0.189683
-19.9614 -11.4079 -0.849824
-19.1753 -11.8441 -1.38733
-19.516 -11.5813 -1.36694
-19.1814 -11.7739 -1.19926
-16.7723 -11.3901 -0.861141
-20.4461 -10.7945 -2.37813
-19.5105 -10.5024 -2.98054
-17.456 -11.2866 -0.682353
-17.6868 -11.4967 -1.26923
-17.311 -11.6907 -1.68061
-19.4654 -10.8508 -2.47794
-16.1626 -11.2972 -1.63887
-20.0833 -11.3672 0.566336
-17.7353 -10.2551 1.13557
-19.8268 -11.5185 -0.345416
-16.3152 -10.3021 1.27738
-19.6151 -11.0088 -1.172
-17.7883 -11.1708 0.0547092
-20.304 -10.9691 -1.53825
-17.6818 -11.2671 0.0994325
-19.218 -11.2466 -1.27236
-20.2568 -11.0024 -1.5987
-19.021 -11.1568 -1.30197
-17.2039 -11.7316 -0.108441
-17.1677 -11.0849 -0.232228
-16.9563 -11.3161 0.0712083
-16.9364 -11.495 -0.347287
-17.2112 -11.0088 -1.50998
-17.3093 -10.9951 -2.21379
-20.5687 -10.8851 0.64265
-19.7091 -10.8335 -0.180475
-17.5749 -11.4969 0.362304
-18.3515 -11.7085 -0.196171
-17.8331 -11.7096 -0.382423
-18.0463 -11.5047 -1.0761
-17.9209 -11.5467 -1.59344
-16.7231 -11.3226 -0.818585
-16.542 -11.8596 -1.03921
-19.087 -11.8568 -0.13456
-17.6278 -9.80643 1.62433
-18.2731 -11.5093 0.245581
-18.6434 -10.6156 -1.276
-16.7756 -11.5782 0.225447
-17.9401 -11.5608 -0.466889
-17.7436 -10.8483 -2.77906
-15.5137 -12.1925 -2.15988
-18.4098 -10.9165 -3.05603
-20.7417 -11.1399 -0.349205
-18.544 -11.526 -0.30162
-18.801 -11.3032 1.55784
-16.7995 -12.0318 -1.79254
-17.0017 -9.87193 1.05209
-18.7565 -11.0488 1.76923
-20.62 -11.6205 1.33943
-20.5783 -11.3197 1.28994
-18.0347 -10.0013 0.98015
-16.9546 -10.2642 1.05324
-20.8632 -11.3604 0.576194
-20.7776 -11.1859 0.591119
-20.2756 -11.87 0.328239
-20.7259 -10.8266 0.618122
-20.9058 -11.0103 0.0170251
-20.3184 -11.4582 0.503944
-18.3714 -11.112 -0.0768283
-20.4985 -10.6184 -0.341656
-20.7509 -11.0047 0.138275
-20.0741 -11.7936 -0.0629106
-19.952 -11.1621 0.00982613
-20.6768 -11.5565 0.0865156
-19.8967 -11.3391 -0.13203
-20.3124 -11.1352 -0.194206
-18.2742 -11.3025 0.400629
-20.9872 -11.05 -0.29451
-20.0931 -10.7154 -0.175025
-16.6541 -11.8032 0.707263
-20.6683 -11.0688 0.100266
-19.9711 -11.2007 -0.132811
-19.7184 -10.9584 0.39936
-20.0107 -11.3333 -0.431065
-21.0617 -10.7326 -0.410716
-20.4363 -10.8091 -0.651276
-20.6576 -10.5366 -0.636571
-20.2336 -11.1721 -0.156337
-20.3029 -11.3605 -0.214034
-20.0986 -11.0797 -0.00717727
-17.2705 -11.4968 0.154487
-19.556 -11.1522 -0.461675
-19.7061 -11.5566 -0.487274
-20.1874 -11.2513 -0.29563
-18.9796 -11.4171 -0.527646
-19.7688 -11.08 -0.838091
-20.6698 -11.0395 -0.733359
-20.5579 -10.8439 -0.527582
-19.8718 -11.2228 -0.570269
-17.5221 -11.9324 -0.160035
-16.8381 -11.4681 -0.180998
-16.6498 -11.4851 -0.259254
-19.9779 -11.0125 -0.749995
-19.7554 -11.5186 -0.669694
-19.6995 -11.6427 -0.45657
-20.3296 -11.6034 -0.829664
-18.1229 -11.1842 -0.259894
-17.1456 -11.8279 -0.0952834
-16.8725 -12.0298 -0.615822
-20.0978 -11.3364 -0.875261
-16.758 -11.6736 -0.079778
-16.751 -10.9794 -0.613768
-16.7538 -11.7631 -0.272445
-19.7984 -11.2792 -0.854274
-16.9877 -12.0475 -0.823151
-16.4112 -11.7749 -0.977181
-20.1404 -11.2499 -0.752212
-20.0757 -11.1253 -0.972323
-19.6621 -10.8781 -0.845816
-20.9222 -11.0272 -1.29375
-15.9447 -12.0852 -0.625867
-16.0503 -12.6122 -0.831068
-19.3229 -11.1316 -0.7205
-19.6247 -11.112 -1.30917
-15.7202 -12.1217 -0.856375
-20.3675 -10.9432 -1.33417
-20.4152 -11.0983 -1.1715
-19.9399 -10.9363 -1.00242
-20.5345 -10.4122 -1.318
-19.0034 -10.6236 -0.656609
-19.8429 -10.962 -1.03525
-20.0445 -11.2986 -1.38877
-20.4438 -11.1468 -1.54941
-19.3785 -11.6506 -0.876102
-19.6945 -11.2592 -1.19712
-18.7917 -11.1391 -1.5228
-19.9988 -10.2977 -1.22416
-20.5851 -10.7647 -1.42306
-18.8315 -11.3908 -1.18137
-19.5331 -10.9846 -1.54327
-19.8654 -10.9088 -1.50004
-19.8903 -11.1963 -1.39766
-20.4153 -11.0399 -1.5775
-20.486 -10.3241 -1.47518
-16.7012 -11.3541 -1.2051
-20.6096 -10.9227 -1.41349
-19.6365 -11.0826 -1.55315
-19.7659 -11.2154 -1.73553
-19.7106 -10.9739 -2.03121
-19.8333 -11.009 -1.7091
-20.5339 -10.9945 -1.62191
-20.5115 -10.5817 -2.05216
-19.8547 -11.1518 -2.20209
-19.4452 -11.6035 -1.9863
-20.5196 -10.902 -1.64399
-19.1842 -10.8696 -1.70745
-19.4525 -11.1581 -1.84359
-19.898 -10.5475 -2.31228
-20.5602 -10.6257 -1.94884
-20.8713 -10.642 -1.65456
-18.5451 -11.3477 -2.2108
-18.8354 -10.6068 -2.72702
-19.157 -11.1444 -2.03199
-19.8174 -10.415 -2.44696
-19.448 -11.5476 -1.90195
-17.6201 -10.7731 -2.42755
-17.9324 -10.8586 -2.12886
-20.426 -11.1819 -2.17775
-19.992 -11.1232 -2.15199
-16.2666 -11.2415 -2.21837
-19.786 -10.998 -2.41319
-19.4095 -11.1566 -2.46169
-18.755 -10.9828 -2.34101
-18.7818 -11.1082 -2.58302
-19.3352 -11.0313 -2.65441
-20.7723 -10.8456 -2.54236
-18.3837 -11.1083 -2.48192
-18.2698 -11.5594 -2.43153
-19.1118 -11.1166 -2.38504
-17.8547 -11.4792 -2.63644
-19.0498 -11.3028 -2.7923
-18.7645 -10.9783 -2.60748
-18.1235 -11.3602 -2.92307
-15.234 -11.3552 -2.96376
-17.4935 -9.88615 2.17709
-19.4752 -11.1582 1.73983
-20.1692 -11.3564 0.779886
-16.4056 -9.74162 1.11809
-20.3672 -11.4625 0.770493
-20.8485 -11.3413 0.0359577
-20.7644 -11.173 0.619487
-20.0129 -10.899 0.196755
-20.3911 -10.8307 0.487252
-20.2643 -11.1472 -0.219737
-18.6385 -11.0874 0.12256
-20.3086 -12.0156 0.082051
-18.9465 -10.8215 0.172135
-21.0572 -10.8415 0.253405
-19.8473 -11.8559 0.160921
-16.0314 -12.2001 0.623916
-20.5532 -10.662 -0.140882
-18.8786 -11.1763 0.230248
-20.3505 -11.3456 -0.449647
-16.512 -11.3609 0.390116
-19.4334 -11.8366 -0.0878305
-20.3867 -11.4371 -0.976494
-17.792 -11.1326 -0.0318884
-17.374 -11.3235 0.140467
-16.9378 -11.3475 -0.413072
-20.3691 -11.3411 -0.717286
-20.1762 -11.2256 -0.253395
-16.3769 -11.5692 -0.508119
-17.993 -11.6893 -0.37245
-16.6665 -11.7226 -0.516997
-19.98 -10.9746 -0.576462
-20.3805 -11.0046 -1.21736
-20.1806 -11.3756 -1.10706
-19.3109 -11.0746 -1.11062
-20.3142 -11.0965 -1.2795
-20.0688 -11.4983 -1.45684
-19.8666 -11.2309 -1.37705
-19.6079 -11.825 -1.03524
-15.6053 -12.6613 -1.08398
-18.7214 -10.7661 -0.687839
-19.321 -11.5073 -1.17552
-20.0604 -10.3798 -1.58248
-19.8629 -11.376 -1.60275
-18.7643 -11.1139 -1.24068
-20.3902 -10.9892 -1.51287
-19.733 -10.9604 -1.59258
-20.0131 -11.4086 -0.902663
-19.0139 -11.2321 -1.21864
-20.0058 -11.3459 -1.30609
-20.3369 -10.149 -1.52984
-17.6574 -11.1303 -1.22262
-16.6182 -11.5263 -1.15779
-19.2535 -11.2452 -1.87824
-17.5151 -11.7226 -2.32847
-18.5399 -11.4871 -1.7328
-19.6357 -10.8914 -2.59334
-19.513 -10.8843 -2.14996
-14.9395 -11.6139 -2.66292
-18.8349 -11.1086 -2.19383
-18.4449 -11.5444 -2.70348
-18.0131 -11.6106 -2.54705
-17.9475 -11.4237 -2.64946
-16.3784 -9.61653 2.38459
-17.9679 -9.95019 1.39138
-19.1513 -11.7347 1.16329
-20.0969 -11.2331 0.390256
-20.1611 -11.2288 0.274586
-18.1863 -11.3513 0.408043
-16.6457 -11.6156 0.513723
-19.9331 -10.9607 -0.386376
-20.129 -11.4277 -0.67705
-20.6786 -11.1969 -0.125804
-20.2456 -10.9204 0.206232
-20.5174 -11.3062 -0.35268
-20.3281 -10.7813 -0.497019
-17.2298 -11.4298 -0.347957
-17.1561 -11.5327 -0.457029
-20.3055 -11.0958 -1.14903
-17.1414 -11.1771 -0.502531
-20.671 -10.6682 -1.07316
-19.8402 -11.0419 -1.20342
-19.4807 -11.3986 -1.40977
-16.818 -11.4066 -0.647432
-20.4435 -10.8892 -1.17048
-20.0148 -11.2659 -1.12611
-20.256 -10.9355 -1.73193
-17.6206 -11.5849 -1.60791
-19.6756 -11.3036 -1.67454
-17.774 -11.566 -1.4205
-20.0577 -10.9476 -1.98916
-20.015 -10.897 -2.32377
-18.8168 -11.4484 -2.60955
-18.8162 -11.2385 -2.41273
-17.7982 -11.2394 -2.72941
-19.138 -11.1674 -2.42521
-17.6745 -10.3365 1.27534
-20.0239 -11.4011 1.1282
-17.9089 -9.98125 1.04634
-20.598 -11.559 0.362715
-16.9657 -11.1943 0.933763
-19.3515 -11.3182 0.0842237
-19.8614 -11.2074 0.0124058
-20.4517 -10.8924 -0.115829
-19.5848 -10.6504 0.311276
-19.9663 -11.1369 -0.0159607
-20.6411 -10.9013 -0.239777
-19.4012 -10.9946 0.0159352
-19.9483 -11.1663 0.223586
-20.0726 -11.7483 -0.024585
-17.4027 -11.4234 -0.259503
-17.7122 -11.6137 -0.171873
-17.2671 -11.9662 -0.667746
-17.0838 -11.6554 -0.32739
-19.9656 -10.859 -0.767513
-19.2765 -11.202 -0.837454
-16.095 -11.9264 -0.307263
-15.6854 -12.3693 -1.42234
-19.7092 -10.8712 -1.26946
-19.4442 -11.0808 -1.22426
-18.9437 -11.3278 -1.24331
-19.8857 -10.7684 -1.65199
-19.6116 -11.1811 -1.34673
-16.8791 -11.8167 -1.51744
-19.6104 -10.8306 -1.96119
-16.5587 -11.8145 -2.20735
-17.2548 -11.021 -2.185
-16.942 -10.9363 -2.35036
-18.775 -11.5152 -3.37351
-17.3066 -11.3917 -2.40002
-18.1677 -11.1797 -2.98101
-19.2433 -11.0989 -2.79275
-19.9406 -11.664 1.48375
-19.9173 -10.8601 0.390985
-19.3455 -11.6217 0.385446
-18.1409 -11.7617 0.0589834
-18.0971 -11.8198 0.0194857
-17.2989 -11.6695 -0.347745
-16.9448 -11.4551 -0.61413
-19.8 -11.0712 -0.77601
-17.7059 -11.6518 -0.773447
-18.4832 -11.6849 -0.744364
-19.4054 -10.6988 -1.34446
-18.27 -11.7522 -0.516617
-19.1885 -11.2465 -1.52179
-19.0208 -11.2955 -1.32857
-17.2609 -10.8454 -1.37957
-18.379 -11.4004 -1.59435
-16.7351 -11.6202 -1.61533
-16.7428 -11.9426 -1.51389
-20.146 -10.9693 -2.30178
-19.1361 -11.1327 -1.86077
-15.4464 -11.7096 -2.05295
-18.149 -10.9453 -2.39091
-18.416 -11.4479 -3.1259
-17.8224 -11.178 -3.00994
-18.0944 -11.8028 -2.95014
-17.9867 -11.4888 -2.7395
-16.533 -10.9303 -2.37677
-18.9069 -11.2604 0.755831
-18.9401 -11.1098 0.506607
-19.5938 -11.0996 -0.142548
-19.5685 -11.8404 -0.0835609
-18.9485 -11.144 -0.385739
-17.5993 -11.6696 -0.0973236
-16.9593 -11.2979 -0.515698
-17.3397 -11.5315 -0.489793
-19.7006 -11.5131 -0.66697
-19.3275 -11.2535 -0.827995
-20.1468 -10.9849 -1.86963
-18.5717 -11.9148 -2.04156
-15.1882 -11.5669 -2.46227
-17.6039 -11.1029 -2.46414
-18.7432 -11.249 1.36143
-18.0248 -11.3271 0.605123
-16.7491 -11.6341 -0.546165
-19.8129 -11.4275 -1.27854
-20.293 -10.9968 -2.16354
-20.4189 -11.1298 0.0176438
-16.8584 -11.6907 0.422247
-19.6067 -11.6946 -0.227308
-17.4534 -11.6804 -0.816439
-17.6875 -11.5327 -1.59956
-17.4067 -11.037 -2.73522
-19.2851 -11.1742 -0.871469
-15.9715 -12.0099 -0.0521854
-19.0444 -11.0606 -0.305279
-16.7486 -11.4297 -1.31455
-17.7982 -11.2276 -1.87281
-17.5371 -10.8893 -3.18526
-17.5925 -9.87838 1.12861
-18.7949 -11.0338 1.54669
-16.9092 -10.9276 -1.81845
-17.5899 -9.7214 1.10711
-14.7335 -12.8381 -2.82285
-19.3677 -10.9332 -2.39492
-18.9861 -11.3343 -2.59431
-19.5047 -10.8281 -2.09509
-19.0732 -11.0024 -1.88616
-19.7773 -10.8549 -1.84427
-16.5831 -11.4342 -1.54794
-20.6812 -10.8549 -1.40182
-16.5956 -11.7431 -1.57421
-16.4892 -11.4407 -1.98793
-16.9381 -11.8846 -1.93659
-20.3098 -10.6639 -2.09779
-18.8798 -11.3581 -2.02584
-18.7574 -11.7975 -1.63718
-18.8319 -11.4869 -1.337
-18.251 -11.3787 -1.54378
-18.0704 -11.7453 -1.50807
-20.0903 -10.4445 -1.55805
-19.4428 -11.2986 -1.2624
-20.28 -10.6074 -1.73255
-20.0347 -11.2924 -1.22046
-19.9607 -10.9487 -0.901594
-19.293 -11.4614 -0.952628
-19.8079 -10.9999 -1.64229
-18.6899 -11.1893 -1.27123
-20.3274 -10.9423 -0.611077
-20.7123 -11.3684 -1.23549
-20.159 -10.8663 -1.43578
-18.0404 -11.008 -0.836367
-16.8585 -11.6216 -0.147607
-16.7185 -11.3724 -0.578618
-20.0434 -11.0088 -0.978582
-20.0054 -10.8532 -0.810815
-19.7461 -11.0564 -0.824493
-20.0829 -11.2236 -0.0777234
-19.9665 -11.3282 -0.745172
-17.0964 -11.2419 -0.543177
-17.1244 -11.9448 -0.240464
-20.0962 -11.1435 -0.788215
-20.1219 -10.7246 -0.352695
-20.3632 -11.3574 0.225203
-19.8358 -11.127 -0.215013
-17.4313 -11.6686 -0.53924
-20.0654 -11.8555 -0.220552
-20.3459 -10.9854 -0.393249
-20.1483 -11.3598 -0.486514
-20.3901 -11.0731 0.0101507
-20.1627 -10.7366 -0.500129
-19.8226 -11.1617 -0.26343
-20.706 -11.5145 0.401998
-20.234 -11.3059 0.183781
-19.3459 -11.0901 0.45964
-20.8344 -11.4691 0.274855
-18.0513 -11.0152 0.628144
-20.5893 -11.3087 -0.0507203
-20.1984 -11.9582 -0.108094
-20.2814 -10.6805 0.172843
-20.7911 -11.1923 0.55446
-20.1436 -11.6211 0.422213
-16.2469 -10.2185 1.55084
-19.5932 -11.423 0.749863
-16.8773 -11.3037 -2.39116
-18.7549 -10.6402 -2.89373
-18.5254 -10.9968 -2.3662
-18.5648 -11.0923 -3.01088
-18.974 -11.0112 -2.31341
-19.7883 -11.6132 -2.34492
-16.7526 -11.7684 -1.44146
-19.0664 -11.4819 -1.66554
-19.0278 -10.9186 -1.69955
-20.5582 -11.4688 -1.60529
-20.0831 -11.0162 -1.0053
-18.8574 -10.8064 -1.21575
-19.2748 -11.457 -0.982844
-15.9708 -11.6041 -1.12274
-19.2542 -11.0965 -0.437652
-20.0494 -11.3891 -1.31726
-17.7877 -11.1274 -0.636376
-20.4526 -11.3059 -1.07494
-19.532 -11.2619 -1.16539
-19.4722 -11.726 -0.246358
-20.015 -11.9809 -0.525996
-17.0401 -11.6258 -0.460621
-19.9399 -11.2493 -0.870819
-16.807 -12.0556 -0.078371
-17.5847 -11.7688 -0.0855657
-18.9168 -11.3839 -0.563196
-18.6464 -11.3957 -0.0419019
-19.6546 -11.2053 -0.22181
-16.2483 -11.938 0.471642
-17.8344 -11.5729 -0.135329
-16.3486 -11.7348 0.637006
-19.6489 -11.4568 -0.264814
-18.5422 -11.4222 0.399468
-17.6152 -11.7002 0.287388
-18.5134 -10.9738 0.472169
-20.664 -11.1237 0.542009
-18.574 -10.8255 1.40675
-20.7671 -11.831 0.910316
-17.1606 -11.1752 -2.81361
-18.7269 -11.6853 -2.47244
-16.0433 -11.4058 -1.95677
-19.0594 -11.1353 -1.42695
-18.074 -11.4192 -1.33257
-17.4011 -11.523 -1.86633
-19.3394 -11.4067 -1.57558
-19.4779 -11.1678 -1.39925
-19.3372 -11.4404 -0.850474
-19.6215 -11.6069 -0.855777
-19.5378 -11.6531 -0.779751
-17.2529 -11.6349 -0.515449
-19.4162 -11.0801 -0.497543
-20.2636 -11.7743 -0.494947
-19.5378 -11.6527 0.0637644
-20.1579 -10.9691 0.0594527
-16.5267 -11.5935 0.315298
-20.4046 -11.6167 -0.208402
-20.1175 -11.496 -0.181986
-17.1141 -10.2951 1.60544
-17.1865 -9.92762 0.92452
-17.1904 -10.268 1.10258
-16.7029 -10.3622 1.06439
-14.8161 -12.2701 -2.66164
-20.4728 -11.0615 -1.50346
-18.1822 -11.7305 -0.862546
-19.7643 -11.2339 -0.64991
-18.0332 -11.8033 -0.283467
-16.7425 -11.4329 -0.241726
-18.1363 -11.9089 -0.0237148
-18.63 -10.8271 -0.302792
-18.3702 -11.2576 -0.453511
-20.1611 -11.0903 -0.497419
-17.338 -11.9765 -0.0466609
-19.6769 -11.3528 -0.636257
-20.1834 -11.1724 0.264752
-16.9051 -11.5027 -0.0479059
-19.4249 -10.792 0.071287
-20.1259 -11.5613 0.0447906
-16.9694 -10.0823 0.971497
-18.1672 -11.3666 -1.38288
-19.3922 -10.7693 -1.4676
-19.4099 -11.2767 -1.02393
-19.411 -11.5193 -1.35492
-19.287 -10.9483 -0.862997
-17.316 -11.3926 -0.692643
-19.6117 -11.3283 -0.734776
-19.9248 -11.7285 -0.239213
-17.3349 -11.3705 -2.61347
-19.1697 -11.1263 -0.526628
-19.5734 -11.47 1.03658
-16.5474 -11.4448 -1.85918
-19.7551 -10.7536 -1.25886
-19.9091 -11.3269 -1.12684
-18.1638 -11.4573 0.910621
-17.2995 -11.33 -2.14629
-17.5484 -11.6885 0.124309
