-15.9555 -11.5746 -2.49596
-17.5964 -11.0081 -2.41597
-17.056 -11.1181 -0.917273
-17.3997 -11.6295 -1.68498
-16.7407 -12.0008 -1.52507
-20.199 -11.3647 -0.558165
-16.6465 -11.5269 -0.463707
-16.0194 -12.0971 -0.608515
-16.3624 -11.6636 -0.998453
-16.6401 -11.653 0.156013
-15.9318 -11.8958 -1.41765
-19.3532 -8.76737 1.73352
-21.054 -11.3641 0.779153
-20.6662 -11.05 0.197695
-16.659 -9.55515 1.57814
-20.6128 -11.1284 0.258603
-21.0308 -10.823 -0.321817
-19.1271 -10.8897 0.101325
-20.2676 -11.2786 0.24092
-20.8808 -10.8607 -0.742976
-18.8737 -10.8145 0.378204
-18.5483 -11.0832 -0.0639571
-20.6265 -11.0003 0.0742365
-19.5771 -11.0132 0.122181
-20.28 -11.1962 -0.213884
-19.8267 -11.5364 -0.0875738
-18.1844 -11.3912 0.617545
-19.8765 -10.9629 -0.750848
-20.3281 -11.2174 -0.410393
-19.3809 -11.2228 -0.641866
-18.87 -11.1148 -0.139921
-18.8481 -10.6792 -0.511311
-19.4192 -11.3106 -0.857771
-16.6755 -11.1879 0.237125
-20.6972 -10.8489 -1.08607
-17.5037 -12.1399 0.792192
-20.9881 -10.8223 -1.27969
-18.7452 -10.7369 -1.68074
-18.8155 -11.5033 -0.395426
-18.951 -11.6061 -0.925682
-18.7641 -11.3549 -0.652211
-20.1384 -10.922 -2.00881
-15.9915 -11.906 0.098227
-19.3853 -11.1573 -1.5238
-17.8826 -11.6176 -0.750492
-18.1444 -11.3169 -0.501879
-16.2073 -12.2821 0.0488927
-18.3194 -11.3241 -1.39674
-17.8048 -11.2215 -0.48197
-20.491 -10.7831 -2.60132
-16.9022 -11.6898 -0.381759
-18.9394 -11.1481 -1.4481
-16.7221 -12.2199 -0.125817
-19.1449 -11.7183 -1.54454
-16.408 -12.1051 -0.13443
-20.2915 -11.4832 -2.03378
-16.9051 -11.1487 -0.523835
-16.5863 -12.2117 -0.056557
-19.6313 -10.6212 -2.05769
-20.2774 -10.6839 -2.50243
-16.9946 -11.9523 -0.728808
-16.5026 -11.3871 -0.488926
-17.0404 -11.8123 -0.920477
-20.4836 -11.1449 -2.76666
-18.1446 -11.6672 -1.48654
-18.4539 -11.4725 -1.56591
-18.0672 -11.3778 -1.54847
-17.5283 -11.668 -1.10291
-16.7389 -11.4402 -0.710845
-19.0413 -10.8999 -2.30255
-17.3227 -11.2161 -0.629138
-16.8541 -11.1364 -1.12312
-18.6147 -10.8669 -2.07887
-17.4629 -11.1623 -1.62766
-19.4353 -11.2839 -1.82921
-17.001 -11.3982 -0.966947
-16.3903 -12.1302 -0.594666
-18.0863 -11.3772 -0.838407
-18.0474 -11.1113 -1.74673
-18.2795 -10.8349 -1.76071
-16.2613 -12.0322 -0.642866
-20.177 -10.7633 -2.89688
-19.2696 -10.7805 -2.43008
-18.6627 -11.1511 -2.42022
-17.7688 -11.2996 -1.90634
-19.3557 -11.3377 -3.16867
-19.4167 -11.4024 -3.2876
-18.1955 -11.1177 -1.5163
-19.6903 -11.3792 -2.73035
-20.489 -10.3948 -3.15099
-17.4896 -11.328 -1.76565
-15.79 -11.6709 -0.699807
-16.7962 -11.5919 -0.943777
-17.1724 -11.8626 -1.27161
-17.8832 -11.5493 -2.20338
-17.2051 -11.5848 -1.27597
-17.5866 -11.2968 -2.17016
-19.8221 -10.9841 -3.27502
-19.8136 -11.1054 -3.51107
-19.5457 -11.0153 -3.17391
-18.2686 -11.1664 -2.37454
-19.1716 -11.3568 -2.89771
-18.4574 -11.1081 -2.8789
-18.4801 -11.0593 -2.52008
-19.2362 -10.7778 -3.89884
-16.3763 -11.2341 -1.47676
-18.8446 -10.7286 -4.17148
-17.3866 -11.0384 -2.14128
-17.1485 -11.2444 -2.02392
-18.2956 -11.0473 -3.01701
-18.4255 -11.2784 -3.01947
-15.7964 -11.9537 -1.0504
-15.9036 -12.2033 -1.25849
-18.2746 -11.1841 -3.36925
-18.5056 -11.0744 -3.51048
-17.9414 -10.6521 -3.0866
-17.1194 -10.8413 -3.0655
-17.2942 -10.7248 -3.30462
-16.1791 -12.3654 -1.5855
-15.6216 -11.4617 -2.08731
-16.6942 -10.8426 -3.02572
-15.1528 -12.2486 -2.27564
-14.9678 -12.2318 -2.43361
-15.5037 -12.3254 -2.73673
-15.5101 -12.4218 -2.87197
-14.978 -12.0441 -3.07886
-14.7065 -12.7076 -2.62815
-15.0552 -12.5333 -2.96803
-15.5155 -12.163 -3.32228
-14.8934 -12.288 -2.82806
-15.184 -12.7046 -3.20061
-15.3744 -12.4533 -3.21173
-14.9219 -12.1181 -2.74414
-15.1853 -12.3969 -3.36493
-15.3489 -12.3983 -3.22719
-17.4773 -9.80294 1.73842
-17.0485 -10.0779 1.46269
-17.1565 -9.72504 1.55827
-20.9529 -11.0664 0.50695
-20.8441 -10.6189 0.703901
-21.1388 -11.1176 0.436438
-20.9647 -11.0526 0.480604
-16.9781 -9.61181 1.29706
-20.7966 -11.0278 0.682488
-16.9036 -10.459 1.43733
-20.3716 -11.2837 0.558133
-16.6814 -9.54158 1.6193
-20.4769 -11.2517 0.440142
-19.8893 -11.619 0.840968
-20.0673 -11.3577 -0.108267
-18.9234 -11.2856 0.168184
-19.0104 -11.2967 0.491959
-19.1425 -10.4798 0.12046
-18.592 -10.8373 0.200813
-18.2887 -11.038 -0.0504429
-19.8163 -10.9935 -0.84035
-19.8891 -11.0874 -0.184482
-20.749 -10.716 -0.383011
-19.8275 -11.3798 -0.186585
-19.4054 -11.3631 -0.408686
-18.0862 -11.3567 0.652462
-20.136 -11.1503 -1.2141
-18.14 -11.0227 0.544472
-20.037 -11.2962 -0.387435
-17.8976 -11.0837 0.800856
-17.1285 -11.95 0.368516
-18.7307 -11.8888 -0.363354
-18.9271 -11.2815 -0.739037
-20.6486 -10.8424 -1.38998
-16.9921 -11.5761 0.199584
-16.8992 -11.7486 0.961174
-18.6774 -11.4256 -0.504502
-16.1914 -11.5883 0.514463
-18.4678 -10.9334 -0.672888
-19.3543 -10.7636 -1.35678
-18.7191 -10.8041 -1.28698
-19.8234 -11.1353 -1.391
-17.4825 -11.3105 -0.0274593
-17.3055 -11.6015 -0.378575
-17.1674 -11.6646 -0.0811315
-18.442 -10.9363 -1.0579
-20.643 -10.6705 -2.48437
-16.3836 -11.5921 -0.377902
-17.2317 -11.4365 -0.403213
-17.1454 -11.5876 -0.32432
-17.8433 -11.1738 -1.21552
-20.1914 -10.6994 -1.64609
-16.6071 -11.8586 -0.754994
-17.7137 -11.1927 -1.28758
-17.4073 -11.6766 -0.818783
-18.3537 -11.7538 -1.25264
-20.2544 -10.9473 -2.48395
-16.4086 -11.7462 -0.480932
-19.6677 -10.4964 -2.4717
-19.0224 -11.6226 -1.81582
-20.9641 -10.5274 -3.03057
-19.2117 -11.3043 -2.0827
-20.9362 -10.011 -3.08267
-16.8172 -12.1276 -0.807898
-20.7782 -10.3752 -2.95191
-16.1284 -11.4779 -0.366028
-20.2367 -11.0546 -2.60259
-17.9654 -11.0184 -1.25732
-17.9579 -11.5573 -1.42614
-19.6609 -10.9501 -2.81566
-15.8435 -11.8239 0.196831
-20.0167 -10.7178 -2.76609
-18.6483 -11.4361 -1.88126
-16.2804 -12.3015 -0.186339
-16.4287 -12.0208 -0.975488
-19.3074 -10.8616 -2.79042
-19.0982 -10.879 -2.43723
-16.641 -12.0948 -0.911666
-16.2875 -11.5602 -0.758985
-16.0673 -11.5959 -0.506409
-16.8438 -12.0365 -1.08195
-20.6502 -10.5792 -3.55593
-16.0279 -12.0124 -0.523275
-17.3054 -11.7285 -1.20484
-16.7237 -11.7069 -0.869861
-18.6963 -11.2556 -2.69842
-17.3567 -11.864 -1.73933
-18.6705 -11.1508 -3.12918
-16.1815 -12.3176 -0.772913
-19.9766 -10.4935 -3.2658
-18.9735 -11.2381 -2.61631
-19.747 -11.09 -3.07138
-19.0251 -11.2615 -2.96547
-18.3971 -11.6664 -3.13019
-19.3989 -10.4566 -3.8464
-15.965 -12.2401 -0.788811
-18.6827 -11.0568 -3.00479
-18.7947 -11.3677 -3.25368
-17.6886 -11.1415 -2.03926
-15.9399 -11.9498 -1.57332
-16.9831 -10.8513 -1.88937
-18.451 -11.2406 -2.94344
-17.0859 -11.1105 -2.0084
-16.9505 -11.0628 -2.47064
-18.2564 -11.3533 -3.74138
-15.3053 -12.2917 -1.2907
-15.893 -11.7795 -2.27557
-16.2433 -11.6105 -1.80399
-16.7231 -11.4831 -3.32691
-15.2524 -12.8065 -1.99386
-17.0431 -11.6464 -3.04463
-17.1451 -11.4093 -3.12232
-14.9325 -12.4426 -2.14042
-15.1082 -12.2482 -2.44017
-15.2489 -12.3477 -3.42855
-15.4889 -12.7302 -2.77232
-14.712 -12.2287 -2.89831
-15.1091 -12.0777 -2.8673
-14.7808 -12.5831 -2.82655
-15.4906 -12.4449 -3.29987
-15.4087 -12.8262 -3.48293
-15.5301 -12.2354 -3.02638
-15.1505 -12.5565 -2.84081
-15.1319 -11.9162 -2.83169
-15.3216 -12.2058 -3.66235
-15.4217 -12.6694 -3.24056
-14.8074 -12.0844 -3.30469
-14.2813 -12.5343 -3.46689
-20.7912 -11.0946 0.88212
-20.8274 -10.7288 0.754295
-20.7959 -11.4647 0.80274
-17.0382 -9.59839 1.36285
-20.0735 -11.0723 0.46849
-21.0882 -10.4635 -0.204788
-21.1388 -11.1964 0.210312
-20.2577 -12.0932 -0.0213784
-20.4632 -10.7999 -0.303957
-20.5577 -11.2652 0.431876
-20.7376 -11.4497 0.168684
-19.8536 -11.3069 0.238885
-19.2535 -11.0677 0.577924
-15.7942 -10.2161 1.30823
-20.4756 -11.4453 -0.147928
-19.8888 -11.238 -0.0842139
-19.6135 -10.9612 -0.0306103
-18.6133 -11.0014 0.50789
-19.8616 -11.2775 -0.0572303
-18.0534 -11.2968 -0.164303
-17.3793 -11.4931 0.577782
-19.3044 -11.0809 -0.648366
-19.4113 -10.853 -0.371416
-19.6384 -11.0735 -1.28523
-17.7954 -11.7944 -0.127217
-16.2315 -11.7503 -0.0669278
-17.0685 -11.4527 -0.345724
-18.3993 -11.3122 -0.730695
-18.406 -11.0927 -1.0243
-17.2032 -11.7606 -0.633422
-19.7492 -11.0964 -1.79804
-16.8287 -11.5392 -0.494241
-16.6133 -11.5083 -0.815946
-18.455 -11.3105 -1.20342
-18.9725 -11.6102 -1.47286
-20.4599 -10.3341 -2.51255
-17.0159 -11.6214 -0.271695
-16.7651 -11.6719 -0.307275
-17.3592 -11.4709 -0.59529
-16.8687 -11.6993 -0.899157
-20.4272 -10.4359 -2.88554
-20.818 -10.4486 -3.14972
-16.2902 -12.0524 -0.0444862
-20.7638 -10.5196 -2.7315
-20.8312 -10.2364 -3.09133
-18.4776 -11.0213 -2.1543
-18.7125 -11.1212 -1.98051
-20.5 -10.6729 -3.18155
-15.8074 -12.1899 -0.673799
-19.0222 -11.3373 -2.5985
-18.9985 -11.008 -2.52023
-18.3621 -11.0757 -2.41901
-20.038 -10.8908 -3.27993
-19.6377 -11.2851 -2.7311
-18.6051 -11.0423 -2.87207
-15.5624 -12.3245 -0.42727
-15.8589 -12.6325 -0.963151
-17.7564 -11.4279 -2.2922
-17.1511 -11.3226 -1.91534
-16.8803 -11.0314 -1.95189
-18.279 -11.4668 -3.42772
-16.6584 -11.6093 -1.81721
-15.7447 -11.9253 -1.46345
-15.4827 -12.059 -1.18387
-16.1322 -11.4643 -2.31267
-15.821 -11.562 -1.84097
-17.0097 -11.224 -3.55547
-15.4078 -11.6406 -2.3088
-16.0208 -11.7035 -2.56704
-15.8954 -10.8818 -2.69813
-15.2291 -12.5028 -2.92721
-15.5255 -11.6567 -3.39419
-15.258 -12.01 -3.44558
-15.7045 -12.2601 -3.36194
-15.2048 -12.2171 -3.34446
-21.0776 -11.1074 0.596945
-20.4776 -11.092 0.545635
-20.5895 -11.7433 0.244233
-21.1495 -10.8914 0.632031
-20.2227 -11.2672 -0.434348
-20.2971 -11.3659 -0.165549
-20.239 -11.2174 0.0271838
-20.4396 -10.9573 0.0305871
-20.6389 -10.9381 -0.145383
-20.4149 -11.2039 -0.45065
-18.5277 -11.0562 0.555192
-19.2046 -10.9094 -0.0766519
-18.7726 -11.2926 -0.500681
-20.0026 -11.4878 -0.687527
-16.8098 -11.3588 0.439925
-17.6549 -11.5306 -0.0835577
-16.7102 -12.2701 0.100666
-20.6136 -10.6867 -2.18833
-16.4199 -12.3092 -0.0975557
-17.5548 -11.4207 -0.640869
-16.2872 -11.3803 -0.589118
-16.4789 -11.4613 -0.479081
-17.8496 -11.5805 -0.638964
-19.7961 -10.676 -1.94548
-19.1301 -11.2294 -1.74878
-19.6101 -10.81 -1.98533
-20.2068 -10.8421 -2.95173
-16.9424 -11.578 -1.17212
-20.0088 -10.6348 -3.07386
-16.9529 -11.7729 -0.267801
-18.8342 -11.8434 -2.47629
-15.8004 -11.9034 -1.04512
-16.0354 -11.6814 -0.956011
-16.579 -12.1142 -0.284291
-15.9667 -12.0896 -0.373235
-15.5734 -11.8041 -0.50698
-15.9146 -11.9746 -0.709864
-19.5734 -10.7607 -2.79545
-18.9114 -11.5129 -3.11417
-18.8931 -11.3125 -3.00888
-18.1818 -10.797 -2.10713
-17.2239 -11.3799 -2.01663
-16.5654 -11.9419 -1.44846
-18.6327 -11.2013 -3.09978
-17.39 -10.9796 -1.87179
-18.1764 -11.3035 -2.98145
-18.4357 -11.3501 -3.04971
-18.543 -10.9507 -3.37379
-16.8817 -11.0392 -2.58075
-16.4925 -10.8845 -2.11966
-15.1004 -12.2357 -1.77301
-16.8193 -10.7738 -3.38449
-16.3207 -11.2881 -2.97502
-14.727 -12.4223 -2.30025
-15.5682 -12.4537 -2.86197
-21.697 -10.8436 0.33608
-19.0709 -10.7392 0.0479973
-21.0147 -11.1216 -0.253537
-20.6743 -11.1926 -0.20016
-20.4791 -11.1008 -0.420027
-18.6616 -10.998 0.547157
-18.7878 -10.668 0.16116
-18.0248 -10.8659 0.233774
-20.2521 -11.3633 -0.460926
-18.1689 -11.3849 0.578838
-20.3633 -11.1305 -1.19783
-19.5252 -11.2884 -0.815416
-16.1749 -11.2957 0.367206
-16.55 -11.2717 0.915432
-16.9879 -11.3759 0.261804
-17.8313 -11.0599 -0.897106
-16.6908 -11.7472 -0.148668
-20.4969 -10.7305 -3.02489
-20.0687 -10.812 -2.98548
-16.2994 -12.0002 -0.589926
-16.5144 -11.9393 -0.371956
-20.2611 -11.164 -2.86263
-19.2481 -11.2867 -2.84172
-19.6648 -11.1125 -2.4932
-17.0706 -11.5606 -1.57013
-19.5568 -11.0352 -2.95297
-16.8616 -11.4758 -1.51587
-17.172 -11.2733 -2.27447
-17.8862 -10.883 -2.79018
-16.9802 -11.1933 -2.26952
-18.4728 -11.6132 -3.43463
-18.2076 -10.871 -3.66293
-16.033 -11.977 -2.16251
-16.0239 -11.3442 -2.15806
-16.1229 -11.8832 -2.22793
-14.9723 -11.9841 -1.70649
-15.3766 -12.2781 -2.86453
-17.2506 -9.49015 1.45138
-20.7907 -11.418 0.472252
-20.3466 -11.108 0.0156991
-19.572 -10.6691 0.0249739
-19.1352 -11.272 0.196396
-18.6532 -10.7496 0.204815
-18.2131 -10.9251 0.293549
-20.1467 -11.3328 -0.958442
-19.6261 -10.7042 -1.51026
-19.0094 -10.8707 -0.870409
-17.4693 -11.7378 -0.515212
-17.8237 -11.3395 -0.717655
-19.036 -11.2238 -1.91283
-16.3574 -11.4645 -0.726199
-18.3068 -11.1943 -1.10219
-16.4052 -11.7596 -0.8502
-16.5586 -12.121 -0.525094
-18.6499 -11.2783 -2.71158
-16.7438 -11.5188 -2.17199
-15.8094 -11.9743 -1.62036
-14.5791 -11.8176 -2.95825
-19.2023 -10.6451 0.696592
-18.9531 -11.2106 0.112106
-19.7673 -11.4017 -1.05618
-20.451 -10.6835 -1.77444
-17.1614 -11.5925 -0.218867
-16.1578 -11.9642 -0.652694
-16.0033 -11.8706 -0.75016
-15.7749 -12.0022 -1.11901
-17.3534 -11.2163 -2.4547
-18.6449 -10.7679 0.0946298
-19.8356 -11.1286 -0.619277
-16.66 -11.646 0.165076
-17.246 -11.3813 -1.07398
-17.3225 -11.4231 -1.46752
-17.0212 -11.6288 -1.72578
-17.2316 -11.2781 -1.90767
-16.9346 -11.1029 -2.13367
-15.8263 -11.7236 -2.14321
-15.6811 -11.7463 -2.57725
-16.0092 -11.2066 -2.42972
-18.9526 -10.5708 -0.315995
-17.9221 -12.0111 -0.726081
-16.4689 -12.1843 -0.705337
-16.6412 -11.5439 -0.90745
-16.8462 -11.7301 0.272171
-20.222 -10.627 -1.96781
-17.1263 -11.7401 -1.62857
-19.0235 -10.7734 0.153964
-17.6274 -11.3016 -1.85296
-17.1294 -11.8251 -1.2489
-16.1096 -12.1656 -1.5227
-17.0695 -11.2483 -2.29131
-18.3433 -11.379 -1.25768
-16.5475 -11.7842 -0.998764
-16.8615 -11.4954 -1.1519
-16.0742 -11.8275 -1.56992
-15.8792 -11.1429 -1.915
-15.6728 -11.6606 -1.88029
-16.0426 -11.1155 -2.97179
-15.2079 -12.3374 -3.14835
-14.8288 -12.4534 -2.87265
-14.746 -12.4997 -3.06488
-15.0326 -12.0649 -2.55203
-14.9915 -12.8569 -3.02858
-18.0449 -11.0186 -3.57308
-15.3001 -12.839 -2.91898
-18.4755 -11.1256 -3.56797
-14.6617 -12.2764 -2.67288
-15.4156 -12.2219 -3.10145
-15.0585 -12.8602 -2.41735
-20.2378 -10.8219 -3.68796
-14.972 -12.7201 -2.05228
-14.9696 -12.2707 -2.71902
-15.087 -12.0815 -2.7393
-18.5911 -11.2534 -2.9807
-18.8306 -10.8163 -3.09735
-20.1089 -10.916 -3.27958
-14.8536 -12.2773 -2.17053
-15.8657 -11.0373 -2.2925
-20.5283 -10.7776 -2.70353
-17.2278 -11.3955 -2.37829
-15.8126 -11.7332 -2.15075
-20.2398 -10.3762 -3.38483
-16.8739 -11.2341 -2.28364
-19.6225 -11.2389 -3.02587
-20.4677 -10.5522 -2.8588
-20.133 -11.1451 -3.03783
-19.2609 -11.3957 -2.8022
-20.6342 -10.6468 -2.82628
-19.1635 -10.5544 -2.72583
-19.6151 -10.9083 -2.44648
-18.6491 -11.163 -1.57473
-18.6284 -11.4415 -2.32073
-20.2369 -11.0341 -2.16035
-19.8387 -11.2159 -2.4023
-20.8138 -11.1901 -2.00402
-18.8442 -11.3659 -1.61714
-19.8677 -11.016 -1.97091
-19.732 -10.6645 -1.74865
-18.2645 -11.1177 -1.77185
-19.3996 -11.376 -1.88149
-18.7896 -11.1693 -1.41989
-19.3365 -10.7636 -1.65231
-16.6248 -12.2854 -1.26585
-20.6913 -11.0398 -1.65206
-20.6564 -10.8269 -1.59396
-20.7851 -10.4785 -1.70625
-19.6156 -11.067 -1.32231
-19.7615 -11.5125 -1.26142
-18.9155 -11.4677 -0.444103
-16.4545 -12.0263 -0.873582
-17.5038 -11.5513 -1.10239
-17.5792 -11.5524 -0.570498
-16.6885 -11.9928 -0.565292
-16.477 -12.0584 -0.0658004
-16.1854 -12.2188 -0.148232
-16.3035 -12.1965 -0.0085839
-17.2762 -11.5714 -0.326488
-17.7534 -11.4125 -0.446961
-20.7847 -10.7556 -1.16834
-20.2312 -11.0363 0.463738
-18.4167 -10.7534 0.340242
-19.1428 -11.0805 0.182066
-18.2383 -11.4607 0.613203
-17.7857 -11.6375 0.63241
-16.7053 -11.6823 0.136728
-20.1507 -11.4562 0.511593
-20.6778 -10.9106 0.492385
-16.882 -9.69927 0.64544
-16.9472 -9.99949 1.04529
-20.3599 -11.3548 1.15581
-15.291 -12.2708 -3.8348
-15.0846 -12.1583 -2.91788
-15.0413 -11.8502 -3.07678
-14.9955 -12.2258 -3.39946
-15.0627 -12.2057 -3.06519
-14.7902 -12.3755 -2.51682
-14.9137 -12.7996 -3.0118
-15.6599 -12.4356 -2.2923
-15.7339 -12.4326 -2.59906
-15.1438 -12.5581 -3.04991
-14.7585 -12.7259 -2.30185
-20.3195 -10.5243 -3.47019
-19.9996 -10.3065 -3.57147
-18.4121 -11.3064 -3.16646
-18.5842 -11.3917 -3.10315
-20.2215 -10.5824 -3.38061
-18.2048 -11.6137 -3.28737
-18.6821 -11.0063 -3.14271
-19.0184 -11.2051 -3.06762
-16.8306 -11.1966 -2.70088
-19.373 -10.9136 -2.66624
-20.1951 -10.748 -3.30756
-19.9776 -10.3852 -2.61388
-16.7507 -11.2079 -2.04535
-18.5812 -11.4771 -2.63614
-19.4481 -11.1509 -1.75371
-16.7785 -11.6242 -1.56168
-19.2918 -11.5785 -1.76479
-15.8517 -12.5417 -1.047
-17.9568 -11.3454 -1.70566
-19.1369 -11.035 -1.73491
-20.7322 -10.4959 -1.83732
-17.6712 -11.4705 -1.13486
-15.7228 -12.2378 -1.05467
-16.6656 -12.0084 -0.329925
-17.5162 -11.7823 -0.681119
-16.1536 -11.589 -0.874954
-16.5854 -11.481 -0.407255
-18.8474 -11.1803 -0.650597
-19.2974 -11.9802 -1.22585
-16.1453 -12.4176 -0.369331
-16.1864 -12.2175 -0.153401
-17.9004 -11.5477 -0.220532
-16.8512 -11.5264 0.0389128
-19.1021 -11.1426 -0.404366
-18.3536 -11.7262 0.02363
-17.3423 -11.7219 -0.203106
-20.9904 -10.8836 0.119353
-20.3339 -11.3457 -0.159538
-20.7615 -10.6749 -0.128088
-17.7659 -11.3331 0.30192
-20.3991 -11.0121 0.28923
-20.8394 -11.4198 0.51334
-21.1266 -10.6462 1.09586
-16.3751 -10.2804 1.5102
-16.7527 -9.76813 1.36006
-16.0022 -9.67959 1.78834
-16.787 -9.77814 1.49607
-14.5649 -11.8383 -3.32124
-15.2218 -12.324 -3.25113
-16.0769 -11.3101 -3.02858
-16.6049 -10.8671 -3.41822
-14.901 -12.3051 -2.96981
-18.68 -11.1316 -3.32063
-15.1795 -12.5917 -2.55658
-17.0115 -10.7877 -2.58103
-15.346 -11.8913 -2.59205
-16.0306 -12.0051 -3.05789
-18.2128 -11.4101 -3.12825
-19.5231 -10.9333 -3.3708
-16.407 -11.3184 -2.40895
-20.0542 -10.5406 -2.91098
-16.9798 -10.7731 -1.87175
-17.0525 -11.2688 -1.90777
-20.4546 -10.8858 -3.03931
-19.0602 -11.5515 -2.21651
-18.9067 -11.3257 -2.4601
-16.926 -11.2455 -2.19216
-16.7045 -11.6099 -1.93084
-18.321 -11.1472 -1.40091
-18.9973 -10.787 -1.74828
-19.7844 -10.5993 -1.61501
-18.3718 -11.847 -1.22905
-18.0585 -10.9849 -1.08749
-18.6238 -10.6747 -0.896501
-16.1762 -11.8976 -1.03609
-15.4981 -11.8729 -0.712125
-15.9197 -11.8494 -0.600617
-16.9409 -11.7467 -0.253669
-16.5337 -11.6879 -0.187865
-20.1743 -11.0333 -1.08731
-17.3047 -11.7562 0.157662
-20.8838 -11.3147 0.0118205
-20.9242 -10.9837 0.463205
-20.4853 -11.4555 -0.230577
-20.0994 -11.1597 0.466377
-20.2512 -11.0726 0.676983
-17.1172 -9.87432 1.22334
-17.2314 -10.2752 1.24681
-17.1323 -9.46498 1.3024
-15.9347 -10.1452 1.07948
-15.6292 -11.1268 -3.09452
-16.5527 -11.2652 -3.06717
-16.9723 -10.9025 -2.91113
-18.5023 -11.3436 -3.63122
-18.4477 -11.0736 -3.02648
-14.8304 -12.112 -2.62711
-18.7972 -11.1936 -3.7073
-14.7931 -12.3022 -2.05766
-17.3459 -11.2643 -2.59437
-15.8157 -11.9894 -2.6614
-16.2301 -11.6339 -1.94652
-16.1236 -11.576 -2.10244
-18.8151 -10.9018 -2.37404
-15.6489 -12.2895 -1.03423
-17.1198 -11.2169 -0.642058
-16.709 -11.7723 0.757055
-16.874 -12.3385 0.438851
-16.6101 -11.8529 -0.0580142
-17.2467 -9.96214 1.1414
-16.6626 -9.82704 1.91452
-17.0154 -10.0615 1.60702
-14.7121 -12.0665 -3.01506
-17.0606 -10.6651 -2.68796
-19.9715 -10.2378 -3.2922
-14.9905 -12.6124 -2.73242
-16.9838 -10.9029 -2.85507
-17.0357 -11.3021 -2.29056
-16.9004 -11.1512 -2.0065
-16.7176 -12.0979 0.11812
-16.8944 -11.7457 -2.18877
-15.7985 -12.1529 -0.375259
-16.4665 -11.8491 0.0261408
-20.2826 -11.0118 -0.921574
-15.8645 -11.7507 0.640201
-16.7031 -11.8833 -0.904222
-20.1164 -10.9931 -0.309612
-17.9184 -11.1829 -0.375889
-17.512 -11.6191 0.112816
-16.4575 -11.027 -2.2525
-16.9995 -11.6961 -1.83225
-16.2412 -11.655 -0.64581
-17.2325 -11.507 0.0395868
-17.3686 -11.3819 -2.0377
-16.9491 -11.1034 -1.7888
-17.5522 -11.1568 -1.69875
-18.3959 -11.3756 -1.12123
-17.1393 -11.4049 -0.26982
-17.0742 -11.8673 -0.405715
-20.0809 -10.5101 -3.81211
-20.0381 -11.1293 -2.81487
-19.8741 -10.8715 -2.87248
-16.9187 -10.8088 -2.97419
-18.7171 -11.5444 -2.63849
-19.4574 -10.9066 -1.7111
-20.7689 -10.904 -1.20168
-20.7268 -10.6281 -1.58711
-16.1055 -11.5297 -3.11569
-16.0783 -11.066 -2.59807
-20.7663 -11.1258 -1.74775
-20.5022 -10.7461 -1.3372
-18.1593 -11.2739 -2.55056
-18.664 -11.5347 -2.07394
-17.0025 -10.7147 -2.00767
-17.1854 -11.2815 -2.62278
-16.7618 -10.9808 -2.39313
-16.9958 -11.1505 -2.30476
-17.1362 -10.616 -2.09061
-19.9082 -11.1371 -1.50296
-17.8209 -11.147 -2.12552
-19.7515 -11.3651 -1.17082
-20.8894 -10.6472 -1.2649
-19.0889 -11.5892 -1.07542
-21.0234 -10.936 -0.178512
-20.3144 -10.8398 -0.562352
-19.6266 -10.841 -0.55731
-18.518 -11.4084 -1.3421
-17.651 -11.2052 -1.31416
-15.2458 -12.2198 -3.39338
-19.6562 -11.2205 -0.723401
-19.6478 -10.9714 -0.524176
-15.0346 -11.9278 -3.32951
-20.55 -10.8286 -0.00653604
-20.4879 -11.0591 -0.159155
-20.4334 -10.7424 -0.231999
-18.3138 -11.5227 -0.653298
-20.3697 -11.2894 -0.436921
-20.2468 -11.1441 -0.172889
-18.0543 -11.3453 -0.951902
-19.2789 -11.5763 -0.855584
-20.6941 -11.0348 0.400786
-17.7869 -11.2127 -0.975583
-20.4391 -11.0016 0.0595854
-14.8805 -12.5399 -2.72755
-16.6475 -11.9677 -0.837345
-21.0377 -11.0612 0.619722
-15.5127 -12.1654 -2.03928
-17.9484 -11.4885 -0.600139
-15.2858 -12.2486 -2.5319
-20.2475 -11.346 -0.0760054
-17.1992 -11.5855 -1.34787
-20.1128 -10.8746 0.128607
-17.0377 -11.1707 -0.817847
-15.0835 -12.5878 -2.39404
-18.9933 -8.95165 2.01459
-18.3554 -9.24172 2.15157
-16.1054 -12.0649 -1.09196
-18.8181 -11.4614 -0.0799771
-15.3995 -12.6104 -1.53116
-16.4162 -11.6288 -0.835138
-18.176 -11.3512 0.0786219
-15.802 -12.3558 -0.59568
-16.3477 -12.1676 -0.595621
-16.2892 -11.7026 -0.853973
-16.6391 -11.9708 -0.700695
-17.4858 -11.4825 0.437753
-16.3948 -11.4395 -0.563248
-17.2198 -11.5601 0.490686
-16.7314 -9.60445 1.18345
-15.61 -12.2421 -0.651228
-16.6033 -9.7105 1.05546
-17.3639 -9.94103 1.32896
-16.305 -12.4961 -0.157181
-17.2791 -11.158 0.636829
-16.282 -11.9101 -0.232142
-16.2252 -12.1281 -0.0302733
-16.0362 -11.6372 -0.672287
-16.1183 -11.7521 -0.152784
-17.2051 -10.5394 1.56845
-16.9453 -9.85952 1.18857
-16.5165 -10.1243 1.57812
-20.3317 -9.88384 -3.0171
-20.7375 -10.777 -2.98122
-20.4014 -10.7113 -2.86552
-20.0612 -11.1287 -3.15491
-18.7199 -11.172 -3.27957
-17.8146 -11.073 -3.84214
-19.2909 -10.7855 -2.5166
-18.3507 -10.9032 -3.1042
-17.0736 -11.1586 -3.00503
-19.066 -11.2484 -2.89939
-16.5383 -11.3835 -3.49021
-18.9205 -10.9399 -2.12017
-17.4986 -10.8974 -1.95533
-20.1723 -10.9428 -1.78967
-17.2401 -10.771 -2.4685
-18.8181 -11.0538 -2.05111
-16.7871 -10.7708 -2.22559
-18.0613 -11.9109 -1.73039
-19.5463 -11.2282 -0.931704
-15.1664 -12.291 -3.67286
-15.3941 -12.1444 -3.66673
-18.003 -11.2162 -1.68105
-20.5501 -10.5767 -0.815741
-15.8662 -11.7284 -2.15143
-17.2453 -11.7055 -1.98111
-19.8236 -10.9874 -0.355977
-16.1796 -11.1854 -1.98695
-16.1794 -11.4664 -2.02091
-15.3881 -12.2676 -2.92116
-20.1729 -10.9675 -0.661527
-15.023 -12.331 -2.98298
-14.7285 -12.6275 -3.07952
-15.2293 -11.706 -2.29897
-21.1759 -11.1973 0.794681
-18.0678 -11.503 -0.985649
-20.1479 -11.0992 0.0250152
-17.3668 -11.4973 -1.46272
-21.1196 -11.0902 0.475445
-21.2285 -10.8355 0.534531
-17.4785 -11.3217 -0.987799
-20.5235 -11.4802 0.0379886
-18.4662 -11.6858 -0.119121
-17.2148 -11.7129 -0.445869
-15.6586 -11.9305 -1.72061
-17.5264 -11.1617 -0.957737
-16.247 -11.5465 -1.10043
-16.1509 -11.9663 -1.56778
-17.1704 -11.6699 -0.0296971
-16.594 -11.9864 -1.19206
-18.3885 -11.5671 0.331167
-17.5632 -11.5142 -0.327461
-15.8224 -12.1377 -1.59711
-15.4367 -12.9877 -1.74043
-17.4524 -11.7604 -0.19437
-18.2177 -10.61 0.341827
-17.5227 -11.5094 -0.469192
-17.2801 -11.9429 -0.296682
-16.7402 -11.955 -0.0876969
-16.4236 -11.559 -0.260119
-15.6382 -11.5429 -0.597878
-17.3131 -9.5559 1.55451
-16.7806 -11.8866 -0.180571
-16.2034 -12.2198 -0.111374
-16.1258 -12.2121 -0.309016
-16.1093 -11.4703 0.66219
-16.5379 -11.8758 -0.452068
-16.1438 -10.4483 1.13772
-16.5465 -10.1424 2.50222
-19.6353 -10.5744 -3.83127
-20.5786 -10.752 -3.27526
-20.574 -10.7502 -3.3094
-19.1766 -11.4394 -3.60079
-19.8856 -11.0942 -3.28579
-20.3688 -10.7463 -2.1574
-19.2384 -10.8986 -2.97373
-20.0676 -10.5504 -3.03665
-20.9521 -10.7722 -2.59692
-18.4565 -11.1549 -2.92841
-17.8422 -11.1308 -3.4215
-16.4745 -11.3334 -3.20796
-16.8543 -11.3798 -2.79709
-17.2257 -11.1013 -2.36184
-18.9476 -11.1787 -2.35061
-17.1872 -11.2706 -2.59231
-19.3459 -10.7784 -1.53259
-19.4927 -11.4696 -1.48491
-20.1641 -10.8991 -0.763649
-20.2735 -11.1911 -0.657929
-16.2714 -11.8403 -2.53979
-15.4393 -12.0621 -3.2822
-16.6144 -11.834 -1.57991
-19.8007 -11.0308 -0.839531
-16.9098 -11.0723 -1.67383
-14.9267 -12.1049 -3.07558
-20.0835 -11.2222 0.237898
-15.2808 -12.0516 -2.85405
-18.2193 -11.3374 -0.816943
-16.9475 -11.0502 -1.15362
-20.8461 -11.2138 0.338462
-20.8767 -11.2191 0.431788
-21.1643 -11.1035 0.359823
-19.9566 -11.0205 -0.164384
-20.9841 -11.1674 0.907775
-17.7736 -11.4983 -0.876724
-18.4124 -11.4081 -0.67365
-15.2061 -12.4459 -2.65815
-19.9204 -11.2287 0.0586642
-21.1624 -10.8571 0.651909
-20.2067 -11.1768 0.113556
-17.034 -11.4797 -1.46815
-20.8161 -10.9605 0.662022
-20.3681 -11.4562 0.730004
-16.6559 -11.2983 -1.21666
-14.8947 -12.2492 -2.14612
-20.1035 -11.1779 0.59139
-20.3674 -10.9203 0.61052
-17.4014 -11.6404 -1.03562
-17.0385 -11.4758 -0.10097
-17.5583 -11.4857 0.650068
-16.2909 -11.9612 -0.370386
-15.8881 -12.2425 -0.610003
-16.7549 -9.69351 1.55486
-16.4529 -11.4271 0.24097
-16.0698 -12.0798 0.756132
-20.3897 -10.1212 -3.73424
-19.5791 -10.6743 -3.60893
-20.3388 -10.4017 -1.34511
-17.3557 -11.1988 -2.19453
-17.6854 -11.2153 -2.01921
-17.706 -11.5376 -2.23844
-16.9254 -10.8616 -1.28637
-18.9891 -11.5605 -2.10891
-19.4663 -11.9204 -1.52883
-17.7793 -11.3939 -1.69784
-16.2028 -11.5338 -2.10704
-19.0821 -11.2052 -0.303504
-16.6963 -11.8616 -2.05974
-20.3574 -10.9764 0.363045
-16.4808 -11.9381 -2.01083
-18.3901 -10.9829 -0.109771
-15.1917 -12.4783 -2.33548
-18.3877 -11.1877 0.0614532
-16.5469 -11.6098 -0.959193
-17.86 -11.5347 0.131812
-17.351 -11.5452 -0.486169
-18.9871 -11.5354 -2.80723
-16.7677 -11.1621 -2.70268
-18.0594 -11.3534 -2.16119
-17.7195 -11.122 -2.53382
-17.2381 -10.8996 -2.09912
-16.8627 -11.1947 -2.33905
-16.5611 -11.1573 -1.91088
-16.9743 -10.8829 -2.11876
-19.8178 -11.3232 -1.02427
-16.4352 -11.707 -2.28629
-20.1963 -11.3311 -0.440615
-16.3693 -11.6434 -1.73922
-19.5504 -11.085 -0.536045
-16.6467 -11.7835 -1.50142
-17.2727 -11.3573 -1.48938
-18.669 -11.1125 0.0742399
-16.0112 -11.4838 -1.27933
-17.3538 -11.5997 0.213667
-17.8622 -11.5294 0.134464
-17.2345 -11.6438 -0.29011
-16.2126 -12.165 -0.192515
-16.4038 -11.9714 -0.367553
-20.051 -10.704 -2.7724
-18.9562 -11.2029 -2.70661
-18.0677 -11.2606 -2.13489
-19.691 -11.2576 -0.787627
-16.1008 -11.2263 -2.19299
-19.0125 -10.8245 -0.452508
-16.4387 -11.418 -1.47808
-16.0668 -12.1616 -0.73601
-17.3976 -11.3887 -0.269624
-17.012 -11.2945 0.76598
-16.4757 -11.6606 0.525865
-17.5551 -11.2837 -2.19482
-17.6399 -11.5673 -1.75985
-17.4122 -11.6696 -1.37156
-17.5015 -11.0626 -1.42766
-18.4224 -10.8544 0.0977528
-16.9847 -11.7508 -0.591372
-16.2386 -11.8984 0.209126
-20.0294 -11.3624 -1.12134
-16.0853 -11.5901 -2.74238
-16.6971 -11.7233 -0.647854
-16.7796 -11.6942 -1.58747
-16.223 -11.8203 -1.5069
-16.4483 -11.203 -1.57586
-15.736 -12.0923 -1.20068
-15.4407 -11.1965 -3.02768
-20.2347 -10.5611 -2.86837
-20.4915 -10.8693 -1.74525
-20.0908 -10.8473 -2.6453
-19.353 -11.1184 -3.8097
-18.9593 -10.9492 -2.85931
-20.792 -10.8151 0.0064142
-20.1888 -10.9681 -0.519274
-19.3508 -11.2906 -2.35425
-20.615 -11.5703 0.961866
-18.4558 -11.1227 -3.16578
-18.9164 -11.8575 -3.24418
-20.2263 -11.3405 0.746448
-17.7373 -10.1447 1.271
-16.4321 -11.0601 -2.92172
-16.7019 -10.0237 0.829026
-17.6822 -11.4548 0.011904
-16.0726 -11.0203 -3.16729
-17.7461 -11.5955 -0.587456
-16.3927 -11.2332 -2.9545
-16.219 -10.0503 1.14019
-17.3782 -11.1883 -0.991942
-17.0999 -11.7013 -1.28481
-16.1763 -9.47663 2.19307
-17.3183 -12.0137 -0.340762
-15.7457 -11.2105 -2.44027
-15.7385 -11.6114 -1.85097
-16.921 -11.7413 -0.272751
-16.4777 -12.1018 -0.475247
-16.2258 -12.0987 -0.868839
-16.7287 -11.6948 -0.486512
-15.2979 -12.2614 -1.79032
-16.4871 -11.675 -0.397288
-16.3196 -11.9976 -0.217337
-16.4786 -12.2968 -0.950363
-16.4935 -11.8425 0.03083
-15.0421 -12.1908 -3.51769
-14.8966 -12.3469 -3.07087
-20.8204 -10.7542 -2.53958
-19.9614 -10.6916 -3.1203
-19.7128 -10.9593 -3.24241
-20.475 -11.0885 0.498554
-20.7491 -10.9959 0.500436
-18.4153 -10.5994 -3.4616
-19.4733 -11.1262 -1.37838
-20.0049 -11.2313 -0.177947
-19.914 -11.2964 -1.44338
-18.4926 -11.0648 -3.32261
-19.9317 -11.4148 0.3813
-18.6905 -11.5927 -3.12617
-19.0493 -11.3305 -0.623682
-19.7443 -11.2904 1.03611
-18.1457 -11.0873 0.569687
-18.0022 -11.3475 -0.884894
-17.1476 -10.9829 -2.09165
-17.556 -11.2478 -1.05939
-17.0013 -10.9704 -0.853854
-16.949 -11.6272 -2.05005
-16.6519 -11.4059 -1.17084
-17.1407 -11.3408 -0.993689
-17.4734 -11.367 -0.74772
-15.6123 -11.1775 -3.08308
-15.9596 -11.5693 -1.86774
-16.5726 -11.4397 -0.386392
-16.8108 -11.548 -0.0655786
-16.7709 -11.6765 0.354218
-16.0837 -11.5524 -1.46789
-16.2221 -11.5811 -0.583043
-16.1567 -12.0276 -0.480201
-16.2881 -12.4627 -0.288421
-16.1396 -11.6876 0.0455241
-20.1144 -10.4017 -1.21296
-20.3769 -11.4903 -0.164507
-19.6701 -11.7093 -1.37578
-20.3238 -11.3976 0.369266
-20.4042 -11.1558 0.667491
-18.6249 -11.0463 -0.854099
-18.4462 -10.392 -0.898764
-19.7379 -11.6368 -0.450898
-19.6004 -10.9848 -0.188735
-18.0574 -11.5445 -3.21171
-17.7495 -11.3117 -1.90783
-17.2535 -10.8723 -1.64593
-16.8114 -11.663 -2.05754
-18.654 -11.0167 0.318198
-17.4812 -11.3882 -1.14724
-17.9629 -11.465 0.497749
-16.9113 -11.2282 -1.30626
-17.1503 -11.4042 -0.771754
-17.0916 -11.7446 -1.89109
-17.3874 -11.4879 -0.0100334
-17.3429 -11.3282 -0.101567
-16.6531 -11.8305 -1.86244
-15.357 -11.0616 -1.90736
-16.2642 -11.6019 -0.190371
-15.9857 -11.9735 -0.975902
-16.3903 -11.7077 -0.00771472
-16.1014 -12.1911 -0.381408
-15.6275 -12.0311 -0.681158
-16.1027 -12.234 -0.719967
-14.8636 -12.5993 -2.72468
-19.3778 -10.6705 -2.55565
-20.8884 -10.9903 0.640696
-17.5058 -10.544 -2.4173
-17.894 -11.0784 0.396329
-17.5075 -11.158 -1.17354
-16.8283 -11.6456 -2.27361
-17.4609 -11.7533 -0.769004
-17.5842 -11.2367 -0.282908
-16.8035 -12.1595 -0.990047
-15.5573 -11.6248 -2.34955
-16.7705 -11.7598 -1.16264
-21.2435 -11.0621 -0.0489039
-20.5145 -11.3367 0.667561
-19.3937 -10.9155 -1.86696
-18.6103 -11.2565 -0.840648
-18.6558 -11.7507 -1.9615
-16.9793 -11.4619 -0.775788
-17.0017 -12.1885 -0.75913
-15.0966 -12.5156 -2.92743
-19.594 -11.0234 -0.87781
-19.5783 -10.8734 -0.958607
-18.9651 -10.7153 -0.0698534
-18.8022 -11.0276 -0.51013
-16.7775 -11.4583 -1.4923
-17.6391 -11.7902 -1.39814
-16.3995 -11.9874 0.0119631
-20.1649 -11.2594 -0.453888
-18.4182 -10.7888 -1.11393
-18.4221 -10.7399 0.357706
-17.6586 -11.3769 -0.624256
-17.1074 -11.5402 -1.0375
-17.248 -11.5207 -1.65777
-15.7472 -12.1731 -0.76766
-19.7271 -10.6695 -0.613147
-15.9168 -11.1161 -2.46358
-17.1385 -10.9188 -2.27703
-15.8822 -11.8564 -1.67898
-15.8072 -11.6293 -1.91644
-20.7744 -10.989 -0.537784
-20.6463 -11.1458 -0.298523
-20.6517 -10.8814 -2.29137
-17.0204 -10.0057 1.65189
-20.2859 -10.9848 -1.88794
-19.859 -10.9356 -2.38003
-20.1146 -10.8852 -2.75323
-16.7896 -10.2823 1.64052
-19.4544 -10.8068 -1.47277
-18.9902 -10.8081 -3.5094
-18.3067 -11.8084 -0.249304
-18.1033 -11.3682 -0.963746
-17.7511 -11.5773 -0.283706
-17.6233 -11.511 -0.85593
-17.5186 -11.1354 -0.805735
-17.865 -11.2955 -2.25671
-16.7143 -10.9165 -2.65179
-16.776 -12.1467 -0.761136
-17.157 -11.6158 -1.25857
-16.9274 -11.6168 -0.639386
-17.0284 -12.1339 -0.216052
-16.8484 -11.6614 -0.946654
-16.9023 -11.6261 -1.12769
-16.0659 -11.3994 0.454445
-16.2073 -12.1067 0.435125
-17.012 -11.6682 -3.17203
-15.9272 -11.8368 -1.05864
-15.7866 -12.5183 -0.603951
-15.5705 -12.1563 -3.04522
-15.551 -12.3835 -2.61311
-14.4173 -12.8587 -2.77068
-20.6956 -11.2181 0.844347
-20.7906 -11.1468 0.0954319
-20.2863 -11.5613 -1.64139
-17.263 -9.83045 1.10167
-19.1711 -11.2238 0.187228
-19.2798 -11.5594 -0.0684875
-19.378 -11.3891 -0.179703
-20.2154 -10.5533 -3.20097
-20.2275 -10.6754 -2.66385
-19.6982 -11.2595 -1.61914
-18.3185 -10.8868 0.206687
-16.4589 -10.0689 1.57835
-19.6513 -11.2264 -3.39705
-19.0462 -11.2026 -1.70539
-18.355 -11.7494 -1.12963
-18.2582 -11.3198 -1.39777
-17.5334 -11.1897 -0.247121
-17.56 -10.9574 -1.31577
-16.9179 -11.4708 0.251145
-17.2503 -11.2926 -0.967096
-16.8073 -11.4723 0.672896
-16.8463 -11.5893 -1.11399
-16.2822 -12.1738 -0.0621722
-16.1635 -11.6507 -0.305877
-16.2101 -12.0177 0.109386
-16.5089 -11.7613 -0.100394
-16.4595 -12.0216 -1.08679
-15.8596 -12.0542 -0.865779
-16.433 -12.0667 -0.291287
-16.0055 -11.3732 -1.82577
-15.4198 -12.8718 -3.05203
-15.3767 -12.3892 -1.88559
-15.5225 -12.6663 -3.64359
-20.744 -10.3959 -1.73256
-20.7195 -10.9276 -1.40482
-18.8438 -10.8837 0.448968
-20.2568 -10.6641 -3.04316
-18.7068 -10.9009 -0.726644
-17.85 -11.4303 0.264199
-17.5762 -11.6046 0.343656
-18.008 -11.4882 -0.892094
-17.387 -11.8089 0.500261
-17.8118 -11.4381 0.391474
-17.5749 -11.6341 -0.451533
-18.5095 -11.8117 -3.32755
-16.9936 -11.6925 -0.14658
-16.6412 -11.4207 0.851006
-17.1533 -11.3611 -2.11676
-16.4318 -11.8482 0.801544
-16.8297 -11.5402 -1.08065
-16.7134 -11.4994 -1.87737
-16.5214 -11.3071 -2.12065
-16.2624 -12.4182 -0.783096
-16.9048 -11.4915 -0.341401
-16.5675 -11.6899 -0.274192
-16.3924 -12.0259 0.304662
-16.3072 -12.123 -0.23161
-16.6233 -10.9388 -1.68007
-15.815 -12.3341 -0.749163
-15.3361 -12.6027 -2.81062
-15.2289 -12.7569 -2.81374
-15.0125 -12.372 -3.00552
-14.7998 -12.078 -2.51752
-14.8825 -12.5135 -2.13876
-18.1381 -10.3722 1.48306
-18.6448 -11.0877 -0.07906
-18.9466 -11.1248 -1.28078
-19.6101 -10.4624 -3.03151
-19.5162 -10.7781 -3.04978
-17.8683 -11.6699 0.58766
-17.1695 -11.4541 0.152285
-17.5623 -11.4619 -0.707521
-18.5777 -11.3757 -3.23127
-17.7301 -11.6039 -0.293146
-17.6158 -11.4012 -0.30558
-17.4456 -11.5131 -0.870122
-17.3372 -11.8114 -1.00532
-16.8954 -11.7786 0.559852
-16.568 -11.322 -1.60966
-17.0434 -11.8139 -1.70978
-16.9543 -11.5575 -1.141
-16.8991 -11.4464 -1.97779
-16.7437 -10.8817 -3.0097
-16.0556 -12.0534 -0.666327
-16.5036 -11.4758 -1.12574
-16.5265 -11.8095 -1.06123
-16.1868 -11.901 -1.25997
-16.5963 -11.7344 -0.642199
-16.4016 -11.7866 -0.74053
-16.4542 -11.004 -2.97513
-14.9238 -12.538 -2.45243
-14.6833 -12.7133 -2.60894
-20.6899 -11.1022 -1.34831
-19.8795 -11.0829 -0.986925
-19.1949 -10.7515 -2.7882
-17.3618 -11.5292 -0.401995
-17.4869 -10.9542 -0.497406
-17.6021 -11.4697 -0.969222
-17.2353 -10.9395 -0.860367
-17.2469 -11.8229 -0.916549
-17.3179 -11.1634 -0.968546
-16.978 -11.7036 -1.6634
-16.2635 -12.4497 -0.186742
-16.364 -11.9777 0.178901
-15.2896 -11.839 -2.78476
-15.2319 -11.8955 -3.63691
-15.4393 -12.2487 -2.75144
-14.8903 -12.5271 -2.50443
-20.7567 -11.1555 0.712568
-20.5108 -11.7177 -0.0403415
-18.4142 -11.2449 0.136399
-18.6624 -10.4839 -0.764079
-18.2605 -11.3945 -1.37586
-16.6651 -11.0578 -0.958453
-15.9309 -12.3199 -0.570491
-16.9875 -11.6701 -0.622742
-19.4947 -11.5854 -0.540686
-17.0556 -11.4623 -1.02648
-15.5417 -12.4723 -1.00734
-18.8356 -10.455 -1.25365
-18.3067 -11.3397 -0.708408
-16.7669 -11.2899 -1.4145
-16.8703 -11.8306 -0.993303
-19.1347 -10.9926 0.0703828
-16.9057 -11.9809 -0.598289
-17.2903 -11.6092 -0.967749
-16.9242 -10.5455 -2.25571
-15.6275 -11.8429 -2.76999
-16.4565 -11.7157 -0.498189
-16.473 -11.9634 -1.03129
-20.6042 -10.9229 1.04737
-17.5671 -9.67874 1.79202
-20.3829 -11.2727 0.298636
-16.6644 -9.89532 1.6333
-16.5181 -9.87222 1.04285
-20.7594 -11.3736 -0.380029
-20.847 -10.9684 -0.345123
-20.8167 -11.1143 -0.550288
-19.1747 -10.759 0.379053
-17.6952 -11.1877 0.989052
-19.876 -10.7161 -1.2311
-18.7536 -11.2763 -0.306651
-19.2766 -11.4521 -0.628499
-18.2759 -11.4263 -0.0380696
-19.8568 -10.4975 -1.48447
-18.7052 -11.0434 -0.71592
-18.298 -10.9719 -0.837089
-20.7775 -10.3873 -2.07805
-18.4741 -11.5695 -0.846967
-17.586 -11.6448 0.011205
-17.8704 -11.5017 -0.413386
-17.5198 -11.3199 -0.462628
-20.4839 -10.7367 -2.79423
-20.8775 -10.5457 -3.4679
-20.0478 -10.9 -2.88974
-18.0618 -11.5493 -1.05327
-20.8099 -10.9365 -3.08278
-18.4257 -11.165 -0.85843
-20.2768 -10.3411 -2.35552
-16.9123 -11.3285 -1.17878
-16.8128 -11.7209 -0.210936
-18.3787 -11.0752 -1.41821
-19.5312 -11.3522 -1.81318
-16.471 -11.9245 0.370777
-18.4433 -10.6249 -1.54396
-16.8504 -11.3335 -0.253427
-20.2335 -10.8204 -3.13825
-17.8356 -11.8096 -1.80687
-19.1728 -10.8498 -2.79835
-19.1742 -11.0926 -3.03705
-17.1065 -11.7994 -1.0473
-19.749 -10.6036 -3.38149
-18.3877 -11.5368 -2.36476
-19.4012 -10.8643 -3.7144
-16.6375 -11.6881 -1.00545
-15.7914 -12.2713 -0.43959
-18.1679 -10.9336 -2.06319
-19.3686 -10.6884 -3.98801
-18.459 -10.7638 -3.23986
-17.152 -11.2744 -2.074
-15.633 -12.4158 -1.13082
-16.4345 -11.6765 -2.90598
-15.3036 -12.3402 -2.09401
-15.6468 -12.2654 -3.07586
-15.6676 -12.3907 -3.15752
-14.9582 -12.382 -2.93937
-14.631 -12.5914 -3.0819
-20.9439 -11.1242 0.367585
-20.974 -10.9999 0.586041
-20.3427 -11.1745 0.612585
-21.372 -10.7299 0.2076
-16.7652 -9.74045 1.1755
-16.3163 -9.94811 1.61061
-20.4728 -11.0248 -0.0371128
-16.4353 -10.1579 0.938277
-19.0034 -10.5085 0.365475
-15.8829 -10.0056 1.11836
-18.6583 -10.9931 0.152301
-18.1118 -10.96 0.212332
-18.4103 -10.601 -0.564455
-20.0249 -11.1101 -1.19364
-19.3191 -11.135 -0.753777
-19.5302 -11.064 -1.15511
-16.8285 -11.5402 -0.0345168
-18.3423 -11.7757 -0.232537
-17.1306 -11.5082 0.462605
-19.3988 -11.1582 -1.44481
-19.7097 -10.8094 -1.67465
-17.9059 -11.6185 -0.691324
-18.305 -11.4825 -0.767453
-17.2932 -11.8455 -0.558594
-19.6615 -10.8663 -2.53
-20.6015 -10.5733 -3.50135
-18.7202 -11.7554 -1.7687
-18.0066 -11.7076 -1.09725
-19.3045 -11.1881 -1.85648
-19.849 -10.491 -3.19928
-16.0576 -11.8801 0.276579
-19.3081 -11.3429 -2.50177
-16.769 -11.5434 -0.522906
-16.3856 -11.9194 -0.39151
-18.1796 -11.2797 -2.88603
-19.0388 -10.9944 -3.30142
-18.7112 -11.1205 -3.1953
-17.4472 -11.3678 -1.92201
-18.965 -11.4798 -3.19992
-17.2019 -10.6046 -2.43554
-18.4682 -10.6529 -3.08802
-15.8963 -11.9021 -0.57011
-15.2371 -12.3941 -1.01135
-15.8758 -11.7326 -1.58249
-16.2494 -11.2772 -2.0694
-15.8398 -11.4278 -2.40411
-15.3524 -12.6356 -1.70442
-15.8037 -12.3369 -2.85554
-15.1468 -12.8301 -2.51478
-15.3156 -12.7092 -3.06723
-14.8384 -12.7907 -3.80696
-14.6142 -12.9838 -2.84496
-14.2557 -12.7412 -2.94045
-20.346 -11.8244 1.06094
-16.5506 -9.85926 1.09032
-17.0758 -10.2574 1.12273
-16.4653 -9.83056 1.63631
-20.5024 -11.2369 -0.0730699
-18.4164 -10.8668 0.400791
-20.2094 -11.4122 -1.02274
-19.271 -11.1966 -0.958541
-20.223 -10.9133 -1.71595
-18.1626 -11.6515 -0.859082
-16.3025 -11.94 0.56653
-17.4545 -11.2488 -0.533759
-17.9869 -11.5183 -0.00247063
-17.2967 -11.958 -0.396182
-16.5254 -12.0908 0.423396
-20.6558 -10.9089 -3.59269
-18.9897 -11.0744 -1.6026
-19.7913 -11.2243 -2.25363
-18.9167 -11.775 -1.64631
-17.6315 -10.9475 -1.17709
-20.5933 -10.9952 -3.11438
-20.4642 -10.3663 -2.43677
-19.088 -10.67 -3.46864
-16.9673 -11.3745 -1.17698
-18.5307 -11.1791 -2.92927
-19.1771 -11.3663 -3.26266
-15.7016 -12.2227 -0.856472
-16.4076 -11.8119 -0.50446
-15.9523 -12.0461 -0.558873
-17.1302 -11.8152 -2.12476
-17.4652 -11.3091 -2.10931
-17.8272 -11.2164 -3.16958
-17.0214 -11.0631 -2.50844
-18.5702 -11.3276 -3.52988
-16.036 -11.5376 -2.07768
-15.7792 -11.8525 -2.31546
-16.501 -11.2122 -3.15716
-15.5855 -12.6278 -1.65628
-15.6176 -12.0043 -2.94443
-17.5064 -9.52241 1.70583
-20.2235 -11.4307 -0.201176
-18.3477 -11.4221 0.109127
-19.8929 -11.6442 -0.198473
-16.7872 -11.3052 -0.0196808
-20.1644 -11.2418 -1.77748
-16.9123 -11.6454 0.590751
-19.2833 -11.2955 -2.61041
-19.6166 -10.9662 -2.59372
-16.6692 -11.8907 -1.11623
-19.3323 -11.1401 -2.47598
-19.6792 -11.027 -3.32467
-16.1263 -11.9 -1.10252
-18.4078 -11.0643 -2.74129
-16.305 -12.1493 -1.20825
-17.642 -11.4219 -1.89822
-15.5664 -12.6174 -1.2756
-17.074 -10.78 -2.68519
-18.5903 -11.2867 -2.87278
-16.5236 -12.0119 -1.52905
-17.4197 -10.8924 -1.96708
-15.1177 -12.6514 -1.99583
-20.7905 -11.4981 0.342425
-19.9331 -11.1405 -0.647259
-18.6063 -11.3099 0.10668
-17.7381 -11.3942 0.252017
-20.3815 -11.0995 -1.26052
-19.5783 -11.6497 -1.35392
-19.9923 -11.0069 -0.887596
-17.5721 -11.7571 -0.770057
-16.5119 -12.0597 -0.341799
-16.8916 -11.8711 -0.105253
-18.4888 -11.4142 -2.87997
-16.4703 -11.1313 -2.20188
-15.1207 -12.7499 -1.86036
-14.8395 -12.3151 -3.26932
-20.6905 -10.9342 0.803303
-18.6257 -10.959 0.185276
-19.9585 -11.0384 -0.44887
-19.3855 -11.0061 0.468763
-18.6094 -10.9563 0.010443
-16.472 -11.0544 -0.333193
-16.2567 -11.7379 -0.231957
-16.9704 -11.3155 -2.31205
-15.8324 -10.7906 -2.19925
-16.734 -10.9743 -3.20313
-15.047 -12.2826 -3.25164
-17.6956 -10.7523 0.598773
-19.9315 -11.6061 -0.505276
-18.31 -11.4156 -0.694277
-16.4442 -11.4576 0.910678
-19.4385 -11.0617 -0.698278
-19.4949 -11.3176 -1.22529
-16.5725 -11.312 -1.93929
-15.4392 -11.8201 -1.13894
-16.1239 -11.5384 -1.92606
-16.9212 -11.2152 -1.74763
-14.9577 -12.4314 -3.52152
-15.3582 -12.1302 -3.12208
-15.2966 -12.4754 -3.14621
-14.8973 -11.9675 -2.74072
-14.5535 -12.8481 -2.81599
-15.8267 -10.6227 -2.97231
-15.0845 -11.7023 -2.92937
-18.354 -11.056 -4.11236
-14.8076 -12.5305 -3.13763
-19.3404 -11.0357 -3.48079
-16.1989 -11.0598 -2.37579
-16.8695 -11.213 -2.34213
-18.4609 -11.318 -2.91464
-18.9632 -11.5509 -3.33484
-18.8189 -10.925 -2.87545
-20.1507 -10.6434 -3.13393
-20.1395 -10.6148 -3.02986
-15.168 -12.4855 -2.39974
-18.5664 -11.5122 -2.65359
-20.4993 -11.3006 -3.03359
-14.9724 -12.6777 -2.34643
-20.0681 -10.5055 -3.3636
-15.7945 -11.8775 -1.96936
-16.92 -11.3448 -2.05837
-20.0105 -10.5388 -2.45435
-19.6579 -11.1864 -2.71865
-19.1425 -10.711 -2.41823
-20.7566 -10.7307 -2.66255
-19.0173 -11.2458 -1.77701
-20.4293 -10.7759 -2.0017
-17.4593 -10.7871 -1.48672
-19.0321 -11.559 -2.13265
-20.3475 -11.267 -1.98952
-16.0228 -11.6889 -1.40625
-15.8431 -12.2387 -0.902728
-18.3543 -11.3055 -1.12918
-20.6812 -10.8782 -1.39235
-20.0069 -10.6463 -1.23536
-15.7183 -12.1736 -0.507033
-18.6323 -11.2123 -1.13609
-18.0976 -11.2071 -0.786473
-16.6493 -12.1574 -0.478249
-17.8592 -11.3403 -0.732175
-17.3706 -11.4569 -0.451872
-20.0665 -10.9837 -0.614063
-17.177 -11.5688 -0.494115
-16.7874 -12.0436 -0.169808
-19.4327 -11.087 -0.752728
-17.4374 -11.9538 0.179527
-16.8789 -11.7184 -0.213769
-19.8715 -11.5461 -0.751255
-18.8652 -10.957 -0.774916
-19.9894 -10.7584 -0.717978
-19.2933 -10.7349 -0.242314
-17.752 -11.5942 0.240187
-17.5903 -11.122 -0.194658
-20.4163 -11.5731 -0.270434
-17.8491 -10.8567 0.366831
-18.5093 -11.1052 0.623402
-17.7488 -11.6385 0.824472
-17.7128 -11.026 0.470193
-16.2722 -11.9204 0.166166
-19.7963 -11.6569 0.448099
-20.8542 -11.3304 0.80812
-16.4338 -9.95296 1.34094
-16.6022 -9.97639 1.34367
-17.1547 -10.3899 1.84579
-14.8084 -12.2588 -3.30968
-15.0735 -12.5525 -3.27993
-15.2601 -12.8142 -3.43735
-14.5545 -12.3334 -3.04473
-15.3043 -12.3233 -3.06115
-16.7081 -11.0995 -3.01416
-19.928 -10.6928 -3.32996
-15.5591 -12.0222 -2.36447
-16.3972 -11.3646 -2.20586
-18.0329 -10.9262 -3.21254
-18.9805 -11.2479 -3.05543
-16.1929 -11.6367 -2.57051
-18.4338 -11.4247 -2.44726
-18.3245 -11.5328 -2.88293
-18.7454 -10.8491 -3.01246
-17.1939 -11.1521 -2.01612
-17.4838 -11.1704 -2.26708
-20.613 -10.9295 -2.95322
-18.9597 -11.4552 -2.52813
-16.7806 -11.4126 -1.53039
-16.7287 -11.7329 -1.59632
-18.3973 -11.456 -1.55326
-19.4033 -11.432 -1.84386
-18.8111 -11.9225 -1.42637
-19.2702 -10.9796 -1.72286
-17.5439 -11.1078 -0.848559
-17.5616 -11.1467 -1.11312
-17.7155 -11.4603 -0.883566
-19.8238 -10.9212 -1.46232
-19.8242 -11.438 -1.53712
-18.8117 -10.953 -1.41726
-19.1289 -10.6252 -1.02753
-17.9556 -11.752 -0.919485
-17.9843 -11.5705 -0.887936
-15.9355 -12.2011 -0.797482
-20.6872 -11.2315 -1.05448
-16.5668 -11.7459 -0.350208
-17.7187 -11.2799 -0.413146
-17.165 -11.1956 -0.315054
-16.6637 -11.8218 0.516152
-20.126 -11.4906 -0.113821
-20.312 -10.9831 -0.604201
-21.1887 -11.5523 -0.0875401
-17.3142 -11.2293 0.0757999
-20.4215 -10.9237 0.232205
-17.3545 -11.2006 0.479523
-18.421 -11.2626 -0.249464
-17.9874 -11.51 0.0803758
-19.9786 -11.5735 -0.0085451
-20.6439 -11.3922 0.859562
-16.5879 -9.9941 1.36361
-16.2762 -9.95345 2.62885
-14.8766 -11.9141 -3.32993
-16.4165 -11.6738 -3.33449
-15.2818 -12.3309 -2.96514
-14.9549 -12.7508 -2.58438
-15.9138 -11.4527 -2.43445
-15.9222 -11.2494 -2.69414
-15.8441 -11.6851 -1.90538
-16.0804 -11.6265 -2.15866
-20.026 -10.7859 -2.77677
-18.5034 -11.4766 -2.33138
-17.2375 -11.4958 -2.09797
-19.1601 -11.4332 -2.26662
-19.7298 -10.9026 -2.65588
-19.7789 -11.1639 -1.63233
-16.1376 -11.8573 -1.10442
-17.4638 -11.5659 -1.37713
-17.8047 -11.2984 -1.48447
-19.5765 -11.2795 -0.657832
-20.5014 -10.7195 -1.46229
-19.241 -10.8639 -0.39332
-20.4923 -11.148 -0.360597
-20.8953 -10.9317 0.498042
-20.9165 -10.7793 0.368854
-16.686 -10.0193 1.579
-15.5184 -12.3701 -3.44578
-16.7248 -10.7224 -2.71772
-19.8674 -11.0066 -3.33449
-19.9064 -11.0966 -3.44644
-15.3318 -12.4624 -2.44848
-16.477 -11.3438 -2.38064
-17.2275 -11.2723 -2.31793
-18.2286 -11.624 -2.64176
-17.0411 -11.5511 -1.87395
-16.9161 -11.2775 -2.03157
-16.6762 -11.1763 -2.15372
-16.4334 -11.1797 -1.34526
-15.5275 -11.9007 -1.27401
-15.8078 -12.1607 -1.20538
-16.0471 -12.378 -1.03809
-16.0324 -12.0589 -0.622611
-20.135 -10.9419 -1.19467
-15.7328 -12.7882 -0.901672
-16.2577 -11.7321 -0.290236
-19.0412 -10.9335 0.0474684
-16.6987 -11.4375 0.204521
-18.7183 -10.5727 0.485511
-20.7608 -11.0624 0.351001
-17.176 -9.94466 1.18848
-20.1656 -10.5945 -3.41262
-15.1243 -12.1712 -2.03697
-17.3087 -11.0096 -2.33708
-18.3588 -11.0948 -1.63262
-17.7203 -10.8576 -1.36352
-17.6581 -11.6039 -0.163107
-17.9711 -11.4481 0.0140175
-20.1183 -11.5377 0.905363
-16.2495 -9.54029 2.02943
-17.1035 -11.274 -1.92052
-19.1797 -11.0066 -0.516306
-19.6599 -10.9671 -0.706986
-15.5219 -11.8786 -2.76316
-16.4966 -11.306 -1.4621
-20.7991 -11.3727 -1.51485
-19.36 -11.2349 -1.10196
-17.397 -11.4148 -0.561729
-15.4812 -11.7182 -2.70475
-17.0432 -11.8245 -1.17344
-19.8364 -10.8411 -0.658738
-16.6706 -11.5494 -0.201572
-19.0183 -10.7115 -0.171393
-17.5298 -11.1781 -1.25609
-16.6326 -11.7682 -0.584782
-20.1242 -11.4118 0.0155198
-16.1416 -11.6599 -1.97479
-16.4491 -11.9249 -1.59249
-19.8682 -10.685 -3.47707
-19.5395 -10.3777 -3.43696
-20.2259 -11.5097 -3.53463
-20.055 -11.2302 -3.53109
-17.9838 -11.3163 -3.52543
-18.1895 -11.7008 -3.52806
-16.6112 -11.0088 -3.16176
-16.7968 -11.4307 -3.30342
-18.6964 -11.7598 -3.32106
-19.4754 -10.7967 -2.66047
-19.8634 -10.7117 -2.5003
-18.7838 -11.47 -2.66246
-21.0438 -10.9657 -1.8609
-19.526 -10.8133 -2.13796
-16.7924 -11.2255 -2.32452
-15.1074 -12.5709 -3.35865
-20.8771 -10.7538 -1.5789
-16.0106 -11.2143 -2.7692
-20.5061 -11.229 -1.30122
-15.621 -12.3232 -2.06029
-14.9914 -12.4704 -2.99794
-19.9248 -10.8547 -1.52152
-18.2948 -11.3892 -0.992657
-17.3795 -11.8343 -1.50037
-16.9895 -11.7866 -1.88809
-19.9226 -10.8606 -0.720905
-17.9961 -11.4063 -0.671029
-18.5044 -11.8676 -1.61553
-16.8379 -11.3341 -1.31392
-18.1797 -11.6304 -1.34516
-19.675 -10.8492 -0.16218
-19.8133 -11.3879 -0.532741
-20.7074 -10.9765 0.189479
-20.7786 -11.0882 -0.229682
-20.7604 -11.4449 -0.134693
-18.3502 -11.184 -0.431011
-17.3692 -11.6375 -1.03301
-20.3679 -11.3205 -0.396376
-17.5203 -11.6991 -0.675746
-15.9382 -11.8386 -1.10956
-20.3476 -11.1168 0.113297
-20.7805 -11.3741 -0.0128308
-18.3936 -11.2705 -0.301014
-20.4419 -10.9734 0.485303
-20.6656 -11.0457 0.616362
-16.3264 -12.0509 -0.621822
-20.4545 -11.4611 0.658879
-17.3319 -11.4016 -0.13249
-16.8023 -11.5004 0.150265
-18.506 -11.4244 0.437831
-18.4319 -11.4114 0.600759
-20.8212 -10.9787 0.532846
-16.3446 -11.6717 -0.42991
-16.641 -11.405 -0.118306
-17.1736 -12.0274 0.681455
-17.3706 -10.3777 1.04249
-16.843 -10.0845 1.62875
-17.297 -9.6665 1.0661
-16.5614 -9.82928 1.10348
-16.4007 -9.56082 1.4901
-19.4531 -10.5881 -3.386
-19.4403 -10.7234 -3.66761
-20.4292 -10.7189 -2.63225
-20.5134 -10.8683 -2.99143
-19.8242 -10.3866 -2.26546
-20.6833 -10.7752 -2.30394
-18.9699 -11.418 -2.77689
-17.3926 -11.2071 -2.01212
-19.9505 -10.8482 -1.61577
-17.38 -11.1262 -2.25531
-20.7553 -10.8912 -1.39238
-19.5843 -10.9993 -2.08865
-15.2721 -12.0707 -3.03001
-15.2387 -12.1187 -2.78375
-20.5177 -11.3373 -1.25972
-19.2056 -10.9631 -2.23429
-14.8695 -12.2549 -1.87472
-16.7867 -11.5034 -1.30842
-18.803 -10.6926 -0.451869
-19.1569 -10.9374 0.0525568
-17.7377 -11.2146 -0.237885
-21.1303 -10.9107 0.537624
-20.0559 -11.0073 0.0699501
-17.5937 -11.529 -0.616378
-20.9903 -11.1626 0.678431
-17.0627 -11.5713 -0.930084
-21.1208 -10.8766 0.764711
-20.98 -11.2975 0.540091
-20.6574 -11.204 0.487738
-20.5824 -10.7005 0.516049
-20.7525 -11.5148 0.448018
-16.0102 -12.1001 -0.922983
-19.1515 -11.3055 0.00939304
-15.6898 -12.1945 -0.465573
-16.7641 -11.6331 0.162828
-20.2112 -10.9863 1.34264
