-18.6061 -10.8701 -2.64928
-17.8309 -11.0914 -0.669615
-18.4289 -11.3708 -3.46638
-17.3969 -11.7326 0.171032
-17.0275 -11.2008 0.0999359
-17.4336 -11.6092 -0.44217
-17.8162 -11.0074 -0.72237
-17.5021 -11.5537 -0.729883
-17.1846 -10.9485 -2.81
-16.8819 -11.0832 -0.400271
-16.3584 -11.072 0.413387
-16.7249 -11.0722 -0.675395
-16.588 -10.5084 -2.79079
-16.7741 -11.5834 -0.959682
-16.8222 -11.0991 -1.13543
-16.0114 -11.6123 0.852301
-16.1689 -11.4799 0.532127
-15.9815 -11.56 -0.883318
-16.4202 -10.4425 -2.64231
-16.5641 -11.9079 -0.666753
-16.5429 -11.4111 -2.74588
-16.114 -12.093 -0.395634
-15.7219 -11.3867 -2.36684
-15.6296 -11.9368 -0.982697
-15.692 -11.855 -3.42812
-15.031 -12.292 -2.34483
-14.7299 -12.1632 -1.9407
-15.3171 -12.3548 -3.456
-14.8148 -12.0516 -2.90412
-15.3264 -12.3638 -3.24145
-14.8434 -12.3029 -2.7243
-14.4555 -12.2966 -3.0927
-15.0267 -12.575 -3.19897
-14.3398 -12.1006 -2.9171
-20.6513 -10.6037 0.171563
-21.2409 -11.2511 0.465397
-20.1673 -11.1949 1.38777
-20.916 -10.5751 -1.31562
-20.712 -11.2441 0.627874
-19.9099 -11.0566 -0.357518
-19.5658 -11.1042 -0.486598
-16.1657 -10.0373 1.36053
-19.2911 -10.7423 -1.32999
-19.1404 -11.0157 -3.57303
-17.7473 -10.8063 -0.0178807
-18.0781 -10.6949 0.124291
-18.9201 -10.9479 -3.51218
-17.7847 -11.2149 -0.587881
-18.4086 -11.1359 -3.37322
-17.6984 -11.3222 -0.456595
-18.4993 -11.4925 -3.14022
-18.2247 -11.0793 -1.76129
-17.5297 -11.467 -0.656601
-17.6144 -11.5987 -0.0569648
-17.1037 -11.4001 0.417308
-16.832 -11.4724 0.515457
-16.4403 -11.7314 0.278386
-16.4479 -11.2861 -0.650355
-16.3005 -11.5169 0.453903
-15.8585 -11.2306 -0.250219
-16.0697 -11.6805 -0.0953707
-16.0679 -11.5019 -0.81212
-16.1245 -11.2449 -1.61574
-16.1516 -11.9917 -0.560215
-15.7228 -12.1887 -2.88391
-15.512 -11.7364 -2.05174
-15.0404 -12.6327 -1.55278
-14.9209 -12.2616 -3.29716
-14.8335 -12.3501 -2.85144
-15.168 -12.1231 -3.19514
-20.5614 -10.8917 0.955046
-20.6371 -11.0553 0.649911
-20.4221 -10.7149 0.111979
-17.1546 -9.16816 1.14156
-19.9252 -10.6974 -0.974671
-19.8281 -11.065 -0.528612
-19.6927 -10.7101 -0.688944
-19.8992 -11.23 -0.0954347
-18.5585 -10.8058 0.203563
-18.6734 -10.5861 -1.05549
-19.2821 -10.293 -2.96941
-20.0422 -10.452 -3.43618
-17.9966 -10.6392 0.5808
-17.9956 -11.2429 -2.74393
-18.5614 -10.8583 -3.26091
-18.1207 -11.3552 -3.25288
-17.8162 -10.9583 -3.01431
-17.2758 -11.3447 -0.488248
-16.9126 -11.0955 -0.649011
-17.5085 -10.7923 -1.03276
-17.0255 -11.4772 -0.147168
-16.938 -11.3188 -0.342139
-16.5745 -10.9199 -2.48832
-17.026 -11.0949 -0.745609
-16.3223 -11.0309 0.00390846
-16.7411 -11.4199 -1.2626
-16.4989 -10.9327 -1.9828
-15.9572 -11.304 -1.9932
-16.2831 -10.9083 -1.57552
-15.8571 -11.5719 -2.38106
-16.1298 -11.0948 -1.5301
-16.2472 -12.3608 -0.952479
-15.7646 -12.1509 -0.170822
-15.6075 -12.0518 -0.362728
-15.3653 -12.2088 -2.90599
-15.7962 -11.6752 -2.0171
-15.1108 -11.9751 -3.23326
-15.0107 -12.8765 -2.41148
-20.9849 -10.934 0.794915
-20.3285 -10.723 0.166107
-20.9109 -10.7187 0.236981
-19.9348 -11.2346 -0.247154
-19.3226 -10.9971 -1.15368
-19.6476 -10.7905 -1.48548
-17.9145 -10.9141 -0.0404082
-18.2967 -10.8762 -1.44521
-17.285 -11.2686 0.428037
-17.3577 -11.333 -0.781605
-17.6986 -10.8317 -0.178742
-17.7666 -11.4965 -0.47365
-17.1369 -11.0235 -0.846936
-17.493 -11.8239 -0.65109
-17.0541 -11.3437 -0.348265
-15.7442 -11.3839 0.0444901
-16.0611 -11.8915 -0.131868
-16.1352 -11.5154 -1.66176
-15.9361 -11.2722 -2.11992
-15.4292 -12.2053 -2.53095
-14.8505 -11.9957 -3.07637
-18.9531 -10.3006 0.63582
-18.8324 -10.7897 -0.13882
-19.4289 -10.981 -0.639154
-16.8532 -10.9444 -0.332251
-16.8447 -10.5862 -2.32103
-16.4336 -11.4141 -0.744705
-16.3793 -11.236 -2.22753
-16.0878 -11.67 -0.479161
-15.0808 -12.4074 -2.34733
-20.3089 -10.6108 0.545715
-19.9931 -10.9226 -2.15828
-19.7584 -11.2342 -0.571165
-19.4959 -10.8093 -0.803759
-17.94 -11.2366 0.300622
-16.6173 -11.5013 -0.115877
-16.6646 -11.6729 -0.119564
-15.9952 -12.0072 -0.799112
-19.7638 -10.8024 -0.958316
-18.2521 -11.2885 -3.17964
-16.5193 -11.6301 -1.96273
-20.4356 -10.7874 0.904048
-20.5267 -10.3022 -1.58262
-15.9395 -11.4071 -2.49794
-17.5786 -10.84 -2.39036
-16.9873 -10.8743 -0.90734
-17.3552 -11.4239 -1.63647
-16.6899 -11.7857 -1.48084
-20.1154 -11.1077 -0.42946
-16.5612 -11.2593 -0.448208
-15.9375 -11.835 -0.585754
-16.295 -11.4221 -0.984863
-16.5334 -11.3544 0.17644
-15.8782 -11.6741 -1.40642
-19.2008 -8.39802 1.69993
-20.9245 -11.0418 0.93454
-20.5577 -10.7565 0.325288
-16.5109 -9.18821 1.49219
-20.502 -10.8317 0.388168
-20.9405 -10.5563 -0.192148
-19.0233 -10.5987 0.168639
-20.1571 -10.982 0.366223
-20.8047 -10.6147 -0.61578
-18.7609 -10.5094 0.432633
-18.4498 -10.7992 -0.00644238
-20.5224 -10.7129 0.198223
-19.472 -10.7218 0.21095
-20.1852 -10.9224 -0.091433
-19.7267 -11.2552 0.0361285
-18.062 -11.0723 0.676747
-19.801 -10.7155 -0.652788
-20.2399 -10.9535 -0.284888
-19.3011 -10.9688 -0.547962
-18.7738 -10.8352 -0.0697242
-18.766 -10.4185 -0.462869
-19.3464 -11.0674 -0.757798
-16.5675 -10.8858 0.235456
-20.6329 -10.6197 -0.965093
-17.3732 -11.8103 0.865139
-20.9303 -10.6033 -1.14977
-18.7027 -10.5344 -1.6308
-18.7267 -11.2358 -0.307287
-18.8798 -11.3652 -0.826838
-18.6846 -11.1003 -0.57274
-20.1056 -10.7379 -1.90157
-15.8863 -11.6089 0.109242
-19.3356 -10.9475 -1.4314
-17.8061 -11.3662 -0.687817
-18.0602 -11.0539 -0.445701
-16.1024 -11.9873 0.0860751
-18.2655 -11.1059 -1.33261
-17.7204 -10.9571 -0.442154
-20.4786 -10.6292 -2.48789
-16.8135 -11.4183 -0.349586
-18.8875 -10.9337 -1.3715
-16.623 -11.9347 -0.0738639
-19.0943 -11.5084 -1.43237
-16.3098 -11.82 -0.0988804
-20.2575 -11.2998 -1.89334
-16.823 -10.8849 -0.518242
-16.485 -11.9228 -0.00976955
-19.6015 -10.439 -1.98261
-20.262 -10.5249 -2.4014
-16.9167 -11.6979 -0.679787
-16.4187 -11.1207 -0.485247
-16.9695 -11.5677 -0.876514
-20.4756 -10.9988 -2.63517
-18.0927 -11.4529 -1.41112
-18.4052 -11.2628 -1.4895
-18.0185 -11.1667 -1.48999
-17.4637 -11.4335 -1.04916
-16.6622 -11.1852 -0.696062
-19.0191 -10.7286 -2.23328
-17.2437 -10.9583 -0.605756
-16.7924 -10.9024 -1.11879
-18.5853 -10.6839 -2.02618
-17.4179 -10.9545 -1.60037
-19.3956 -11.0892 -1.72825
-16.9331 -11.1564 -0.944853
-16.3076 -11.868 -0.557636
-18.0134 -11.1308 -0.780593
-18.0063 -10.9104 -1.70182
-18.2396 -10.6355 -1.72162
-16.1806 -11.7723 -0.615024
-20.1748 -10.6236 -2.79461
-19.2521 -10.6161 -2.35873
-18.644 -10.9848 -2.35112
-17.7326 -11.106 -1.86127
-19.3613 -11.2096 -3.06531
-19.4261 -11.2802 -3.17872
-18.1465 -10.9056 -1.46645
-19.6807 -11.2298 -2.6143
-20.4966 -10.2688 -3.05595
-17.4487 -11.1269 -1.72894
-15.7128 -11.4135 -0.705909
-16.7269 -11.3484 -0.919066
-17.1131 -11.6357 -1.22
-17.8562 -11.3704 -2.14144
-17.1469 -11.3586 -1.23707
-17.5595 -11.1161 -2.13096
-19.8323 -10.8625 -3.17315
-19.8314 -10.9954 -3.40303
-19.5525 -10.8882 -3.0801
-18.2485 -10.9971 -2.31821
-19.1681 -11.2148 -2.80017
-18.4545 -10.9644 -2.81811
-18.4652 -10.8978 -2.4616
-19.2686 -10.6866 -3.82609
-16.3266 -11.0169 -1.48321
-18.8867 -10.6504 -4.11403
-17.3595 -10.8563 -2.12182
-17.1168 -11.0558 -2.00253
-18.2977 -10.9103 -2.96452
-18.4268 -11.1414 -2.95104
-15.7302 -11.7134 -1.04157
-15.8436 -11.9732 -1.23321
-18.2882 -11.0644 -3.31002
-18.5243 -10.9623 -3.44858
-17.9473 -10.5184 -3.06573
-17.1245 -10.7051 -3.06327
-17.3077 -10.6008 -3.3018
-16.1295 -12.1519 -1.54216
-15.5923 -11.2735 -2.10704
-16.6982 -10.7037 -3.03799
-15.1276 -12.068 -2.27184
-14.9481 -12.0589 -2.43667
-15.4937 -12.1683 -2.7163
-15.5043 -12.2714 -2.84629
-14.9808 -11.9035 -3.08973
-14.692 -12.5433 -2.61608
-15.0526 -12.3867 -2.95212
-15.5259 -12.0353 -3.30847
-14.8869 -12.1345 -2.83014
-15.1887 -12.5697 -3.17136
-15.3802 -12.3195 -3.18848
-14.9132 -11.9607 -2.75385
-15.1966 -12.2705 -3.35066
-15.3553 -12.2653 -3.20752
-17.3224 -9.42903 1.69241
-16.9024 -9.71666 1.41625
-17.0082 -9.35969 1.49778
-20.8337 -10.7579 0.644568
-20.7198 -10.301 0.815179
-21.0217 -10.8129 0.583068
-20.8464 -10.7455 0.617985
-16.8392 -9.25933 1.22533
-20.6716 -10.7104 0.812536
-16.7572 -10.0983 1.40497
-20.2503 -10.9715 0.68666
-16.5319 -9.17265 1.53337
-20.3596 -10.9456 0.570877
-19.7575 -11.2915 0.969223
-19.9686 -11.0781 0.0147821
-18.8161 -10.9905 0.248142
-18.892 -10.9855 0.574843
-19.0394 -10.1884 0.167864
-18.4853 -10.5405 0.247095
-18.1901 -10.753 -0.00405182
-19.7438 -10.7505 -0.742652
-19.7939 -10.8116 -0.0808258
-20.6613 -10.452 -0.268165
-19.7315 -11.1037 -0.0704678
-19.3172 -11.0974 -0.307387
-17.9628 -11.0359 0.706533
-20.0755 -10.9262 -1.09702
-18.0213 -10.7079 0.583952
-19.9479 -11.0306 -0.267973
-17.7701 -10.7556 0.834639
-17.0132 -11.6411 0.419987
-18.6396 -11.6192 -0.25897
-18.8507 -11.0316 -0.657503
-20.5947 -10.6283 -1.27043
-16.884 -11.276 0.228105
-16.7647 -11.4101 0.993725
-18.5927 -11.1634 -0.424737
-16.073 -11.2711 0.51572
-18.3905 -10.6799 -0.624464
-19.3003 -10.5459 -1.28534
-18.663 -10.5818 -1.23531
-19.7691 -10.9195 -1.28501
-17.3827 -11.0227 0.00496954
-17.2168 -11.3306 -0.337055
-17.0683 -11.3786 -0.0417195
-18.3778 -10.702 -1.0095
-20.6269 -10.5112 -2.37157
-16.2953 -11.3197 -0.368279
-17.1443 -11.167 -0.372374
-17.0549 -11.3137 -0.289051
-17.784 -10.946 -1.17543
-20.147 -10.4975 -1.54878
-16.5307 -11.605 -0.723801
-17.6569 -10.9683 -1.25083
-17.3331 -11.4277 -0.769254
-18.2935 -11.528 -1.16621
-20.2376 -10.787 -2.37063
-16.3233 -11.4788 -0.462598
-19.6523 -10.3351 -2.40085
-18.9813 -11.4262 -1.7121
-20.9668 -10.396 -2.91295
-19.1807 -11.1219 -1.98789
-20.9424 -9.88282 -2.99162
-16.7415 -11.8767 -0.756056
-20.7789 -10.2398 -2.84835
-16.0403 -11.2046 -0.370813
-20.2236 -10.9 -2.48432
-17.908 -10.7931 -1.22073
-17.9045 -11.3397 -1.36267
-19.6557 -10.8053 -2.72182
-15.7352 -11.5217 0.198532
-20.0103 -10.5715 -2.67178
-18.6103 -11.2425 -1.79946
-16.1834 -12.0185 -0.145269
-16.3593 -11.7777 -0.941902
-19.3018 -10.7152 -2.71309
-19.0807 -10.7146 -2.3668
-16.569 -11.8488 -0.867274
-16.2124 -11.3067 -0.753529
-15.9836 -11.3294 -0.507148
-16.7777 -11.7994 -1.03324
-20.6707 -10.4735 -3.44548
-15.9434 -11.7462 -0.504591
-17.2442 -11.4986 -1.1555
-16.6516 -11.4595 -0.842032
-18.6866 -11.103 -2.62248
-17.3132 -11.6607 -1.68052
-18.6758 -11.0198 -3.05855
-16.1044 -12.0637 -0.733346
-19.988 -10.3723 -3.18311
-18.961 -11.0819 -2.53194
-19.7499 -10.9579 -2.96718
-19.0243 -11.1228 -2.87754
-18.4009 -11.5344 -3.04321
-19.4305 -10.3634 -3.78419
-15.8888 -11.9868 -0.760453
-18.6841 -10.9198 -2.93864
-18.8035 -11.2429 -3.16779
-17.6576 -10.9546 -2.00454
-15.8913 -11.7358 -1.55884
-16.9483 -10.6562 -1.89343
-18.4499 -11.0999 -2.87615
-17.0542 -10.9212 -1.99584
-16.9348 -10.8964 -2.46422
-18.2821 -11.2519 -3.67367
-15.2463 -12.0622 -1.28135
-15.8689 -11.6007 -2.26988
-16.2035 -11.4089 -1.79563
-16.7352 -11.3584 -3.30576
-15.2157 -12.6113 -1.95941
-17.0448 -11.508 -3.00497
-17.1502 -11.2752 -3.09084
-14.9021 -12.2547 -2.13472
-15.0886 -12.0758 -2.43761
-15.2624 -12.2247 -3.41444
-15.4787 -12.5744 -2.73219
-14.7083 -12.0785 -2.90939
-15.1045 -11.9268 -2.87242
-14.7733 -12.429 -2.81778
-15.4994 -12.3157 -3.27292
-15.4224 -12.7055 -3.43946
-15.5302 -12.0929 -3.00901
-15.1435 -12.4038 -2.82073
-15.1266 -11.7638 -2.84413
-15.3435 -12.0947 -3.6524
-15.4277 -12.5369 -3.20489
-14.8179 -11.9548 -3.31897
-14.2961 -12.4114 -3.47642
-20.6593 -10.7672 1.01495
-20.701 -10.4082 0.87038
-20.6654 -11.1408 0.954296
-16.897 -9.24274 1.29237
-19.9561 -10.7643 0.57649
-20.9951 -10.1915 -0.0912687
-21.0291 -10.9029 0.361278
-20.1535 -11.8087 0.144613
-20.3727 -10.5314 -0.194821
-20.4406 -10.9596 0.566051
-20.6287 -11.1573 0.318661
-19.7433 -11.0097 0.351484
-19.1329 -10.753 0.657544
-15.6536 -9.86038 1.2262
-20.3777 -11.1683 -0.00652537
-19.7897 -10.9571 0.0267462
-19.5136 -10.6775 0.057087
-18.4956 -10.6892 0.562511
-19.7615 -10.9951 0.0547168
-17.9579 -11.0168 -0.112841
-17.2584 -11.1748 0.61468
-19.2253 -10.8274 -0.564121
-19.3235 -10.5861 -0.295374
-19.5808 -10.8523 -1.18881
-17.6971 -11.5116 -0.0598498
-16.1322 -11.4619 -0.0551847
-16.9792 -11.18 -0.319749
-18.3228 -11.061 -0.665643
-18.3402 -10.8565 -0.969414
-17.1226 -11.5021 -0.587003
-19.7089 -10.9008 -1.69577
-16.7443 -11.2734 -0.471865
-16.5401 -11.2583 -0.801864
-18.3945 -11.0829 -1.1357
-18.9199 -11.3965 -1.37209
-20.4459 -10.1763 -2.4227
-16.9235 -11.3447 -0.239254
-16.674 -11.3965 -0.280804
-17.2782 -11.2111 -0.558042
-16.7975 -11.4536 -0.866708
-20.4256 -10.2966 -2.79104
-20.8251 -10.323 -3.04079
-16.1891 -11.7626 -0.0157451
-20.7565 -10.373 -2.62165
-20.8371 -10.1082 -2.99262
-18.4503 -10.8416 -2.09846
-18.6789 -10.933 -1.91201
-20.5076 -10.5481 -3.07224
-15.7276 -11.9306 -0.653524
-19.0087 -11.1803 -2.50756
-18.9835 -10.8474 -2.44663
-18.3437 -10.9089 -2.36392
-20.0486 -10.7699 -3.17534
-19.6285 -11.1357 -2.62153
-18.6021 -10.8986 -2.80953
-15.4739 -12.0523 -0.409099
-15.7874 -12.3872 -0.918561
-17.7329 -11.2533 -2.24047
-17.1155 -11.1285 -1.89017
-16.8471 -10.839 -1.95037
-18.2937 -11.3497 -3.35417
-16.6189 -11.4091 -1.79474
-15.6926 -11.7056 -1.45705
-15.4208 -11.8248 -1.18025
-16.1103 -11.2881 -2.31445
-15.7829 -11.3617 -1.84935
-17.0302 -11.1115 -3.53704
-15.3856 -11.4628 -2.32651
-16.0068 -11.5395 -2.56025
-15.8886 -10.7252 -2.73628
-15.2251 -12.3545 -2.90697
-15.54 -11.5332 -3.40512
-15.2732 -11.8883 -3.44794
-15.7158 -12.1346 -3.33678
-15.216 -12.09 -3.33851
-20.9551 -10.7946 0.74069
-20.3572 -10.7808 0.668249
-20.4772 -11.4465 0.403636
-21.0264 -10.5772 0.76741
-20.1353 -11.0042 -0.309914
-20.2001 -11.0895 -0.0341576
-20.136 -10.9315 0.148856
-20.3372 -10.6719 0.146144
-20.5424 -10.6618 -0.0236698
-20.3281 -10.9421 -0.322785
-18.4083 -10.7414 0.609538
-19.1067 -10.6274 -0.00538819
-18.6882 -11.0306 -0.424295
-19.9231 -11.2368 -0.559156
-16.6943 -11.0466 0.450973
-17.5561 -11.2457 -0.0341915
-16.6032 -11.9735 0.154299
-20.5874 -10.5126 -2.07627
-16.3197 -12.022 -0.0515112
-17.4754 -11.1635 -0.599372
-16.2069 -11.1185 -0.59294
-16.3945 -11.1943 -0.472536
-17.7694 -11.3235 -0.579463
-19.7621 -10.4884 -1.86227
-19.088 -11.0302 -1.66109
-19.5772 -10.6239 -1.90171
-20.2062 -10.7051 -2.84442
-16.8808 -11.3461 -1.1427
-20.0132 -10.5039 -2.98339
-16.86 -11.4957 -0.22997
-18.815 -11.6793 -2.36679
-15.7341 -11.663 -1.03866
-15.9667 -11.4371 -0.952762
-16.4857 -11.8368 -0.242191
-15.8769 -11.8157 -0.353069
-15.4893 -11.5366 -0.514189
-15.8366 -11.7175 -0.696587
-19.5681 -10.615 -2.71406
-18.9149 -11.3811 -3.01733
-18.8937 -11.1757 -2.92283
-18.1538 -10.6147 -2.07263
-17.1916 -11.1908 -1.98594
-16.5123 -11.7228 -1.41327
-18.6369 -11.0687 -3.02798
-17.3539 -10.7841 -1.85563
-18.1765 -11.1642 -2.92033
-18.4378 -11.2146 -2.97731
-18.5574 -10.832 -3.31702
-16.8699 -10.8782 -2.57765
-16.4657 -10.7 -2.13838
-15.0582 -12.03 -1.77256
-16.8357 -10.6531 -3.39527
-16.3217 -11.1455 -2.97795
-14.7023 -12.242 -2.30228
-15.5619 -12.3027 -2.83274
-21.5839 -10.5451 0.488284
-18.9694 -10.451 0.106002
-20.9211 -10.8511 -0.109679
-20.5789 -10.9188 -0.0644689
-20.3916 -10.8378 -0.295159
-18.5425 -10.6839 0.603182
-18.6829 -10.3737 0.205764
-17.9172 -10.5666 0.262084
-20.1651 -11.1016 -0.33066
-18.0478 -11.068 0.637268
-20.3021 -10.906 -1.07402
-19.451 -11.0433 -0.713011
-16.0624 -10.9862 0.353604
-16.4187 -10.9354 0.912419
-16.8783 -11.0728 0.280098
-17.7616 -10.8164 -0.863675
-16.594 -11.4637 -0.121271
-20.499 -10.5978 -2.91311
-20.0695 -10.6766 -2.88431
-16.217 -11.7377 -0.562476
-16.4247 -11.6664 -0.340604
-20.2564 -11.0223 -2.73759
-19.2429 -11.1422 -2.74515
-19.6481 -10.9515 -2.39174
-17.0226 -11.3488 -1.53648
-19.556 -10.897 -2.8582
-16.8121 -11.2611 -1.49366
-17.1488 -11.0971 -2.25038
-17.8813 -10.7342 -2.76024
-16.9571 -11.0167 -2.25597
-18.4871 -11.4966 -3.34717
-18.2322 -10.7663 -3.62103
-16.0043 -11.7925 -2.14244
-15.9971 -11.1603 -2.1698
-16.0966 -11.7022 -2.20934
-14.9287 -11.7752 -1.72305
-15.3711 -12.1272 -2.85056
-17.1067 -9.13057 1.3826
-20.6716 -11.1105 0.621904
-20.2443 -10.8229 0.135611
-19.4713 -10.3829 0.0966187
-19.0269 -10.9758 0.282842
-18.5466 -10.4529 0.248816
-18.1032 -10.623 0.331117
-20.0769 -11.0958 -0.832376
-19.5773 -10.4947 -1.43223
-18.9388 -10.628 -0.80628
-17.3846 -11.4738 -0.461077
-17.747 -11.0867 -0.670894
-18.9995 -11.0327 -1.82832
-16.2815 -11.2096 -0.723184
-18.2433 -10.9617 -1.04548
-16.3324 -11.5106 -0.830643
-16.4735 -11.8556 -0.48291
-18.6406 -11.1263 -2.63606
-16.7165 -11.3366 -2.15046
-15.7624 -11.7624 -1.60903
-14.5788 -11.6707 -2.99422
-19.079 -10.3249 0.753214
-18.848 -10.9184 0.189444
-19.7007 -11.1689 -0.939438
-20.4108 -10.4884 -1.66884
-17.0673 -11.3135 -0.182995
-16.0778 -11.7046 -0.631748
-15.927 -11.6158 -0.738964
-15.7108 -11.7653 -1.10837
-17.3363 -11.0495 -2.42694
-18.542 -10.4766 0.139458
-19.7551 -10.8744 -0.514602
-16.5529 -11.347 0.185817
-17.1816 -11.1452 -1.04418
-17.2713 -11.2067 -1.43232
-16.9783 -11.4246 -1.69014
-17.1959 -11.0838 -1.88198
-16.9073 -10.9196 -2.12642
-15.7979 -11.5381 -2.14282
-15.6675 -11.5822 -2.57989
-15.9921 -11.0364 -2.44831
-18.8642 -10.3007 -0.26974
-17.8434 -11.758 -0.642516
-16.3898 -11.9276 -0.662734
-16.571 -11.2984 -0.890478
-16.7352 -11.4259 0.303249
-20.1887 -10.4413 -1.87248
-17.0796 -11.5311 -1.58398
-18.9184 -10.4798 0.211866
-17.5895 -11.1051 -1.81271
-17.0695 -11.5971 -1.20067
-16.0585 -11.9491 -1.49179
-17.047 -11.0729 -2.27193
-18.2845 -11.1539 -1.19026
-16.4796 -11.5428 -0.972861
-16.7996 -11.2625 -1.12939
-16.0259 -11.6137 -1.55695
-15.845 -10.9469 -1.94213
-15.6357 -11.4618 -1.88876
-16.0442 -10.9725 -2.99279
-15.2119 -12.2003 -3.13666
-14.8234 -12.3019 -2.86861
-14.747 -12.3575 -3.06102
-15.0174 -11.8982 -2.56097
-14.99 -12.7129 -2.99863
-18.0661 -10.9089 -3.52954
-15.2947 -12.69 -2.8796
-18.496 -11.0162 -3.50444
-14.6502 -12.1148 -2.68371
-15.4183 -12.083 -3.08851
-15.0361 -12.6858 -2.38606
-20.2623 -10.7218 -3.57925
-14.9378 -12.5275 -2.03158
-14.9594 -12.1119 -2.71956
-15.0781 -11.9241 -2.74522
-18.5911 -11.1148 -2.90794
-18.8358 -10.6844 -3.03797
-20.1193 -10.7952 -3.17132
-14.8248 -12.091 -2.1757
-15.8446 -10.8602 -2.32467
-20.5194 -10.6289 -2.58891
-17.2077 -11.2245 -2.34603
-15.7845 -11.5481 -2.15034
-20.2555 -10.2615 -3.29879
-16.8513 -11.058 -2.27165
-19.6234 -11.1043 -2.91859
-20.4648 -10.4114 -2.75718
-20.1344 -11.0119 -2.91779
-19.254 -11.2491 -2.69984
-20.6297 -10.5045 -2.71435
-19.1569 -10.4048 -2.66881
-19.5975 -10.7451 -2.35695
-18.6016 -10.9545 -1.50705
-18.6053 -11.2698 -2.23854
-20.2088 -10.8575 -2.0439
-19.8185 -11.0505 -2.28992
-20.7795 -11.0064 -1.86042
-18.7974 -11.1596 -1.53263
-19.8334 -10.8294 -1.86829
-19.6915 -10.4671 -1.66855
-18.2241 -10.9185 -1.71918
-19.3614 -11.1837 -1.77706
-18.7368 -10.9532 -1.3474
-19.2926 -10.5606 -1.58094
-16.5642 -12.0568 -1.21188
-20.6456 -10.8386 -1.52075
-20.6095 -10.623 -1.47455
-20.7431 -10.2808 -1.59959
-19.5593 -10.8476 -1.22692
-19.7015 -11.2897 -1.139
-18.8284 -11.2029 -0.354237
-16.3816 -11.7782 -0.839028
-17.4396 -11.3169 -1.05529
-17.497 -11.2916 -0.521739
-16.6051 -11.7298 -0.524986
-16.3765 -11.7701 -0.0303505
-16.0874 -11.9338 -0.11459
-16.2007 -11.9048 0.0277203
-17.1858 -11.298 -0.287556
-17.6673 -11.146 -0.399452
-20.7235 -10.5308 -1.04887
-20.1139 -10.7288 0.575329
-18.3056 -10.4495 0.376119
-19.0357 -10.7853 0.259269
-18.1157 -11.142 0.677709
-17.6622 -11.3169 0.690253
-16.5991 -11.3847 0.160871
-20.0305 -11.1457 0.64126
-20.5597 -10.6026 0.612897
-16.7649 -9.37901 0.575968
-16.8155 -9.65903 0.992262
-20.218 -11.0127 1.28639
-15.3186 -12.1682 -3.82234
-15.0815 -12.0098 -2.91973
-15.0447 -11.7099 -3.09515
-15.0086 -12.101 -3.40011
-15.0644 -12.0644 -3.06516
-14.7729 -12.2062 -2.51862
-14.9118 -12.6546 -2.98739
-15.6343 -12.2564 -2.26188
-15.7187 -12.2689 -2.5657
-15.1438 -12.4157 -3.0296
-14.7328 -12.5455 -2.28768
-20.3375 -10.4138 -3.37391
-20.022 -10.2008 -3.49674
-18.4184 -11.1767 -3.09682
-18.5879 -11.259 -3.02352
-20.2364 -10.4672 -3.28493
-18.2142 -11.4893 -3.20929
-18.6884 -10.8762 -3.07885
-19.0212 -11.0716 -2.98254
-16.8223 -11.0413 -2.69147
-19.363 -10.761 -2.58431
-20.207 -10.6289 -3.20468
-19.9672 -10.2316 -2.53774
-16.7202 -11.0197 -2.0393
-18.5688 -11.3211 -2.55321
-19.4062 -10.9527 -1.65906
-16.7302 -11.4115 -1.53483
-19.249 -11.38 -1.65417
-15.7833 -12.3007 -1.00702
-17.9135 -11.142 -1.65226
-19.095 -10.8354 -1.65668
-20.6947 -10.3047 -1.73135
-17.6084 -11.2381 -1.08601
-15.6558 -11.9973 -1.0342
-16.5741 -11.7336 -0.290052
-17.437 -11.5267 -0.622862
-16.0824 -11.341 -0.872423
-16.4984 -11.2106 -0.396229
-18.7683 -10.926 -0.576982
-19.235 -11.7543 -1.09602
-16.0542 -12.1434 -0.326758
-16.0886 -11.9329 -0.119777
-17.8061 -11.27 -0.161697
-16.7488 -11.234 0.0604459
-19.0146 -10.8765 -0.324392
-18.2502 -11.4368 0.106359
-17.2471 -11.4422 -0.154659
-20.8849 -10.5947 0.249854
-20.2368 -11.0691 -0.0279036
-20.6653 -10.3983 -0.0153249
-17.6546 -11.0294 0.344538
-20.2878 -10.7136 0.405659
-20.7188 -11.1104 0.66467
-20.9886 -10.3092 1.21741
-16.2271 -9.91552 1.4508
-16.6112 -9.41195 1.28831
-15.8469 -9.30096 1.68581
-16.6408 -9.41523 1.42574
-14.5769 -11.7095 -3.356
-15.2294 -12.1921 -3.23945
-16.0798 -11.1697 -3.03862
-16.6222 -10.7475 -3.43161
-14.8993 -12.1587 -2.97052
-18.6919 -11.0102 -3.25028
-15.1626 -12.4248 -2.53428
-17.0004 -10.6272 -2.58603
-15.3326 -11.7272 -2.59887
-16.0322 -11.8652 -3.03486
-18.2176 -11.278 -3.06032
-19.5368 -10.8161 -3.28149
-16.3887 -11.1477 -2.40845
-20.0533 -10.4017 -2.82395
-16.9447 -10.5772 -1.87984
-17.0169 -11.0742 -1.88865
-20.4567 -10.7536 -2.92121
-19.033 -11.3751 -2.11431
-18.8886 -11.1616 -2.37393
-16.9002 -11.0649 -2.178
-16.6687 -11.4155 -1.90656
-18.2678 -10.9295 -1.34552
-18.9568 -10.5882 -1.68713
-19.7394 -10.3953 -1.53661
-18.3105 -11.62 -1.13741
-17.9954 -10.7514 -1.0497
-18.5549 -10.433 -0.855226
-16.1094 -11.6573 -1.01713
-15.4208 -11.6154 -0.718101
-15.8385 -11.5871 -0.593594
-16.8476 -11.4688 -0.21758
-16.4386 -11.4062 -0.168701
-20.1098 -10.8031 -0.974984
-17.1971 -11.4584 0.205877
-20.7806 -11.0305 0.160342
-20.8067 -10.6775 0.595807
-20.3901 -11.1825 -0.0881903
-19.9817 -10.8517 0.579615
-20.1266 -10.7545 0.790677
-16.9798 -9.52542 1.16955
-17.0918 -9.92479 1.21683
-16.9936 -9.11267 1.22861
-15.802 -9.80118 0.999116
-15.6352 -10.9893 -3.12882
-16.5568 -11.1276 -3.06315
-16.972 -10.7582 -2.91115
-18.5242 -11.2372 -3.55581
-18.4499 -10.9373 -2.96748
-14.8177 -11.9486 -2.64046
-18.822 -11.0917 -3.62916
-14.7605 -12.1101 -2.06385
-17.3334 -11.1044 -2.56422
-15.8041 -11.8295 -2.6472
-16.1951 -11.4394 -1.9372
-16.0941 -11.3892 -2.09934
-18.7955 -10.7338 -2.31225
-15.581 -12.0478 -1.01374
-17.0414 -10.9593 -0.625531
-16.5814 -11.4436 0.784671
-16.7553 -12.0252 0.500858
-16.51 -11.5646 -0.0282719
-17.1118 -9.61742 1.09654
-16.5022 -9.443 1.84162
-16.8644 -9.6931 1.55838
-14.7128 -11.9223 -3.034
-17.0535 -10.5101 -2.69719
-19.9846 -10.1182 -3.22237
-14.9796 -12.4539 -2.71522
-16.9817 -10.7558 -2.85478
-17.013 -11.1265 -2.26966
-16.8686 -10.9614 -1.99824
-16.6106 -11.8007 0.163403
-16.8669 -11.5642 -2.15079
-15.7086 -11.8787 -0.357676
-16.3636 -11.5564 0.0506461
-20.2125 -10.7735 -0.806924
-15.7415 -11.4265 0.638169
-16.6316 -11.6373 -0.868254
-20.0256 -10.7241 -0.20267
-17.8305 -10.9134 -0.334314
-17.4063 -11.3241 0.161359
-16.4347 -10.8489 -2.26507
-16.96 -11.4971 -1.79381
-16.1619 -11.3957 -0.637425
-17.1299 -11.2153 0.0731536
-17.3368 -11.1941 -2.00194
-16.9101 -10.9029 -1.78165
-17.5096 -10.9527 -1.66855
-18.3324 -11.1438 -1.05242
-17.0476 -11.1286 -0.243948
-16.9855 -11.5971 -0.358801
-20.1107 -10.4162 -3.72405
-20.0321 -10.9849 -2.69925
-19.8709 -10.73 -2.77519
-16.9209 -10.6677 -2.98059
-18.7044 -11.3886 -2.54757
-19.4149 -10.7065 -1.62838
-20.7084 -10.6806 -1.0753
-20.6803 -10.4242 -1.4752
-16.1106 -11.3934 -3.11367
-16.0674 -10.9045 -2.62099
-20.7236 -10.9294 -1.60943
-20.447 -10.5292 -1.22753
-18.1448 -11.1132 -2.49229
-18.6323 -11.3506 -1.98634
-16.9722 -10.5257 -2.01766
-17.1739 -11.1227 -2.5972
-16.7438 -10.8103 -2.39737
-16.9741 -10.9757 -2.29274
-17.1089 -10.4315 -2.1008
-19.8577 -10.9271 -1.39378
-17.7927 -10.9646 -2.08586
-19.689 -11.138 -1.05624
-20.8318 -10.4275 -1.14709
-19.0227 -11.356 -0.972442
-20.9279 -10.662 -0.0437305
-20.2326 -10.5839 -0.455834
-19.545 -10.5837 -0.474191
-18.4619 -11.1878 -1.2671
-17.5951 -10.982 -1.27888
-15.2586 -12.0951 -3.38581
-19.579 -10.9711 -0.62008
-19.5647 -10.7124 -0.433899
-15.0463 -11.8 -3.34379
-20.4492 -10.5454 0.106443
-20.3916 -10.7831 -0.036541
-20.3406 -10.4704 -0.126872
-18.234 -11.2673 -0.580824
-20.2821 -11.0268 -0.306366
-20.1509 -10.8683 -0.0542363
-17.9854 -11.1045 -0.896562
-19.2052 -11.3325 -0.74717
-20.5787 -10.7312 0.528199
-17.7194 -10.9728 -0.935917
-20.3355 -10.7147 0.177277
-14.8698 -12.3811 -2.71771
-16.5734 -11.7182 -0.799191
-20.9146 -10.7472 0.759763
-15.4795 -11.9738 -2.02778
-17.8672 -11.2299 -0.54192
-15.2691 -12.0811 -2.5231
-20.1476 -11.0651 0.0525411
-17.1434 -11.3628 -1.309
-20.0076 -10.5839 0.228727
-16.9654 -10.9218 -0.806098
-15.0612 -12.4126 -2.3755
-18.831 -8.56748 1.97739
-18.1879 -8.84932 2.10682
-16.04 -11.8271 -1.06699
-18.7188 -11.1782 0.00559358
-15.3477 -12.3927 -1.50229
-16.3434 -11.3792 -0.821745
-18.072 -11.0593 0.136528
-15.719 -12.0924 -0.567473
-16.2649 -11.9053 -0.558181
-16.2168 -11.4537 -0.841199
-16.5604 -11.7144 -0.662924
-17.3695 -11.1714 0.478009
-16.3133 -11.1766 -0.5605
-17.1017 -11.2458 0.525642
-16.5965 -9.25725 1.10315
-15.5293 -11.9813 -0.635128
-16.4725 -9.36934 0.976302
-17.2226 -9.58717 1.2867
-16.2063 -12.2114 -0.105645
-17.1573 -10.837 0.653524
-16.1878 -11.6299 -0.21042
-16.1235 -11.8375 -2.92063e-06
-15.958 -11.3789 -0.671726
-16.0221 -11.4678 -0.144652
-17.0537 -10.1726 1.55013
-16.8093 -9.51209 1.12825
-16.3666 -9.75645 1.51565
-20.3364 -9.75155 -2.95311
-20.7378 -10.6424 -2.859
-20.3983 -10.5705 -2.75823
-20.0667 -11.0013 -3.03792
-18.7303 -11.0486 -3.20592
-17.845 -10.9763 -3.80327
-19.2763 -10.6255 -2.44411
-18.3562 -10.7708 -3.05684
-17.0756 -11.0188 -2.98868
-19.063 -11.1065 -2.81084
-16.5564 -11.2668 -3.48002
-18.8921 -10.7593 -2.05335
-17.4656 -10.7064 -1.9394
-20.1319 -10.7478 -1.68063
-17.2251 -10.6053 -2.46674
-18.7871 -10.8695 -1.98224
-16.7641 -10.5922 -2.23972
-18.0169 -11.7083 -1.64524
-19.4762 -10.989 -0.831362
-15.1885 -12.1801 -3.66395
-15.4163 -12.0337 -3.65736
-17.9593 -11.0119 -1.63256
-20.4777 -10.3341 -0.713824
-15.8381 -11.5434 -2.14943
-17.2106 -11.5143 -1.93354
-19.7346 -10.7202 -0.259218
-16.1475 -10.9934 -2.0016
-16.1475 -11.2757 -2.02152
-15.3846 -12.1196 -2.90722
-20.0941 -10.7162 -0.553295
-15.0216 -12.1854 -2.97821
-14.7295 -12.4859 -3.06986
-15.2066 -11.5274 -2.31953
-21.0463 -10.8747 0.945893
-17.9995 -11.2637 -0.921939
-20.0454 -10.8134 0.137698
-17.3151 -11.2807 -1.42232
-21.0013 -10.7836 0.619991
-21.109 -10.5264 0.67
-17.4112 -11.0819 -0.953197
-20.4191 -11.1939 0.182422
-18.3676 -11.4038 -0.0343065
-17.128 -11.4451 -0.40177
-15.6153 -11.7235 -1.71641
-17.4586 -10.9206 -0.929523
-16.1835 -11.31 -1.09641
-16.1019 -11.7524 -1.5453
-17.0696 -11.3813 0.00998643
-16.532 -11.7545 -1.15415
-18.2751 -11.2626 0.406605
-17.4728 -11.2413 -0.281594
-15.7741 -11.9245 -1.57724
-15.3907 -12.78 -1.69114
-17.3568 -11.4804 -0.140264
-18.1072 -10.3059 0.363782
-17.4372 -11.2435 -0.424686
-17.1874 -11.6675 -0.239181
-16.6407 -11.6683 -0.0483814
-16.3314 -11.2809 -0.250994
-15.5581 -11.2803 -0.615714
-17.1654 -9.19119 1.49094
-16.6845 -11.6046 -0.143116
-16.1041 -11.933 -0.0771367
-16.0333 -11.9351 -0.277446
-15.9863 -11.1457 0.654503
-16.4511 -11.607 -0.422928
-16.008 -10.1014 1.07947
-16.3652 -9.72846 2.43998
-19.6659 -10.4807 -3.75516
-20.5891 -10.6319 -3.15917
-20.5857 -10.6318 -3.19349
-19.1967 -11.3325 -3.49767
-19.8958 -10.9731 -3.17627
-20.3415 -10.5701 -2.05078
-19.239 -10.7611 -2.89657
-20.0709 -10.4178 -2.94845
-20.9393 -10.6188 -2.46832
-18.4552 -11.0136 -2.86524
-17.858 -11.0131 -3.37957
-16.4832 -11.2026 -3.20296
-16.8486 -11.2291 -2.77758
-17.206 -10.9298 -2.34432
-18.9263 -11.0093 -2.27056
-17.1748 -11.1104 -2.56726
-19.2978 -10.5694 -1.46038
-19.4407 -11.2576 -1.37337
-20.089 -10.6529 -0.658938
-20.1939 -10.9394 -0.535144
-16.2559 -11.6752 -2.5177
-15.4487 -11.9324 -3.27609
-16.566 -11.6216 -1.54819
-19.728 -10.7877 -0.740514
-16.867 -10.866 -1.66979
-14.9292 -11.9641 -3.08518
-19.9734 -10.9256 0.354121
-15.2758 -11.9003 -2.85464
-18.1458 -11.0902 -0.756617
-16.887 -10.8181 -1.15033
-20.7322 -10.9134 0.480085
-20.7596 -10.9141 0.574545
-21.0498 -10.8027 0.506762
-19.8609 -10.7439 -0.0617961
-20.8509 -10.8388 1.05075
-17.7018 -11.2531 -0.823476
-18.3337 -11.154 -0.603482
-15.1932 -12.2842 -2.64201
-19.8164 -10.9407 0.169976
-21.0388 -10.542 0.785984
-20.1009 -10.8866 0.231946
-16.9828 -11.2629 -1.43996
-20.6921 -10.6442 0.789423
-20.2403 -11.1352 0.866681
-16.597 -11.0686 -1.21085
-14.8652 -12.0618 -2.15133
-19.9816 -10.8637 0.705449
-20.2455 -10.6059 0.720715
-17.3348 -11.4024 -0.9877
-16.9409 -11.1908 -0.0753113
-17.4348 -11.164 0.692568
-16.2012 -11.6878 -0.345568
-15.8059 -11.9801 -0.584475
-16.6071 -9.32771 1.47912
-16.3442 -11.1242 0.243615
-15.9416 -11.7498 0.777269
-20.418 -10.0245 -3.65515
-19.6018 -10.5693 -3.53017
-20.2851 -10.1854 -1.25814
-17.3299 -11.019 -2.16803
-17.6534 -11.0274 -1.98097
-17.6804 -11.3602 -2.18305
-16.8701 -10.6363 -1.29299
-18.9582 -11.3787 -2.00889
-19.4142 -11.7099 -1.39568
-17.7357 -11.1898 -1.6481
-16.1736 -11.3474 -2.10333
-18.991 -10.934 -0.221278
-16.6641 -11.6732 -2.02298
-20.2437 -10.6743 0.476145
-16.4468 -11.7468 -1.9777
-18.2936 -10.7011 -0.0625558
-15.1677 -12.3005 -2.31881
-18.2847 -10.8971 0.118467
-16.4782 -11.3666 -0.942064
-17.7537 -11.2394 0.187983
-17.2661 -11.2798 -0.445701
-18.98 -11.3884 -2.70725
-16.7596 -11.0068 -2.69713
-18.0316 -11.1729 -2.10307
-17.7053 -10.9598 -2.49813
-17.2102 -10.7153 -2.0917
-16.8421 -11.0213 -2.32931
-16.5263 -10.9622 -1.91406
-16.9472 -10.6991 -2.12114
-19.7504 -11.089 -0.909777
-16.4113 -11.5297 -2.26572
-20.1088 -11.0683 -0.313887
-16.3272 -11.4388 -1.72505
-19.4674 -10.8263 -0.443413
-16.5959 -11.5674 -1.47125
-17.2224 -11.142 -1.45912
-18.5657 -10.8219 0.137081
-15.9541 -11.2559 -1.28615
-17.2449 -11.2994 0.255667
-17.7559 -11.2339 0.190439
-17.1426 -11.3683 -0.249067
-16.1162 -11.8823 -0.160545
-16.3139 -11.6981 -0.338379
-20.0449 -10.558 -2.67759
-18.9469 -11.0512 -2.62442
-18.0392 -11.0789 -2.08116
-19.6158 -11.0114 -0.681155
-16.0756 -11.0444 -2.20791
-18.9278 -10.5611 -0.391335
-16.3884 -11.2007 -1.47324
-15.989 -11.9058 -0.708189
-17.3058 -11.1128 -0.235754
-16.8855 -10.9665 0.780128
-16.3565 -11.3432 0.540391
-17.529 -11.1042 -2.1573
-17.598 -11.3659 -1.70612
-17.3568 -11.4483 -1.3212
-17.45 -10.8451 -1.40436
-18.3193 -10.5625 0.139293
-16.9028 -11.4899 -0.552967
-16.1294 -11.5961 0.227983
-19.9651 -11.1333 -0.997504
-16.0776 -11.4352 -2.73872
-16.6174 -11.4647 -0.620522
-16.7319 -11.4827 -1.55705
-16.1725 -11.6037 -1.48933
-16.402 -10.991 -1.58121
-15.6745 -11.8593 -1.18674
-15.4443 -11.0552 -3.06507
-20.2322 -10.4204 -2.77425
-20.4497 -10.6726 -1.62907
-20.0799 -10.6949 -2.54223
-19.3812 -11.0226 -3.71617
-18.956 -10.8055 -2.78935
-20.6907 -10.5317 0.126951
-20.1052 -10.7097 -0.41073
-19.329 -11.122 -2.25487
-20.4788 -11.238 1.11222
-18.4626 -10.9933 -3.1038
-18.9231 -11.7318 -3.12977
-20.0984 -11.0186 0.872502
-17.597 -9.79407 1.25172
-16.432 -10.9153 -2.93229
-16.5776 -9.69356 0.769227
-17.5804 -11.1653 0.0582547
-16.0812 -10.8872 -3.19165
-17.6642 -11.3358 -0.53083
-16.3931 -11.0898 -2.95774
-16.0844 -9.70384 1.06469
-17.3116 -10.9487 -0.96739
-17.0417 -11.4751 -1.24368
-16.0079 -9.07834 2.08564
-17.2268 -11.7405 -0.278356
-15.7291 -11.0403 -2.46764
-15.7006 -11.4114 -1.8597
-16.8284 -11.4644 -0.237571
-16.3911 -11.8338 -0.436867
-16.1526 -11.8499 -0.838486
-16.6436 -11.4282 -0.459814
-15.256 -12.0568 -1.78182
-16.3991 -11.4037 -0.379975
-16.2246 -11.7166 -0.190002
-16.4074 -12.0522 -0.901379
-16.3905 -11.5496 0.0559226
-15.0593 -12.0721 -3.51829
-14.8982 -12.2054 -3.06946
-20.8057 -10.5978 -2.41647
-19.9672 -10.5629 -3.02853
-19.722 -10.8359 -3.14557
-20.3563 -10.7797 0.620995
-20.6304 -10.6875 0.627608
-18.4339 -10.4853 -3.4265
-19.4188 -10.9093 -1.28479
-19.909 -10.9553 -0.0631898
-19.8609 -11.0832 -1.32618
-18.5049 -10.9433 -3.26197
-19.8161 -11.1105 0.501674
-18.6942 -11.4611 -3.03287
-18.9688 -11.075 -0.535752
-19.607 -10.9533 1.14271
-18.0259 -10.7712 0.61253
-17.9311 -11.1033 -0.831343
-17.1191 -10.798 -2.08319
-17.4914 -11.0117 -1.0257
-16.931 -10.7235 -0.853254
-16.9171 -11.4391 -2.01636
-16.591 -11.1737 -1.15989
-17.0738 -11.1007 -0.969642
-17.3978 -11.115 -0.711478
-15.6178 -11.0393 -3.11546
-15.9222 -11.3706 -1.871
-16.485 -11.1683 -0.377894
-16.7119 -11.2608 -0.0441534
-16.6572 -11.3681 0.37991
-16.0327 -11.334 -1.46848
-16.141 -11.3187 -0.579098
-16.0706 -11.7594 -0.45645
-16.194 -12.1846 -0.238878
-16.0368 -11.3936 0.0508086
-20.0563 -10.1785 -1.13388
-20.2794 -11.2139 -0.0242035
-19.6134 -11.4918 -1.24647
-20.2086 -11.0945 0.502174
-20.2796 -10.8384 0.790563
-18.5533 -10.8019 -0.79437
-18.3784 -10.1504 -0.877614
-19.6501 -11.3734 -0.324563
-19.5059 -10.709 -0.10002
-18.0646 -11.4161 -3.14224
-17.7134 -11.1182 -1.86281
-17.2102 -10.6654 -1.64017
-16.7797 -11.475 -2.02675
-18.5427 -10.714 0.37531
-17.4191 -11.1562 -1.10894
-17.8444 -11.1516 0.55329
-16.8555 -11.0034 -1.29507
-17.0756 -11.153 -0.744626
-17.0538 -11.5486 -1.84699
-17.2864 -11.1989 0.0279529
-17.2456 -11.0439 -0.0728783
-16.6143 -11.6323 -1.82906
-15.3231 -10.8644 -1.95636
-16.1697 -11.32 -0.184671
-15.9167 -11.7298 -0.959771
-16.2891 -11.4167 0.00721733
-16.0114 -11.9176 -0.351587
-15.5486 -11.7721 -0.674907
-16.0241 -11.9774 -0.687346
-14.8526 -12.4403 -2.71246
-19.3648 -10.5127 -2.48586
-20.7649 -10.6751 0.772082
-17.4897 -10.3764 -2.41788
-17.7802 -10.7705 0.430462
-17.447 -10.9277 -1.14576
-16.804 -11.4684 -2.24271
-17.3847 -11.502 -0.713918
-17.4932 -10.962 -0.250216
-16.7339 -11.9176 -0.93675
-15.5364 -11.4494 -2.36287
-16.7081 -11.527 -1.13005
-21.1429 -10.7818 0.0994161
-20.3892 -11.0192 0.803396
-19.3565 -10.7231 -1.78569
-18.5376 -11.0112 -0.770976
-18.6195 -11.5607 -1.86364
-16.9046 -11.2104 -0.751616
-16.9241 -11.9354 -0.698054
-15.0926 -12.3671 -2.91107
-19.5228 -10.7818 -0.786138
-19.5103 -10.636 -0.874788
-18.8678 -10.4328 -0.0164304
-18.7189 -10.7664 -0.445911
-16.7273 -11.2423 -1.47388
-17.5841 -11.5704 -1.334
-16.2967 -11.6952 0.041096
-20.0781 -10.9973 -0.33178
-18.3564 -10.5574 -1.07359
-18.3105 -10.4352 0.393062
-17.5787 -11.1191 -0.581429
-17.0414 -11.3019 -1.00459
-17.203 -11.3136 -1.6199
-15.6707 -11.9184 -0.750099
-19.6479 -10.4154 -0.535034
-15.9012 -10.9476 -2.48976
-17.1166 -10.7432 -2.27172
-15.8376 -11.6477 -1.67093
-15.7714 -11.4327 -1.92181
-20.691 -10.7324 -0.408203
-20.5544 -10.8769 -0.165938
-20.6284 -10.7122 -2.16813
-16.868 -9.63512 1.60056
-20.2486 -10.7947 -1.77277
-19.8389 -10.7695 -2.28096
-20.1072 -10.7381 -2.64727
-16.6368 -9.9116 1.59511
-19.4041 -10.595 -1.39556
-19.0094 -10.6971 -3.44424
-18.2123 -11.5325 -0.163586
-18.0347 -11.1281 -0.905575
-17.6589 -11.3025 -0.228371
-17.5509 -11.2645 -0.80721
-17.4457 -10.8867 -0.779373
-17.8407 -11.1195 -2.20793
-16.7054 -10.7589 -2.66038
-16.6987 -11.8933 -0.709834
-17.0981 -11.3885 -1.2198
-16.8477 -11.3583 -0.609517
-16.9325 -11.8538 -0.15777
-16.779 -11.4181 -0.916698
-16.8391 -11.3919 -1.09733
-15.9502 -11.0852 0.442128
-16.0898 -11.7928 0.46287
-17.018 -11.536 -3.13211
-15.8616 -11.5973 -1.05115
-15.7033 -12.2551 -0.568165
-15.5714 -12.0149 -3.03038
-15.5365 -12.2202 -2.58841
-14.4073 -12.7009 -2.76068
-20.5646 -10.8922 0.980132
-20.6852 -10.8585 0.232269
-20.2388 -11.3583 -1.49795
-17.1298 -9.4879 1.05088
-19.0632 -10.9282 0.272517
-19.1795 -11.2763 0.0376785
-19.282 -11.1119 -0.0784602
-20.2242 -10.4292 -3.10728
-20.2177 -10.5243 -2.56465
-19.6513 -11.0548 -1.51081
-18.2116 -10.5892 0.246099
-16.3092 -9.70096 1.51115
-19.6649 -11.1103 -3.28873
-19.0028 -11.0012 -1.62196
-18.2906 -11.5175 -1.04359
-18.2044 -11.1016 -1.33594
-17.4413 -10.9131 -0.218571
-17.5051 -10.7345 -1.29593
-16.8084 -11.168 0.271798
-17.1825 -11.0513 -0.941763
-16.6835 -11.1484 0.689087
-16.7828 -11.3544 -1.08739
-16.1814 -11.8848 -0.0276261
-16.0728 -11.3743 -0.30097
-16.104 -11.7202 0.133393
-16.4106 -11.4751 -0.0785817
-16.3938 -11.7842 -1.05191
-15.7867 -11.8047 -0.85013
-16.3402 -11.7895 -0.256515
-15.9674 -11.1726 -1.8373
-15.4187 -12.7296 -3.0067
-15.3376 -12.1894 -1.86786
-15.5422 -12.554 -3.6039
-20.7031 -10.1996 -1.63136
-20.6658 -10.7142 -1.27859
-18.7283 -10.5749 0.505692
-20.2599 -10.532 -2.94283
-18.6314 -10.6505 -0.671588
-17.7396 -11.1285 0.314591
-17.4627 -11.2981 0.393242
-17.9366 -11.2442 -0.83133
-17.2676 -11.4941 0.553283
-17.6971 -11.1299 0.44072
-17.4884 -11.3673 -0.399069
-18.5195 -11.6895 -3.22915
-16.8968 -11.4095 -0.111584
-16.5116 -11.0877 0.858641
-17.1244 -11.1769 -2.08923
-16.3026 -11.5168 0.823412
-16.7652 -11.3036 -1.05712
-16.6762 -11.3024 -1.85838
-16.4932 -11.1222 -2.11734
-16.1852 -12.1648 -0.735744
-16.8153 -11.2183 -0.319085
-16.4753 -11.4125 -0.253621
-16.2796 -11.719 0.334935
-16.2123 -11.8426 -0.19843
-16.5814 -10.7325 -1.69242
-15.7372 -12.0784 -0.721313
-15.3277 -12.4487 -2.78197
-15.2202 -12.6026 -2.78107
-15.0117 -12.2274 -2.99904
-14.7836 -11.9092 -2.5338
-14.8519 -12.3253 -2.13124
-17.9897 -10.0114 1.48839
-18.5467 -10.8047 -0.0180039
-18.889 -10.9022 -1.20539
-19.6138 -10.3289 -2.96329
-19.5196 -10.6451 -2.96902
-17.7461 -11.3517 0.650013
-17.0633 -11.1567 0.180865
-17.485 -11.208 -0.663596
-18.5858 -11.2494 -3.15242
-17.6381 -11.3294 -0.237186
-17.525 -11.1275 -0.263581
-17.3737 -11.2671 -0.82733
-17.269 -11.5715 -0.951133
-16.7744 -11.4601 0.594497
-16.5224 -11.1116 -1.60496
-16.9992 -11.6087 -1.6642
-16.8917 -11.3241 -1.11226
-16.8654 -11.2548 -1.95494
-16.747 -10.742 -3.01837
-15.9758 -11.7943 -0.644399
-16.4411 -11.241 -1.11645
-16.4607 -11.5711 -1.03467
-16.1276 -11.6719 -1.24007
-16.5164 -11.4753 -0.617762
-16.325 -11.5321 -0.719953
-16.4561 -10.862 -2.98764
-14.9038 -12.3655 -2.44171
-14.6681 -12.548 -2.59741
-20.6337 -10.8858 -1.2145
-19.8115 -10.8472 -0.88236
-19.1896 -10.6049 -2.72018
-17.274 -11.2596 -0.362112
-17.4042 -10.6903 -0.481706
-17.5336 -11.229 -0.923074
-17.1651 -10.6933 -0.853316
-17.1756 -11.5785 -0.865028
-17.2506 -10.9225 -0.947334
-16.9327 -11.4961 -1.62562
-16.166 -12.1665 -0.138871
-16.2556 -11.677 0.206035
-15.2829 -11.6845 -2.79576
-15.254 -11.7834 -3.64551
-15.4301 -12.0923 -2.737
-14.872 -12.3572 -2.4953
-20.6303 -10.8363 0.847556
-20.4083 -11.435 0.11562
-18.3084 -10.9506 0.197026
-18.5896 -10.2358 -0.731228
-18.2057 -11.1751 -1.31027
-16.5982 -10.8155 -0.964772
-15.847 -12.0555 -0.539724
-16.907 -11.4108 -0.5882
-19.4102 -11.3262 -0.425036
-16.9895 -11.2235 -0.999226
-15.4724 -12.2289 -0.981456
-18.7794 -10.2317 -1.21544
-18.2294 -11.0872 -0.645187
-16.7147 -11.0702 -1.40496
-16.8019 -11.5894 -0.954092
-19.0316 -10.7031 0.14314
-16.8233 -11.7198 -0.551115
-17.2215 -11.3676 -0.92529
-16.9029 -10.369 -2.27633
-15.6201 -11.6883 -2.7693
-16.3719 -11.4493 -0.479707
-16.4056 -11.7233 -0.99895
-20.4673 -10.5871 1.16497
-17.4108 -9.30245 1.7428
-20.2704 -10.9734 0.427469
-16.5133 -9.52522 1.56437
-16.3872 -9.53135 0.96886
-20.6694 -11.1086 -0.232101
-20.7571 -10.7023 -0.214443
-20.7333 -10.8583 -0.413001
-19.0618 -10.4545 0.440981
-17.5611 -10.8498 1.02077
-19.8176 -10.4929 -1.14447
-18.6626 -11.0046 -0.232082
-19.1956 -11.197 -0.526763
-18.1755 -11.1403 0.0271922
-19.8078 -10.2873 -1.4089
-18.6289 -10.7923 -0.653848
-18.2263 -10.7263 -0.792235
-20.7485 -10.2083 -1.9755
-18.4006 -11.3239 -0.766346
-17.4837 -11.3549 0.0637376
-17.7828 -11.2336 -0.357508
-17.4346 -11.0539 -0.427668
-20.4782 -10.5925 -2.683
-20.8951 -10.4359 -3.35153
-20.045 -10.7596 -2.78507
-17.9956 -11.3133 -0.98734
-20.8131 -10.807 -2.94996
-18.354 -10.9204 -0.799577
-20.2576 -10.1752 -2.27184
-16.8518 -11.0973 -1.1628
-16.7182 -11.4407 -0.180575
-18.3263 -10.8585 -1.3644
-19.4906 -11.1567 -1.70558
-16.3562 -11.6146 0.398564
-18.3967 -10.4152 -1.51014
-16.7585 -11.056 -0.24099
-20.2393 -10.6929 -3.03076
-17.7943 -11.6105 -1.73432
-19.1677 -10.7035 -2.72618
-19.1764 -10.9579 -2.9523
-17.0399 -11.5613 -1.00149
-19.7641 -10.4876 -3.30087
-18.3659 -11.3668 -2.28594
-19.4269 -10.764 -3.63206
-16.5701 -11.4473 -0.981252
-15.7034 -12.0002 -0.416236
-18.138 -10.7489 -2.02245
-19.4043 -10.602 -3.91503
-18.4695 -10.6385 -3.19551
-17.122 -11.0882 -2.05091
-15.568 -12.1787 -1.10442
-16.4319 -11.5301 -2.88581
-15.2718 -12.1507 -2.08085
-15.6484 -12.1255 -3.05292
-15.6715 -12.2547 -3.12749
-14.9552 -12.2341 -2.93436
-14.6323 -12.4498 -3.07736
-20.8292 -10.8226 0.508029
-20.8523 -10.6876 0.720925
-20.2199 -10.8596 0.734587
-21.2638 -10.4375 0.343301
-16.6301 -9.39352 1.10313
-16.166 -9.5785 1.53248
-20.3725 -10.7427 0.0830573
-16.3071 -9.82175 0.875875
-18.892 -10.2046 0.409119
-15.7493 -9.65973 1.02921
-18.5527 -10.6987 0.208686
-18.0046 -10.6617 0.24833
-18.3305 -10.3424 -0.534736
-19.9638 -10.8849 -1.08239
-19.2434 -10.8867 -0.666147
-19.4682 -10.8361 -1.06309
-16.7285 -11.2515 -0.0129331
-18.2474 -11.499 -0.147265
-17.0137 -11.1952 0.491987
-19.3465 -10.9445 -1.35204
-19.6662 -10.608 -1.58823
-17.8273 -11.3642 -0.627918
-18.2292 -11.2328 -0.697074
-17.2097 -11.5833 -0.505019
-19.6469 -10.7074 -2.44084
-20.6203 -10.4648 -3.39296
-18.6773 -11.5559 -1.66876
-17.9415 -11.4736 -1.02523
-19.2661 -10.9947 -1.76469
-19.8582 -10.3663 -3.12119
-15.9463 -11.5741 0.288228
-19.2911 -11.1814 -2.40099
-16.6856 -11.2789 -0.502306
-16.2967 -11.6473 -0.365503
-18.1766 -11.1356 -2.82617
-19.0503 -10.8728 -3.22571
-18.7188 -10.993 -3.12467
-17.4115 -11.1744 -1.88448
-18.9715 -11.3525 -3.10274
-17.1863 -10.4374 -2.44343
-18.4739 -10.5202 -3.04914
-15.8139 -11.6381 -0.561316
-15.1684 -12.1504 -0.999738
-15.8283 -11.5193 -1.58099
-16.2198 -11.0893 -2.07695
-15.8213 -11.2558 -2.41751
-15.3063 -12.4264 -1.67559
-15.7974 -12.1862 -2.8241
-15.1277 -12.6607 -2.48181
-15.3156 -12.5678 -3.03351
-14.8635 -12.6853 -3.78411
-14.6062 -12.8298 -2.82189
-14.252 -12.5918 -2.9415
-20.2058 -11.4864 1.21459
-16.4181 -9.51609 1.0167
-16.9406 -9.91301 1.08678
-16.3144 -9.46007 1.55737
-20.4026 -10.9564 0.0587325
-18.3029 -10.5597 0.44219
-20.1414 -11.1784 -0.890468
-19.2021 -10.9583 -0.869113
-20.1802 -10.7147 -1.60679
-18.0895 -11.4059 -0.784978
-16.181 -11.62 0.588984
-17.3721 -10.9863 -0.504435
-17.8852 -11.2299 0.0574524
-17.2073 -11.6876 -0.337182
-16.4082 -11.7781 0.461216
-20.6765 -10.8045 -3.46557
-18.9432 -10.868 -1.52767
-19.766 -11.0514 -2.14273
-18.8694 -11.5698 -1.53892
-17.5718 -10.7178 -1.15555
-20.5975 -10.8668 -2.98597
-20.4476 -10.2047 -2.3453
-19.1062 -10.5573 -3.40709
-16.9066 -11.1432 -1.15683
-18.5293 -11.0379 -2.86236
-19.186 -11.2425 -3.16379
-15.6279 -11.9723 -0.83784
-16.323 -11.5456 -0.482844
-15.8689 -11.7814 -0.541028
-17.1001 -11.6308 -2.0754
-17.436 -11.1251 -2.07375
-17.8342 -11.086 -3.12436
-17.0069 -10.8986 -2.49953
-18.5886 -11.2162 -3.45314
-16.0058 -11.3495 -2.07952
-15.7562 -11.6755 -2.30995
-16.5084 -11.0791 -3.15738
-15.5378 -12.4166 -1.61998
-15.6156 -11.8581 -2.93573
-17.3536 -9.15051 1.64692
-20.1275 -11.156 -0.069
-18.2423 -11.1288 0.176357
-19.7963 -11.3685 -0.0669449
-16.6875 -11.016 -0.0112307
-20.1227 -11.0457 -1.65385
-16.7907 -11.3255 0.619284
-19.2701 -11.1395 -2.51263
-19.6038 -10.8103 -2.501
-16.6049 -11.6553 -1.08066
-19.3151 -10.9777 -2.3845
-19.691 -10.9076 -3.22546
-16.0618 -11.663 -1.08502
-18.4004 -10.9137 -2.68463
-16.2431 -11.9175 -1.17206
-17.6052 -11.2275 -1.8514
-15.5058 -12.3872 -1.24117
-17.0664 -10.6248 -2.68825
-18.5865 -11.1426 -2.79858
-16.473 -11.7966 -1.49166
-17.3871 -10.7018 -1.95407
-15.0817 -12.4564 -1.97368
-20.6756 -11.1971 0.496296
-19.8534 -10.8878 -0.538619
-18.5012 -11.0173 0.177146
-17.6283 -11.0929 0.296821
-20.3225 -10.8782 -1.13752
-19.5212 -11.4311 -1.23074
-19.9212 -10.7665 -0.783146
-17.496 -11.506 -0.710987
-16.4208 -11.7851 -0.304595
-16.7928 -11.5856 -0.0649204
-18.4849 -11.2701 -2.80288
-16.4454 -10.9505 -2.20892
-15.0797 -12.548 -1.83346
-14.848 -12.1835 -3.27108
-20.5618 -10.6107 0.924854
-18.5191 -10.6629 0.238793
-19.8724 -10.776 -0.344808
-19.2686 -10.6971 0.550012
-18.5087 -10.6689 0.0635887
-16.384 -10.7806 -0.347406
-16.1631 -11.4578 -0.219671
-16.9484 -11.1408 -2.29267
-15.809 -10.6091 -2.245
-16.7436 -10.8442 -3.20716
-15.0549 -12.1504 -3.24798
-17.5762 -10.4344 0.609543
-19.8455 -11.3458 -0.37377
-18.2319 -11.1623 -0.627191
-16.3126 -11.1212 0.913326
-19.3611 -10.8108 -0.61033
-19.4345 -11.0928 -1.12172
-16.5381 -11.1181 -1.93433
-15.3766 -11.5839 -1.14878
-16.0886 -11.3428 -1.92515
-16.8804 -11.0124 -1.73595
-14.9743 -12.3124 -3.513
-15.362 -11.9924 -3.11563
-15.3001 -12.3382 -3.12463
-14.8889 -11.8101 -2.75878
-14.545 -12.6928 -2.8018
-15.8301 -10.48 -3.0252
-15.0834 -11.5549 -2.9539
-18.3932 -10.9737 -4.05545
-14.811 -12.392 -3.13
-19.3577 -10.9235 -3.39241
-16.1804 -10.8874 -2.39532
-16.8489 -11.0398 -2.33123
-18.4585 -11.1757 -2.84323
-18.9741 -11.4302 -3.23394
-18.8163 -10.7819 -2.81146
-20.157 -10.5157 -3.03808
-20.1424 -10.4819 -2.93601
-15.1462 -12.3109 -2.3834
-18.5545 -11.3569 -2.56938
-20.4998 -11.1677 -2.89333
-14.9482 -12.4998 -2.32729
-20.0828 -10.3893 -3.27702
-15.7597 -11.6832 -1.96271
-16.8893 -11.1574 -2.0397
-19.9942 -10.3771 -2.36973
-19.6486 -11.0365 -2.61333
-19.1249 -10.5459 -2.35469
-20.7463 -10.5804 -2.54256
-18.9762 -11.0479 -1.69229
-20.3965 -10.592 -1.89183
-17.4107 -10.5727 -1.47848
-19.002 -11.3785 -2.03119
-20.3128 -11.0818 -1.85801
-15.9693 -11.4671 -1.40224
-15.7708 -11.9908 -0.87839
-18.2913 -11.0741 -1.06527
-20.6273 -10.6643 -1.2699
-19.9488 -10.4237 -1.14773
-15.6329 -11.9059 -0.490911
-18.5698 -10.9818 -1.06733
-18.0235 -10.9584 -0.736836
-16.5624 -11.8897 -0.431249
-17.7829 -11.0883 -0.684135
-17.2847 -11.19 -0.415197
-19.9861 -10.7298 -0.508742
-17.0923 -11.3035 -0.458393
-16.6904 -11.761 -0.124321
-19.3571 -10.8388 -0.663617
-17.3284 -11.6549 0.242064
-16.7843 -11.4385 -0.181272
-19.7941 -11.2981 -0.62433
-18.7911 -10.7092 -0.711582
-19.9133 -10.5098 -0.62631
-19.2016 -10.4615 -0.176411
-17.6419 -11.2932 0.295438
-17.4967 -10.8431 -0.167627
-20.3221 -11.3019 -0.12447
-17.7372 -10.5505 0.388455
-18.3874 -10.7869 0.67943
-17.6187 -11.3083 0.880756
-17.5968 -10.7142 0.495408
-16.1644 -11.6203 0.18734
-19.6777 -11.3487 0.575785
-20.7239 -11.0064 0.954965
-16.2925 -9.59698 1.26755
-16.4607 -9.62052 1.27718
-16.9945 -10.0094 1.81781
-14.8184 -12.1292 -3.31523
-15.0815 -12.4215 -3.26187
-15.2723 -12.691 -3.39963
-14.5555 -12.1901 -3.05571
-15.3054 -12.1821 -3.04703
-16.7108 -10.9597 -3.01319
-19.9409 -10.5745 -3.23889
-15.5373 -11.847 -2.35793
-16.3718 -11.1837 -2.20377
-18.0421 -10.7986 -3.17467
-18.9829 -11.1137 -2.96953
-16.1791 -11.4732 -2.56118
-18.4152 -11.259 -2.3723
-18.3204 -11.3885 -2.80553
-18.7478 -10.7128 -2.95451
-17.1623 -10.9633 -1.99779
-17.4605 -10.9945 -2.2375
-20.612 -10.7932 -2.8277
-18.9434 -11.2943 -2.43358
-16.7318 -11.1985 -1.51407
-16.6811 -11.5216 -1.56571
-18.3483 -11.2457 -1.47962
-19.3636 -11.2378 -1.73659
-18.7559 -11.7059 -1.31564
-19.228 -10.7797 -1.64287
-17.4726 -10.8614 -0.822628
-17.4991 -10.9134 -1.08417
-17.6441 -11.2155 -0.834175
-19.7726 -10.7093 -1.36684
-19.7738 -11.2291 -1.41576
-18.7595 -10.7372 -1.35478
-19.0643 -10.3908 -0.971262
-17.8843 -11.5089 -0.847325
-17.9126 -11.3261 -0.823889
-15.8598 -11.9482 -0.772057
-20.6206 -11.0002 -0.914858
-16.477 -11.4722 -0.326736
-17.6319 -11.0119 -0.373481
-17.0754 -10.9218 -0.298646
-16.5441 -11.505 0.545127
-20.0269 -11.2112 0.0178529
-20.2311 -10.7291 -0.490554
-21.088 -11.2733 0.0833879
-17.2112 -10.9362 0.0982603
-20.3124 -10.6283 0.345104
-17.2379 -10.8875 0.501194
-18.3283 -10.9875 -0.187018
-17.8829 -11.2175 0.139755
-19.8758 -11.2885 0.122037
-20.5118 -11.0652 1.00222
-16.4456 -9.6372 1.29748
-16.0913 -9.533 2.54777
-14.8885 -11.786 -3.35027
-16.4284 -11.5488 -3.3143
-15.2796 -12.1848 -2.95159
-14.9386 -12.5847 -2.56176
-15.8961 -11.2823 -2.44403
-15.914 -11.0921 -2.71309
-15.8077 -11.4879 -1.90674
-16.0527 -11.4424 -2.15442
-20.0198 -10.64 -2.67873
-18.4807 -11.3052 -2.25167
-17.2075 -11.3107 -2.06089
-19.1349 -11.2597 -2.16681
-19.7193 -10.7501 -2.56235
-19.7327 -10.9601 -1.52598
-16.0733 -11.6204 -1.08866
-17.409 -11.3452 -1.33016
-17.7541 -11.0838 -1.43901
-19.497 -11.0266 -0.554408
-20.4505 -10.509 -1.35374
-19.1541 -10.5978 -0.3225
