-19.1196 -11.4307 -2.00423
-20.3205 -11.1392 -2.64609
-20.0076 -11.1936 -2.3033
-20.6205 -10.3351 -1.55652
-19.9673 -10.7426 -2.00286
-19.6936 -10.9928 -2.04299
-20.7623 -10.7379 -2.52109
-18.4761 -11.5093 -2.24487
-20.2802 -10.6712 -2.19478
-18.7549 -11.465 -1.84651
-18.3852 -11.596 -1.47134
-19.3849 -11.2806 -1.72586
-20.8876 -11.1737 -2.2244
-20.3964 -10.9691 -1.31692
-18.4178 -11.6744 -1.02601
-16.3601 -11.8249 -0.671257
-17.5149 -11.4302 -0.8991
-16.3796 -12.0813 -0.899139
-16.6848 -11.9489 -0.771197
-16.617 -11.6551 -0.793419
-20.455 -11.1586 -1.35863
-18.9438 -11.4699 -0.784809
-19.8436 -11.1858 -0.575811
-18.1939 -11.1745 -0.425072
-17.8758 -11.6521 -0.553297
-17.5225 -11.8223 -0.472066
-17.1061 -11.7692 -0.60447
-20.0063 -11.3597 -0.466685
-20.8272 -11.0433 -0.814902
-19.7894 -10.8355 -0.384646
-19.7912 -11.4315 -0.536671
-17.8391 -11.6724 -0.122142
-17.3617 -11.5783 -0.438454
-17.5128 -11.5487 -0.29623
-16.7031 -11.9568 -0.0065841
-17.6199 -11.6175 -0.19222
-18.6989 -10.9713 0.185919
-20.2376 -11.1158 -0.734721
-19.0168 -11.3701 0.244591
-19.9351 -10.9817 -0.356347
-19.3467 -11.4176 -0.473441
-19.4843 -11.5076 -0.568636
-20.0947 -11.2618 0.0327192
-17.4119 -11.1648 0.280017
-20.3239 -11.2535 0.123697
-19.0777 -10.6202 -0.078315
-19.1107 -10.7283 0.231132
-18.5997 -11.246 0.14935
-18.2635 -10.7388 0.555092
-20.4313 -11.3217 0.219539
-18.9883 -10.6686 0.109966
-18.5735 -10.842 0.636507
-16.516 -11.71 0.424602
-20.7008 -11.2646 -0.223975
-20.1119 -11.826 0.689713
-19.9226 -11.4728 0.521142
-20.1769 -11.0287 0.127472
-20.4373 -11.0646 0.445124
-19.694 -11.4957 0.0280928
-21.1957 -11.0993 0.643196
-20.3598 -11.3219 0.542932
-20.0819 -12.1575 0.441545
-19.9495 -11.7362 0.497322
-20.0802 -11.4797 0.726498
-20.4056 -11.2658 0.444471
-20.5144 -11.3898 0.656041
-20.4956 -11.2189 0.793746
-20.3633 -11.5994 0.974159
-20.8066 -11.4232 0.739985
-19.8162 -11.8599 0.707727
-16.5131 -9.51807 1.44019
-17.8517 -9.82996 1.45495
-18.916 -11.0123 -2.91293
-18.4498 -11.8438 -2.71831
-17.1171 -11.6261 -1.83633
-18.7503 -11.1662 -2.66848
-17.8969 -11.4845 -1.66811
-16.5126 -11.2599 -2.19112
-17.4828 -11.5852 -1.75558
-20.3117 -11.0064 -2.48063
-16.7479 -11.1193 -1.74429
-17.419 -11.915 -2.0049
-17.105 -11.1806 -1.50761
-18.4027 -11.3378 -1.8369
-20.5722 -10.7987 -1.61915
-20.9689 -10.6707 -2.17651
-16.1075 -11.6085 -1.37312
-18.5911 -11.3773 -1.18949
-18.9979 -11.3234 -1.76851
-17.2379 -11.2794 -1.61862
-17.7095 -11.1813 -1.24312
-16.1335 -11.7776 -0.953726
-19.188 -11.1936 -0.750739
-18.452 -11.23 -0.868251
-17.9193 -11.8665 -0.495805
-16.6199 -11.6267 -0.0133819
-20.5294 -11.1773 -0.727651
-20.4387 -11.0655 -0.574914
-19.5609 -11.1145 -0.122868
-16.5229 -11.621 -0.470124
-17.4266 -11.8734 -0.0969926
-19.2058 -11.4418 0.0936448
-20.1125 -11.7905 -0.314084
-17.5533 -11.4721 -0.368531
-16.2031 -11.7698 -0.110111
-18.6399 -11.5889 -0.0687986
-20.4127 -11.1371 -0.0206295
-20.0623 -10.9599 -0.189262
-17.5707 -11.8839 0.360293
-20.3225 -11.0187 0.347645
-17.5782 -11.5516 0.0958103
-16.8803 -11.8938 -0.0466406
-16.3963 -12.0105 0.548497
-18.1306 -11.3243 0.789587
-18.7 -10.6212 0.121397
-19.6097 -11.0692 0.28736
-19.3571 -11.3273 0.137154
-19.8071 -12.0154 0.2674
-20.64 -10.868 0.120102
-16.9358 -11.9868 0.364695
-17.0532 -11.3902 0.448145
-16.7363 -11.7113 0.228571
-18.945 -10.9611 0.346206
-20.1289 -11.259 0.274069
-21.0699 -10.9199 0.706735
-20.6052 -11.5989 0.543275
-20.4942 -11.3595 0.648749
-19.9694 -11.2027 0.655387
-19.8867 -12.0489 0.780909
-20.1152 -11.3492 1.19068
-20.4334 -11.4887 0.766893
-17.4263 -9.85966 1.5604
-16.2952 -10.0643 1.60037
-19.6226 -11.2939 -3.0719
-20.0966 -10.3381 -2.91473
-16.6144 -11.4026 -1.97194
-19.1326 -11.1306 -2.25845
-18.6755 -11.4059 -1.32258
-16.1216 -11.8148 -0.881876
-20.1469 -10.7249 -1.41279
-20.1111 -10.9384 -1.0108
-20.5246 -11.0881 -1.61278
-19.7074 -10.9116 -1.35245
-19.5965 -11.3907 -0.631814
-16.5409 -12.2624 -0.63407
-19.7251 -11.637 -0.846669
-19.5438 -11.283 -0.768779
-16.7202 -11.82 0.0102063
-19.9741 -10.9949 -0.31241
-18.3373 -11.6464 -0.393002
-19.6068 -11.347 -0.477029
-19.6931 -11.533 -0.677942
-20.1993 -11.5602 0.0164946
-18.4177 -10.9789 0.281661
-20.102 -11.3153 0.0166907
-20.5565 -11.0708 0.0833774
-18.2532 -11.1622 0.454224
-16.3158 -11.7998 0.180364
-19.9695 -11.1464 0.623642
-19.9614 -11.3916 0.703461
-20.1385 -11.4233 -0.0861365
-20.2915 -11.5659 0.266874
-19.2212 -11.1205 0.95177
-20.1767 -11.1035 1.36522
-16.4841 -11.5055 -2.44185
-15.884 -11.6583 -2.25012
-16.8055 -11.3197 -2.14072
-16.3002 -11.5517 -1.81262
-18.4227 -11.275 -2.38801
-19.1532 -10.9883 -1.96598
-17.9891 -11.4491 -1.92052
-16.2786 -11.9557 -1.74947
-17.932 -11.5314 -1.10985
-16.7138 -11.7255 -1.14692
-15.7028 -12.5926 -0.336633
-20.1288 -11.2225 -1.32395
-19.4275 -11.3531 -0.600106
-19.6899 -11.1163 -0.570662
-18.7609 -11.5156 -0.549812
-19.8692 -11.2385 0.145303
-20.1407 -10.8274 -0.102254
-18.7077 -11.0636 0.147348
-16.2531 -11.6048 0.751049
-19.7159 -11.2965 0.159983
-20.4791 -11.105 0.694269
-20.0131 -11.3973 1.31882
-18.8642 -10.991 0.963458
-18.7648 -10.8255 1.55382
-17.4015 -9.71025 1.53116
-17.8007 -9.71594 1.35373
-15.6615 -11.7101 -2.74862
-19.5657 -11.1721 -1.69096
-19.5702 -11.0187 -0.645736
-18.8149 -10.7591 -0.461861
-19.7778 -11.6471 -0.637679
-20.0097 -10.9867 -0.194041
-19.0171 -10.5875 0.117947
-19.3806 -11.6971 0.13441
-19.0627 -11.0074 0.452193
-18.4672 -11.0349 0.660568
-17.083 -11.4071 0.391611
-20.4804 -10.8681 0.327112
-17.1843 -9.8949 2.03337
-19.8883 -10.6093 -2.95197
-17.1885 -11.1336 -2.37653
-17.3088 -10.7019 -2.30457
-17.5002 -11.0212 -2.05426
-16.3882 -11.3949 -1.81531
-19.6708 -11.9688 -2.23746
-18.2986 -11.242 -1.82965
-20.6369 -10.6155 -1.19997
-19.2434 -11.1226 -1.54425
-16.5235 -11.6463 -0.345267
-17.6859 -11.791 -0.106297
-19.0519 -11.1407 0.381607
-19.0052 -10.8584 0.87617
-16.9363 -11.6309 -2.35067
-18.4547 -10.9918 -1.74779
-16.2352 -12.1285 0.0597881
-19.9585 -11.8016 -0.676025
-19.7603 -11.2254 -0.667904
-17.6115 -11.7812 -0.362296
-20.4937 -11.4955 -0.0737642
-18.0437 -11.0143 0.445656
-17.8098 -11.1964 0.503652
-16.9562 -9.7163 1.47949
-20.6925 -10.8208 -1.91399
-17.8678 -11.5513 -1.3496
-17.4992 -11.2315 -1.02567
-16.9674 -11.7026 -0.806678
-17.6944 -11.6197 -0.154753
-17.4682 -11.7008 -0.473914
-19.9938 -11.7927 -0.488051
-20.311 -11.5132 0.0990375
-18.4329 -11.2258 -0.11844
-17.4394 -10.4932 1.13022
-17.5334 -9.65068 1.67376
-16.6712 -11.3012 -1.64628
-18.9328 -10.8981 -3.15966
-18.9986 -11.4738 -2.92407
-18.2314 -11.1658 -2.94737
-18.7749 -11.1094 -2.2263
-19.5231 -10.9581 -2.64652
-20.2596 -10.5688 -1.54121
-20.3183 -11.0125 -1.95446
-15.7624 -11.2525 -2.74898
-19.8234 -11.3551 -0.990426
-18.7248 -10.9091 -1.7296
-18.8508 -11.5862 -1.54541
-17.7806 -10.7067 -1.7809
-18.2179 -11.3872 -2.07783
-18.7758 -11.2712 -1.24706
-17.9116 -11.1884 -1.62864
-19.9345 -10.7099 -0.637996
-19.6442 -10.7851 -1.27774
-19.5792 -10.9755 -1.22091
-15.0395 -11.9276 -2.94167
-15.9313 -11.5187 -2.70717
-15.5068 -11.4008 -2.56494
-20.4005 -11.0949 -0.674215
-20.5533 -11.4011 -0.241924
-20.2627 -10.9498 -0.438657
-19.8917 -11.5688 -0.922845
-19.6229 -11.6425 -0.719814
-18.0886 -11.4991 -0.729948
-19.5566 -11.6009 -0.743596
-20.3251 -11.322 -0.479719
-20.3575 -10.9621 -0.270622
-20.6363 -11.2172 0.0966695
-20.8973 -11.007 -0.160216
-19.956 -11.4 -0.458342
-20.5121 -11.0773 -0.349712
-20.2238 -11.2824 0.102442
-19.9331 -11.0164 -0.764533
-20.3372 -11.8528 0.0517822
-17.7834 -11.4737 -0.45999
-19.0572 -11.4666 -0.352451
-17.2477 -11.403 -0.928221
-17.6419 -11.3687 -0.571811
-16.588 -11.5255 -1.20937
-20.9732 -11.2056 0.466084
-20.5072 -11.4203 -0.0651946
-19.828 -11.316 0.292739
-18.9554 -10.9632 0.193471
-20.1943 -11.3562 0.471111
-19.954 -11.2711 1.01388
-20.0339 -11.9558 0.20083
-16.9082 -11.214 -0.225938
-19.1083 -11.2237 0.377592
-20.3136 -11.1053 0.743103
-16.9701 -11.1904 -0.356383
-20.1627 -11.3005 0.513736
-17.1808 -11.4436 -0.273097
-17.3669 -11.9256 -0.466689
-18.6962 -10.8498 -0.312406
-17.8794 -11.1414 0.196736
-16.4676 -11.4982 -0.585207
-16.6382 -11.8553 -0.0621218
-20.0007 -11.5749 1.27305
-18.4942 -10.8213 0.99664
-16.6569 -12.0662 0.311514
-18.0694 -10.0122 1.47133
-17.0325 -11.7843 0.357321
-17.9426 -10.0731 1.71386
-17.3157 -10.0749 0.719289
-17.0617 -9.44783 1.48053
-17.0383 -9.64385 1.91104
-15.8066 -9.88064 1.30061
-17.2143 -9.75284 2.09075
-19.6212 -10.972 -3.12836
-20.135 -10.7618 -2.53889
-18.849 -11.187 -2.60303
-19.996 -10.67 -1.91504
-20.0629 -10.8032 -2.16428
-20.0169 -11.199 -2.06367
-18.1611 -11.9585 -2.60218
-20.4043 -11.1145 -1.88198
-18.2492 -11.313 -2.6104
-19.0985 -11.6743 -1.78986
-19.1739 -11.2214 -1.59633
-18.2883 -11.1329 -1.96197
-16.6179 -11.2804 -2.1058
-15.6786 -12.2691 -1.8828
-19.3107 -11.5216 -0.947997
-16.5655 -11.9187 -1.57417
-19.0914 -11.406 -0.452247
-16.3818 -11.6792 -2.05536
-20.2894 -11.1114 -0.194827
-19.1856 -11.29 -1.0742
-20.6132 -11.1281 0.386202
-20.0076 -11.2754 -0.227362
-20.9453 -10.4919 0.275371
-19.7899 -11.5283 -0.229699
-20.3312 -11.514 0.479974
-20.2399 -11.7188 0.0578924
-19.7623 -11.1391 0.0353643
-19.7186 -11.6933 0.718166
-20.6342 -11.5814 0.329267
-19.9496 -11.5835 0.610225
-16.6058 -11.3963 -0.722295
-17.3216 -11.28 -0.586543
-16.2669 -11.7959 -1.05857
-16.9928 -11.6838 -0.447561
-20.0729 -11.5155 0.611689
-19.921 -11.6703 0.850289
-19.8612 -11.5694 0.327566
-16.3712 -12.1388 -0.682643
-16.6926 -11.3268 -0.291356
-18.1237 -11.9773 0.153608
-20.273 -11.9485 1.09644
-20.8359 -11.307 0.147277
-15.8764 -11.704 -0.696087
-17.4761 -11.5503 0.52468
-17.4613 -11.5009 0.510187
-18.8105 -11.0365 0.664104
-18.6026 -11.6347 1.05148
-18.9929 -10.7923 1.20153
-19.2241 -11.0299 0.869643
-16.7282 -9.98981 1.48271
-18.5556 -11.185 -2.23548
-17.3512 -11.3866 -2.24454
-17.2711 -11.1356 -2.28855
-17.3518 -11.4178 -1.6346
-15.5053 -12.4031 -2.83351
-14.3964 -12.686 -3.20367
-16.0645 -11.1835 -2.35104
-17.8415 -10.7892 -0.943296
-16.6585 -11.3315 -1.56369
-17.2725 -11.306 -1.16744
-17.0131 -11.479 -0.909275
-18.2944 -11.4687 -0.92337
-20.2065 -12.0375 0.457075
-21.0113 -10.8886 -0.053643
-20.4889 -11.4348 0.029687
-21.0408 -10.9876 0.085883
-20.8494 -11.1154 0.0273322
-19.9751 -10.956 -0.0372013
-21.0144 -11.4359 0.255854
-16.5542 -12.1964 -0.858409
-17.6202 -11.5601 -0.416585
-20.7034 -10.9362 0.729726
-17.3817 -11.8358 -0.34046
-18.4531 -11.4581 0.246249
-19.9097 -11.5326 0.353431
-16.4657 -11.8767 -0.0791301
-18.6567 -11.2128 1.26007
-19.932 -10.9321 -2.86125
-17.1291 -10.9722 -1.79451
-17.2516 -11.2897 -2.2536
-16.9356 -11.2668 -2.32026
-17.0759 -11.0759 -1.66601
-19.9787 -11.2199 -1.58804
-18.487 -11.6824 -2.08055
-20.3361 -10.9935 -0.8619
-15.5964 -11.8359 -1.77456
-20.7446 -11.2094 -0.501861
-19.3192 -11.3047 -0.287976
-16.0556 -11.1247 -1.15183
-19.7383 -11.4048 -0.214038
-20.0169 -11.9054 0.671746
-16.6295 -11.6621 -0.952271
-15.6625 -12.1945 -1.23248
-18.3379 -11.2612 -0.00884777
-17.781 -11.7824 -0.09906
-20.2971 -10.6397 -1.07393
-15.6744 -11.2511 -2.35629
-15.6922 -11.9332 -2.45743
-16.4837 -11.8505 -1.75705
-19.9653 -11.4833 -0.89527
-16.5842 -11.5053 -1.20412
-16.3092 -11.3426 -1.15299
-16.7603 -11.1058 -1.71725
-18.0483 -11.8047 -1.21087
-20.7089 -10.9423 0.382489
-19.0876 -11.2584 0.155509
-16.875 -11.7353 -0.0921811
-18.8341 -10.8547 0.632593
-19.9898 -11.5278 0.865409
-18.7707 -11.3346 -2.85722
-15.0387 -11.8169 -2.54882
-15.4242 -12.408 -0.184885
-17.7742 -11.6017 -1.74551
-18.6564 -11.0091 0.472794
-18.157 -11.2987 -0.636616
-19.1632 -11.0676 1.36184
-16.8088 -9.79187 1.2907
-16.815 -11.7081 -0.905593
-19.1809 -11.1793 -0.0570847
-18.6596 -11.2911 -0.918068
-18.6103 -11.2302 -1.48788
-19.8309 -11.3193 0.16199
-19.7192 -11.3157 -2.2811
-20.5085 -10.3453 -2.36447
-20.2248 -11.4637 -2.26402
-20.4679 -11.2286 -0.505419
-20.678 -11.0134 0.115568
-20.5889 -11.4925 0.195838
-19.1506 -11.0874 -0.789432
-20.3239 -11.3284 0.823063
-16.7582 -11.0314 -2.41692
-19.783 -11.8048 0.475965
-20.244 -11.21 0.809644
-18.323 -11.5383 -1.39898
-18.3281 -11.0388 0.377321
-17.2546 -11.5998 -1.1982
-17.3249 -11.5214 -0.929904
-15.6696 -11.8478 -2.01501
-18.7744 -10.9489 0.910891
-15.749 -11.8133 -2.08577
-17.8551 -10.951 0.552633
-18.0858 -11.4363 0.832377
-14.9841 -12.322 -3.09915
-16.602 -12.5567 -0.765912
-16.9143 -11.8183 -0.817443
-17.1475 -10.0729 0.875371
-15.9226 -12.0308 -0.837771
-16.1132 -13.1092 -0.572056
-16.8329 -9.62302 1.0351
-17.1704 -9.69963 1.40238
-16.9482 -9.82437 1.11505
-16.604 -10.4522 1.31228
-16.8625 -12.0835 0.574374
-15.9995 -9.75768 1.28074
-20.5713 -10.4603 -2.14076
-20.9933 -11.1823 -0.510297
-19.6788 -11.1361 -1.48856
-19.1195 -11.16 -2.08632
-19.8785 -11.1162 -0.224223
-19.1447 -11.1109 -1.05487
-19.7388 -11.4937 -0.606119
-19.7211 -11.8097 -0.573672
-20.1207 -11.5527 0.580715
-19.2275 -11.8816 0.0401858
-17.5195 -10.9621 -2.31861
-18.2927 -11.4159 -1.0728
-19.6597 -11.5748 0.175567
-20.2275 -11.3795 0.710824
-16.719 -11.3384 -1.35876
-16.974 -11.3071 -1.7759
-17.3286 -11.7095 -1.09599
-18.9979 -11.335 1.07749
-17.276 -11.7206 -0.325739
-17.1503 -11.4628 -0.591624
-18.0625 -11.1711 0.10437
-16.5899 -11.4787 -1.48416
-17.1292 -11.7061 -0.340728
-15.8131 -12.0607 -1.45205
-18.6122 -11.0711 -3.03122
-20.1505 -10.939 -0.938477
-19.7473 -11.1639 -1.36623
-19.4536 -11.5404 -0.777481
-19.9582 -11.4097 -0.97132
-19.589 -11.7813 -0.793109
-20.2969 -11.8268 0.44018
-15.9361 -11.8453 -1.70017
-16.7478 -11.8746 -1.71482
-16.8392 -11.3771 -0.229051
-14.3519 -12.6316 -2.89687
-17.1182 -11.1671 -0.0487604
-17.6644 -11.4878 0.033435
-13.8277 -12.5455 -2.83635
-16.3504 -11.8333 -0.442085
-17.1104 -9.89439 1.92687
-18.6751 -11.7541 -2.27816
-19.892 -11.4453 -0.599832
-19.6593 -11.2857 0.277211
-18.8486 -11.3437 -0.296232
-17.1441 -11.1603 -2.04287
-18.5364 -10.7588 1.00314
-17.6175 -11.8185 -0.382691
-17.568 -11.503 -0.162026
-16.5614 -12.1214 -1.39669
-16.3259 -11.6942 -0.744567
-15.9982 -12.1488 -1.47293
-20.7396 -10.3504 -2.73691
-20.3846 -11.184 -1.30772
-19.093 -11.6782 -1.75553
-18.7486 -10.6256 -1.26096
-18.836 -11.6383 -1.59852
-19.099 -10.6747 -0.190468
-20.1646 -11.4591 0.888988
-18.3138 -11.737 -1.07499
-17.4166 -11.1328 -0.726015
-17.3776 -11.4793 -0.298871
-17.5783 -11.5926 1.01197
-18.4035 -11.3863 -0.0774527
-19.2172 -10.8731 -0.361276
-16.5205 -11.7472 -2.0986
-16.9356 -11.1357 -1.23935
-16.3589 -11.2308 -1.09517
-17.487 -11.3549 -1.93543
-17.6958 -11.1918 -2.73889
-17.7531 -11.2743 -2.34271
-17.8911 -12.0849 -0.860836
-16.8078 -11.448 -1.90234
-16.4947 -11.7034 -1.60657
-19.2061 -11.6527 -0.633835
-16.7528 -11.2775 -2.10513
-20.2565 -10.8612 -2.27006
-20.2013 -10.7012 -2.71746
-20.0257 -11.005 -2.40239
-19.9327 -10.9193 -2.92446
-20.6135 -11.311 -0.398358
-19.5466 -10.8083 -3.1701
-19.841 -11.2576 -0.0716695
-20.1507 -11.2909 -0.659943
-18.8158 -10.9228 0.527152
-18.2464 -11.7069 -3.20162
-18.2577 -11.0951 1.15704
-18.859 -10.9356 1.18022
-18.4585 -11.1995 1.0491
-18.3116 -11.47 -0.000983056
-18.2352 -11.1308 -0.667845
-17.6362 -11.2413 -1.33135
-16.9438 -9.62347 1.45419
-17.1778 -9.38389 1.40501
-16.6142 -11.4324 -1.61605
-16.7922 -10.0393 1.4007
-16.3436 -9.90775 1.57188
-16.648 -10.3993 1.57095
-16.9089 -12.333 -1.20295
-16.1813 -11.8776 -0.605695
-16.8946 -11.6237 -0.289876
-15.3076 -11.8954 -1.98046
-15.7935 -9.90421 0.841931
-20.2561 -10.5873 -2.29916
-19.7023 -10.6667 -1.92639
-19.8557 -10.56 -2.45089
-19.887 -11.2951 -1.99158
-19.5329 -11.5942 -1.12792
-19.3102 -11.335 -2.39342
-19.4239 -11.7378 -0.248113
-19.4708 -11.4626 -0.778947
-19.0047 -11.2008 -2.5796
-18.9505 -10.964 -2.24376
-19.1821 -11.2972 -2.59166
-19.359 -11.0774 -0.759549
-19.5951 -11.8318 -0.509862
-18.2344 -11.2583 -3.08373
-19.7398 -11.4639 1.07339
-19.1073 -11.6561 -1.68736
-18.7222 -10.6779 1.25863
-17.8695 -11.224 -0.941429
-18.4784 -11.34 -1.20684
-17.6937 -11.4197 -2.04924
-18.3197 -11.8701 0.0667853
-17.0445 -9.83642 1.202
-17.5494 -11.4695 -0.420316
-16.0587 -11.8046 -2.01764
-16.555 -11.4502 -1.40732
-16.2233 -12.0926 -1.0569
-16.4772 -11.5504 -0.540538
-16.1102 -11.9457 -0.389882
-15.755 -12.6737 -0.0966887
-15.854 -9.88812 1.96305
-15.1721 -12.0001 -3.1573
-20.1901 -11.1462 -2.58193
-20.4743 -10.5732 -2.32687
-20.7139 -10.6944 -0.12176
-19.9472 -11.0163 -0.525269
-19.2633 -10.9818 -1.68776
-19.9722 -11.2936 -1.84551
-19.3445 -11.0032 -2.47243
-19.3712 -11.1956 -0.901715
-19.4491 -11.7115 -0.209599
-18.6453 -11.3199 -0.432698
-18.9881 -11.1498 0.0725442
-18.3708 -11.599 -0.52525
-18.4331 -11.1227 0.425569
-17.0862 -11.4285 -1.52784
-17.4701 -11.375 -0.0192623
-17.1203 -11.753 -0.0691732
-16.2349 -11.5689 -0.378749
-15.9266 -12.2607 -0.60317
-15.8163 -12.2274 -0.480769
-20.4031 -10.7516 -1.61588
-19.9203 -11.0183 -1.35477
-20.8915 -10.6967 -0.231366
-19.3264 -11.1243 -1.71107
-19.5047 -11.0671 -0.818752
-18.8618 -11.4889 -2.16576
-17.0644 -10.9564 -2.30707
-17.5001 -11.5345 -0.931059
-17.5656 -11.5673 -0.0656664
-17.2841 -11.841 -0.345336
-17.052 -11.5019 -0.297814
-15.9111 -10.8036 -2.80574
-16.1714 -12.011 -0.540884
-16.5385 -11.43 -0.273325
-16.4013 -12.0323 -0.94275
-16.2603 -11.9047 -1.08136
-16.6366 -11.9456 -0.31562
-15.661 -11.9059 -0.483739
-19.4285 -10.7013 -2.43411
-18.2411 -11.2476 -2.37239
-17.2361 -11.4805 -0.380465
-17.3789 -11.355 -1.50653
-17.2662 -11.6426 -0.213881
-17.088 -11.4375 -1.7188
-16.6478 -11.9044 -1.09052
-16.2533 -12.3011 -0.710444
-16.1401 -11.7631 -1.10303
-21.0437 -11.0344 -0.140794
-19.9158 -11.0371 -1.92805
-18.8162 -11.6773 -0.7546
-17.6116 -11.4554 -1.12039
-17.4477 -11.5745 -0.76694
-19.1994 -11.0716 -1.06184
-15.8102 -12.1274 -0.436696
-18.993 -10.6699 0.426532
-19.4893 -11.3186 -0.961186
-18.0535 -11.1826 -1.38371
-17.3441 -10.0755 1.28963
-14.8954 -11.7591 -2.16389
-17.5317 -9.70098 1.53911
-20.591 -11.2063 -1.21601
-20.4791 -11.1136 -0.109877
-20.5208 -10.9221 0.0947856
-20.4021 -11.1489 -2.84135
-19.4278 -11.3473 -0.959082
-19.4209 -10.8684 -2.44697
-18.5772 -11.6195 1.04578
-19.5129 -11.3998 -0.965423
-19.0468 -11.5283 -2.89663
-18.9729 -11.4381 -2.39701
-18.5839 -11.2946 -2.55285
-18.6936 -11.3757 -1.73304
-18.0434 -11.2713 0.20209
-18.8433 -11.1146 -2.66834
-18.3734 -11.5792 -0.233007
-18.2261 -11.7711 -0.761507
-18.0624 -11.5506 -0.15965
-16.8438 -9.92376 1.41029
-16.6987 -10.0283 1.53747
-16.7669 -10.0003 1.00097
-17.8959 -11.8533 -0.580237
-17.9962 -11.5165 -2.92296
-17.1574 -11.5495 -0.363995
-17.885 -10.6979 -1.34879
-17.5214 -11.642 0.0757061
-16.817 -10.2908 1.97194
-16.7785 -10.232 1.87801
-17.0681 -12.1106 -1.03078
-16.9973 -11.16 -2.49313
-17.2682 -10.9465 -2.40738
-16.3084 -10.426 1.18235
-16.5974 -11.3796 0.59627
-16.7487 -11.6418 -0.226651
-16.4725 -11.6743 -1.1037
-16.1363 -10.0852 1.34081
-16.3974 -11.7354 0.38126
-16.7717 -12.0847 -0.598762
-16.1174 -11.2139 -2.50581
-15.9638 -12.3295 -0.584683
-15.7558 -12.2821 -2.53184
-15.3149 -11.7531 -1.69542
-15.1014 -12.2954 -2.90445
-15.3181 -12.8288 -3.0794
-20.5605 -11.2809 -0.249896
-20.3399 -11.1113 -0.643029
-20.5483 -10.8856 -1.995
-20.739 -11.12 -2.09642
-21.2783 -10.872 -2.29022
-20.5986 -10.8371 -2.08778
-20.4903 -11.2285 -0.764315
-20.4453 -10.8017 -2.66973
-19.7109 -10.688 -2.04637
-20.0739 -11.0301 -1.59471
-19.7719 -11.0854 -2.7587
-19.3244 -11.2406 -0.866131
-19.7858 -11.3391 -3.58059
-19.2834 -10.8216 -1.88329
-19.3111 -11.9209 -2.50103
-18.7008 -11.0502 -2.71061
-19.2324 -11.5499 -2.38123
-18.5471 -11.4449 -2.42456
-18.3987 -10.8599 -1.45712
-18.4268 -11.521 -0.61278
-18.5151 -11.2154 -2.27766
-18.3607 -11.9069 -0.414925
-17.9096 -11.5057 -1.08314
-16.9177 -9.56194 1.08165
-16.9313 -9.87389 1.41914
-17.5912 -11.4687 -0.759293
-16.8457 -10.6446 1.33906
-17.6657 -11.4858 -0.778763
-16.9125 -11.0052 -1.97508
-17.8204 -11.3069 -1.86422
-17.1372 -11.0913 -2.35505
-17.023 -12.0657 -0.180629
-16.9724 -11.2271 -2.18193
-16.8048 -11.4549 -0.700195
-16.0289 -10.0232 1.21163
-16.9745 -11.3291 0.184101
-16.9442 -11.3784 -1.97454
-17.0112 -11.1732 -2.13669
-16.5756 -11.7981 -1.28092
-16.3878 -11.4817 -1.61193
-16.4701 -11.2859 -2.72726
-15.7987 -11.5291 -1.93266
-16.1526 -12.4484 -1.11914
-16.4842 -11.3056 -2.14756
-15.8526 -12.9566 -0.194297
-16.0261 -12.3147 -0.773125
-15.7251 -12.7088 -1.36398
-15.5667 -11.7169 -1.01909
-15.6236 -11.5668 -2.31992
-14.5232 -12.357 -2.35598
-14.6501 -12.5168 -2.55338
-20.4667 -11.2096 -0.299545
-20.5765 -11.1662 -0.482127
-20.3652 -11.1977 -0.70523
-20.9592 -10.7572 -2.51327
-20.5211 -11.1008 -1.71867
-19.7678 -11.4562 -1.70401
-19.53 -11.5685 -0.846416
-19.0559 -11.1444 -0.191268
-18.9684 -11.1871 -1.71186
-18.7672 -11.7199 -1.6976
-18.316 -11.073 -1.53095
-17.0759 -9.76206 1.73581
-17.8514 -11.0858 0.496607
-17.6547 -11.8645 0.0933254
-17.6096 -11.4868 -0.338427
-17.2632 -11.505 -0.561395
-16.8167 -11.9218 -0.106069
-16.6934 -11.7143 0.747815
-17.0879 -11.2879 -1.83031
-16.6435 -12.0091 -0.700182
-16.5736 -11.5338 -0.896615
-16.3149 -11.3603 -0.824631
-16.2981 -11.7697 0.0674674
-16.5578 -11.8012 -1.54184
-16.2074 -11.8485 -0.889565
-16.4785 -11.5418 -1.55144
-16.3205 -11.817 -1.96396
-15.9543 -12.102 -0.458927
-15.749 -12.1781 -3.12649
-20.1544 -11.6389 -0.284764
-20.5205 -10.5966 -2.29942
-20.1458 -10.9833 -1.45133
-18.895 -11.0145 1.38286
-17.3975 -11.5107 -0.61004
-17.4185 -11.376 -0.97008
-17.5024 -11.4919 -0.669604
-17.2722 -11.3248 -0.865242
-17.2996 -11.1516 0.124952
-16.7002 -11.8007 -0.752104
-16.0799 -12.3453 -0.470879
-15.3359 -11.8852 -1.28153
-19.9842 -10.89 -1.16132
-19.0347 -11.5315 0.806
-19.4192 -11.0115 -1.13894
-18.685 -10.7445 -1.10519
-17.4893 -12.0813 -0.532108
-17.6671 -11.5157 -0.264282
-17.415 -11.0637 -0.603992
-16.2621 -11.8068 -0.00268292
-16.8362 -12.1467 -1.14606
-16.302 -11.8507 -1.29943
-16.4706 -11.9526 -0.792215
-16.2293 -11.9692 -0.858703
-15.4641 -12.4124 -1.0243
-18.9358 -10.9285 0.856032
-19.3606 -11.2674 -0.590337
-18.0498 -10.8333 -2.25186
-16.9544 -11.6141 -1.51768
-17.3974 -11.1673 -0.925471
-17.5981 -11.685 -1.45222
-16.5965 -11.2011 -1.83539
-16.6859 -11.854 -1.97039
-18.2353 -11.5483 -0.967491
-17.9869 -11.5842 -0.947999
-17.3292 -11.8266 -0.0958678
-16.0661 -11.0236 -2.44583
-19.339 -10.9654 0.306011
-18.1845 -11.5202 -0.487185
-16.1314 -11.4488 -1.5508
-16.2522 -11.613 -2.39377
-15.6469 -11.0559 -1.88306
-15.3346 -12.1259 -1.57621
-19.1752 -10.5375 0.31517
-19.1542 -10.675 -0.142976
-15.9275 -11.4726 -2.19116
-18.7358 -11.2659 -0.477488
-14.8908 -11.5897 -1.73304
-18.9947 -11.0635 0.95337
-16.7435 -11.4387 -1.18864
-20.1324 -11.3336 -0.38226
-21.1777 -10.5942 -1.90048
-20.2994 -11.0058 -0.776013
-20.7894 -11.3777 -1.44593
-20.753 -10.8402 -2.4005
-19.9032 -11.6422 -0.828329
-16.8403 -10.1059 0.920883
-20.7161 -10.7067 -2.87318
-16.7175 -10.0293 1.84479
-19.0518 -11.104 -0.176015
-17.0902 -9.84104 1.44977
-19.1618 -11.6524 -0.343024
-19.4618 -11.4433 -2.00262
-16.8956 -9.57556 1.07174
-19.8091 -11.0241 -1.85723
-19.1431 -10.8653 -1.08086
-16.5456 -10.0786 1.48194
-19.4284 -10.9332 -2.77815
-16.2456 -10.0658 1.71431
-16.2594 -10.1812 1.01505
-18.0763 -11.5406 -0.918832
-19.8833 -10.8078 -2.33077
-18.6353 -11.3968 -1.27963
-19.5109 -11.0719 -2.4012
-19.3061 -11.3155 -2.13076
-18.0385 -11.5451 -0.495065
-19.1879 -10.8293 -2.2892
-19.3587 -10.8363 -2.65408
-19.2632 -11.5059 -2.67036
-19.4251 -11.084 -2.25283
-17.4429 -11.2194 0.170576
-18.3283 -11.2949 -0.934599
-18.9413 -11.447 -2.0705
-18.8912 -11.1641 -1.99099
-16.814 -12.3045 0.288916
-18.6011 -11.2016 -1.8334
-17.32 -11.9021 -1.06327
-19.021 -11.3199 -2.40064
-18.8431 -11.1305 -2.68094
-18.1802 -11.3721 -1.52782
-16.7573 -11.975 -0.438089
-17.2043 -11.3385 0.00285402
-18.1178 -11.3476 -1.52354
-18.9418 -11.5257 -2.45764
-17.8808 -11.4683 -2.72033
-17.9939 -11.5395 -3.15809
-17.4526 -11.4959 -0.878467
-16.6411 -11.4487 -1.27086
-16.6994 -12.0779 -1.42224
-16.5497 -11.606 -0.39366
-17.0363 -11.2923 -2.10528
-16.1762 -11.5674 -0.847294
-16.2911 -11.4019 -2.48355
-15.9944 -12.5599 -1.71951
-15.1705 -12.4219 -1.77847
-15.3812 -12.008 -2.87295
-14.59 -12.4899 -2.97745
-14.4948 -12.5937 -3.27329
-21.0273 -11.0418 0.489314
-20.1444 -11.5765 0.517455
-20.2382 -11.1773 0.393232
-19.71 -11.3444 0.577134
-20.9304 -11.2317 -1.34337
-20.7089 -10.3876 -1.61355
-20.5554 -11.197 -0.405489
-20.2223 -10.7897 -1.41823
-20.4832 -10.4653 -1.92983
-17.0978 -9.59439 1.30107
-19.603 -10.9908 -1.78408
-17.1325 -9.90654 1.40885
-19.5353 -10.9153 -2.50078
-17.1729 -9.9689 0.597788
-18.5754 -10.6027 -0.794195
-16.9959 -10.0311 1.66812
-17.7796 -11.7068 0.0151548
-19.1279 -10.8712 -1.90944
-19.3646 -11.1755 -2.14162
-19.2492 -11.2882 -2.7939
-18.3018 -11.1714 -0.877771
-17.468 -11.7422 -0.117222
-19.1219 -11.042 -2.51722
-16.5427 -11.3024 0.531314
-17.7965 -11.1842 -1.66339
-18.7804 -11.0772 -2.91036
-17.6742 -11.2062 -1.24152
-17.4951 -11.7828 -1.13882
-16.8991 -11.4939 -1.62836
-16.0615 -12.2326 -0.494463
-16.8415 -11.2372 -2.34575
-16.2193 -11.5348 -1.37472
-16.8415 -11.8869 -2.00719
-16.112 -11.9186 -0.947984
-17.0504 -10.9846 -2.65595
-17.0911 -11.1821 -3.41945
-16.5009 -11.9004 -2.09479
-16.6046 -11.16 -2.93678
-15.871 -11.2837 -2.29718
-16.532 -11.2118 -2.54267
-16.1038 -11.3748 -2.76556
-15.915 -11.5986 -2.7336
-15.9803 -11.3771 -2.46436
-14.8249 -12.2527 -3.3214
-20.568 -11.4834 0.742685
-19.5597 -11.1477 1.52463
-20.4685 -11.6138 0.694971
-20.4296 -11.2021 -0.62123
-20.5464 -10.6435 -0.497666
-20.4668 -11.0032 0.0315944
-18.5609 -11.3577 0.555937
-21.0948 -10.7293 -1.91208
-19.9883 -10.859 -0.846389
-20.8809 -11.3284 -1.77506
-20.5931 -10.5111 -1.39157
-20.0151 -11.1783 -1.2366
-20.3 -11.0911 -1.07435
-19.9412 -10.7594 -1.92568
-19.9704 -10.6681 -2.254
-19.1497 -11.2371 -1.14548
-19.4612 -10.7678 -1.69863
-19.9223 -10.7556 -1.69923
-18.6488 -11.0339 -0.652112
-17.7925 -11.4437 0.226436
-19.5573 -11.7574 -2.40123
-19.126 -11.5655 -1.55791
-18.5892 -11.2145 -1.27821
-18.5784 -11.9646 -1.29128
-18.3569 -11.0163 -1.0542
-20.013 -10.8256 -2.6392
-19.1183 -11.2631 -2.28493
-18.6285 -11.0946 -2.88452
-17.6919 -11.3171 0.136623
-17.5908 -11.718 -0.00382726
-17.4167 -11.8982 -0.481344
-18.8171 -11.383 -2.85411
-17.2014 -11.1454 -0.740488
-18.3908 -11.5339 -2.92433
-16.8755 -11.3785 -0.529457
-17.8582 -11.316 -1.25368
-17.1512 -11.2531 -0.877051
-16.4827 -12.0674 -0.182433
-16.3629 -12.1919 -0.998263
-16.862 -11.4996 -2.11775
-16.2211 -12.1094 -0.661426
-16.2486 -11.271 -1.21363
-15.9924 -11.8525 -1.69823
-16.0344 -11.7242 -1.84972
-16.4181 -11.3302 -2.0657
-16.0424 -11.3587 -2.09783
-15.3234 -12.1516 -1.98507
-15.1354 -12.1757 -2.62063
-20.2358 -11.3924 0.0696792
-20.4661 -11.5258 -0.141096
-20.4364 -11.2377 -0.122609
-20.2873 -11.4665 -0.447672
-20.2786 -10.9696 -1.22175
-20.2293 -10.6505 -1.94869
-20.3338 -11.0069 -1.51366
-19.9014 -11.2864 -1.07015
-16.2521 -10.1118 1.09391
-18.7512 -11.8932 -0.729107
-18.8175 -11.2875 -2.20737
-16.1402 -9.844 1.34634
-19.3065 -11.3701 -2.98986
-18.6445 -10.7966 -2.97707
-17.4879 -11.3935 -0.262552
-17.8146 -11.7117 -0.596751
-17.3369 -11.5688 -1.03905
-18.6743 -11.3206 -2.38289
-17.4421 -11.4678 -1.91572
-15.5151 -12.5778 -0.69444
-15.4913 -12.2782 -2.9812
-20.5095 -10.508 -1.469
-20.4457 -10.7368 -2.10073
-20.8602 -11.336 -2.16095
-17.1883 -10.3053 1.13478
-19.8524 -11.2153 -2.82218
-17.6517 -11.7412 -0.262124
-17.1255 -11.5142 0.0739357
-17.1962 -11.3999 -0.736059
-18.1994 -11.6474 -2.02276
-16.1863 -12.1908 -0.535819
-16.3965 -11.9701 -0.670357
-15.9999 -12.4069 -0.510326
-16.5288 -10.9018 -2.6205
-15.8252 -11.7821 -2.30297
-20.2468 -11.0977 0.271052
-18.846 -10.6025 0.00818902
-19.7086 -11.1267 -0.644429
-18.6177 -11.1556 0.189678
-17.2801 -11.6553 -0.836703
-16.7285 -12.0358 0.765031
-16.2656 -11.6938 -2.79975
-18.8847 -10.4124 0.406671
-18.6129 -11.0822 -0.637369
-16.9325 -11.6148 -1.48964
-17.2054 -12.0094 -1.99704
-16.7487 -11.2042 -1.58905
-15.8794 -12.2575 -1.02561
-15.5565 -12.2878 -1.32388
-18.5871 -10.4781 0.268003
-16.51 -11.3852 -2.06534
-17.3594 -9.91828 1.33185
-17.0531 -11.8863 -0.46656
-16.8291 -11.7262 -0.950207
-16.3688 -11.6743 -0.920622
-16.2432 -11.3461 -2.42681
-20.6517 -11.1361 0.694032
-20.3312 -11.2367 0.443061
-20.7047 -11.1818 0.102698
-20.5578 -11.567 -0.09574
-19.9436 -11.1138 -0.0779129
-18.8577 -10.9273 0.56453
-19.055 -10.9228 0.646438
-17.0775 -10.2802 1.0064
-20.9055 -11.1217 -1.09797
-20.5626 -10.8019 -0.586336
-19.5331 -10.7747 -0.563987
-18.4147 -11.2828 0.339362
-20.0505 -11.0536 -1.13559
-20.4949 -10.8065 -1.46323
-18.8095 -11.1688 -0.157885
-20.3103 -10.7235 -1.40294
-20.8814 -11.063 -1.68317
-20.7647 -10.8221 -1.34001
-20.9525 -11.04 -1.77137
-20.2196 -11.0815 -1.43563
-18.111 -11.7025 -0.751501
-20.5561 -10.8878 -1.62671
-19.8913 -10.945 -1.04959
-20.5399 -10.9566 -1.71301
-18.3476 -11.6724 -0.672302
-19.4684 -11.9398 -1.33533
-16.4497 -12.1581 0.338756
-19.578 -11.4401 -1.41369
-18.2071 -11.8068 -0.903318
-17.6894 -11.7321 -0.56526
-17.3793 -11.5845 -1.14017
-18.0172 -11.6804 -0.578316
-19.4098 -11.081 -2.27333
-17.9933 -11.7382 -0.683547
-20.9363 -10.2083 -2.53468
-18.0308 -11.8139 -0.781195
-19.4149 -11.1813 -1.85898
-17.7886 -11.3984 -0.710121
-17.395 -11.5928 -0.530889
-19.7904 -11.1224 -2.28382
-18.6589 -11.335 -2.04431
-15.7225 -11.8941 -0.668446
-18.7417 -11.602 -2.40213
-19.4716 -10.7262 -2.49433
-16.3448 -12.2415 -0.0538291
-18.7498 -10.9915 -2.16673
-18.098 -11.1904 -1.75673
-16.4726 -11.5403 -0.563197
-18.1465 -11.1962 -3.01802
-15.9029 -12.1282 -2.23124
-20.8351 -11.1876 0.0465761
-20.5817 -10.9584 0.373432
-20.0155 -11.4971 0.286486
-20.0815 -11.7396 0.68267
-20.4111 -11.3985 0.0639131
-17.344 -9.62689 1.00919
-17.3248 -9.57603 1.42474
-16.698 -9.83843 1.23907
-19.8951 -11.5691 0.403763
-19.1467 -10.9605 0.431787
-18.9499 -10.7944 0.456448
-16.7556 -9.94578 1.54852
-21.0548 -11.5936 -0.636518
-16.8456 -9.95838 1.25455
-20.6587 -11.3356 -1.25218
-17.0003 -10.2951 0.97386
-16.668 -10.1777 1.05132
-18.6119 -10.6117 -0.0136252
-18.6271 -11.3224 0.554413
-18.5881 -11.0952 0.264839
-17.903 -11.4619 0.442124
-20.3702 -11.0755 -0.468379
-20.0724 -10.975 -1.16787
-20.0687 -10.3231 -1.2937
-20.5627 -10.7513 -0.811314
-19.5551 -11.367 -0.820795
-17.675 -11.1137 0.224973
-20.3573 -10.1759 -2.29952
-16.4405 -11.874 0.580228
-20.6208 -10.4788 -1.74883
-20.1513 -10.8487 -1.85876
-20.1161 -10.6421 -2.37646
-19.6675 -10.6596 -1.65197
-17.2341 -11.5643 -0.288482
-19.5822 -11.1165 -1.86036
-17.0488 -11.4943 -0.577895
-20.0086 -10.4809 -2.50859
-20.2843 -10.9434 -2.94014
-18.1273 -11.6845 -1.29863
-19.6081 -10.9467 -2.33297
-17.6878 -11.6271 -0.89146
-16.2291 -12.1044 -0.297872
-19.0695 -11.6588 -2.71858
-20.0413 -10.6579 -2.992
-18.817 -11.1726 -2.58966
-16.758 -11.6203 -1.2447
-19.9855 -10.9946 -3.36691
-18.5265 -10.9972 -3.09118
-18.958 -11.5193 -2.48447
-18.9116 -11.0082 -3.10003
-16.4742 -12.1708 -0.881818
-18.1408 -11.0441 -2.94583
-16.9681 -12.0315 -1.53586
-17.3798 -11.3754 -1.82005
-18.1647 -11.2607 -3.11275
-15.6876 -11.9079 -1.98142
-15.9883 -11.1893 -1.96319
-20.0665 -11.8494 1.62056
-20.4336 -11.5798 0.45132
-20.483 -11.1079 0.186234
-19.9727 -11.1837 -0.0597043
-16.6333 -9.88996 1.42596
-20.7216 -11.2336 -1.06253
-19.6434 -11.3377 0.286717
-20.9941 -10.8397 -0.529503
-16.8252 -9.56968 1.1165
-17.1697 -9.99821 0.851844
-19.7041 -11.0303 -0.639528
-19.8455 -11.0171 -0.861443
-20.6688 -10.3871 -1.74072
-20.1976 -11.3126 -0.917275
-19.7529 -11.5941 -0.752355
-18.2124 -11.1347 -0.433332
-18.5623 -11.1042 -1.04867
-16.9589 -11.2299 -0.330207
-19.4315 -11.1493 -1.60529
-17.7247 -11.9913 -1.25261
-18.3828 -11.0815 -1.77231
-18.5075 -11.435 -1.72651
-17.3959 -11.4232 -0.84217
-18.8 -11.4678 -2.0648
-16.9106 -12.1044 -0.943139
-17.4602 -11.5487 -0.788905
-18.0021 -11.131 -1.66596
-17.0111 -11.1829 -1.87002
-18.6664 -11.5604 -1.94525
-16.601 -11.6044 -1.45025
-16.2996 -11.3492 -1.50564
-15.9875 -12.4354 -1.13629
-15.8515 -12.1644 -0.731351
-16.4015 -11.636 -1.94584
-17.1238 -11.1629 -1.83828
-16.1442 -11.5898 -2.41872
-20.7198 -11.2612 0.5543
-16.9477 -10.0605 1.3775
-20.2559 -11.1385 0.524289
-18.8591 -10.5836 1.1542
-18.4731 -11.1455 0.770877
-20.0592 -11.3598 -0.705051
-19.0569 -10.759 0.36525
-20.1508 -11.3087 -0.0559646
-19.8471 -11.2028 -0.478851
-20.1334 -11.6271 0.0985656
-18.7406 -11.6023 0.270827
-18.5462 -11.0475 0.445497
-18.1897 -10.5561 0.226258
-18.1112 -11.4169 0.35291
-18.3233 -11.0853 0.506572
-17.6394 -10.9318 0.159115
-20.4268 -10.6441 -1.2477
-17.7299 -11.5119 0.056049
-19.7243 -10.8373 -1.57539
-17.3959 -11.9771 -0.186031
-17.2278 -11.2985 -0.048883
-17.2458 -11.6079 -0.51836
-18.428 -11.4866 -1.04239
-17.3739 -11.478 -0.39828
-19.2966 -11.6306 -1.86563
-16.9164 -11.5257 -0.909537
-18.14 -11.3312 -1.54161
-17.347 -11.302 -0.464058
-17.3833 -11.2736 -1.76779
-15.7486 -12.1726 -1.08891
-16.3098 -12.215 -1.14133
-16.6305 -11.7174 -1.35064
-16.7852 -11.6233 -2.07069
-17.2536 -11.0856 -2.2365
-20.6432 -10.6341 -0.541744
-19.8846 -11.518 0.15154
-17.817 -10.9093 0.34782
-16.2287 -10.1058 1.25288
-18.7507 -11.2447 -0.546068
-19.6217 -11.0996 -1.36818
-17.825 -11.9009 -0.788353
-19.4866 -11.4554 -2.0117
-17.2328 -11.5077 -1.25222
-16.1659 -12.2652 -0.304898
-17.7546 -11.0927 -1.20078
-18.8899 -10.9642 -2.88739
-16.4138 -12.2993 -0.636259
-16.4186 -11.7833 -1.16167
-17.0638 -10.9596 -2.28226
-20.9254 -11.2581 -0.582273
-17.0642 -9.95952 1.18672
-16.6671 -9.89474 1.25737
-16.6844 -9.9777 1.53565
-19.1713 -11.3117 -0.623051
-16.9636 -11.6825 -0.320929
-19.6232 -10.5337 -2.74019
-16.4353 -11.6086 -1.34397
-18.1194 -11.8303 -1.58935
-16.3418 -11.7237 -1.24934
-15.5095 -11.9137 -2.19938
-18.31 -10.7307 0.109199
-16.9583 -11.7121 -0.698678
-20.5612 -11.1838 0.557049
-19.73 -11.3349 -1.23691
-16.7029 -11.8574 0.664937
-17.9178 -11.1794 -0.705832
-15.8369 -12.4335 -0.994729
-16.8188 -11.6631 -2.05645
-20.6899 -11.0428 0.127384
-19.2966 -11.0919 -1.26449
-17.6941 -11.7251 -1.94281
-17.0927 -10.7593 -2.21433
-16.009 -11.6375 -2.20894
-17.1951 -11.9271 -0.241713
-16.6838 -10.8391 0.0936539
-17.3223 -9.80535 1.40983
-20.3297 -10.4699 1.13981
-20.3277 -11.0273 0.913281
-19.8521 -11.0381 1.34504
-16.9517 -10.178 1.41795
-16.7256 -10.2727 1.64447
-17.2892 -9.99209 1.26553
-18.0825 -10.0445 1.10126
-18.9754 -11.0255 1.0556
-20.0929 -10.9895 0.809542
-17.2024 -10.3695 0.953476
-16.944 -10.0406 1.22842
-20.1822 -11.1583 0.743385
-20.1612 -11.3411 0.412802
-20.7417 -11.1419 0.622235
-20.8368 -11.2639 0.548294
-20.2416 -11.144 0.539251
-20.0198 -11.4498 0.377668
-20.6381 -11.0658 0.357388
-19.3605 -11.7274 0.36856
-20.0707 -11.6481 0.495157
-20.2473 -10.6764 0.514023
-20.7671 -10.7759 0.297254
-18.4362 -11.158 0.245647
-18.6572 -11.3233 0.0716272
-18.5578 -10.8967 0.230439
-18.6378 -11.4231 0.351962
-17.9497 -11.3423 0.466487
-17.9727 -10.8171 0.291402
-20.4512 -11.1456 -0.0931282
-18.2107 -11.5374 0.525036
-17.9017 -10.8264 0.375155
-20.1227 -11.5397 -0.278374
-20.7015 -11.2708 -0.350073
-19.8923 -11.4172 0.661745
-16.9924 -11.2384 0.798493
-18.6617 -11.4121 0.225651
-18.4852 -11.8483 0.77692
-18.8788 -11.1926 0.450559
-19.0775 -10.7166 0.46239
-18.2727 -11.1992 0.572882
-17.2123 -11.719 0.29813
-16.5026 -12.1406 0.387126
-20.6843 -11.0722 -0.416149
-18.4569 -10.6566 -0.0180667
-16.6842 -11.658 0.417933
-20.1878 -11.7266 -0.420461
-20.2922 -10.8519 -0.729105
-21.0828 -11.1824 -0.272445
-20.4524 -11.256 -0.267015
-20.6903 -11.1476 -0.0250154
-20.2907 -11.0635 -0.0831909
-20.1035 -11.1381 -0.759899
-19.7494 -11.378 -0.325612
-20.5597 -10.8278 -0.798064
-19.5464 -11.5049 -0.349817
-20.1432 -10.8341 -0.343824
-20.0268 -10.7849 -0.428436
-19.6289 -11.1644 -0.77676
-18.8917 -11.4934 -0.303538
-19.1167 -11.1202 -0.501501
-19.8325 -11.4373 -0.165838
-19.6796 -11.2541 -0.82415
-19.1243 -11.436 -0.269685
-18.0559 -11.8286 -0.994332
-19.9685 -11.5293 -0.492536
-20.7395 -10.6652 -0.669399
-19.6883 -11.0659 -1.00426
-17.5216 -11.5812 -0.1733
-19.6567 -11.6636 -0.966771
-18.7609 -11.2154 -0.298846
-20.6003 -10.9434 -0.769027
-19.5127 -11.7301 -0.351689
-20.063 -11.5317 -0.670085
-17.3197 -11.7727 0.115868
-20.2015 -11.2382 -1.11481
-17.0388 -11.6303 0.0427435
-17.7333 -11.6992 -0.121302
-18.555 -10.8224 -0.317974
-19.6507 -11.3214 -0.680304
-20.1563 -11.0891 -1.06677
-20.6239 -11.333 -1.22593
-20.0618 -11.1792 -1.30413
-20.1794 -11.4043 -0.845503
-20.4343 -11.1273 -1.06598
-16.9802 -11.3958 -0.215102
-17.2498 -11.1997 -0.12895
-18.6551 -11.0667 -0.975567
-20.0273 -10.6456 -1.27408
-19.9266 -11.1065 -1.26873
-19.9241 -11.2493 -1.04534
-19.7687 -10.9803 -1.30199
-18.7873 -11.3319 -1.19372
-19.4036 -11.0446 -1.20209
-20.6259 -11.2695 -0.959842
-17.2637 -11.9811 -0.943755
-19.5054 -11.1911 -1.46209
-19.813 -11.2831 -0.981857
-19.1953 -11.8747 -1.86534
-19.3923 -11.1393 -1.33847
-19.5129 -11.2652 -1.20443
-20.8908 -10.8178 -1.40455
-19.7249 -11.063 -1.74296
-19.9331 -11.2542 -1.25432
-21.1027 -10.9294 -1.57822
-18.3997 -11.1518 -1.09907
-20.5961 -10.981 -1.3299
-20.2766 -11.2989 -1.37583
-16.4012 -12.096 -1.30081
-20.3708 -10.2473 -1.59279
-19.9111 -11.0879 -1.75198
-19.8354 -11.4642 -1.09748
-20.8183 -10.8251 -1.35039
-19.7987 -11.4744 -1.49093
-19.5308 -11.3829 -1.54375
-18.7368 -11.376 -1.79314
-19.0965 -11.2188 -1.80881
-18.9147 -11.0745 -1.39047
-18.8071 -11.6215 -1.57683
-19.0066 -11.123 -1.80559
-20.5471 -10.8282 -2.31455
-16.8692 -11.5856 -0.952303
-20.5445 -10.6545 -2.14416
-19.9832 -11.3525 -1.33864
-20.7937 -10.794 -1.79697
-20.8333 -10.5113 -1.96556
-20.5293 -11.0743 -1.70394
-19.6805 -10.7066 -1.90334
-18.61 -11.7169 -1.77939
-20.7362 -10.9139 -1.94591
-19.7886 -11.0561 -1.93816
-18.3457 -11.5219 -1.86066
-18.0184 -11.2957 -1.73428
-20.1472 -11.0082 -1.86126
-19.7291 -11.1409 -2.25124
-19.138 -11.1253 -2.41314
-19.2808 -11.0213 -2.43856
-20.4063 -10.6436 -2.15829
-20.2891 -10.3887 -2.51126
-18.8383 -11.0807 -2.03313
-19.4319 -11.1467 -2.05834
-20.4663 -10.4347 -2.43615
-19.525 -10.9082 -2.47976
-20.154 -11.1636 -2.54619
-20.6119 -10.3053 -2.6003
-16.8854 -11.094 -2.5768
-19.5215 -10.9867 -2.92312
-17.2255 -10.8962 -2.47321
-17.7641 -11.3731 -2.38659
-19.8236 -11.6352 -2.61624
-15.8308 -12.0475 -2.2206
-19.1098 -11.2727 -2.77391
-18.4724 -11.2573 -2.84919
-19.1878 -11.3161 -2.51095
-16.1443 -11.4453 -2.2072
-18.4659 -11.0786 -1.76489
-15.3431 -12.6278 -2.91525
-18.5494 -11.4558 -3.03588
-17.944 -11.2317 -3.39039
-18.1495 -11.4206 -2.62679
-15.2771 -12.4726 -3.12559
-14.9168 -12.4897 -3.00357
-17.5895 -10.2592 2.00457
-17.5168 -9.98344 1.78392
-19.4613 -10.7707 1.02937
-16.9883 -10.0259 1.33698
-19.4128 -11.4305 1.27843
-17.8338 -9.62925 1.17658
-16.4406 -9.8431 1.68718
-17.1724 -9.66362 1.39296
-19.656 -11.2544 0.610785
-20.5344 -11.0169 0.955444
-20.6811 -11.2615 0.708611
-19.1428 -11.2034 0.920146
-20.2402 -11.4361 0.832856
-20.2988 -11.5688 0.869591
-19.685 -11.6696 0.23384
-19.5189 -11.6254 0.408148
-20.9743 -11.2928 0.239167
-20.625 -11.3233 0.551648
-18.534 -11.3738 0.333188
-19.8633 -11.4348 0.0498683
-19.8991 -11.6154 -0.312491
-20.3179 -11.7853 0.321267
-16.7786 -11.7222 0.719384
-17.6012 -11.2179 0.769279
-17.7782 -11.504 0.590361
-20.4727 -10.7993 0.0251881
-17.5313 -11.9786 0.503896
-20.2107 -11.2925 -0.293399
-17.4314 -11.5399 -0.0656466
-20.7766 -10.6998 -0.258672
-20.6402 -10.8472 -0.278969
-19.785 -11.5975 0.463743
-20.4136 -11.1113 -0.205136
-20.4795 -10.5919 0.00678815
-20.0384 -11.1363 -0.215638
-19.1069 -11.0279 0.199313
-17.3038 -11.1569 -0.0126098
-17.2864 -11.6069 -0.345856
-19.8386 -11.6824 -0.226693
-17.5215 -11.4737 0.0682546
-17.3203 -11.5201 -0.210505
-17.2624 -11.7036 -0.265625
-16.3952 -11.9861 -0.260825
-16.0293 -12.0246 -0.683986
-17.9248 -11.242 -0.924763
-16.6028 -11.3215 -0.653126
-20.1504 -10.7989 -1.08288
-17.0791 -11.7109 -0.624068
-18.1803 -11.5875 -0.623966
-19.1971 -11.5065 -1.27939
-17.4026 -11.3665 -1.04201
-18.2049 -11.1981 -0.432627
-17.6459 -11.4444 -0.726925
-19.521 -11.2052 -0.949379
-16.3602 -11.8812 -0.51059
-20.7651 -11.1724 -1.58186
-19.7709 -11.1772 -1.60498
-20.1509 -11.2935 -1.4358
-21.1311 -10.4503 -1.45092
-19.2346 -11.1049 -1.50217
-18.155 -11.9858 -0.573512
-20.7293 -10.9726 -1.99999
-16.5094 -11.5467 -1.22097
-18.9411 -10.8393 -1.56379
-19.0027 -11.4224 -1.36371
-16.1552 -11.8117 -1.24851
-19.0418 -11.4993 -1.83217
-18.8027 -11.4681 -1.50296
-20.4866 -10.5023 -1.72226
-18.6399 -11.4512 -1.47038
-19.3992 -11.1164 -2.16936
-20.0327 -11.1258 -2.06445
-15.2494 -11.9915 -1.61271
-19.9222 -11.0049 -2.09198
-17.7514 -11.314 -2.20998
-17.8296 -11.2635 -2.30569
-17.2274 -11.2798 -1.73062
-15.6275 -11.8823 -1.94991
-20.4087 -10.4915 -2.12955
-18.5196 -11.5291 -2.23617
-16.929 -11.3894 -1.56157
-19.0172 -10.9661 -1.7376
-19.3892 -11.2313 -2.73175
-19.8092 -10.3069 -2.53868
-17.3229 -10.8422 -2.30538
-19.1576 -11.3491 -2.14741
-16.8515 -11.3546 -1.70931
-18.9977 -10.9573 -2.91173
-20.7123 -10.566 -2.77424
-18.6511 -11.3723 -2.77619
-16.9854 -11.5085 -2.4306
-20.0584 -10.9836 -3.02676
-17.1838 -11.346 -2.36392
-15.6661 -11.4549 -1.87632
-19.6432 -10.6917 -2.70381
-17.8397 -10.995 -2.94977
-18.0081 -11.3228 -2.89667
-16.2595 -10.2291 1.89194
-18.9604 -10.4539 1.17992
-19.3243 -11.1351 1.49186
-16.233 -10.1721 1.76639
-19.3126 -11.1858 1.46094
-19.4273 -11.4864 1.51128
-17.0133 -9.93123 1.1927
-16.9016 -9.53025 1.07434
-18.7528 -11.1375 1.15324
-18.8861 -10.998 1.39546
-20.2651 -11.2923 0.934177
-16.5268 -9.8567 1.67074
-19.5341 -11.5049 0.644065
-19.9245 -11.6485 0.469311
-20.2666 -11.2501 0.206405
-20.2856 -10.8131 0.195513
-17.9632 -11.5551 0.438608
-17.2641 -11.2353 0.393449
-17.1853 -11.2311 0.312391
-19.9825 -11.4099 0.220126
-19.8654 -11.3776 -0.195968
-21.0863 -10.9415 -0.601886
-19.2433 -11.5432 -0.420143
-16.636 -11.9723 0.0139259
-16.1829 -11.6352 0.0438897
-16.9879 -12.0377 -0.49952
-17.3213 -11.6948 -0.519456
-18.1299 -11.1575 -0.884189
-18.1259 -11.3206 -0.456458
-16.012 -11.523 -0.782367
-16.742 -11.3997 -0.869146
-17.8792 -11.3342 -0.977442
-19.5288 -11.2307 -1.22168
-20.3304 -10.4999 -1.31834
-20.6349 -10.7315 -1.56516
-19.8703 -10.9242 -1.82287
-18.1192 -11.4842 -1.05345
-19.2644 -11.4134 -1.29357
-20.2102 -11.2252 -1.68464
-15.7464 -11.7331 -1.12351
-17.6357 -11.7269 -1.70962
-17.7456 -11.5628 -1.74355
-16.2014 -11.709 -1.34622
-19.5149 -10.8677 -1.98755
-18.3236 -10.8634 -2.22755
-17.4213 -11.0397 -2.22181
-16.5756 -11.9023 -2.37596
-19.4729 -11.5769 -2.87229
-18.694 -11.194 -2.26535
-16.2837 -11.6111 -2.37822
-16.8637 -11.3889 -2.22739
-19.6625 -11.1936 -2.74641
-19.9649 -11.2034 -2.31371
-17.2167 -10.9424 -2.03036
-20.3609 -10.8982 -2.77917
-18.4832 -11.0502 -2.5488
-16.8118 -11.3246 -2.51676
-15.2133 -12.6201 -3.61558
-19.0007 -10.4806 1.61579
-18.2185 -10.1812 0.93211
-18.9549 -11.7554 1.27807
-17.9781 -9.79875 1.23842
-18.9226 -10.9374 0.177952
-19.2531 -10.9159 0.98515
-20.429 -10.8156 0.229873
-21.1678 -11.5139 0.47419
-20.153 -11.1987 0.537602
-18.9992 -10.6646 0.607441
-20.0399 -11.0485 0.284651
-18.594 -10.8809 -0.0904852
-18.4567 -10.6335 0.116003
-19.3148 -11.4177 -0.227765
-20.2494 -11.9681 -0.193279
-17.6306 -12.0157 -0.192848
-20.2693 -11.0259 -0.781767
-19.8075 -11.5968 -0.769304
-16.4528 -11.7909 -0.272732
-20.4178 -11.155 -0.737873
-19.0791 -11.2172 -1.16774
-19.5017 -11.3735 -0.574259
-19.7625 -11.0249 -1.43725
-19.0749 -11.3893 -1.38237
-16.7541 -12.1159 -1.62966
-16.1101 -11.69 -0.885618
-18.1041 -11.5608 -1.36193
-15.5837 -11.9483 -1.55929
-16.2154 -11.5469 -1.20116
-19.5361 -11.3175 -1.91642
-18.4992 -10.9792 -1.64481
-16.3429 -11.7714 -2.22719
-20.4165 -10.9706 -2.83922
-20.2177 -10.7481 -2.75537
-14.9316 -12.7317 -2.90873
-19.6898 -10.4407 1.74067
-16.1611 -11.4845 0.672971
-20.081 -11.2778 -0.84427
-18.5978 -10.818 -0.809341
-17.3002 -11.323 -0.180874
-17.0712 -11.8875 0.00108184
-19.3755 -11.2025 -0.757347
-19.7883 -11.4109 -1.21565
-17.9216 -11.2977 -0.725436
-19.4709 -11.127 -1.18308
-16.5349 -11.7613 -1.64436
-16.1699 -11.4176 -1.38774
-15.37 -12.082 -2.02304
-16.0128 -11.5508 -2.06365
-19.1308 -11.3171 -3.20993
-20.0625 -10.5272 -2.36709
-17.3669 -10.9918 -2.41031
-18.6253 -11.3484 0.552341
-20.2539 -11.5 0.626455
-17.6952 -11.144 -0.183865
-17.5535 -11.6927 -0.405309
-16.7544 -11.8172 -0.391697
-16.9598 -11.4443 -0.640082
-17.1513 -11.7762 -0.7702
-20.7269 -10.7575 -1.68396
-16.7478 -11.7111 -1.75344
-15.574 -12.0988 -1.96264
-17.1276 -11.4496 -1.44856
-16.1319 -11.5324 -1.5307
-17.1216 -11.7449 -1.8323
-17.7811 -10.8709 -1.82859
-18.7555 -11.1941 -2.12819
-17.702 -11.3393 -1.73099
-16.1839 -11.6407 -2.43459
-15.4851 -11.719 -2.23657
-14.4492 -12.8758 -2.6222
-20.5019 -11.6902 0.34362
-16.8572 -11.9679 0.0335605
-19.2393 -11.0589 -0.197946
-17.2179 -11.1921 -0.655071
-19.6466 -11.3506 -0.952765
-16.6124 -11.8658 -0.828338
-18.9569 -11.3493 -1.78086
-17.951 -10.8916 -2.0329
-17.6752 -11.0582 -2.1001
-19.4729 -11.1018 -2.7643
-15.6858 -11.3568 -2.42504
-17.7799 -12.071 -0.27221
-17.8296 -12.0988 -0.391906
-19.5706 -11.0874 -0.652555
-19.8316 -11.1575 -0.234924
-17.649 -11.5917 -1.95232
-20.2512 -10.7524 -2.31418
-17.5539 -11.1896 -2.56483
-15.82 -11.4041 -3.01561
-19.1296 -10.9778 -0.274927
-17.3753 -11.5262 -0.0413484
-17.0953 -11.8565 -1.01272
-17.8958 -11.4702 -0.896242
-17.7829 -10.2825 1.54506
-17.5238 -11.5355 0.187411
-16.5505 -11.3498 -1.17927
-16.7262 -10.9451 -2.15466
-17.3962 -11.9975 -0.469264
-16.6968 -11.517 -2.38461
-18.7512 -11.0301 -3.22188
-19.4585 -11.3762 -2.54744
-19.5307 -10.9456 -3.19604
-20.0058 -10.8303 -3.06484
-17.2891 -10.923 -2.18616
-20.318 -10.7097 -3.03739
-20.4717 -10.8633 -2.89783
-19.4327 -11.2156 -2.36231
-19.5528 -10.9639 -2.61866
-18.7667 -11.521 -2.52126
-19.3813 -11.3514 -2.98924
-18.6447 -11.2769 -2.1553
-20.1976 -10.7971 -2.34041
-18.6651 -11.5368 -2.51645
-19.5564 -10.5115 -2.06538
-16.7135 -11.9282 -1.75689
-16.5026 -11.5467 -1.9176
-16.7538 -11.8619 -1.76267
-18.4588 -11.1277 -2.09626
-18.7629 -11.1453 -2.11636
-16.3366 -11.5342 -1.30323
-19.5854 -11.7197 -1.37707
-18.5392 -11.1853 -1.60169
-20.4497 -10.7636 -1.53151
-19.7035 -11.1289 -1.18161
-20.4984 -10.8133 -0.804559
-19.9668 -10.9246 -1.49003
-17.4456 -11.8717 -1.0015
-19.3677 -11.4397 -0.737936
-16.9519 -11.314 0.243327
-18.2392 -11.4522 -1.00036
-17.9597 -11.8268 -0.295815
-19.5375 -11.11 -0.155953
-20.245 -11.1206 -0.693268
-19.9869 -11.4754 -0.879466
-19.0807 -11.1245 0.0453983
-19.926 -11.2732 -0.517068
-17.7026 -11.5985 -0.528429
-20.0253 -11.0407 -0.112442
-20.1889 -11.2089 -0.24057
-19.985 -11.5739 -0.236571
-20.4554 -11.4185 -0.0609994
-20.4025 -10.9339 -0.168305
-18.9439 -11.0118 0.24789
-18.487 -11.2914 -0.157565
-20.3138 -11.4892 -0.111232
-20.6153 -11.1027 0.684507
-20.5973 -11.1107 -0.11621
-17.0768 -11.6399 0.928811
-17.7721 -10.9471 0.905269
-18.262 -11.3931 0.580392
-17.4289 -11.7277 0.499566
-16.4596 -11.8546 0.736787
-17.87 -11.0388 0.338741
-18.7101 -10.5231 0.785518
-19.956 -11.2703 -0.0787378
-20.9892 -10.9174 0.20972
-20.6762 -10.9847 0.239465
-20.202 -11.341 0.154713
-20.3947 -11.4635 0.928169
-20.7307 -10.9107 0.558639
-20.9445 -11.4782 0.703908
-16.342 -10.1256 1.17752
-16.472 -10.5586 1.47943
-16.152 -10.0266 1.58243
-18.8411 -11.4822 1.47992
-17.443 -11.2265 -2.64925
-19.8314 -11.7661 -2.57097
-20.3099 -10.586 -2.25988
-17.1511 -11.184 -1.85449
-17.1416 -11.9699 -1.42714
-16.4044 -11.9707 -2.19236
-17.1784 -11.9116 -1.05885
-16.4054 -11.7072 -1.41776
-19.0488 -11.1632 -1.56737
-15.8519 -12.4078 -0.79467
-19.4702 -11.0073 -1.12408
-18.1451 -11.6035 -0.972673
-16.7755 -12.0446 -1.02942
-19.979 -11.3385 -1.02797
-19.8769 -10.8476 -0.648109
-19.4635 -11.6767 -0.885056
-19.8094 -10.8299 -0.707483
-20.3254 -11.2821 -0.81688
-17.2836 -12.026 0.115598
-17.6955 -11.5843 -0.261306
-16.9533 -11.7942 -0.167585
-19.1254 -10.8839 -0.208883
-20.6254 -11.392 -0.300805
-19.6763 -11.3426 -0.17123
-19.9495 -11.3961 -0.480506
-19.1245 -11.2684 0.332499
-18.3097 -11.4181 0.139348
-15.8782 -11.7474 -0.217197
-19.7692 -11.239 0.00286231
-18.1549 -11.3401 0.074986
-18.1208 -11.1523 0.706835
-16.9989 -11.2455 0.183492
-16.5742 -11.5771 0.549372
-20.1708 -11.5298 0.495102
-20.0464 -11.2911 0.206014
-20.4463 -12.0815 0.51918
-19.0014 -11.3711 0.703033
-20.3288 -11.4568 0.857833
-20.4984 -11.72 0.605975
-19.2808 -10.856 0.987879
-19.2102 -11.1188 1.59843
-16.8447 -10.0326 1.33767
-16.4478 -10.3274 1.5867
-20.261 -11.0143 1.68615
-16.325 -11.6239 -2.48676
-17.465 -11.0597 -2.44862
