-12.4379 -15.5693 -0.0610007
-11.5102 -16.1209 -0.43138
-12.3444 -15.8901 0.618527
-12.2913 -15.9557 0.695831
-12.2238 -15.3041 1.65836
-12.3419 -15.3427 1.94793
-12.6374 -15.155 2.47446
-12.4102 -15.9984 1.14351
-11.9983 -16.1527 0.743113
-11.7781 -16.3355 0.75046
-11.7489 -16.3844 0.828671
-11.7533 -16.3623 0.888575
-12.3782 -16.209 1.60905
-12.2086 -16.255 1.47203
-12.1817 -16.2796 1.49482
-11.9917 -15.6827 2.30424
-11.8387 -16.5117 1.44587
-11.5696 -16.6206 1.12129
-11.2534 -17.093 0.399805
-11.3117 -16.7666 1.00829
-11.1911 -16.9194 1.24035
-11.0983 -16.9128 1.58727
-11.0816 -16.9315 1.60241
-11.087 -16.9422 1.64024
-10.8311 -17.1319 1.67687
-16.4186 -11.8597 -2.24522
-14.9565 -12.8456 -2.45968
-13.7993 -13.2145 -1.84028
-13.5651 -13.1802 -1.47137
-12.7208 -14.4578 -2.76884
-15.5337 -12.5738 -0.189892
-12.3499 -14.6866 -2.8733
-15.4308 -12.7722 -0.129979
-14.4011 -13.2539 -0.542085
-13.7408 -13.6194 -0.997624
-12.5583 -14.6523 -2.40811
-14.1216 -13.5964 -0.247003
-13.6531 -14.2132 -0.317899
-14.378 -13.8045 0.393446
-13.4878 -14.4844 -0.0115577
-13.7137 -14.4637 0.424286
-13.8715 -14.3136 1.08554
-13.2817 -14.8375 0.58439
-12.6169 -14.948 0.305893
-13.7402 -14.2551 1.7271
-13.4766 -14.5011 1.40643
-12.3658 -15.501 -0.403063
-13.126 -14.9616 0.665264
-12.3909 -15.608 -0.160198
-12.1986 -13.9468 2.38314
-12.634 -14.9451 1.33365
-12.2989 -15.3329 1.06832
-12.0647 -14.3006 2.67799
-12.2062 -15.972 0.607675
-12.2543 -15.9941 0.665408
-12.6695 -15.102 2.35249
-12.6296 -15.0944 2.39153
-11.8269 -16.3146 0.781826
-12.2224 -16.2174 1.29367
-12.1746 -16.2472 1.32011
-11.6197 -16.5491 1.04732
-10.8205 -17.0786 1.51408
-10.7982 -17.1582 1.68779
-10.7792 -17.1778 1.7047
-13.9703 -13.246 -0.820271
-14.7533 -13.1545 -0.279847
-14.8005 -13.1133 -0.171468
-15.4731 -12.8615 0.252753
-13.7979 -13.764 -0.555298
-13.3782 -13.9933 -0.823927
-13.2812 -14.0378 -0.826276
-14.3849 -13.5793 0.170125
-14.3608 -13.7258 0.303798
-12.0164 -15.196 -2.02489
-14.4077 -13.7526 0.38243
-14.3972 -13.691 0.474623
-14.3827 -13.7426 0.492163
-12.6969 -14.6649 -0.118956
-13.5083 -14.6942 0.717577
-12.5641 -14.9615 0.209535
-12.5518 -14.9911 0.251518
-12.378 -15.4911 -0.395753
-12.5023 -14.983 1.19831
-12.5087 -14.9522 1.28181
-10.9392 -17.0301 1.58378
-11.0002 -17.0238 1.69531
-14.3523 -12.8026 -1.40019
-15.4511 -12.706 -0.146121
-15.6313 -12.8456 0.368969
-13.3019 -14.0338 -0.931181
-15.4219 -13.1359 0.475896
-14.3884 -13.6426 0.26348
-14.2873 -14.0324 0.730644
-12.5483 -14.7342 0.0254607
-13.405 -14.7024 0.627251
-12.6346 -14.9069 0.246751
-12.8987 -14.759 1.36169
-11.0034 -16.9702 1.56718
-10.8773 -17.0578 1.59383
-10.8755 -17.0922 1.66078
-13.6625 -13.5933 -1.29016
-13.9326 -13.8783 0.0736437
-13.8014 -14.1409 -0.0650195
-14.4719 -13.7354 0.83952
-14.1816 -13.9726 0.636356
-12.5977 -14.8982 0.145507
-12.6805 -14.9415 0.360493
-13.8321 -13.2836 -1.13878
-15.2169 -13.1897 0.3366
-12.6921 -15.1469 2.13225
-12.2671 -16.0338 0.858897
-12.0781 -16.0968 0.743615
-11.9463 -16.199 0.715188
-10.806 -17.3134 1.42579
-15.1149 -12.5106 -0.988326
-14.7068 -12.8336 -0.377453
-13.6714 -13.7773 -0.835568
-14.1757 -13.7171 0.00510956
-14.3476 -13.8688 0.74858
-12.5893 -15.4112 -0.304089
-12.6003 -15.4192 -0.121602
-12.6217 -15.1062 2.31724
-13.4304 -14.3449 -0.951546
-12.7039 -15.2699 0.0640933
-13.7166 -13.9019 -1.10771
-12.8978 -15.049 0.212084
-17.341 -11.2287 -2.24725
-17.204 -11.2351 -2.56595
-17.1888 -11.2332 -2.59417
-17.3468 -11.2605 -2.16832
-16.8742 -11.7227 -1.86225
-16.7779 -11.8505 -1.65449
-16.1105 -12.0696 -2.48819
-15.9784 -12.1763 -2.42336
-15.9045 -12.3313 -2.19135
-15.688 -12.3738 -2.42999
-15.6827 -12.3704 -2.49764
-15.6773 -12.3849 -2.40037
-15.3318 -12.6353 -0.598123
-14.6085 -12.6426 -1.32021
-15.499 -12.5033 -2.56613
-15.39 -12.5437 -2.66836
-14.678 -12.836 -0.59397
-14.6852 -12.8558 -0.581938
-14.6462 -12.8621 -0.628455
-14.6849 -12.8756 -0.526973
-14.681 -12.8901 -0.529453
-14.5928 -12.8764 -0.913972
-14.9038 -12.7666 -2.52302
-14.8509 -12.7743 -2.63838
-12.4074 -13.3155 2.6735
-14.8301 -12.7913 -2.62704
-14.8059 -12.8094 -2.61293
-14.7633 -12.8405 -2.58508
-15.4947 -13.1316 0.538295
-14.6022 -12.9288 -2.65307
-14.752 -13.1259 -0.432002
-14.2242 -13.1063 -1.03299
-15.5095 -13.232 0.748968
-14.6091 -13.2265 -0.427231
-14.0159 -13.1292 -1.7819
-14.899 -13.3323 0.565399
-14.6199 -13.0882 -2.59433
-15.3323 -13.459 1.09567
-15.313 -13.5192 1.18189
-14.7432 -13.4829 0.560824
-14.3489 -13.2636 -2.72855
-14.3739 -13.4769 -0.24251
-14.3317 -13.284 -2.71745
-14.3325 -13.303 -2.68646
-14.8989 -13.64 1.31913
-12.2356 -13.7084 2.55944
-14.4056 -13.5473 0.134624
-13.7128 -13.4627 -0.866388
-12.235 -13.7125 2.46232
-13.7138 -13.4781 -0.877338
-14.2681 -13.5562 -0.249827
-14.2852 -13.4318 -2.37855
-14.2111 -13.6025 -0.220998
-14.2787 -13.4439 -2.35933
-14.1622 -13.7471 1.00918
-14.2525 -13.4918 -2.26537
-14.4551 -13.8495 2.05048
-14.2691 -13.7372 0.682575
-12.2135 -13.8292 2.50994
-12.2088 -13.8501 2.6563
-14.1105 -13.7989 1.05542
-13.9743 -13.5999 -2.57157
-14.1695 -13.9559 1.76951
-12.1982 -13.9282 2.49736
-14.1382 -13.9529 1.72028
-12.1967 -13.9322 2.48009
-13.9521 -13.6175 -2.5831
-14.0665 -13.9211 1.10706
-13.9829 -14.0524 1.0639
-13.9766 -14.0863 1.01681
-13.8511 -14.0295 0.268745
-13.7916 -13.89 -2.08003
-13.7851 -13.9002 -2.09523
-13.4432 -13.9269 -2.7093
-13.9192 -14.255 1.02121
-13.4325 -13.9341 -2.72551
-13.4202 -14.006 -2.57465
-13.4217 -14.0179 -2.5216
-13.7927 -14.3252 0.95984
-13.6787 -14.1236 -1.62174
-13.3691 -14.0633 -2.54539
-13.5553 -14.1399 -1.8816
-13.1036 -14.1591 -2.74704
-13.3679 -14.3419 -1.23708
-13.3837 -14.3843 -1.11618
-13.5411 -14.508 0.25271
-12.445 -14.5242 2.25533
-13.4117 -14.4506 -1.26926
-13.115 -14.6128 1.43174
-13.2126 -14.3985 -1.86351
-12.9411 -14.3301 -2.62789
-12.917 -14.3415 -2.65352
-12.7615 -14.4268 -2.75399
-13.3953 -14.6721 -0.700291
-12.734 -14.4373 -2.76496
-13.2 -14.6316 -1.20081
-13.2493 -14.829 0.518731
-13.2416 -14.8391 -0.437042
-12.539 -14.596 -2.74643
-12.4553 -14.625 -2.79369
-12.4116 -14.6104 -2.90978
-13.0797 -14.8911 -0.670909
-12.468 -14.648 -2.68652
-12.5223 -14.6672 -2.57198
-13.0087 -14.9097 -0.832751
-13.0502 -15.0448 0.720966
-12.3292 -14.7085 -2.84407
-12.5427 -14.8384 -2.01715
-12.4598 -14.9578 -0.1293
-12.6972 -15.0701 0.701096
-12.4962 -15.1451 1.77507
-12.6146 -15.1109 0.678035
-12.318 -14.8825 -2.34358
-12.3572 -14.9035 -2.2071
-12.3426 -15.1421 1.3252
-12.4038 -15.2784 1.94165
-12.3963 -15.3192 2.04148
-12.446 -15.1366 -1.36171
-12.3523 -15.0988 -1.65886
-12.4638 -15.1619 -1.27942
-12.1779 -15.1159 -1.94511
-12.1589 -15.1356 -1.91286
-12.0458 -15.1028 -2.25405
-12.3159 -15.2398 -1.32448
-12.6627 -15.4155 -0.0844757
-12.0262 -15.157 -2.17714
-12.3878 -15.4201 -0.61932
-12.6842 -15.599 0.491497
-12.3408 -15.5586 -0.325278
-12.3458 -15.5758 -0.277518
-12.3278 -15.5696 -0.324444
-12.3295 -15.567 -0.351267
-12.4535 -15.6471 0.150103
-12.4455 -15.6585 0.15082
-12.3321 -15.6101 -0.239581
-12.0861 -15.5953 -0.810115
-12.4043 -15.8757 0.729654
-11.195 -15.629 2.33221
-12.4194 -15.9441 0.980746
-12.4058 -15.9545 0.980429
-12.2199 -15.8643 0.323215
-12.1829 -15.8632 0.24307
-12.3589 -15.9754 0.910127
-12.3891 -16.0188 1.10687
-12.3789 -16.1313 1.40174
-12.3605 -16.1533 1.41001
-12.2321 -16.1326 1.15694
-11.8284 -15.9522 -0.253329
-11.9064 -16.012 0.0233247
-12.1498 -16.1988 1.11451
-11.9841 -16.1319 0.714302
-11.799 -16.3415 0.829787
-11.4629 -16.4139 0.345732
-11.164 -16.2641 -0.957244
-11.4749 -16.7886 1.44322
-10.7478 -16.4535 -0.00788933
-11.381 -16.8796 -1.34074
-10.8089 -17.1466 1.67876
-17.4508 -11.186 -2.25393
-17.3668 -11.2852 -2.07692
-17.0152 -11.5772 -1.99878
-16.7216 -11.5922 -2.55095
-17.0438 -11.6905 -1.56405
-16.5736 -11.8477 -2.09101
-16.5558 -11.87 -2.11351
-16.3204 -11.8736 -2.56671
-16.4118 -12.0318 -1.93912
-16.0682 -12.2069 -2.13132
-16.4105 -12.3755 -0.937549
-15.6827 -12.3847 -2.45447
-15.593 -12.496 -2.34032
-14.9254 -12.7483 -0.494985
-15.4856 -12.849 0.266543
-14.7063 -12.8448 -0.552481
-14.7662 -12.8914 -0.392217
-14.6777 -12.885 -0.563444
-14.7584 -12.891 -0.475418
-14.9607 -12.7159 -2.57687
-14.6444 -12.8789 -0.887925
-14.7442 -12.9567 -0.378348
-14.7129 -12.9982 -0.251618
-14.4358 -12.9953 -0.94159
-13.9838 -12.9455 -1.99777
-13.9849 -12.954 -1.96597
-14.7698 -12.9214 -2.49651
-14.5792 -12.9462 -2.67451
-14.0758 -13.0727 -1.80754
-15.5001 -13.2929 0.868096
-14.0577 -13.2288 -1.06529
-14.8097 -13.4006 0.535371
-13.9661 -13.2965 -0.774177
-14.9513 -13.4433 0.865851
-14.9323 -13.4688 0.87208
-14.5164 -13.3942 -0.189672
-13.9287 -13.3572 -0.764079
-14.4679 -13.4186 -0.212921
-14.7685 -13.4906 0.605292
-14.8757 -13.5382 0.981749
-14.426 -13.4441 -0.234697
-14.803 -13.5307 0.817786
-13.7618 -13.3236 -1.79373
-13.8992 -13.4429 -0.671088
-13.8241 -13.4289 -0.805064
-14.3444 -13.4811 -0.265658
-12.2372 -13.6909 2.50428
-13.7951 -13.4948 -0.733755
-14.2868 -13.544 -0.232637
-14.461 -13.7482 2.2182
-12.2328 -13.7187 2.3261
-14.1834 -13.685 1.08859
-14.8396 -13.7399 1.46617
-14.7669 -13.7326 1.30378
-14.1426 -13.4157 -2.75545
-14.7587 -13.7862 1.44409
-13.7929 -13.6048 -0.892793
-13.7998 -13.6094 -0.851092
-14.1145 -13.7761 1.06638
-14.1252 -13.7817 1.02575
-14.2578 -13.7591 0.664148
-13.7494 -13.6455 -0.561543
-12.2018 -13.8586 2.66622
-14.1115 -13.7954 1.03469
-13.7742 -13.6299 -0.97774
-12.2069 -13.8693 2.63958
-13.8469 -13.6711 -0.690815
-14.1158 -13.8303 1.00321
-14.2767 -13.9007 1.815
-14.121 -13.8486 0.998991
-14.0833 -13.8753 1.07526
-12.1987 -13.9157 2.48745
-14.0771 -13.907 1.09165
-13.9435 -13.923 0.252983
-13.8432 -13.9924 0.225961
-13.9861 -14.0361 0.556546
-13.7844 -14.0767 0.255141
-13.842 -14.1992 1.79052
-13.8469 -14.1279 0.510289
-13.9792 -14.2226 1.05598
-13.7089 -14.2668 1.70347
-13.9501 -14.2346 1.03752
-13.7259 -14.0231 -1.84133
-13.6247 -14.2842 1.57702
-13.5462 -14.01 -2.25927
-13.7847 -14.1894 -0.18144
-13.7777 -14.2821 0.774228
-13.8601 -14.328 1.11417
-13.4202 -14.0268 -2.5
-13.8067 -14.3246 0.990704
-13.4802 -14.2265 -1.75093
-13.231 -14.1462 -2.57072
-13.7546 -14.4397 0.471832
-13.3587 -14.5029 1.64085
-12.4989 -14.5178 2.02425
-13.1833 -14.5974 1.53579
-13.4199 -14.4389 -1.29112
-13.4835 -14.5707 0.400042
-13.41 -14.4557 -1.24089
-12.4523 -14.6008 2.38795
-13.0997 -14.6133 1.40798
-13.4687 -14.5946 0.379178
-13.6473 -14.6558 0.908157
-13.4303 -14.6129 0.381977
-12.8996 -14.3519 -2.65225
-13.2967 -14.5174 -1.33151
-13.3887 -14.656 0.399377
-13.097 -14.4456 -2.05851
-13.263 -14.5198 -1.36596
-13.3561 -14.6993 0.477606
-13.3533 -14.7063 0.447896
-13.3587 -14.7169 0.524788
-13.3587 -14.7222 0.555418
-12.7118 -14.4017 -2.91753
-13.3591 -14.7438 0.550096
-13.2426 -14.8173 0.48053
-13.2347 -14.8271 0.497494
-12.9719 -14.6415 -1.63186
-12.8489 -14.8445 1.53493
-12.6468 -14.8871 1.26064
-12.4823 -14.6074 -2.79926
-12.5541 -14.9573 1.26553
-13.0807 -15.0401 0.76725
-12.4704 -14.7261 -2.50262
-12.6539 -14.927 -1.58407
-12.6054 -15.1804 2.06904
-12.6133 -15.1164 0.696499
-12.58 -14.9672 -1.56693
-12.5223 -15 -1.59837
-12.2504 -15.1409 1.14057
-12.0838 -14.8439 -2.94544
-12.3172 -15.1794 1.3604
-12.4229 -15.3176 2.09236
-12.3438 -15.0566 -1.83703
-12.4646 -15.1731 -1.18922
-12.6158 -15.2506 -0.633919
-12.0594 -15.0239 -2.46486
-12.0761 -15.0445 -2.34116
-12.1822 -15.1142 -1.96912
-12.1489 -15.1437 -1.91721
-12.805 -15.4433 0.315587
-12.0222 -15.1247 -2.22998
-12.3043 -15.2534 -1.31677
-12.042 -15.1498 -2.15549
-12.1725 -15.2201 -1.72735
-12.0974 -15.2329 -1.72675
-11.9985 -15.2291 -2.05658
-12.509 -15.5077 -0.0851584
-12.4327 -15.5247 -0.239845
-12.3311 -15.6181 -0.201877
-11.7054 -15.3116 -2.45799
-11.6813 -15.3236 -2.44338
-11.6459 -15.3512 -2.40532
-11.8211 -15.4478 -1.77246
-12.4282 -15.8252 0.611372
-12.4225 -15.8585 0.729195
-11.6175 -15.4614 -2.17178
-12.37 -15.9785 0.948025
-11.6801 -15.7293 -1.18733
-12.4197 -16.1519 1.58922
-12.3519 -16.148 1.3712
-12.0252 -16.0603 0.503703
-11.913 -16.0007 0.032669
-11.8905 -16.0215 0.0238125
-12.1505 -16.2421 1.2305
-12.238 -16.3146 1.62305
-12.1838 -16.3533 1.6571
-12.1046 -16.4068 1.69134
-11.7329 -16.2943 0.564413
-11.8872 -16.481 1.47112
-11.5901 -16.4541 0.72975
-11.5816 -16.5314 0.910863
-11.1874 -16.4118 -0.272986
-11.4541 -16.4521 -2.43098
-11.1379 -16.4256 -0.292636
-11.2521 -16.9263 -1.78899
-11.2563 -17.4898 -0.327759
-11.2452 -17.4999 -0.338122
-11.2082 -17.5483 -0.360145
-16.746 -11.7093 -2.14083
-16.401 -12.0129 -2.02766
-16.3982 -12.024 -1.97753
-16.1529 -11.9883 -2.64632
-15.3369 -12.6178 -0.624192
-14.7847 -12.8174 -0.546972
-14.7665 -12.9066 -0.425914
-14.2606 -12.9289 -1.84658
-14.7705 -12.8713 -2.47762
-14.7088 -12.889 -2.63239
-14.8169 -13.0756 -0.380511
-14.2625 -13.0832 -0.995989
-14.5765 -12.9755 -2.60846
-14.6414 -13.2597 -0.306841
-14.5433 -13.1262 -2.62142
-14.7797 -13.4052 0.487724
-14.7676 -13.4367 0.501564
-14.9022 -13.4862 0.852199
-14.757 -13.4665 0.538557
-14.8244 -13.487 0.695846
-12.2462 -13.6584 2.69983
-13.835 -13.3729 -1.14599
-14.8405 -13.5603 0.981873
-14.7899 -13.5539 0.823433
-14.8842 -13.5875 1.0761
-14.8699 -13.5911 1.02474
-13.9051 -13.4365 -0.714629
-14.8033 -13.5877 0.962226
-14.7518 -13.5745 0.807974
-13.881 -13.4782 -0.696559
-14.8786 -13.6674 1.35797
-13.7172 -13.483 -0.810262
-13.8146 -13.504 -0.705316
-14.8163 -13.6824 1.2613
-14.8008 -13.7636 1.46893
-13.7846 -13.5717 -0.908585
-14.1102 -13.7995 1.06186
-14.1086 -13.8095 1.02236
-14.0761 -13.734 -0.040996
-14.2715 -13.8816 1.79826
-12.1924 -13.9203 2.26173
-14.1295 -13.9245 0.967781
-13.9824 -13.7369 -2.12546
-13.6667 -13.905 -0.0362524
-13.9521 -14.0573 0.561911
-13.9228 -14.06 0.483307
-13.8337 -14.0689 0.310803
-13.8 -14.0599 0.235936
-13.7636 -13.9176 -2.0539
-13.9235 -14.1336 0.669899
-13.892 -14.1595 0.673665
-13.8313 -14.1502 0.515501
-13.9196 -14.1842 0.77122
-13.8339 -14.1789 0.650842
-13.7189 -14.2873 1.75153
-13.7722 -14.2741 1.48072
-13.6418 -14.0771 -1.85153
-13.5315 -14.3472 1.54711
-13.8338 -14.3495 1.11649
-13.7514 -14.368 0.977145
-13.2976 -14.1188 -2.5023
-13.5029 -14.2157 -1.72086
-13.4416 -14.3627 -0.0714672
-13.106 -14.2182 -2.61225
-13.5284 -14.508 0.230141
-13.4609 -14.5129 0.0711896
-13.641 -14.6452 0.868455
-13.3389 -14.6469 0.197477
-12.995 -14.6831 1.39494
-13.3563 -14.6747 0.446002
-13.3578 -14.6869 0.420025
-12.5357 -14.7141 0.0653002
-12.4277 -14.5903 -2.91874
-12.6457 -14.9287 1.3621
-12.9901 -14.8426 -1.02847
-12.7329 -15.0561 1.98792
-12.5096 -14.988 1.25578
-12.6669 -15.0763 1.91878
-12.3203 -14.7079 -2.87092
-12.6705 -15.1188 2.06481
-12.6125 -15.1892 2.10335
-12.5917 -15.1237 0.678561
-12.5737 -15.1525 0.745714
-12.0472 -14.8622 -2.96266
-12.3261 -15.3437 1.92367
-12.5614 -15.2872 -0.681254
-12.0436 -15.1696 -2.10729
-12.062 -15.1871 -2.01131
-12.621 -15.7506 0.898463
-12.2928 -15.5998 -0.299726
-12.1927 -15.6106 -0.472062
-12.0559 -15.6642 -0.652069
-11.9707 -15.678 -0.755181
-12.2615 -15.8864 0.478004
-12.3887 -15.9693 0.957242
-12.3691 -16.0358 1.11331
-12.3023 -16.029 1.01241
-12.2646 -16.0095 0.812379
-12.2536 -16.0226 0.803783
-12.2342 -16.025 0.772716
-12.0604 -15.9797 0.303527
-12.3112 -16.1855 1.95392
-12.293 -16.1968 1.93264
-11.932 -15.9911 0.0458499
-12.1734 -16.247 1.27323
-11.5515 -16.0672 -0.503179
-11.5558 -16.0781 -0.468603
-11.5231 -16.1053 -0.456683
-11.5057 -16.117 -0.465457
-11.5148 -16.0278 -2.55321
-11.7866 -16.3491 0.817349
-11.6651 -16.3249 0.518052
-11.4894 -16.2814 -2.85501
-11.5454 -16.7419 1.45538
-11.249 -16.8114 0.990164
-11.4804 -16.8083 -2.30703
-11.2495 -17.5512 0.316819
-16.6313 -11.8384 -1.98269
-14.3214 -12.5911 -1.54708
-12.6944 -13.1494 2.74322
-14.3469 -12.725 -1.40636
-14.832 -12.8005 -0.44138
-14.8254 -12.8336 -0.466321
-14.3439 -12.8077 -1.44464
-14.2647 -12.9379 -1.81154
-14.7306 -12.908 -2.52209
-14.673 -12.9181 -2.61829
-15.4384 -13.3052 0.769315
-12.2681 -13.5329 2.74286
-14.8504 -13.3613 0.532793
-14.6883 -13.3519 0.0742537
-13.6024 -13.3 -1.49669
-14.2909 -13.3996 -2.48197
-14.0753 -13.8693 1.09629
-12.1829 -13.9815 2.57866
-14.0479 -14.0123 1.68192
-12.1705 -14.0021 2.35784
-13.9483 -13.9867 0.29312
-13.192 -13.8884 -1.01272
-13.8589 -14.0807 0.387478
-13.9306 -14.165 0.793209
-13.7887 -14.1697 0.501215
-13.7499 -13.9974 -1.75016
-13.7049 -14.2815 1.69747
-13.8264 -14.277 0.864323
-13.702 -14.1771 -0.340925
-13.8315 -14.3534 1.15475
-13.3183 -14.0924 -2.55607
-13.4787 -14.1997 -1.86714
-13.452 -14.2038 -1.9213
-13.1991 -14.1436 -2.62454
-13.7096 -14.5382 0.674994
-13.1892 -14.5728 1.46809
-13.4127 -14.4929 -0.0348753
-13.059 -14.6961 1.47231
-12.7644 -14.4247 -2.74188
-12.5192 -14.7012 0.0329446
-12.6723 -14.9393 1.44341
-13.0815 -14.8628 -0.759969
-12.6526 -14.9461 1.41007
-12.6306 -14.9386 1.34724
-12.5262 -14.9938 1.28915
-12.659 -15.1225 2.44192
-12.2929 -14.7095 -2.90026
-12.6434 -15.147 2.43403
-12.6147 -15.1617 2.37588
-12.5719 -15.2286 2.47855
-12.8027 -15.0653 -0.756805
-12.8399 -15.114 -0.621696
-12.5725 -15.3283 -0.511282
-12.1818 -15.4234 1.96451
-12.6835 -15.426 -0.0487872
-12.5419 -15.4846 -0.0740752
-12.4881 -15.5552 -0.0379622
-12.3286 -15.5271 -0.433214
-12.3388 -15.6079 -0.176872
-12.0819 -15.6461 -0.601858
-12.3259 -16.0187 0.977247
-12.0613 -16.0271 0.45643
-11.8863 -16.0545 0.171158
-12.2036 -16.2548 1.47261
-12.0976 -16.2214 1.08886
-11.8101 -16.3497 0.871431
-11.7852 -16.3362 0.751703
-11.5666 -16.7306 1.47106
-11.2676 -16.9015 1.37323
-11.2398 -16.9276 1.3511
-11.1756 -16.9139 1.1958
-10.8329 -17.073 1.46022
-11.1217 -17.7025 0.773429
-16.488 -11.8629 -2.26167
-15.4725 -12.5369 -0.340142
-14.2336 -12.9484 -1.88182
-14.8057 -12.9098 -2.4531
-12.2482 -13.6235 2.68426
-13.7607 -13.3207 -1.81617
-12.1974 -13.9032 2.32118
-14.0941 -13.9825 1.70199
-12.1811 -13.9706 2.34638
-13.8296 -14.1735 0.600694
-13.7612 -14.3041 1.4698
-13.3713 -14.0342 -2.57213
-13.3343 -14.0608 -2.57344
-13.1715 -14.1803 -2.60033
-13.2261 -14.5446 1.47058
-13.2195 -14.5848 1.56716
-13.3364 -14.7602 0.496911
-12.884 -14.7544 1.34945
-12.7257 -14.8447 1.29775
-12.6528 -15.0451 1.82297
-12.2546 -15.1228 1.09967
-12.6375 -15.4439 -0.0550117
-12.4037 -15.5183 -0.283245
-12.436 -15.5754 -0.051852
-12.3255 -15.5761 -0.310015
-12.2012 -15.9773 0.616884
-12.2526 -16.0378 0.838459
-12.1575 -15.9959 0.585617
-12.3289 -16.1594 1.95795
-11.9121 -16.022 0.139975
-11.9075 -16.0372 0.189658
-12.2362 -16.2148 1.35303
-11.8156 -16.3196 0.787651
-11.8412 -16.5056 1.4346
-11.4598 -16.2811 -0.0714495
-11.5021 -16.7566 1.46097
-11.1071 -16.912 1.59884
-11.0532 -16.9416 1.57666
-10.8254 -17.0747 1.51239
-10.7725 -17.1716 1.65367
-15.5821 -12.5821 -0.236347
-14.3886 -12.6122 -1.51662
-14.5904 -12.6202 -1.94715
-14.829 -13.4535 0.613066
-14.4017 -13.6047 0.304625
-14.2863 -13.708 0.662502
-14.0046 -14.0097 0.519089
-13.8226 -13.9914 0.272074
-13.8893 -14.0384 0.365775
-13.1825 -13.9198 -1.04811
-12.045 -14.2623 2.71574
-12.1408 -14.4256 2.63734
-13.3078 -14.5206 1.5655
-13.4641 -14.5239 0.132544
-12.8574 -14.4065 -2.62029
-12.7036 -14.9324 2.21078
-12.6883 -14.9197 1.39332
-12.6092 -14.9453 0.241684
-12.6265 -15.0972 1.86494
-12.358 -15.5488 -0.296334
-11.8837 -15.385 -1.76005
-12.2937 -15.9574 0.702425
-12.3807 -16.1265 1.97667
-11.6084 -16.542 1.04678
-11.0085 -16.9793 1.62607
-10.8762 -17.097 1.66128
-10.7977 -17.1568 1.68541
-10.7697 -17.1776 1.69851
-14.8109 -13.1152 -0.171068
-14.3736 -13.6817 0.501507
-14.1438 -13.7731 1.04058
-13.3982 -14.0031 -0.822141
-13.4724 -14.4986 1.36037
-12.7232 -14.4537 -2.77859
-12.8424 -14.8068 1.41594
-12.6458 -15.1557 2.30427
-10.8316 -17.1415 1.72473
-12.2569 -13.5679 2.7461
-14.3857 -13.6343 0.383758
-13.7951 -13.6268 -1.02412
-13.8052 -14.1675 -0.20274
-12.7198 -14.4051 -2.89197
-12.6183 -14.4951 -2.78791
-12.8065 -15.3881 0.148415
-11.0037 -17.0253 1.69253
-10.8781 -17.0648 1.59735
-13.7834 -13.6303 -0.603217
-13.3279 -14.697 0.612123
-14.8675 -12.3413 -1.51733
-14.8202 -12.9007 -0.236237
-14.7893 -13.0504 -0.334492
-14.3649 -13.7507 0.189295
-13.9622 -13.8733 0.0742226
-13.7567 -13.8547 -0.227514
-13.8087 -14.1487 -0.0497962
-13.7856 -14.1982 0.151823
-14.7315 -12.9895 -0.577857
-13.7526 -14.056 -1.76812
-12.5762 -15.12 2.49251
-10.9976 -16.9981 1.19082
-12.6225 -14.9349 2.3985
-10.7577 -17.3595 1.64599
-12.9788 -14.6314 0.193102
-12.725 -13.1741 2.93298
-12.2358 -13.7077 2.55919
-12.2381 -13.6915 2.50432
-12.2161 -13.8045 2.45836
-12.4593 -14.6039 2.38937
-15.4692 -13.1374 0.538558
-13.8432 -14.2033 1.78636
-14.8649 -13.4908 0.826611
-14.1491 -13.7498 1.04379
-14.1305 -13.7945 0.992479
-14.0615 -13.9165 1.1106
-14.926 -12.8206 -0.36073
-14.1157 -13.9731 1.04382
-14.1326 -13.9717 1.00362
-13.9842 -14.1355 1.06869
-13.9947 -14.1548 1.08126
-14.3467 -13.9911 0.808199
-14.6882 -12.8544 -0.582315
-14.3211 -13.9399 0.754763
-14.3281 -13.9673 0.695673
-14.4063 -13.5519 0.156227
-13.9259 -14.2546 1.01977
-14.2343 -13.8714 0.525602
-13.9072 -14.2551 0.998579
-14.2789 -13.5384 -0.274534
-15.9196 -12.3078 -2.18459
-13.9382 -13.3405 -0.772399
-13.5218 -14.7053 0.781488
-13.4961 -14.7393 0.805102
-15.6922 -12.3723 -2.43075
-13.762 -13.6555 -0.576987
-15.6862 -12.3668 -2.49072
-13.7168 -13.4625 -0.866983
-13.4992 -14.5695 0.404328
-14.3148 -12.7761 -1.97188
-13.3862 -14.6477 0.418973
-14.8625 -12.8218 -2.49136
-12.7003 -15.0696 0.700819
-14.8602 -12.7722 -2.64461
-12.42 -16.1515 1.59003
-12.3789 -16.1303 1.39881
-12.3628 -16.1506 1.40629
-12.3538 -16.1611 1.40395
-14.337 -13.2835 -2.71621
-12.4316 -15.8277 0.611729
-11.8678 -16.5392 1.51692
-11.9873 -16.1342 0.71593
-12.9002 -14.7951 -1.33732
-13.4176 -14.004 -2.57756
-13.4484 -13.9278 -2.71201
-12.3351 -15.6116 -0.239184
-12.3379 -15.5447 -0.393192
-11.0681 -16.9393 1.60067
-13.1075 -14.1606 -2.74727
-11.7049 -16.1484 0.0672994
-12.0963 -15.5814 -0.810151
-12.7364 -14.4178 -2.70844
-11.4605 -16.4126 0.345139
-11.2591 -16.713 0.769201
-12.6208 -14.4617 -2.90658
-12.213 -13.7972 2.6932
-12.2142 -13.829 2.5126
-14.4573 -13.7479 2.21534
-14.7694 -13.7199 1.26893
-14.8924 -13.3309 0.561882
-14.8414 -13.4882 0.713588
-14.102 -13.8015 1.08967
-15.0199 -13.1548 0.239045
-14.0795 -13.839 1.08588
-14.1169 -13.8296 0.997463
-14.1343 -13.8119 0.962204
-14.124 -13.8513 0.999035
-16.9779 -11.5268 -2.20119
-14.7518 -12.9344 -0.378935
-14.7028 -12.8661 -0.496888
-13.2593 -14.5726 1.62553
-17.1528 -11.2648 -2.60801
-14.6839 -12.8321 -0.59926
-13.9833 -14.1331 0.797753
-13.0688 -14.6577 1.4577
-13.808 -14.3111 0.955303
-13.8422 -14.2776 0.883727
-13.918 -14.1332 0.667694
-13.8312 -14.1822 0.644973
-12.4266 -15.3203 2.0916
-13.7821 -14.1659 0.483804
-13.9297 -13.3642 -0.739896
-13.828 -13.4004 -0.793957
-15.7317 -12.3105 -2.57288
-13.7152 -13.482 -0.872124
-12.3233 -15.0988 1.17302
-13.3876 -14.6573 0.397855
-13.3547 -14.7274 0.478287
-13.3599 -14.7108 0.449439
-13.4614 -14.5522 0.205567
-13.0821 -15.0409 0.766185
-14.0498 -13.1357 -1.75982
-14.0245 -13.125 -1.78653
-14.9613 -12.7507 -2.53281
-12.2879 -15.4087 1.26648
-12.6267 -15.7523 0.899604
-12.721 -15.5991 0.634357
-12.3716 -16.135 1.37849
-12.3538 -16.1486 1.37896
-12.3663 -16.0438 1.09359
-13.4081 -14.458 -1.24462
-12.2331 -16.1321 1.15621
-13.4319 -14.4195 -1.31781
-12.125 -16.2865 1.27228
-12.4148 -15.8507 0.631724
-12.1242 -16.2029 1.10631
-12.3107 -15.9022 0.594821
-11.9806 -16.108 0.548429
-12.3406 -15.5593 -0.326878
-12.3325 -15.5714 -0.347215
-12.3318 -15.5571 -0.37185
-13.1673 -14.1689 -2.62369
-11.6019 -16.525 0.924236
-11.5929 -16.5415 0.91078
-11.5934 -16.4548 0.730333
-11.9177 -15.999 0.0301002
-10.8385 -17.0757 1.54525
-12.7489 -14.4093 -2.81189
-12.5159 -14.6718 -2.56529
-11.0188 -16.9374 0.96408
-11.0356 -16.8486 0.734925
-11.1411 -16.5613 0.100959
-12.0178 -15.1016 -2.33158
-11.3022 -17.6338 0.551871
-12.2044 -13.8619 2.66528
-12.3269 -14.7103 2.63585
-15.5058 -13.2911 0.86751
-15.5543 -12.4781 -0.223273
-14.8527 -13.5683 1.03348
-15.4982 -12.5028 -0.251621
-14.8947 -13.3901 0.603602
-14.1171 -13.8097 1.01624
-14.0972 -13.8797 1.08245
-14.0968 -13.8851 1.06061
-12.6615 -15.1031 2.39225
-17.2806 -11.1688 -2.5837
-14.4171 -13.741 0.523334
-16.7428 -11.7113 -2.13428
-12.6633 -15.0684 1.91141
-13.7417 -14.3534 0.932016
-12.1907 -15.4685 2.3689
-13.752 -14.2597 0.692777
-14.3319 -12.5887 -1.55134
-12.663 -14.8958 1.30927
-14.3194 -12.8209 -1.47131
-12.203 -15.3708 1.8153
-12.5683 -14.9379 1.23136
-12.5205 -14.9893 1.26302
-13.7913 -13.5856 -0.733538
-13.7823 -14.1861 -0.177652
-13.5017 -14.5174 0.207904
-14.2627 -12.9423 -1.82652
-13.3628 -14.6834 0.419559
-13.9888 -13.1589 -1.78064
-13.8112 -13.3041 -1.73547
-14.7466 -12.8728 -2.56846
-12.3117 -16.1852 1.95655
-14.5308 -13.175 -2.62518
-12.3765 -16.1614 1.52963
-14.4543 -13.2271 -2.64889
-13.7898 -13.9511 -1.91026
-12.2625 -16.022 0.844456
-12.2659 -16.0102 0.813538
-11.6248 -16.6062 1.75026
-12.2565 -15.886 0.480269
-12.8714 -14.9095 -1.15096
-12.6158 -15.2498 -0.664212
-12.0615 -16.0186 0.459188
-13.2111 -14.2885 -2.15922
-11.7989 -16.3308 0.818668
-13.3101 -14.1136 -2.54454
-12.5485 -15.1757 -1.04389
-11.9328 -15.989 0.0374441
-10.8107 -17.1525 1.67894
-10.8546 -17.0616 1.5308
-12.4601 -14.7693 -2.33701
-12.3921 -14.8145 -2.3583
-11.5532 -16.0284 -0.654995
-11.1456 -16.4252 -0.295064
-12.2062 -13.8594 2.2909
-12.1654 -14.0237 2.35803
-12.1794 -13.9849 2.24218
-12.2452 -14.227 2.28074
-14.2569 -13.9533 1.92167
-14.1874 -13.9206 1.73304
-13.9508 -14.0852 1.68947
-13.7169 -14.2499 1.64326
-14.7163 -13.012 -0.235384
-14.8126 -12.766 -0.534891
-12.6251 -15.1563 2.37197
-12.7436 -15.1219 2.31059
-13.108 -14.6215 1.43794
-12.6731 -15.07 1.94899
-14.4842 -12.6832 -1.39608
-14.3423 -12.7473 -1.45254
-14.5908 -12.5761 -1.84777
-12.2883 -15.0982 1.10081
-14.6553 -12.9137 -2.62291
-12.354 -16.1566 1.44411
-13.7531 -13.9931 -1.70496
-13.7601 -13.9917 -1.75252
-12.1334 -16.306 1.45894
-12.1783 -16.2454 1.27289
-12.4082 -15.8623 0.705884
-11.9185 -16.5126 1.60897
-12.2359 -16.0265 0.775153
-13.6079 -13.8996 -2.41276
-11.5538 -16.7409 1.51102
-11.8128 -16.3422 0.852821
-13.3345 -14.0612 -2.58088
-11.0523 -17.0035 1.72651
-12.576 -14.9502 -1.56266
-11.1588 -16.9533 1.27482
-10.8542 -17.0625 1.53644
-11.9679 -15.6805 -0.756979
-11.2837 -16.7077 0.817038
-10.8366 -17.0742 1.46743
-11.583 -16.0755 -0.394817
-11.4985 -16.1332 -0.436408
-12.269 -13.5377 2.47168
-14.1086 -13.9835 1.78388
-13.2015 -14.6217 1.5842
-13.058 -14.6877 1.4765
-13.6007 -14.6269 1.2647
-12.8879 -14.7533 1.34828
-12.7205 -14.9088 1.4633
-14.3661 -12.7312 -1.41302
-11.967 -15.6267 2.3211
-13.9588 -13.2567 -0.805778
-11.954 -15.5488 2.15232
-13.7488 -13.621 -0.544037
-13.7454 -13.4923 -0.776137
-13.1688 -14.8611 0.643142
-12.3815 -16.1295 1.97395
-13.3176 -14.0429 -0.824642
-12.3743 -16.1446 1.47536
-12.644 -15.682 0.658016
-12.2773 -16.1845 1.36842
-12.1773 -16.295 1.48752
-12.6225 -15.4449 -0.0570304
-12.7306 -15.2782 -0.301307
-12.7594 -15.2483 -0.348144
-12.5509 -15.4661 -0.119868
-12.8152 -15.0326 -0.859653
-12.5946 -15.3524 -0.403496
-12.3585 -15.577 -0.209611
-13.0645 -14.5204 -1.84044
-11.0049 -16.9805 1.61683
-10.8788 -17.1007 1.67634
-11.4045 -16.2879 -0.158971
-11.258 -15.8405 -2.07015
-14.0324 -14.0364 1.72618
-15.3818 -13.1596 0.480612
-14.0156 -14.0252 0.571848
-13.6495 -14.6437 0.939195
-12.6815 -14.9008 1.35736
-13.7758 -13.4334 -0.793058
-13.5477 -14.4221 0.0505082
-12.361 -16.1588 1.95908
-13.2696 -13.9191 -0.969661
-12.7435 -14.8869 0.188074
-13.5094 -14.1472 -1.94463
-12.363 -15.5538 -0.27923
-11.9014 -15.9933 0.0014421
-10.9771 -17.0209 1.6565
-10.9406 -17.0416 1.64652
-10.9065 -17.0618 1.63683
-12.3527 -15.003 -1.93157
-10.7351 -17.156 1.46813
-12.2096 -13.8257 2.68308
-15.4685 -12.8697 0.230224
-12.7131 -14.9246 2.20738
-14.3849 -13.9828 0.805019
-14.3779 -13.3286 -0.555485
-13.8327 -13.7784 -0.360364
-13.5286 -14.6829 0.719219
-13.3919 -14.7603 0.683089
-12.4906 -16.112 1.65817
-12.9407 -14.3711 -2.5212
-12.4021 -14.9688 -1.91624
-11.5995 -15.5653 -1.86573
-12.2501 -13.5661 2.74666
-14.6843 -12.8539 -0.657687
-14.6692 -13.2807 -0.165851
-14.3555 -13.7498 0.363232
-14.3665 -13.6266 0.0855473
-13.9896 -13.2568 -0.714109
-13.4963 -14.669 0.627729
-13.7842 -13.7252 -0.971972
-12.493 -14.8077 -0.0362309
-11.0227 -17.0481 1.77816
-10.801 -17.1205 1.59263
-11.0797 -16.711 0.159269
-13.8097 -13.7838 -0.155911
-13.806 -13.7765 -0.4941
-13.6901 -13.8684 -0.850768
-12.6658 -15.1526 2.06035
-14.401 -13.7633 0.188639
-12.8421 -14.6787 0.0695648
-11.9231 -16.2013 0.710073
-10.9609 -17.494 1.27138
-15.5749 -12.9216 0.449705
-12.6761 -15.097 2.33045
-14.0104 -14.1763 1.10629
-13.0075 -14.5536 -0.167845
-13.7376 -14.069 -1.73759
-11.0202 -17.015 1.14501
-11.267 -17.2216 0.388528
-12.6239 -15.11 2.24093
-12.6916 -15.3193 -0.174296
-12.6861 -13.1436 2.75706
-12.2169 -13.8286 2.51422
-12.2162 -13.8038 2.45967
-11.1968 -15.6278 2.31124
-14.3628 -13.8656 1.96077
-14.2735 -13.9471 1.94723
-14.1054 -14.0489 1.87365
-12.6018 -15.153 2.014
-11.3374 -16.1531 2.13623
-14.0686 -14.0255 1.74756
-12.4893 -15.1988 1.88533
-13.21 -14.6096 1.60301
-14.763 -13.7891 1.44045
-13.1955 -14.6089 1.58867
-14.7525 -13.7357 1.30991
-15.3238 -13.507 1.15701
-12.7431 -14.8819 1.44756
-14.8851 -13.5832 1.08882
-14.1035 -13.8038 1.07482
-14.8736 -13.5389 0.973883
-12.4989 -15.0403 1.35683
-13.8549 -14.3533 1.15251
-13.9949 -14.1523 1.09212
-14.1138 -13.9729 1.04453
-14.1168 -13.8338 1.00671
-14.1322 -13.7955 0.992587
-15.4419 -13.3325 0.846821
-13.9849 -14.1307 1.06649
-13.9816 -14.0695 1.04152
-14.9556 -13.4447 0.869278
-14.1275 -13.8051 0.96699
-13.9981 -14.1373 1.05094
-14.1361 -13.9185 0.954816
-12.4804 -15.014 1.24774
-13.8718 -14.2798 0.999143
-14.7378 -13.57 0.789716
-12.3815 -16.1281 1.39727
-13.8393 -14.2763 0.883862
-15.4659 -13.1358 0.541139
-14.2658 -13.7238 0.657751
-14.3254 -13.9668 0.694668
-13.91 -14.1347 0.668881
-13.9028 -14.1601 0.672293
-14.4165 -13.7299 0.514234
-13.4999 -14.7377 0.803363
-12.3511 -16.0594 1.12237
-13.9244 -14.0738 0.528579
-13.9065 -14.0806 0.516353
-14.418 -13.7719 0.393681
-12.0789 -16.2497 1.14553
-11.3009 -16.8877 1.3496
-12.1542 -16.1992 1.11451
-12.4118 -15.957 0.999107
-12.7027 -15.0718 0.756843
-12.4019 -15.9559 0.98449
-13.8748 -14.0807 0.404289
-12.6081 -15.7783 0.89975
-12.5964 -15.1357 0.73049
-11.1606 -16.9542 1.27297
-13.1277 -14.8884 0.581106
-12.3653 -15.9749 0.908375
-13.3824 -14.6477 0.421151
-11.5593 -16.6043 1.06698
-12.4185 -15.8706 0.745713
-14.7187 -13.2563 -0.124556
-11.1692 -16.8709 1.04907
-11.9804 -16.2215 0.78478
-13.4434 -14.5668 0.216353
-13.4638 -14.5518 0.207373
-12.4302 -15.8254 0.611612
-13.3047 -14.667 0.203786
-11.9789 -16.1542 0.717954
-12.317 -15.8942 0.612174
-11.889 -16.273 0.749164
-12.3196 -15.8999 0.59839
-14.8332 -12.7931 -0.472848
-14.3587 -13.4831 -0.266611
-14.7504 -13.1254 -0.436537
-14.6915 -12.8548 -0.582909
-14.67 -12.844 -0.60996
-11.2639 -16.7215 0.789924
-11.9608 -16.1285 0.54411
-11.6635 -16.3247 0.512966
-13.8792 -13.4464 -0.683692
-12.4503 -14.9556 -0.128307
-13.7845 -13.5061 -0.716423
-14.3933 -12.9989 -0.973398
-11.0484 -16.7654 0.490826
-13.7347 -13.4461 -0.868387
-13.7176 -13.4514 -0.887334
-13.7994 -13.5852 -0.886168
-13.7169 -13.4648 -0.90095
-13.8002 -13.6092 -0.89293
-17.4084 -11.1954 -2.24053
-17.3432 -11.2302 -2.23724
-11.7005 -16.1463 0.068611
-12.2754 -15.6647 -0.16675
-13.9917 -13.2354 -1.09732
-12.2995 -15.6374 -0.188987
-11.8593 -16.0151 -0.0327347
-12.3328 -15.6099 -0.237166
-12.3414 -15.5523 -0.318527
-12.0575 -15.8089 -0.218174
-14.29 -12.834 -1.44111
-13.2099 -13.8461 -0.997455
-13.0288 -14.8994 -0.801462
-11.8743 -15.883 -0.372056
-12.3879 -15.4208 -0.620219
-16.0927 -12.1297 -2.32281
-15.8197 -12.3582 -2.22501
-11.337 -16.3166 -0.216169
-13.022 -14.8203 -1.02744
-15.9747 -12.1756 -2.4225
-12.0415 -15.712 -0.56921
-13.0127 -14.821 -1.04167
-13.4117 -14.4524 -1.27345
-13.3956 -14.455 -1.31087
-14.0306 -13.1258 -1.78231
-15.7073 -12.3341 -2.46273
-15.6837 -12.3867 -2.45079
-12.2644 -15.4759 -0.803875
-14.0779 -13.6984 -2.02873
-14.0658 -13.7101 -2.03785
-14.8174 -12.8669 -2.4878
-14.0049 -13.7665 -2.0487
-11.2077 -17.5834 -0.336963
-11.1845 -17.5924 -0.337392
-12.4431 -15.1745 -1.28378
-13.4984 -14.2075 -1.85345
-13.47 -14.2009 -1.8666
-11.1542 -16.3045 -0.637552
-14.6837 -12.8829 -2.61874
-14.3382 -13.2834 -2.71314
-13.8439 -13.706 -2.58689
-11.8064 -15.5535 -1.47864
-12.3327 -15.0526 -1.85732
-11.7574 -15.5462 -1.57523
-12.1292 -15.1364 -1.94047
-12.3505 -14.904 -2.20146
-12.9387 -14.326 -2.62959
-12.4961 -14.7013 -2.5248
-12.0739 -15.102 -2.25673
-12.7674 -14.4316 -2.73552
-11.6227 -15.4824 -2.01469
-12.1178 -14.8767 -2.76773
-12.3537 -14.651 -2.97629
-12.2311 -13.7193 2.32442
-12.4496 -14.5749 2.36949
-14.1114 -14.02 1.80634
-14.1729 -13.9299 1.74168
-12.324 -15.3405 1.92505
-12.0126 -16.3917 2.06258
-14.7728 -13.7674 1.45901
-13.5094 -14.3602 1.55838
-12.2773 -16.2078 1.94943
-14.1872 -13.7074 1.1659
-12.7673 -14.8623 1.44394
-14.9085 -13.5617 1.09841
-14.0619 -13.9176 1.10892
-14.0699 -13.8908 1.09729
-14.1083 -13.7954 1.05689
-11.622 -16.608 1.74792
-14.794 -13.591 0.95318
-11.675 -16.565 1.73208
-13.9747 -14.1636 1.10388
-14.1182 -13.8573 1.00875
-12.2044 -16.3147 1.63826
-13.7961 -14.3829 1.12222
-12.3732 -16.1615 1.53255
-10.9581 -17.072 1.76577
-12.2865 -15.4117 1.26944
-11.7457 -16.6193 1.52024
-11.1166 -16.9085 1.6046
-11.0936 -16.9215 1.57303
-13.6408 -14.6642 0.900592
-11.4719 -16.7845 1.44275
-10.8412 -17.0741 1.5428
-13.8301 -14.1821 0.644059
-12.4403 -15.9832 1.15373
-12.2334 -16.1315 1.15573
-12.389 -16.014 1.1056
-11.6145 -16.6282 1.28461
-13.8717 -14.084 0.477368
-12.2442 -16.0931 1.06583
-11.2661 -16.9033 1.32201
-12.1402 -16.1917 1.07307
-12.4192 -15.9354 0.980242
-12.005 -16.2846 1.09627
-12.3882 -15.9834 0.987154
-11.167 -16.9442 1.26029
-12.631 -15.0996 0.667244
-13.9099 -13.957 0.247505
-13.3526 -14.7085 0.455367
-13.2298 -14.8278 0.496068
-13.8268 -14.0419 0.25047
-13.3624 -14.6702 0.43469
-14.924 -12.8447 -0.326178
-11.5677 -16.546 0.926323
-14.0745 -13.7432 -0.0455598
-14.7509 -12.9365 -0.374153
-14.7454 -12.9675 -0.373232
-11.6991 -16.3954 0.803817
-12.7108 -15.5665 0.468825
-11.1363 -16.8629 0.97351
-12.2889 -15.933 0.5894
-14.8026 -12.8166 -0.507246
-11.301 -16.7063 0.852246
-12.0249 -16.0539 0.558521
-14.6996 -12.8293 -0.595471
-11.9892 -16.117 0.545211
-11.2564 -16.7124 0.770798
-14.9583 -12.6541 -0.75721
-11.0946 -16.8086 0.706575
-12.1977 -15.8889 0.277262
-13.914 -13.4107 -0.692892
-11.466 -16.4181 0.341222
-12.5489 -15.4769 -0.0934901
-13.8206 -13.3855 -0.84188
-17.3453 -11.2963 -2.07663
-13.7306 -13.4286 -0.882966
-11.8423 -16.0514 0.0142806
-12.3315 -15.6151 -0.218241
-11.7999 -16.0658 -0.0253139
-12.3492 -15.5671 -0.27539
-11.608 -16.1785 -0.0297534
-11.3859 -16.359 0.0136607
-11.6307 -16.1274 -0.124783
-16.2748 -12.0256 -2.23249
-16.268 -12.0375 -2.25847
-13.3692 -14.5986 -0.978342
-11.4388 -16.2879 -0.115603
-12.5957 -15.2729 -0.670191
-13.6743 -13.6986 -1.31839
-11.1057 -16.5198 -0.0955163
-13.0174 -14.8308 -1.00931
-13.4239 -14.4341 -1.29503
-14.0492 -13.1103 -1.77503
-14.0685 -13.0774 -1.80431
-11.1755 -16.409 -0.270029
-14.0067 -13.1311 -1.80335
-14.3052 -12.7788 -1.96643
-15.6962 -12.3553 -2.48771
-11.5594 -16.0679 -0.488018
-15.7303 -12.3102 -2.5675
-12.8493 -14.9068 -1.16623
-13.1275 -14.6384 -1.35671
-11.1471 -16.3712 -0.461205
-13.0531 -14.6165 -1.58128
-13.5238 -14.1878 -1.82573
-11.2048 -17.5504 -0.353369
-14.8858 -12.8022 -2.58372
-14.8762 -12.7575 -2.61535
-13.5877 -14.0825 -1.93779
-14.7083 -12.8949 -2.58671
-14.7307 -12.846 -2.6129
-14.6072 -13.0833 -2.57966
-14.3525 -13.3612 -2.47223
-13.2169 -14.3975 -1.86202
-13.1776 -14.4203 -1.85893
-12.6694 -14.8438 -1.71696
-14.3471 -13.2851 -2.69389
-13.0844 -14.4461 -2.05219
-13.8279 -13.7225 -2.59463
-13.1765 -14.2774 -2.28708
-12.7843 -14.6255 -2.1303
-13.3021 -14.1184 -2.49967
-11.7284 -15.5756 -1.55406
-13.3917 -14.0315 -2.56179
-13.3149 -14.0888 -2.56252
-11.9158 -15.3682 -1.75763
-13.2137 -14.1497 -2.58906
-12.1612 -15.1364 -1.9451
-12.3817 -14.9161 -2.15473
-11.7934 -15.4396 -1.79581
-12.6876 -14.5915 -2.40909
-12.0212 -15.2125 -2.03304
-12.9192 -14.3499 -2.61641
-12.0177 -15.2264 -2.05034
-12.0035 -15.2273 -2.06265
-12.0236 -15.1705 -2.1319
-12.3144 -14.8792 -2.33977
-12.3334 -14.8268 -2.45273
-12.51 -14.6702 -2.56211
-11.3183 -15.6048 -2.30965
-12.2241 -13.7693 2.67882
-12.2069 -13.8657 2.66295
-12.1895 -13.9734 2.56674
-12.2506 -13.6591 2.35224
-12.3274 -14.7107 2.63508
-12.5719 -15.2324 2.48462
-12.3561 -15.3728 2.43118
-12.5959 -14.6377 2.03636
-12.2988 -16.1964 1.93584
-12.79 -14.857 1.46587
-14.2319 -13.6943 1.15835
-12.4228 -16.223 1.7754
-14.1186 -13.765 1.14947
-12.9077 -14.7307 1.3203
-14.0964 -13.837 1.07729
-13.9856 -14.1142 1.08281
-12.4113 -16.1613 1.59352
-13.7602 -14.4057 1.1197
-12.2452 -16.2734 1.58637
-12.5632 -14.9429 1.24165
-10.8791 -17.1039 1.69931
-13.9476 -14.1575 0.792465
-14.8613 -13.3627 0.551349
-12.3798 -15.4326 1.04268
-13.7969 -14.2096 0.646539
-11.5354 -16.7065 1.3629
-14.611 -13.3102 0.272486
-12.1513 -16.214 1.13571
-14.5762 -13.3524 0.252888
-11.2863 -16.9052 1.33187
-12.4029 -15.9495 0.92638
-12.336 -15.9903 0.918804
-13.3501 -14.7304 0.52215
-12.3894 -15.9256 0.878624
-11.2131 -16.8984 1.2089
-13.8286 -14.048 0.279072
-11.3779 -16.7497 1.14377
-11.5946 -16.5883 1.07497
-13.2494 -14.8096 0.480778
-13.4408 -14.6155 0.403649
-12.6293 -15.7096 0.719061
-12.2699 -16.0066 0.818524
-11.4625 -16.6764 1.0613
-12.2574 -16.0311 0.810511
-12.5567 -15.7239 0.647391
-12.4265 -15.8201 0.669891
-13.5037 -14.5144 0.205326
-14.74 -12.9767 -0.350078
-11.8114 -16.3287 0.758063
-14.6198 -13.234 -0.348231
-14.7983 -12.8357 -0.475108
-14.7575 -12.9465 -0.448394
-14.7564 -12.9171 -0.469927
-11.0212 -16.9334 0.963318
-11.5877 -16.4516 0.676509
-15.3827 -12.2191 -0.930124
-13.7866 -14.1492 -0.240066
-12.2277 -15.8561 0.277373
-13.7628 -13.646 -0.528218
-13.7782 -13.6727 -0.544798
-11.6661 -16.2807 0.35022
-13.9149 -13.3646 -0.769272
-14.0151 -13.2377 -0.818111
-13.9556 -13.3 -0.793016
-13.8372 -13.4334 -0.756959
-11.6285 -16.293 0.311193
-13.8002 -13.587 -0.738212
-13.8396 -13.3849 -0.793077
-13.7814 -13.5545 -0.751373
-12.9485 -15.042 -0.524849
-12.3246 -15.5957 -0.26408
-12.3607 -15.5507 -0.292811
-12.335 -15.5792 -0.299348
-12.2902 -15.6016 -0.300806
-12.3217 -15.5769 -0.315108
-16.3752 -12.0205 -2.04959
-14.3645 -12.7387 -1.45592
-11.2497 -16.4772 0.0799588
-11.495 -16.2769 -0.0341711
-11.3858 -16.3445 -0.013291
-12.3863 -15.5162 -0.468561
-13.2077 -13.9221 -1.03412
-15.6004 -12.487 -2.34424
-13.4321 -14.4218 -1.32166
-15.6758 -12.3915 -2.49033
-11.1404 -16.4233 -0.294602
-13.316 -14.494 -1.35287
-15.7023 -12.3475 -2.53482
-13.281 -14.5109 -1.36856
-13.7657 -13.3384 -1.8014
-14.9601 -12.7648 -2.53328
-13.7884 -13.9479 -1.90965
-13.068 -14.5913 -1.59433
-13.4672 -14.2156 -1.81067
-14.4238 -13.3088 -2.46613
-14.6218 -13.019 -2.69899
-13.4224 -14.1815 -2.03446
-13.9547 -13.6109 -2.58523
-12.4859 -14.9411 -1.80679
-13.4337 -14.0088 -2.52426
-12.1473 -15.1617 -1.85222
-11.9308 -15.3571 -1.74867
-11.799 -15.4521 -1.77072
-12.8203 -14.3956 -2.7065
-12.7523 -14.4415 -2.74465
-12.6919 -14.3802 -2.99946
-12.46 -14.5888 -2.89129
-12.5017 -14.5428 -2.92476
-12.2769 -13.4703 2.4447
-12.186 -13.9671 2.23463
-12.531 -15.2615 2.48012
-12.6419 -15.1435 2.33858
-12.1968 -15.467 2.3713
-12.686 -15.0587 1.94273
-14.0857 -13.985 1.69886
-12.6804 -14.8778 1.67497
-12.6995 -14.8246 1.65456
-13.7615 -14.3098 1.47456
-13.1089 -14.6051 1.43814
-15.3324 -13.5012 1.18622
-14.0638 -13.8662 1.11964
-14.061 -13.9292 1.12932
-15.5629 -13.2629 0.904532
-14.1577 -13.7703 1.0209
-11.5787 -16.6348 1.73766
-12.29 -16.2869 1.63864
-12.3555 -16.2484 1.60997
-12.3712 -16.2124 1.60268
-14.7986 -13.5489 0.823757
-12.0565 -16.4126 1.57952
-12.3874 -15.063 1.20068
-10.8039 -17.1611 1.70671
-11.0861 -16.9393 1.63879
-11.7227 -16.6323 1.53592
-11.709 -16.5387 1.24875
-11.2716 -16.903 1.363
-12.3574 -15.9917 1.02551
-11.3264 -16.8452 1.3085
-12.1182 -16.2046 1.05663
-13.3733 -14.7355 0.583988
-12.0544 -16.2165 0.977066
-11.6083 -16.5854 1.09299
-12.2443 -16.0224 0.84876
-15.469 -12.5611 -0.393312
-12.1948 -16.0349 0.761449
-13.5263 -14.5132 0.232916
-11.6242 -16.5085 0.921505
-14.5072 -13.4083 -0.184189
-11.7756 -16.344 0.810549
-14.6962 -12.8578 -0.559086
-12.6827 -15.532 0.291883
-13.4358 -14.4154 -0.153991
-12.5216 -14.723 0.0137103
-13.9473 -13.3206 -0.761858
-13.7927 -13.5577 -0.695382
-12.579 -15.4711 -0.0700786
-13.8176 -13.4382 -0.780837
-13.737 -13.4751 -0.816771
-13.2686 -14.8548 -0.449929
-12.7625 -15.2456 -0.346794
-16.6383 -11.8416 -1.99059
-13.3781 -14.68 -0.689382
-13.3387 -14.6936 -0.707143
-14.3599 -12.7318 -1.41226
-12.3072 -15.5705 -0.339889
-16.2929 -12.0648 -2.08753
-14.2855 -12.8224 -1.46725
-11.0739 -16.6826 0.11599
-11.4254 -16.2613 -0.189943
-13.6192 -13.3117 -1.4748
-11.9193 -15.7727 -0.614506
-11.8994 -15.7789 -0.633708
-13.5301 -14.3245 -1.42774
-15.6172 -12.4279 -2.50956
-12.5433 -15.1752 -1.04013
-13.6456 -14.0805 -1.85392
-14.8896 -12.7957 -2.53463
-14.8444 -12.8333 -2.5489
-13.8136 -13.866 -2.07553
-13.5504 -14.1169 -1.93948
-14.1751 -13.4571 -2.55754
-14.0069 -13.5772 -2.58636
-11.6327 -15.7555 -1.238
-13.6115 -13.8931 -2.41194
-12.3619 -15.0324 -1.85169
-11.9099 -15.3944 -1.73225
-13.2767 -14.1258 -2.56871
-12.8085 -14.3862 -2.74455
-12.4214 -14.7516 -2.49777
-11.5851 -15.4471 -2.19558
-12.4034 -14.6627 -2.84621
-12.2655 -13.5444 2.4819
-12.6401 -15.1054 1.92934
-12.3713 -16.1186 1.97213
-14.0659 -13.991 1.16245
-14.0217 -14.0757 1.13843
-14.0477 -13.9773 1.08083
-13.8563 -14.3584 1.15734
-12.6947 -14.8717 1.29689
-14.135 -13.9159 0.980513
-11.0857 -16.9923 1.78606
-12.0816 -16.3784 1.5567
-12.3432 -16.1839 1.49788
-10.9529 -17.0522 1.72177
-11.8217 -16.5781 1.55944
-14.8836 -13.3986 0.585737
-12.2945 -15.1067 1.10503
-11.8293 -16.5138 1.42954
-13.8188 -14.1553 0.521468
-11.3034 -16.8845 1.34232
-12.2845 -16.0561 1.05077
-12.3039 -16.0253 1.01245
-12.4689 -15.8956 0.956824
-13.3537 -14.7252 0.553962
-13.3084 -14.7784 0.528298
-11.6187 -16.5434 1.02732
-11.6054 -16.5191 0.894749
-13.8112 -14.1736 -0.134057
-13.7696 -14.1394 -0.322204
-13.557 -14.3073 -0.277401
-13.7626 -13.703 -0.501602
-12.2451 -15.8073 0.204106
-12.6755 -15.4145 -0.0467509
-12.6262 -15.4478 -0.0582052
-12.4984 -15.5386 -0.041373
-12.5351 -15.5011 -0.0777228
-12.4558 -15.5714 -0.0473603
-12.3554 -15.579 -0.199785
-12.7178 -15.2763 -0.358168
-12.6874 -15.3275 -0.374139
-12.4088 -15.513 -0.284221
-17.2748 -11.2316 -2.41657
-12.5561 -15.3886 -0.42115
-11.3774 -16.3443 0.0530389
-13.5709 -13.6568 -1.19315
-11.4822 -16.2604 -0.117791
-11.4491 -16.2661 -0.133442
-13.1728 -14.0057 -1.08217
-12.3097 -15.4405 -0.789875
-12.8302 -14.9177 -1.17338
-13.0824 -14.6671 -1.37418
-14.9658 -12.7424 -2.65224
-13.4735 -14.0709 -2.26975
-12.4604 -14.953 -1.82202
-12.4526 -14.6368 -2.75914
-12.3287 -14.6976 -2.88609
-11.3548 -15.606 -2.25714
-12.8045 -14.7911 1.26353
-11.0687 -16.9969 1.75961
-14.2392 -14.0343 0.862056
-11.9856 -16.4163 1.46519
-13.8791 -14.2058 0.841355
-10.7486 -17.178 1.69773
-12.2142 -15.1663 1.14047
-11.6132 -16.6904 1.47649
-10.8263 -17.077 1.51118
-14.3854 -13.7485 0.382015
-12.0892 -16.225 1.08474
-12.3246 -16.0075 0.969729
-14.3669 -13.5602 0.0737779
-12.4093 -15.8671 0.711753
-14.6011 -13.3341 -0.223694
-12.3449 -15.883 0.628056
-12.2169 -15.9672 0.618847
-12.6408 -14.9567 0.310372
-13.467 -14.4124 -0.0773567
-12.2768 -15.8545 0.305302
-12.6933 -15.435 0.0159322
-12.5496 -15.4629 -0.121868
-12.4618 -15.5486 -0.0908278
-14.2048 -13.0995 -1.02554
-13.8154 -13.6014 -0.937244
-13.4225 -14.6211 -0.72208
-13.5699 -13.2596 -1.47971
-13.3955 -14.4527 -1.29988
-14.0507 -13.0555 -1.83724
-13.9436 -13.1518 -1.82186
-11.2369 -17.5237 -0.349059
-13.4831 -14.1856 -1.85849
-14.6838 -12.9235 -2.64423
-12.4057 -14.9641 -1.90366
-11.1796 -16.1536 -1.19533
-13.4104 -14.4313 1.52501
-13.046 -14.6828 1.42419
-14.345 -13.9646 0.817038
-10.9182 -17.0689 1.69361
-10.9403 -17.0408 1.64629
-12.3074 -16.1473 1.30293
-15.2897 -13.1114 0.368035
-10.8484 -17.0742 1.56205
-10.8009 -17.126 1.49034
-14.4147 -13.6049 0.194628
-14.7597 -13.0855 -0.157972
-13.7701 -13.6754 -0.461991
-12.4998 -14.802 -0.00999092
-12.5132 -14.7875 -0.0634708
-11.4386 -16.3119 0.0412838
-11.8912 -15.9293 -0.286582
-13.7183 -14.0846 -1.73555
-12.6097 -14.4644 -2.89905
-13.1124 -14.6317 1.45893
-10.9815 -17.0432 1.74716
-12.4231 -16.0957 1.47557
-11.0094 -16.9879 1.64976
-14.3536 -13.6318 0.526923
-10.8835 -17.0415 1.5259
-12.3987 -15.9727 1.01437
-13.4961 -14.6672 0.616917
-13.5263 -14.5454 0.557839
-14.2809 -13.5203 -0.352953
-14.7017 -12.8368 -0.642643
-12.4371 -15.4323 -0.45464
-13.8426 -13.9041 -1.53318
-11.4797 -16.1378 -0.445791
-12.1985 -15.4047 -1.08255
-14.0683 -13.9903 1.16561
-10.871 -17.0979 1.6415
-13.4057 -14.5739 0.475387
-11.2049 -17.5507 1.14001
-14.1236 -13.6329 -0.227771
-12.7498 -14.9121 0.252765
-13.759 -13.9007 -0.170721
-14.693 -12.9775 -0.621129
-12.0234 -16.0931 0.504301
-12.5759 -15.0038 0.170099
-12.7869 -15.3809 0.168784
-13.7942 -13.6555 -0.389751
-13.7281 -13.6181 -0.544507
-13.2769 -13.9733 -0.964713
-13.7322 -14.3105 -0.0340134
-14.0614 -13.279 -0.703992
-13.8595 -13.4066 -0.71191
-15.0035 -12.6907 -0.773588
-12.5895 -15.1176 2.29796
-10.9415 -17.3862 1.30429
-13.539 -14.0892 -1.66654
-12.6081 -15.3428 -0.141954
-13.4234 -13.954 -2.71325
-17.2638 -11.2067 -2.56918
-12.3231 -14.8827 -2.34675
-11.3201 -15.6053 -2.30991
-13.2507 -14.223 -2.30771
-11.5266 -15.4814 -2.2433
-12.7837 -14.6262 -2.12954
-12.1478 -15.0712 -2.12994
-13.4771 -14.1256 -2.08329
-12.03 -15.2133 -2.03623
-12.0525 -15.1918 -2.00041
-11.4673 -15.613 -1.94938
-13.5326 -14.1694 -1.87194
-13.4247 -14.2329 -1.8483
-12.4807 -14.941 -1.89523
-11.6166 -15.5283 -1.90993
-12.3845 -15.0167 -1.82395
-12.7796 -14.7351 -1.7964
-11.8004 -15.4354 -1.80011
-12.8616 -14.6997 -1.71082
-11.9259 -15.368 -1.746
-13.2037 -14.513 -1.54251
-12.6304 -14.9257 -1.58821
-12.6616 -14.9491 -1.5124
-11.2495 -15.9195 -1.57802
-13.164 -14.1037 -1.13667
-11.9852 -15.4447 -1.42892
-13.7465 -13.4585 -0.837473
-12.3502 -15.2246 -1.3194
-12.3989 -15.2038 -1.29256
-13.838 -13.4031 -0.76118
-12.4804 -15.1478 -1.26705
-12.7468 -14.9815 -1.18415
-13.1892 -14.6831 -1.0933
-13.0734 -14.7894 -1.03341
-13.3327 -14.6107 -0.957755
-12.3156 -15.3568 -1.03308
-13.2617 -14.7441 -0.720262
-12.4661 -15.3417 -0.718151
-13.7478 -14.1777 -0.261731
-11.4228 -16.0694 -0.759653
-11.2164 -16.2042 -0.782687
-11.547 -16.0266 -0.698737
-14.0779 -13.669 0.104438
-12.72 -15.2887 -0.338966
-15.5226 -13.1428 0.459346
-12.3448 -15.5496 -0.336293
-11.5639 -16.0687 -0.488608
-11.5001 -16.1148 -0.486069
-12.357 -15.5532 -0.288706
-12.3564 -15.5602 -0.277044
-13.7564 -14.3212 0.173106
-11.8711 -15.8957 -0.351073
-12.2108 -15.6787 -0.234053
-13.3207 -14.667 0.200193
-12.3907 -15.5915 -0.124609
-11.8407 -15.9344 -0.232619
-13.8714 -14.0839 0.477744
-15.4786 -13.3045 0.828638
-13.4862 -14.5786 0.389183
-11.2845 -16.353 -0.2292
-11.6193 -16.1355 -0.12332
-14.3695 -13.9459 0.777943
-11.968 -15.9587 0.0113415
-12.0783 -15.8652 0.0544632
-12.1288 -15.8516 0.0607518
-11.7855 -16.0652 -0.0250014
-12.4625 -15.6558 0.175433
-12.2094 -15.8132 0.113515
-14.157 -13.7974 0.954214
-13.6932 -14.5354 0.665996
-14.1455 -13.7734 0.986576
-14.2118 -13.7173 1.01881
-14.1625 -13.7521 1.00567
-14.1597 -13.7552 1.01912
-14.1428 -13.7111 1.10254
-11.914 -16.0244 0.153639
-11.8151 -16.0839 0.12874
-14.1656 -13.7504 1.13237
-11.271 -16.4423 -0.00888908
-14.1141 -13.8213 1.16155
-12.0933 -15.9535 0.275614
-12.1927 -15.8998 0.307695
-12.6045 -15.645 0.440155
-11.2273 -17.5107 -0.330889
-11.0969 -16.6084 0.139318
-11.5707 -16.3386 0.337635
-11.1346 -16.6159 0.221745
-12.0144 -16.0466 0.556595
-12.0177 -16.0539 0.565246
-12.3124 -15.9028 0.65315
-12.4334 -15.8513 0.740434
-12.5355 -15.7922 0.778631
-12.4177 -15.8545 0.748505
-12.4656 -15.0233 1.22956
-13.9228 -14.1838 1.88834
-11.7743 -16.3486 0.820583
-12.37 -16.0323 1.10426
-12.1553 -16.1825 1.06838
-12.1861 -16.1709 1.08116
-11.82 -16.3837 0.965768
-11.0887 -16.8124 0.706254
-12.5115 -15.1372 1.7748
-12.2485 -13.657 2.35155
-11.1143 -16.8751 0.95742
-12.2687 -13.5574 2.49597
-11.1274 -17.7013 0.75848
-12.3222 -15.3435 1.92149
-12.208 -13.9211 2.51445
-11.8788 -16.5385 1.51918
-12.0124 -16.4524 1.62073
