-18.3799 -12.5577 1.0027
-16.1823 -12.5583 -1.89595
-15.9812 -13.4179 -0.33632
-13.4513 -13.2868 -2.20043
-13.7624 -12.088 -2.24175
-13.8738 -12.9208 -3.87452
-12.3906 -13.2124 -4.33618
-15.8523 -11.7951 -0.0645164
-15.8487 -12.7838 -0.294682
-13.8024 -13.7767 -1.273
-13.0508 -12.9704 -3.75761
-12.9269 -12.9413 -4.0197
-16.134 -11.4857 1.37486
-16.9937 -12.339 -0.295993
-12.7391 -13.4206 -4.01294
-16.1779 -12.2404 0.839797
-14.8759 -13.3218 -0.0559512
-14.2427 -13.0382 -0.710479
-14.9798 -12.534 0.870123
-14.7504 -14.1492 -0.91497
-16.5139 -12.1776 1.20896
-16.138 -13.0013 0.523575
-15.6325 -13.1508 -0.608382
-14.2345 -12.6721 0.0156831
-16.0155 -12.8387 1.70784
-13.4002 -12.9516 -2.56167
-16.2566 -12.1057 1.55713
-13.5461 -12.9498 -2.93182
-13.9233 -13.7821 -0.806982
-14.6185 -11.2946 1.55401
-14.6376 -13.6719 -1.99599
-13.7222 -13.9205 -1.89516
-13.8445 -13.8804 -1.3042
-14.1595 -12.7049 -1.2894
-12.9566 -13.476 -0.432137
-12.841 -12.3755 1.31461
-14.4583 -12.8942 -0.262836
-13.8596 -13.3503 0.202184
-14.9591 -13.24 0.152688
-14.1234 -12.5351 1.31306
-13.311 -13.4017 -0.969066
-12.6669 -12.91 2.01991
-18.4526 -11.0078 -1.96125
-17.965 -10.9229 -1.49386
-18.2157 -12.2096 -1.26099
-15.9936 -11.999 -2.85373
-14.9517 -12.1839 -1.79954
-14.4794 -12.0928 -3.08785
-14.4613 -12.2631 -2.69369
-16.456 -12.1031 -1.53496
-17.7693 -12.6122 0.605009
-17.1523 -12.0694 -0.5093
-15.4274 -12.4903 -1.03593
-16.7473 -12.59 -0.989153
-16.9373 -12.7867 -0.16013
-14.8058 -11.8055 -1.87802
-14.0952 -12.2201 -2.36792
-17.8065 -12.8111 0.952736
-15.042 -12.8728 -2.36341
-16.9354 -12.9419 0.868427
-16.0106 -12.6151 -0.190125
-16.229 -13.1506 0.251672
-15.2467 -13.5137 -1.40585
-17.9569 -13.3856 1.58278
-16.1438 -12.8168 -0.679554
-17.0416 -13.2569 0.748315
-14.8093 -13.3832 -1.74937
-16.892 -12.705 0.950317
-17.0805 -13.135 0.431938
-15.5388 -13.2646 -1.50154
-13.4236 -13.771 -1.86703
-16.0478 -13.0253 0.603116
-17.3496 -12.1199 2.32035
-14.8548 -13.2818 0.235759
-13.5101 -12.6772 -0.907743
-13.964 -12.4195 -2.05141
-16.0723 -10.8433 -2.22476
-16.043 -11.4561 -2.1398
-15.8019 -12.5536 -2.82769
-15.1523 -11.6395 -1.78302
-15.5698 -11.359 -1.96225
-17.2532 -12.8582 -0.807794
-14.3183 -12.8022 -2.06237
-17.784 -12.416 0.772803
-18.1667 -12.2901 1.04952
-18.1844 -12.1316 1.47505
-12.7578 -11.9189 -1.85838
-18.1972 -12.3845 1.36366
-13.7122 -12.6229 -1.73337
-13.8228 -11.8472 -2.09388
-16.4677 -12.4286 0.863355
-17.5781 -12.5146 1.30541
-15.4057 -14.328 -1.63118
-16.488 -13.4994 -1.12671
-14.8135 -12.9315 -2.2619
-14.9847 -13.5199 -0.26125
-15.2433 -13.3733 0.238155
-14.784 -13.4181 -0.261213
-14.9369 -13.2568 0.951708
-16.7702 -12.5821 1.84319
-14.0167 -14.0763 -1.08052
-13.794 -13.7084 -2.35215
-14.2416 -13.2348 0.152284
-13.7372 -13.2007 -1.50914
-14.827 -13.2184 0.527305
-14.2857 -13.6946 -0.963245
-13.6989 -13.7648 -0.960581
-13.418 -14.1453 -1.49235
-13.429 -14.0055 -1.06861
-16.9008 -11.6669 -2.76531
-15.1614 -11.2659 -1.92172
-15.9585 -12.6188 -1.67186
-12.6981 -13.8257 -3.11823
-16.8452 -11.7605 0.992459
-15.2082 -12.4126 -2.17018
-18.0392 -11.691 0.732636
-17.0096 -12.652 -0.150689
-15.5988 -11.8524 -2.60108
-15.0899 -13.0256 -1.2324
-14.0414 -12.404 -1.78809
-14.3153 -13.5343 -1.7939
-16.0833 -12.6953 0.213266
-14.265 -13.274 -1.01533
-13.6259 -13.5523 -2.16868
-14.8164 -13.0318 -0.164275
-14.1789 -13.6021 -0.204464
-13.3918 -14.0102 -1.19147
-13.3855 -12.0665 -2.12273
-13.5287 -14.2356 -0.971154
-15.0004 -12.9839 0.732119
-14.1448 -14.1138 -0.5536
-14.0743 -13.1199 -0.950023
-16.7148 -11.3858 -3.08727
-16.0644 -12.1457 -3.008
-15.2982 -11.4444 -1.22228
-15.2004 -12.8352 -2.86749
-15.8269 -12.3194 -1.33556
-18.1294 -13.1885 1.98407
-14.7563 -12.0533 -0.489533
-14.7448 -13.0005 -0.533055
-15.9068 -12.2824 -1.45477
-14.4734 -13.1489 -2.20389
-17.071 -12.7534 0.246597
-16.4377 -12.0498 -0.00164144
-15.0119 -12.9753 -2.61031
-16.1363 -12.131 0.30428
-16.7951 -14.2616 1.70751
-13.0791 -13.7379 -2.1248
-13.6868 -13.5063 0.541572
-14.1066 -12.7735 -1.90462
-15.5483 -12.8923 -0.294382
-14.0196 -13.3922 -2.33848
-15.3941 -12.6721 -0.844215
-13.7696 -13.422 -2.59946
-14.6162 -12.0484 -1.81041
-14.9318 -13.2434 -1.27027
-14.6658 -13.6071 -1.12
-16.5246 -12.9285 -0.209013
-16.8852 -11.846 0.0891333
-17.8752 -11.5178 -1.69241
-18.9339 -11.6005 -2.01001
-17.5603 -11.0664 -0.318125
-18.6147 -11.2087 -0.431762
-18.2435 -12.3407 1.25312
-18.7606 -11.5067 -1.62609
-17.1549 -11.5094 -1.2398
-17.7755 -11.6006 -0.871712
-17.1022 -11.8171 -1.896
-17.6395 -12.0078 -0.568973
-18.0274 -12.0563 0.0651955
-17.4926 -12.2785 -0.570099
-16.6931 -13.0642 -0.574983
-17.4586 -11.3886 -1.09291
-16.9806 -11.6978 -2.02881
-17.5441 -12.5115 0.595086
-17.0486 -12.0171 -2.81392
-16.6801 -11.8761 -2.08454
-17.7945 -12.237 1.63674
-17.2801 -12.3652 -0.300625
-16.23 -11.3063 -3.24073
-17.4771 -12.248 0.877598
-16.342 -11.7244 -2.66503
-17.1922 -13.3291 1.33887
-16.7976 -11.7411 -0.261165
-16.9593 -13.0387 0.238685
-15.8432 -12.5847 0.952673
-16.0767 -13.4181 0.503936
-16.0275 -12.7607 -1.15245
-16.155 -12.4668 -1.05043
-15.5661 -13.7283 0.598053
-16.365 -12.7573 -2.54117
-15.9602 -12.2657 1.53209
-15.8307 -12.31 0.97346
-15.5812 -13.4758 -1.36185
-14.8437 -10.8957 -3.1422
-14.3842 -11.2119 1.90668
-13.8716 -12.4451 2.28657
-16.0112 -14.1042 0.443027
-14.3725 -12.3033 -0.696384
-13.6837 -11.8758 1.1448
-14.2396 -11.3269 1.86389
-14.4601 -12.3727 -2.63317
-15.2218 -12.4466 -0.106553
-15.3657 -12.7963 -0.961519
-14.505 -12.943 -1.52387
-14.3443 -13.3022 -2.17064
-15.7339 -12.6399 -0.9791
-14.5726 -11.9885 -2.85086
-13.5232 -11.859 1.08571
-14.4325 -13.429 -1.37749
-13.0884 -12.7757 1.70087
-12.9802 -12.5827 0.641358
-13.1418 -12.5023 1.91116
-14.4886 -12.7996 -0.897434
-13.6591 -11.7118 1.32286
-13.5411 -13.3603 -4.16868
-13.9134 -12.3173 -2.85036
-14.7694 -13.1918 -1.71813
-13.2711 -14.5015 -0.847835
-12.9148 -13.493 -1.82054
-14.2339 -13.4337 0.308474
-12.9477 -12.7349 -2.92924
-12.7307 -13.1427 -3.43776
-14.1079 -13.8894 -0.144447
-13.7276 -14.078 -2.11877
-13.9625 -12.8351 -3.063
-12.5101 -13.2424 -4.48734
-13.6069 -12.9187 -3.24734
-18.0186 -10.8248 -1.19011
-18.3109 -10.9181 -0.707564
-18.1617 -11.6882 -1.44811
-18.5837 -11.8189 -1.5066
-17.5414 -11.2036 -2.12908
-18.7877 -12.1212 1.93942
-17.5527 -12.4939 0.191341
-17.6507 -12.325 0.742704
-17.8083 -11.6575 1.09615
-17.5965 -13.4342 1.24441
-16.698 -12.0631 0.0519558
-16.8097 -12.1909 -2.16054
-18.4423 -12.4392 1.11771
-15.728 -12.418 -2.86793
-16.7092 -13.3471 2.34443
-15.9223 -13.1707 0.676884
-16.9927 -12.8297 -0.349653
-17.4235 -12.0588 -0.406418
-17.4132 -11.7841 -3.3771
-16.8912 -12.3979 -0.0886865
-16.2473 -11.747 -2.95935
-16.3504 -12.7568 0.493625
-17.4189 -13.6166 0.264657
-16.8611 -11.4337 -1.81504
-15.5364 -13.513 -0.0932502
-15.5988 -12.5279 -0.334336
-14.812 -12.5887 -1.93367
-15.4904 -12.5719 -2.32005
-14.3798 -12.1508 2.01388
-14.2629 -12.1463 0.234474
-15.9655 -12.8572 -0.0341121
-14.6588 -11.542 -1.39738
-14.3579 -11.6122 -3.02725
-15.7022 -12.4506 -0.191048
-15.1059 -13.0948 -0.294492
-14.7242 -12.6504 0.547685
-14.2264 -11.7115 -3.6
-13.9409 -11.6816 1.311
-14.0648 -11.564 2.30378
-14.1668 -12.7359 -2.28168
-14.3448 -12.7501 -1.90038
-14.2255 -12.0076 -2.27394
-14.7039 -13.6388 -0.646283
-14.4525 -12.8497 -1.19013
-14.7762 -13.0134 -0.912205
-13.1656 -11.5678 -2.07523
-13.0302 -12.4936 -2.96394
-13.6528 -12.4221 0.537934
-13.9618 -13.1607 0.527375
-13.4903 -13.1545 -0.799313
-12.9151 -12.9241 -2.91988
-14.0598 -13.1281 -0.505756
-13.9867 -14.1427 -0.42541
-13.2951 -14.4197 -0.975167
-12.4918 -14.1575 -3.51925
-12.5572 -13.3234 -4.01723
-18.3868 -11.7549 -1.60261
-17.545 -11.7887 -1.84489
-18.1936 -11.9178 0.396144
-16.9978 -12.6911 1.274
-17.2164 -12.4164 0.435766
-17.3988 -11.7551 1.42682
-17.5849 -12.1277 -0.0315406
-17.1768 -13.3906 0.418783
-17.3602 -11.7635 0.498438
-16.1372 -11.8446 -1.73151
-17.4871 -12.1956 -2.46217
-16.5944 -11.4733 -3.73113
-16.6004 -12.2604 0.0342536
-16.297 -12.1571 0.957312
-16.3515 -12.9835 -1.10253
-16.1394 -12.7992 -1.50115
-15.4955 -11.8204 -1.00298
-15.7144 -11.5266 -1.70712
-16.2604 -13.3491 2.03846
-16.1523 -12.7907 0.917228
-14.6116 -12.1574 2.11482
-15.4038 -12.6211 -0.0955601
-14.751 -12.8308 -1.24368
-15.1016 -11.1773 -0.709299
-14.915 -11.7808 -1.91364
-14.614 -13.3468 -3.26766
-15.4065 -11.7199 -1.20645
-14.4454 -12.1161 -1.14123
-15.7931 -13.9027 -1.08497
-15.1461 -13.0656 0.420666
-15.0663 -13.4525 -0.27699
-14.219 -11.9617 -2.46686
-14.076 -12.8333 -0.665581
-13.8068 -13.4189 -2.08806
-13.8462 -12.9937 -0.3879
-13.9655 -13.2257 -2.36134
-14.4361 -14.1183 -1.00378
-12.8063 -12.6023 -3.86749
-18.1116 -12.039 0.719472
-18.1811 -11.5315 -0.970284
-16.1968 -11.9186 -2.11805
-17.5032 -11.5596 -0.797032
-15.7837 -11.7658 -1.48425
-16.7222 -13.7089 0.74274
-16.5567 -12.154 -2.95015
-16.127 -12.6035 1.59086
-16.5205 -12.4233 -2.74188
-15.0439 -13.2363 0.930029
-15.7494 -12.253 -2.04585
-14.3507 -13.1283 -1.70741
-14.4284 -13.0508 -1.79858
-14.5772 -12.8859 -1.81082
-14.9727 -12.7431 -2.66129
-14.9014 -13.0684 0.236555
-13.8341 -13.5498 -1.32158
-16.3552 -11.1838 -1.20476
-16.5179 -12.5277 -2.63933
-17.785 -13.4237 0.681727
-16.8059 -11.7876 -3.31847
-16.9871 -12.4192 1.69409
-15.6602 -12.671 0.811327
-16.8131 -12.4329 0.0685009
-14.0192 -12.9448 -2.55969
-15.0053 -13.0566 -1.49025
-15.3982 -12.4102 0.16533
-13.4664 -11.7684 1.34874
-13.5103 -12.6014 -2.22669
-14.9124 -13.5441 -2.01412
-16.1758 -12.3303 -0.19509
-15.2594 -11.5562 -2.41805
-15.4767 -13.2353 0.833412
-14.4468 -13.3567 -0.0913092
-13.7975 -13.4372 -0.953709
-14.0649 -13.2702 -1.08604
-15.9998 -11.4346 -2.79792
-15.5386 -11.683 -0.687017
-14.8968 -11.5963 -1.82276
-14.3264 -13.3086 0.209757
-14.3276 -13.7158 -1.45843
-14.7249 -13.6353 -1.31731
-15.4221 -14.2543 -1.0321
-16.3948 -12.6113 0.742023
-14.3271 -12.2274 -1.04962
-14.6462 -12.4125 -1.1797
-14.1963 -12.0491 -1.60932
-16.9724 -12.429 0.249307
-14.3773 -13.75 -0.0589726
-15.6016 -12.2056 -0.28592
-14.6396 -11.6736 -2.0221
-13.7263 -13.1583 -2.22992
-13.3897 -13.396 0.0290644
-13.7704 -12.0638 1.21312
-14.5516 -12.7609 -1.85598
-14.7631 -11.6706 -0.850111
-14.6967 -12.2335 -1.41815
-14.3981 -12.7417 -1.24871
-13.2698 -12.7069 -1.53227
-13.3288 -13.2081 -2.54075
-18.7268 -11.697 -1.54654
-15.597 -11.4355 2.43152
-17.9891 -11.5295 -1.82707
-16.8448 -11.912 0.285407
-16.3272 -13.3093 0.571541
-16.8544 -12.1766 0.115602
-17.1005 -12.1178 0.0405409
-16.8566 -12.4701 0.178181
-13.6776 -11.9573 1.90966
-17.4793 -11.7092 -1.28665
-13.8547 -12.7778 1.22966
-15.0733 -12.93 1.16284
-13.8495 -12.3345 2.36865
-18.3415 -10.9865 -1.93265
-13.5566 -12.3106 1.50656
-17.3237 -12.2013 -1.98909
-14.8226 -12.2127 0.362271
-17.6046 -11.9019 -2.28187
-18.1886 -11.7218 -1.17039
-16.7682 -12.3919 -1.36196
-15.9486 -11.6809 -0.86366
-16.9532 -10.9653 -1.26266
-15.2837 -13.1757 -0.283599
-13.3943 -11.7236 1.50694
-13.157 -12.0971 1.49368
-16.8728 -11.5676 -1.7381
-13.7978 -12.1379 2.82587
-12.5177 -12.9681 0.632957
-16.9317 -11.0007 -1.31895
-17.3968 -11.4618 -1.47059
-16.2341 -12.8476 -1.93606
-13.2205 -12.3694 0.992896
-16.6703 -10.8662 -2.32651
-14.2508 -12.7578 -0.470242
-15.6768 -12.469 -3.44362
-14.0847 -13.316 0.143538
-13.5944 -12.5159 -0.513119
-13.4519 -12.9771 -0.550121
-14.5404 -13.1144 -0.790893
-12.9112 -12.7446 0.0253806
-13.6656 -13.4841 0.0149271
-14.1853 -13.8619 -0.101587
-14.4977 -11.9401 -1.18957
-13.8462 -13.6346 0.179564
-13.6912 -13.0996 -1.08637
-14.6593 -11.8241 -3.31086
-14.0336 -13.2656 -2.96414
-13.6577 -13.2733 -3.22501
-12.9072 -13.2251 -3.77886
-12.8726 -13.3476 -2.8413
-13.1079 -12.1705 -3.4167
-13.3572 -13.3078 -3.95564
-16.7494 -13.5733 1.54163
-17.3895 -11.9328 0.4262
-17.9646 -12.5192 0.94469
-17.5584 -13.8158 1.47562
-18.3133 -14.1476 1.15177
-17.7293 -11.7522 -0.573379
-17.21 -12.0998 -1.22079
-17.0371 -13.2046 0.725667
-18.75 -11.1196 -0.984631
-16.9718 -12.714 -0.582153
-17.9078 -11.6818 -1.73508
-16.9653 -13.2941 1.81398
-17.7642 -11.8806 -1.53618
-17.4584 -10.6593 -1.19451
-17.2187 -10.3231 -2.73814
-17.1316 -10.6373 -1.70985
-15.3614 -13.1297 0.620217
-15.5036 -12.5669 0.791646
-17.4847 -11.5408 -0.622685
-16.532 -12.7341 -0.731118
-16.499 -12.6529 1.08129
-15.2096 -13.5248 0.157112
-13.2978 -12.4833 1.58818
-14.235 -12.7257 1.18121
-12.9693 -11.9452 1.4779
-17.3701 -10.8922 -0.866478
-15.7162 -12.4631 0.100802
-12.9348 -12.6818 2.09609
-15.3827 -11.9468 0.929336
-13.0175 -12.4222 1.57991
-14.7944 -12.4397 -0.322498
-13.382 -11.8816 0.821413
-15.6373 -13.2578 -0.432873
-12.8932 -11.4697 1.87152
-15.5837 -13.1083 -0.341968
-14.4104 -13.967 -0.249793
-16.2513 -12.3228 -2.04304
-14.9476 -12.1927 -0.707242
-15.4086 -13.1793 -0.970456
-16.5669 -10.629 -2.53332
-15.7064 -12.7045 -0.109623
-15.8056 -11.601 -3.04496
-14.2887 -12.8463 -0.317106
-15.146 -12.0467 -2.40051
-13.6895 -13.3236 -0.667251
-14.5149 -13.4448 -1.11477
-13.8902 -13.595 -1.26328
-15.3258 -11.6453 -2.53684
-14.2358 -12.6183 -1.23929
-13.9512 -12.607 -2.14942
-14.7747 -13.9317 -0.524546
-13.8153 -13.2495 -1.33609
-13.7207 -13.0247 -0.828678
-15.3419 -12.4057 -2.10103
-13.3042 -12.7734 -1.45608
-13.847 -12.9951 -1.4468
-13.6422 -13.7112 -1.82406
-12.9518 -13.5999 -2.76592
-13.6882 -13.0889 -3.83051
-12.7662 -13.2531 -3.75409
-13.4255 -13.254 -3.29246
-17.498 -13.2588 1.05257
-17.0364 -13.216 0.760643
-17.2944 -12.9551 0.411504
-17.9426 -12.0664 -2.05014
-17.3644 -11.7848 -1.34622
-16.9371 -12.2355 -0.343749
-16.7424 -12.6906 -1.40984
-17.0302 -11.5729 -1.48747
-16.7601 -12.9216 -0.701084
-17.192 -10.6963 -2.94753
-14.9456 -12.6705 0.633763
-15.1111 -12.4757 -0.249545
-17.158 -11.3882 -2.66807
-15.5995 -12.4778 -0.612807
-15.9857 -11.7823 -3.67932
-15.567 -11.9469 -1.75378
-16.7078 -11.9048 -3.00855
-15.7226 -12.0691 -2.1725
-15.0518 -14.0676 -0.506104
-14.7493 -12.1632 -0.667169
-14.7992 -12.0982 -0.829843
-13.3373 -13.0261 0.0803506
-14.0839 -11.8587 -1.80377
-15.6616 -11.6921 -1.97666
-14.9257 -11.8884 -1.9734
-13.7429 -12.299 -2.24553
-14.2191 -12.3135 -1.52831
-14.1768 -13.8502 -0.487735
-13.9881 -13.9973 -0.00777228
-14.2477 -12.2363 -1.71794
-14.1591 -12.5129 -1.20855
-14.2262 -12.8802 -1.8366
-13.8692 -12.9742 -0.855306
-13.7716 -12.9133 -2.65044
-13.7848 -12.5299 -1.89101
-12.9922 -13.8878 -1.75456
-12.7712 -13.7277 -1.85986
-13.1816 -12.6228 -2.81241
-14.1873 -12.0458 -3.16853
-13.4844 -13.1376 -3.66429
-17.0712 -12.2379 1.79861
-15.4407 -12.6132 1.19287
-17.4324 -12.4124 -0.227885
-18.0374 -11.4682 -1.48906
-17.6137 -10.4214 -1.74239
-17.9276 -11.4512 -2.30923
-17.1762 -11.3781 -1.95298
-16.6612 -12.6693 0.885274
-15.9179 -12.8915 0.61845
-17.3169 -11.2798 -1.26954
-16.4021 -12.2252 -1.26884
-17.0946 -11.7509 -2.46443
-17.0249 -11.3265 -3.50674
-14.3138 -13.1985 0.457544
-15.833 -12.2813 -0.443642
-13.4703 -13.1931 -0.536932
-15.5796 -12.9372 -0.902183
-15.3974 -12.5823 0.679275
-16.786 -12.1098 -3.1841
-16.7001 -11.8145 -1.78793
-15.3393 -12.6853 -0.948141
-14.582 -12.7357 -1.56737
-15.1805 -13.5218 -0.926393
-15.9706 -11.7252 -2.5813
-14.2962 -13.2748 0.624844
-14.8746 -12.644 -1.67619
-15.5031 -13.5693 -1.07316
-15.324 -12.444 -1.9497
-14.8863 -12.7403 -1.66708
-14.665 -13.9392 -1.10345
-13.6523 -13.5358 -1.69807
-14.1801 -13.1793 -2.41991
-13.6586 -13.4817 -1.29779
-14.2664 -11.8584 -3.30434
-14.1643 -13.0257 -1.81426
-14.1845 -12.3964 -1.68505
-13.8065 -13.0684 -3.73877
-13.254 -12.9823 -2.85908
-18.2892 -10.8346 -0.471143
-16.4038 -12.7812 -0.019317
-17.1916 -12.5525 0.558274
-16.0491 -12.0529 1.35984
-18.1612 -11.3621 -0.44915
-17.7106 -11.2336 -1.1571
-17.3255 -11.7446 -1.15469
-17.3859 -11.8813 -2.38382
-17.3902 -11.0498 -1.91676
-17.4359 -11.2688 -1.73641
-16.3414 -11.0135 -2.40379
-15.0695 -12.1145 0.0144825
-15.3254 -12.9153 -1.04528
-13.5708 -13.3866 -0.221589
-16.5853 -11.7464 -3.5012
-15.7438 -12.3091 -3.45795
-15.3949 -12.158 -1.92798
-13.4385 -13.1833 -0.367196
-14.2497 -11.8909 -1.95179
-12.8416 -13.7451 -1.01465
-13.9844 -13.5037 -0.822821
-15.0483 -13.4878 -0.71328
-14.2501 -14.1965 -0.153537
-13.3575 -12.9026 -1.68381
-12.9564 -13.3139 -1.25771
-13.1372 -12.7749 -2.83952
-18.1991 -11.5364 -1.31215
-17.7689 -11.2448 -2.24896
-15.6176 -12.4438 0.424846
-16.788 -11.2538 -2.18509
-15.7424 -11.9876 -1.98492
-14.2228 -13.751 0.190576
-14.377 -13.1307 -1.04095
-14.2246 -12.4635 -0.368875
-14.0843 -12.68 -1.66287
-13.4502 -13.4621 -1.30551
-14.2517 -12.447 -2.70566
-13.9161 -11.6753 -3.14715
-13.1027 -12.9587 -4.77754
-14.8002 -11.7581 -2.45578
-14.7872 -12.9982 -1.9321
-13.5689 -12.4022 -1.95983
-18.2468 -10.3516 -1.79406
-14.9594 -13.5407 -1.33554
-13.9783 -12.7855 -0.226005
-15.3514 -11.8969 -3.21912
-14.4162 -12.1659 -2.16598
-14.1306 -13.3773 -1.12999
-14.581 -12.4576 -1.67175
-12.9776 -13.5395 -1.11002
-13.5637 -13.9359 -2.33525
-14.7064 -12.3138 -1.90187
-15.3745 -12.7416 -1.77639
-18.0538 -12.6815 1.08285
-18.8332 -11.8859 1.51768
-17.8339 -12.0348 1.45952
-13.4077 -11.9049 1.90625
-18.5928 -12.3233 -0.16792
-17.5108 -11.4983 0.715299
-15.112 -12.1596 0.385482
-17.6803 -12.4616 -0.153058
-18.3487 -11.8594 0.0575884
-18.4794 -10.3931 0.204296
-16.0206 -14.0897 0.109183
-17.9333 -12.3188 -0.436483
-18.7897 -11.8711 0.217556
-15.9603 -13.1333 -0.0938216
-17.3123 -13.4651 0.246743
-13.325 -11.8184 0.855264
-18.4994 -10.9612 -0.153745
-15.7064 -12.7701 -0.224723
-17.3798 -12.7037 -0.84963
-14.2528 -13.1264 -0.0251011
-18.303 -10.9427 -1.01947
-17.9742 -11.4428 -0.831922
-17.0094 -12.2688 -0.468506
-15.3169 -12.8741 0.195364
-14.814 -13.9934 -0.708554
-16.112 -12.8709 -0.707863
-18.1019 -11.0423 -1.23201
-18.911 -10.5159 -0.0709172
-18.2293 -11.5686 -1.45466
-16.8575 -11.3039 -1.08758
-15.0492 -11.508 -0.825333
-14.7904 -12.7112 0.0531913
-14.7347 -13.6698 0.405275
-13.8888 -12.961 0.492765
-18.3796 -12.0923 -0.918124
-17.566 -11.5655 -1.72426
-17.1578 -12.4465 -1.78571
-14.4856 -12.5119 -1.31325
-18.3757 -11.5028 -1.36547
-16.9755 -11.8882 -1.30837
-18.0049 -11.3706 -2.09394
-18.5473 -11.5235 -1.66514
-16.8325 -12.332 -0.971482
-16.3868 -12.1243 -1.77669
-15.5375 -12.1933 -0.853646
-16.316 -12.9613 -0.665015
-17.1726 -11.6256 -0.914537
-14.5872 -14.1075 -0.669173
-13.9801 -12.9806 0.352888
-18.3103 -11.3404 -2.01475
-17.914 -11.6895 -1.03491
-18.205 -11.2125 -1.32432
-16.8176 -11.3734 -1.53354
-17.8013 -9.84979 -2.16958
-17.2309 -11.4655 -1.36365
-14.8186 -12.1929 -0.635646
-16.5532 -13.1793 -0.380952
-16.8999 -11.8581 -2.95332
-16.0875 -11.6249 -2.41234
-17.4358 -11.4948 -1.36104
-14.3305 -12.7242 -0.288429
-16.751 -12.0547 -2.2206
-16.9267 -11.5915 -0.990448
-17.011 -11.4579 -2.49244
-17.3561 -11.2749 -1.70917
-16.3486 -12.5781 -0.926977
-17.2239 -12.3209 -2.58815
-17.1271 -11.872 -2.42326
-15.4464 -12.4232 -2.1111
-16.2951 -11.5204 -2.31366
-14.1269 -12.8176 -1.02449
-13.9812 -13.4164 -1.31003
-16.4779 -11.6522 -2.53992
-17.3439 -11.7947 -2.7859
-17.1382 -11.1335 -2.72293
-15.1397 -13.4391 -0.382608
-17.2595 -11.4951 -1.71225
-17.5312 -11.4058 -2.60239
-15.9055 -12.6223 -2.40741
-13.3282 -12.3084 -2.11642
-15.7874 -13.1269 -1.10323
-15.9781 -12.1906 -0.869043
-14.5735 -12.6578 -0.611758
-14.9681 -12.9085 -1.60008
-17.1272 -12.0978 -2.76011
-13.5065 -14.2382 -1.46468
-16.2913 -11.8203 -2.30045
-15.7921 -11.5814 -2.78572
-14.6576 -11.5285 -1.85161
-15.7003 -12.1336 -2.63561
-15.8733 -12.3515 -2.7044
-14.9031 -12.203 -2.51531
-14.0192 -12.1994 -2.61798
-13.7661 -12.896 -1.85998
-14.7387 -12.1066 -2.68934
-14.4712 -12.3755 -2.46443
-14.53 -12.4996 -2.22037
-14.6324 -13.0455 -2.49702
-14.7136 -11.8181 -2.34512
-13.9088 -11.3794 -3.35637
-13.6787 -13.1357 -2.14195
-14.3945 -12.6096 -4.34219
-12.3896 -12.9943 -2.45452
-18.0061 -12.5539 1.26728
-17.4172 -12.4065 1.82171
-16.6774 -12.7756 0.617887
-16.9557 -13.0333 1.70124
-17.0192 -11.948 0.437548
-16.8152 -12.88 0.585021
-18.7144 -12.139 0.276755
-13.6672 -12.8315 1.47731
-13.5389 -12.1924 3.24476
-13.0462 -12.5315 1.97575
-17.3014 -13.0139 1.7857
-17.4282 -13.8239 1.21185
-17.438 -13.1047 0.285217
-16.4073 -12.5493 0.658002
-16.7165 -13.2719 0.335839
-12.2287 -12.5441 1.1868
-15.7577 -11.9308 -0.162462
-13.6855 -13.1136 1.79104
-14.3156 -12.2718 1.12687
-15.9346 -13.289 0.213719
-17.9962 -12.5819 -0.845341
-18.2387 -12.1711 -0.442755
-19.1113 -11.571 -0.0518924
-18.5707 -12.0436 -1.18958
-17.8469 -11.5728 -0.564728
-16.0411 -12.666 0.709921
-16.3348 -11.6479 0.503245
-15.8918 -11.897 0.681061
-17.406 -12.0746 -0.341004
-17.5241 -12.3993 1.03285
-13.6319 -12.7625 0.769154
-15.0429 -12.7592 0.16328
-14.741 -12.802 0.389686
-14.8688 -13.4857 0.38606
-14.0902 -13.0086 1.05514
-16.7666 -10.8865 -1.33478
-17.8082 -11.7177 -1.42126
-15.9093 -12.7422 -0.312666
-17.2398 -11.1468 -1.06843
-17.1204 -11.3942 -1.59246
-17.2647 -10.6471 -1.5162
-14.2933 -13.3902 0.799356
-14.5899 -13.5429 0.278479
-14.2424 -14.1042 0.817644
-14.9175 -12.813 -0.611367
-18.0934 -11.55 -0.894083
-16.1508 -12.5996 -1.40939
-15.5345 -12.2924 -0.775726
-16.1867 -12.0002 -0.224315
-15.9883 -12.0109 -0.95894
-15.7043 -12.6021 -0.856603
-15.8831 -12.4006 -1.52284
-15.9864 -12.6707 -1.10268
-14.4828 -13.3067 -0.840201
-15.2098 -13.3612 -1.31694
-18.2754 -11.1859 -1.68177
-17.8286 -10.6377 -1.78785
-17.4038 -11.5151 -1.38215
-15.9592 -12.8802 -1.32378
-14.828 -13.1303 -1.30369
-16.9488 -11.8787 -1.49948
-16.0873 -12.1882 0.508416
-14.5284 -13.2234 -0.214024
-14.3411 -13.5948 -0.418463
-17.4829 -11.5167 -1.60453
-17.3815 -11.1186 -1.05793
-15.2085 -12.3256 -0.935702
-13.4906 -13.544 -1.05143
-15.1724 -11.6102 -1.63012
-16.6621 -11.6066 -2.48319
-16.8961 -11.165 -1.73872
-17.0638 -12.2064 -1.64459
-18.0686 -11.4806 -2.4323
-16.015 -12.2298 -1.58039
-14.333 -12.2857 -2.16467
-15.2967 -12.5297 -1.73245
-16.8366 -11.0996 -3.27985
-16.5412 -11.9408 -3.47108
-16.5927 -11.6353 -2.23749
-16.2434 -11.76 -2.78683
-16.4274 -11.3035 -2.01736
-16.9277 -11.5546 -3.13655
-16.8081 -11.6517 -2.56988
-13.9598 -13.3517 -3.02298
-14.9819 -11.9051 -1.43499
-15.9162 -12.2575 -2.83377
-14.2616 -13.1975 -2.18125
-14.6279 -12.651 -2.0656
-14.3253 -12.1955 -2.78176
-13.7165 -14.2182 -3.66755
-12.8654 -12.871 -3.50815
-13.2424 -12.5618 -3.24699
-13.4302 -12.5647 -4.32083
-13.0081 -12.8256 -2.87212
-16.2459 -14.061 2.07562
-17.2164 -12.2147 1.62139
-17.116 -12.3249 0.299581
-17.9839 -12.6316 0.490121
-18.2623 -12.8584 0.934845
-17.2553 -12.7606 0.954071
-15.4026 -12.9565 0.90242
-17.0766 -12.5428 1.29581
-17.1024 -12.3973 0.0993748
-16.1409 -12.5835 0.422079
-17.3232 -11.9067 -0.317331
-16.5099 -12.4014 1.67891
-15.0321 -13.2831 -0.251661
-18.9411 -10.5651 0.187337
-18.8337 -10.8441 -0.0518712
-16.0642 -11.5027 -0.164342
-17.0961 -13.0701 -0.722399
-16.8136 -11.8574 -1.02328
-18.0041 -11.2948 -0.383404
-16.6985 -12.4648 -0.401069
-17.2839 -13.1539 0.295303
-17.41 -12.9237 -1.22094
-16.0133 -13.2216 0.251256
-17.9473 -11.2198 -1.19969
-19.0524 -11.7988 -1.8151
-14.3457 -13.4728 0.0618026
-14.883 -13.4954 -0.802588
-19.1948 -10.9544 -1.43187
-14.6867 -14.4505 -0.247042
-14.8502 -13.5298 0.0117043
-17.4542 -11.8092 -1.24568
-13.2173 -13.9687 0.327049
-18.5871 -10.4043 -1.68584
-15.0397 -12.266 -0.12037
-17.8338 -10.6198 -1.88121
-14.1126 -14.6698 0.0329479
-16.3959 -11.6065 -0.171302
-17.0024 -12.0943 -0.0830619
-16.1468 -11.9683 -1.23179
-14.2976 -13.6202 0.196026
-17.6504 -11.4794 -2.53464
-17.8696 -11.7248 -1.47999
-18.2148 -11.2015 -2.29992
-17.4287 -10.9365 -2.02993
-17.9123 -10.3659 -2.01915
-16.8689 -12.1575 -1.82133
-14.4776 -13.0799 -0.945982
-16.1448 -12.5799 -1.17791
-13.4293 -13.6427 -0.229272
-14.0816 -13.3028 -0.621287
-18.4904 -11.5953 -3.78745
-15.448 -11.5452 -1.39045
-18.0689 -11.7141 -2.16396
-17.3233 -11.6511 -2.898
-13.6131 -14.6557 0.193825
-17.7332 -11.8364 -2.89336
-13.1935 -12.8339 -1.45839
-13.9192 -14.6835 -1.16497
-15.4598 -12.3105 -1.3059
-15.0129 -12.9433 -1.76179
-13.3863 -12.1482 -2.138
-14.9908 -12.2348 -2.61832
-14.2818 -12.2021 -1.47904
-15.1716 -11.9606 -2.81717
-13.5021 -13.2586 -1.55733
-12.8034 -13.1786 -2.49997
-13.6331 -13.5307 -3.30222
-13.5845 -12.7331 -3.46228
-13.1908 -12.4619 -3.72513
-12.9558 -13.3095 -5.23251
-17.1168 -13.3425 1.68814
-17.2433 -13.7657 0.869822
-16.2984 -12.375 1.28114
-17.6995 -12.8029 0.677073
-18.0696 -11.9572 0.375349
-16.2136 -12.5105 0.04299
-14.5895 -13.066 0.0143002
-15.6519 -12.7356 0.0583345
-17.7423 -11.5213 -0.344776
-16.7896 -13.1349 0.905664
-14.4368 -11.7384 -0.184509
-17.5896 -11.168 -1.44662
-17.7811 -11.2587 -1.48389
-13.7744 -12.3352 0.00463676
-15.7044 -12.7831 -0.33368
-15.7279 -12.7485 -0.387325
-17.7927 -12.0971 -1.37165
-13.989 -13.4394 0.164752
-14.4007 -13.3643 -0.978948
-15.02 -12.9828 -0.750085
-15.5111 -12.8192 -1.35996
-14.5481 -13.329 -0.224516
-17.7699 -12.095 -1.74092
-18.2383 -11.5275 -2.50632
-13.7938 -13.4544 0.00314208
-17.0002 -11.4754 -1.82374
-15.4931 -12.2616 -1.24442
-14.6918 -12.7684 -1.486
-15.4696 -10.9484 -1.91942
-13.0174 -13.0104 -1.21394
-13.7376 -13.2153 -1.16191
-14.2851 -14.1093 0.191748
-13.7689 -12.6541 -1.96239
-13.3985 -13.0953 -1.97607
-14.4225 -12.0516 -1.94449
-15.7961 -12.3501 -3.45755
-16.6514 -11.7165 -3.49778
-15.7154 -11.2271 -2.37858
-15.5036 -11.0237 -2.21272
-14.2594 -12.492 -2.04099
-13.8413 -13.0251 -1.68682
-13.2714 -13.1201 -2.09093
-14.2521 -12.4066 -1.9091
-13.5199 -12.1615 -2.76459
-13.6302 -12.2235 -2.83904
-17.9657 -12.2074 1.09212
-16.1967 -12.0104 0.656325
-17.8659 -11.3514 0.71922
-19.2308 -12.0362 0.611382
-16.2084 -13.1289 0.90227
-17.408 -12.5677 -0.190863
-19.3298 -11.3464 -0.240059
-15.6457 -13.0931 -0.211445
-17.9858 -11.6224 -0.494392
-17.0065 -13.2256 0.291265
-17.1883 -12.1186 -0.879895
-14.6906 -13.502 -0.0821711
-16.9517 -12.2402 -0.594003
-17.8456 -11.0729 -1.56249
-17.5469 -10.7755 -2.25195
-15.2048 -13.468 -0.35271
-15.5735 -12.3571 -0.782829
-14.9281 -12.2737 0.357123
-13.8006 -13.2259 -0.616602
-14.7899 -12.4059 -1.26338
-14.1655 -12.3612 -0.402183
-15.0065 -12.7707 -0.949473
-14.699 -12.3674 -1.05319
-15.5753 -12.8809 -1.07435
-15.2811 -12.0581 -0.409689
-17.3937 -11.0837 -2.20552
-16.0791 -12.416 -0.42027
-14.8521 -12.7149 -0.681242
-15.5517 -13.1097 -1.39053
-13.1929 -14.6737 -0.653606
-14.2903 -13.3119 -0.902075
-16.8688 -12.8714 -1.97656
-16.3453 -11.7425 -2.46184
-14.1895 -13.9501 -1.17566
-13.9269 -13.1596 -1.81533
-14.0744 -13.7558 -1.60741
-14.503 -13.3939 -1.7916
-14.9274 -13.3645 -0.635142
-13.2316 -12.7227 -1.59407
-16.6216 -12.0193 -1.97747
-16.3336 -10.8747 -3.03246
-16.61 -11.2837 -2.14981
-16.329 -11.683 -2.33873
-14.0702 -12.7294 -2.16586
-13.9464 -11.1866 -2.62657
-14.1446 -12.4265 -2.62282
-13.484 -12.1655 -2.0096
-14.4049 -12.3773 -3.40227
-16.5517 -11.6012 0.144572
-12.9046 -12.3331 1.22347
-13.9994 -12.8736 1.30385
-16.0758 -12.7032 0.553444
-15.5806 -11.6674 0.287464
-14.9317 -12.3188 -1.36603
-15.8164 -11.6681 -1.15552
-13.461 -13.571 -0.378724
-13.5098 -14.0059 -1.1051
-14.5203 -13.4705 -1.87109
-14.2648 -13.5233 -2.13688
-15.1076 -12.2313 -2.19698
-18.1137 -11.8889 1.1154
-16.1412 -12.6483 0.352317
-15.4837 -12.9509 0.809661
-14.9232 -12.9566 0.0713912
-17.5788 -12.7978 -0.613577
-14.1872 -13.5992 0.307391
-13.5718 -13.3895 0.131977
-13.1753 -13.2145 -0.234431
-17.7977 -10.2048 -1.50031
-13.3271 -12.6656 0.0485461
-15.3302 -12.1128 -1.36693
-14.3349 -13.7262 -1.37096
-13.056 -12.8268 1.77207
-17.5572 -11.643 0.495107
-13.49 -14.4269 0.577862
-17.3024 -11.8504 -1.14832
-15.3145 -12.5187 -0.806363
-17.9429 -11.3355 -1.78014
-15.2248 -12.819 -1.97713
-13.5245 -12.6363 -1.99121
-15.0403 -12.42 -2.20832
-13.9284 -13.383 -0.58718
-15.7483 -12.9088 -2.38533
-12.9409 -13.8323 -1.28261
-14.6357 -13.4269 -1.58906
-12.9694 -12.3435 1.5067
-15.0098 -13.8718 0.509452
-14.6124 -12.9043 -2.16486
-13.5794 -13.902 -3.70499
-12.522 -12.7725 -3.08447
-13.6128 -13.149 -3.76154
-14.1139 -12.4066 -2.4116
-16.2491 -11.9211 -2.70424
-15.0618 -11.2763 -2.75659
-18.0765 -11.6799 -2.08299
-12.2586 -14.6114 -3.19586
-16.9272 -12.316 -2.21127
-17.1974 -11.8917 -2.44534
-14.5741 -12.1309 -2.11444
-18.0906 -11.1171 -2.01199
-18.244 -10.5863 -2.43681
-14.8451 -11.6228 -1.5467
-15.0794 -12.5818 -1.9704
-17.3492 -11.4552 -1.72367
-16.624 -11.8869 -2.30766
-18.3393 -11.4573 -1.89464
-16.397 -13.8693 -1.9292
-16.4792 -12.0259 -1.25693
-17.0965 -12.4522 -1.72114
-17.1462 -11.2476 -2.63973
-15.3052 -13.1824 -1.69008
-17.954 -11.9094 -0.272792
-16.008 -11.9731 -1.10228
-16.1023 -12.4728 -1.53578
-16.0113 -12.1511 -2.25647
-15.4382 -11.9257 -1.063
-16.3485 -13.1444 -0.744192
-15.8145 -11.6392 -0.748888
-16.1988 -11.9864 -0.445882
-16.1197 -12.0133 -0.222469
-14.7374 -12.8389 -0.298393
-17.389 -11.1 -0.0881753
-16.7792 -12.1366 -0.129604
-15.5146 -12.2025 -1.43916
-13.7332 -13.7942 -0.872949
-15.1732 -13.4661 -0.806813
-17.6696 -12.8477 -0.615537
-17.3477 -10.8714 0.0504944
-14.3217 -14.3147 -0.563696
-18.6785 -13.215 -0.447459
-17.8034 -12.067 -0.587861
-17.9675 -12.175 0.17875
-15.5769 -12.2181 -0.298593
-14.1284 -11.9832 -0.671795
-16.0249 -13.9257 -0.797188
-13.7474 -14.2007 -0.0151415
-15.7681 -13.8648 -0.00159248
-13.1979 -12.0215 -1.28118
-14.6807 -12.831 -0.53231
-13.8672 -13.0705 -0.387597
-14.5359 -14.6549 -1.09555
-14.6955 -13.318 -0.141713
-15.2806 -13.0024 0.224666
-17.7323 -11.6621 0.428682
-16.1903 -12.1232 0.243538
-17.9542 -13.2975 0.524701
-17.4128 -12.8597 0.420287
-17.284 -12.7039 -0.196565
-18.1902 -12.8335 0.268219
-17.1973 -13.2396 0.222346
-15.8353 -11.7255 -0.361105
-16.1957 -12.7399 0.678465
-13.9888 -13.2641 -0.280383
-15.0394 -13.0745 0.773089
-13.2564 -14.122 0.35094
-13.5718 -13.6805 -0.685974
-13.4572 -13.0332 -0.405334
-17.0675 -12.314 0.356302
-14.4599 -14.0901 0.875394
-15.6743 -13.2978 0.249804
-13.6356 -13.9863 -0.708511
-16.8576 -12.355 1.21409
-16.9031 -13.1006 0.50537
-14.732 -13.3158 0.0581532
-14.8568 -13.3297 0.315353
-16.5043 -13.5115 1.00243
-15.3969 -12.3515 0.936441
-15.9603 -12.928 1.93027
-14.9079 -13.3772 0.730854
-14.5822 -12.8995 1.52504
-17.065 -12.3148 1.506
-17.9253 -13.3756 1.27591
-17.0795 -12.2767 1.29133
-17.4157 -12.4787 0.743477
-18.0002 -12.7856 1.84312
-17.4665 -12.7032 1.44324
-17.0347 -12.3821 0.96223
-16.4328 -12.9172 0.884794
-17.2088 -12.7586 0.554955
-17.5313 -12.5114 0.375128
-16.093 -12.9057 1.66461
-16.0809 -12.8857 2.16706
-17.4935 -12.6026 2.19069
-17.5307 -13.12 1.86349
-13.6294 -12.1821 1.17472
-12.8644 -11.9935 1.87315
-13.3198 -13.4602 1.46991
-14.0056 -12.5325 1.73595
-13.4631 -11.982 1.87781
-13.9251 -13.3147 -3.58283
-16.0571 -10.6076 -2.33345
-16.0901 -11.3813 -2.24558
-13.4224 -13.9414 -3.88708
-14.7006 -11.9564 -2.71761
-14.0035 -11.7529 -2.74121
-12.4882 -13.2333 -4.30579
-17.1919 -11.7953 -2.92373
-14.1526 -11.8388 -2.24137
-18.2996 -11.0172 -0.969403
-17.1753 -11.7268 -2.03051
-18.4172 -12.0044 -1.99213
-16.2515 -11.3056 -2.38082
-15.4474 -11.4405 -1.67123
-17.0312 -11.0208 -1.23883
-16.6536 -11.8337 -2.06103
-15.8274 -12.1848 -1.66185
-16.3366 -13.0281 -1.07311
-16.7863 -13.3526 -1.00268
-17.9552 -11.8482 -0.780581
-15.989 -12.2794 -0.31293
-13.919 -13.5769 -2.51027
-17.9423 -12.8293 -0.744592
-18.6795 -12.2468 -0.575533
-15.196 -12.2045 -0.486301
-17.9572 -12.718 -0.338662
-17.9661 -11.9354 0.277505
-15.233 -12.6914 -0.758315
-14.4375 -12.4257 -1.0005
-15.7397 -12.767 0.468726
-13.7383 -13.1197 -0.246559
-14.709 -13.5921 -0.779112
-15.7775 -12.9976 0.068271
-15.2151 -13.0231 -0.638221
-14.7053 -13.2919 -0.287993
-15.2313 -12.8742 0.453314
-17.9209 -12.1449 0.218086
-16.9313 -13.3218 1.27845
-17.8349 -13.5198 0.286569
-14.9612 -12.5183 0.501824
-17.643 -12.6341 0.184761
-15.248 -12.7033 0.0404015
-17.1282 -12.5527 2.37715
-14.1743 -12.3582 -0.31524
-13.5152 -12.8207 -0.289292
-17.0696 -12.8025 0.764264
-17.3745 -11.5106 0.421601
-15.1945 -13.2034 -0.256035
-16.7858 -13.1296 0.754549
-17.6481 -12.9707 1.72824
-17.1077 -12.8811 1.46439
-16.6215 -12.4031 0.545738
-17.7679 -12.5792 2.37384
-17.162 -12.6025 0.720997
-17.5647 -12.9608 1.93909
-13.5346 -12.41 1.41253
-13.4186 -11.6675 2.02405
-13.3636 -12.5364 -3.56179
-14.8647 -12.0593 -3.5629
-13.4045 -12.4651 -3.18017
-12.2494 -13.6503 -3.82343
-13.6059 -12.7977 -2.222
-18.2711 -12.486 -1.06507
-14.7518 -12.4996 -2.19833
-14.7887 -11.9772 -2.75259
-14.7385 -11.993 -1.56033
-16.4556 -11.9195 -1.32399
-16.3399 -12.0019 -1.10199
-15.205 -13.2602 0.207379
-15.0647 -12.4486 -0.567798
-13.9068 -13.4629 -1.03848
-14.714 -12.6957 -0.0641362
-16.7247 -12.4498 -0.776858
-13.5083 -13.7295 -0.532641
-17.8347 -12.6317 1.10121
-16.9911 -13.5918 -0.304562
-15.72 -12.5538 0.574738
-14.5446 -13.8667 0.198892
-18.2414 -12.5232 0.827797
-17.3494 -12.4708 1.034
-15.1298 -13.0104 0.623993
-15.7093 -11.887 1.11628
-13.7614 -13.8139 0.661174
-17.0059 -13.0288 0.621715
-17.0104 -13.3034 0.8375
-18.2927 -12.07 2.53183
-18.0178 -13.2895 1.1927
-13.706 -12.6344 1.84848
-13.6106 -12.5411 1.77254
-13.6838 -11.9779 1.05788
-14.2489 -12.3507 1.58405
-15.7634 -12.6564 2.32367
-13.0227 -13.0155 -3.74814
-18.4986 -10.9104 -1.88134
-16.5862 -11.2338 -2.12517
-14.5058 -11.8964 -2.32218
-16.1473 -12.2068 -1.47841
-16.4843 -12.5617 -1.1582
-15.0572 -12.3157 -0.950321
-15.5077 -11.2414 0.176065
-16.477 -11.9229 -0.488851
-14.937 -13.0258 -0.213767
-18.4208 -13.0039 -1.09148
-16.707 -12.4664 -0.103123
-12.7274 -13.4661 -0.852918
-14.3759 -13.2008 -0.318067
-17.4868 -13.2413 0.780004
-17.5714 -12.4414 1.49752
-17.6847 -12.3708 1.71081
-13.7155 -12.5315 1.90997
-17.2847 -11.5714 -1.95426
-17.8186 -11.3774 -1.11033
-16.7487 -11.582 -2.12674
-16.3851 -11.8255 -2.49928
-17.8082 -11.0778 -1.7206
-15.5481 -12.3989 -2.00489
-13.3658 -12.9742 -0.99902
-16.3568 -11.3643 -0.615179
-15.7091 -13.51 -1.16468
-13.5995 -13.582 -0.371971
-14.8675 -13.8516 0.704511
-17.2631 -13.1858 0.564065
-17.7152 -12.6502 0.746736
-14.947 -12.6317 -3.58465
-13.4892 -12.9194 -4.22223
-14.8055 -12.0031 -1.33438
-14.8488 -11.6474 -1.62937
-15.3775 -12.4158 -1.40318
-13.7901 -13.3806 -2.03278
-16.8233 -11.4431 -1.12896
-15.6104 -13.7262 -0.0838325
-16.4161 -12.8536 -0.492607
-13.3335 -13.8709 -0.436846
-16.8851 -12.6969 -0.00100366
-16.023 -11.753 -0.300922
-17.2471 -12.9382 0.947145
-14.5834 -12.4642 -1.74087
-16.6559 -12.5572 0.520945
-13.7943 -12.3359 -0.456141
-14.5552 -11.6088 -2.48752
-14.4562 -12.7824 -0.0687
-17.1728 -13.1636 0.842752
-13.6829 -12.6807 0.839568
-14.2328 -13.0666 1.1606
-13.593 -12.592 -0.934919
-15.2805 -12.6186 -1.79346
-16.9882 -13.2128 1.70625
-15.0699 -12.4357 -2.17627
-13.8037 -13.2548 -1.40417
-14.3756 -13.1233 -0.538954
-18.5106 -11.5968 -1.13776
-17.4869 -10.7217 -1.55496
-17.5696 -10.7605 -1.89027
-17.2063 -11.5291 -1.94462
-17.8157 -12.0339 -1.56388
-17.5316 -11.1293 -1.82939
-16.1906 -11.3063 -1.88335
-16.7133 -11.052 -1.05083
-18.4504 -11.5436 -0.176753
-18.2121 -11.9167 -0.258898
-17.3486 -10.9295 -0.308109
-17.5589 -12.5247 0.111743
-17.7806 -12.0909 -1.567
-16.8037 -12.3158 -1.40459
-13.74 -12.8158 -5.08399
-18.5226 -11.9136 0.239876
-18.3099 -12.6907 -0.787252
-13.5748 -13.0566 -3.96235
-15.9735 -12.7314 -2.41148
-16.0536 -12.4473 -1.26678
-16.4318 -12.4957 -1.82949
-15.618 -12.5564 -1.01729
-16.4698 -12.5121 -0.684239
-14.1185 -12.4244 -2.10403
-14.6495 -12.3381 -2.70176
-15.5498 -12.8651 -1.22651
-15.4225 -12.3206 -0.211892
-17.2003 -11.9421 -0.569905
-17.4493 -11.1397 -0.453354
-17.1628 -11.4771 0.711824
-16.76 -13.0087 -1.52368
-17.5631 -12.1652 0.438967
-17.9206 -12.3663 1.16214
-13.9555 -12.9941 -1.78559
-16.6295 -13.2097 0.532926
-17.5976 -12.1472 1.38243
-17.2738 -12.1617 0.719347
-16.9388 -12.6545 -0.135687
-15.4325 -12.8244 -1.47874
-15.3148 -13.1735 -0.417306
-17.9133 -13.0153 2.88779
-17.858 -12.2216 1.18121
-18.1395 -12.1215 1.62498
-15.0516 -13.7697 -0.016934
-17.3203 -12.6182 0.317871
-14.5182 -13.1218 -1.99974
-17.291 -12.3945 1.30517
-15.2084 -12.4179 0.969542
-17.6085 -12.922 1.44891
-14.0495 -12.5944 -1.06951
-13.8982 -12.7748 -0.438737
-18.7227 -12.2275 3.1531
-14.1609 -13.2312 -0.242199
-14.9563 -12.6137 1.29576
-15.4274 -11.854 1.35577
-16.4127 -13.4277 1.37465
-15.338 -12.7198 0.511944
-14.2907 -12.6319 -0.85135
-14.1332 -14.009 0.07576
-13.7824 -13.5061 -0.814735
-16.5396 -12.167 1.12658
-13.6295 -13.3803 -0.276794
-14.8441 -13.0764 0.0782968
-14.3559 -12.8247 -0.244527
-13.7045 -13.1624 -0.0958523
-13.6244 -11.8721 1.04038
-14.1855 -12.0841 2.0825
-13.7712 -11.3108 2.05631
-12.6879 -11.6995 1.28875
-16.4809 -11.2214 -2.23158
-15.3463 -11.7313 -3.36937
-17.5786 -11.979 -1.39038
-16.722 -11.8202 -1.97656
-17.7954 -11.9891 -0.263075
-14.9559 -12.1569 -1.29151
-14.8334 -12.3606 -2.94962
-13.5035 -13.4818 -3.52127
-14.8157 -12.51 -2.09146
-17.7148 -11.4509 0.482728
-17.1466 -10.9225 -0.219345
-13.9251 -12.9288 -2.35045
-13.857 -13.6859 -2.20969
-12.8766 -12.8826 -4.0166
-14.9267 -12.5034 -1.92989
-14.1708 -12.1016 -2.23607
-15.4639 -12.6621 -0.704861
-14.8392 -13.3755 -2.18911
-13.7913 -12.0164 -2.34254
-18.9098 -13.0417 -0.248901
-17.5406 -11.7289 0.0767035
-17.6821 -12.672 0.48484
-12.8058 -12.608 -2.81547
-14.3535 -11.8884 -1.97586
-15.4343 -12.354 -0.307741
-17.6549 -13.6766 0.311474
-17.3357 -12.6175 0.0509762
-16.351 -12.5559 0.944777
-17.603 -12.7636 1.15825
-18.1846 -13.3554 0.588062
-18.3803 -12.2573 1.3642
-18.4598 -12.2505 1.85226
-14.8504 -13.0108 -1.41517
-14.1511 -12.426 -0.714444
-17.251 -13.2921 1.8342
-15.1008 -11.6832 0.317539
-13.4314 -13.324 -2.05555
-15.5722 -13.7901 -0.780616
-15.3595 -13.0174 -0.510207
-15.1749 -13.2108 -1.16489
-13.777 -13.0453 0.292943
-14.0369 -14.0531 -1.20746
-16.1499 -12.8209 1.96224
-13.812 -13.9496 -0.677624
-14.7771 -13.1958 -0.257855
-15.9785 -12.6376 1.82498
-13.8929 -13.0141 0.307683
-13.5035 -12.7715 1.11296
-13.2667 -13.7896 0.174341
-18.1152 -10.9657 -1.36101
-18.5737 -12.0327 -2.6837
-15.9479 -11.1136 -2.82569
-17.1718 -11.3489 -1.30323
-18.4981 -11.2232 -0.705114
-16.7389 -12.7486 -1.68012
-14.7224 -10.9326 -1.92043
-16.9634 -12.3357 -1.66741
-13.6773 -11.9495 -2.96631
-14.7825 -12.2234 -2.5807
-13.8162 -12.1745 -1.65043
-13.0752 -14.3969 -3.07331
-13.8511 -11.579 -1.16874
-15.6594 -12.1152 -0.402771
-14.6899 -12.0481 -1.19889
-14.2741 -11.8025 -1.60262
-17.5741 -12.7999 -0.174087
-16.9518 -12.184 -0.0146821
-14.1545 -12.2863 -0.811333
-16.8083 -12.0816 0.849551
-15.8408 -12.5356 -1.06998
-14.6291 -12.724 -1.76979
-16.3008 -12.7065 -0.250716
-19.3302 -12.0593 1.40047
-17.5516 -12.5801 2.01641
-16.7877 -12.6785 1.03559
-14.0079 -12.3604 -2.11845
-13.7317 -12.9161 -1.5264
-15.5453 -12.5765 0.697473
-17.0325 -12.9741 2.08611
-14.3977 -11.8544 -0.288703
-17.1263 -12.6267 0.261706
-14.4294 -12.857 -1.81261
-14.2212 -13.3213 -0.923133
-17.4895 -13.3697 1.25949
-15.0629 -12.8266 0.249207
-14.3671 -13.5928 -0.0288297
-13.8172 -13.6906 -1.32864
-16.0726 -12.015 -2.145
-16.707 -11.8723 -2.16259
-14.9251 -11.9222 -1.55421
-15.496 -11.1941 -1.64157
-14.5145 -11.479 -2.07843
-14.8709 -11.127 -2.90213
-14.209 -11.3215 -1.89613
-13.9658 -12.234 -2.50598
-16.9249 -12.3927 -0.280768
-17.8942 -12.4683 0.238224
-14.4606 -12.5936 0.0440386
-14.1059 -13.4501 -1.67143
-14.804 -12.5905 -1.86345
-15.5544 -13.9483 0.0486513
-14.506 -13.5477 -0.807555
-14.3203 -13.2717 -0.694835
-13.9117 -13.5999 -1.39589
-13.7491 -13.5847 -0.186121
-13.6372 -13.5617 -0.120203
-13.5654 -13.9391 -1.07914
-15.3168 -11.9003 -2.53068
-17.738 -11.6336 -2.19275
-13.7988 -12.38 -1.63391
-16.626 -13.2902 -0.786833
-17.7123 -12.0028 0.972365
-15.5538 -13.3948 -0.985938
-15.3582 -12.9322 1.05654
-15.1295 -13.1746 0.113785
-14.7286 -13.005 -1.63733
-15.9279 -12.5131 0.551179
-13.0589 -13.7519 -1.23548
-17.0015 -10.8176 -2.88065
-15.2987 -12.3668 -2.11535
-16.5779 -12.7217 -0.0712476
-15.6668 -11.4721 -1.64668
-14.3989 -13.4921 -2.15799
-15.0971 -13.5656 -2.01932
-14.1234 -13.0579 -1.4055
-15.5988 -12.4709 0.17534
-14.392 -13.5503 0.144828
-13.519 -12.2757 1.95613
-12.4511 -14.3665 -1.00619
-14.9255 -13.7641 -0.455236
-14.8564 -12.914 -1.99872
-16.751 -12.0407 0.0188354
-15.3247 -11.8115 -1.71204
-16.6186 -11.823 -0.102819
-14.5427 -12.6844 -1.03746
-15.2279 -12.0411 -1.13841
-17.7899 -11.743 -1.88998
-17.5358 -10.7702 -0.299596
-17.0851 -12.3399 -0.544991
-16.4017 -11.5274 -2.92014
-17.242 -12.6084 -2.14017
-16.8186 -12.6866 -2.77747
-17.2171 -12.5944 1.44642
-17.2725 -12.2943 0.0291485
-17.9096 -11 0.157049
-16.4883 -11.6926 -0.841014
-16.6677 -12.476 -1.83032
-16.6287 -13.4441 -1.78808
-15.9374 -12.6965 -3.0044
-16.6502 -13.2072 0.712267
-14.8638 -12.0035 -3.33687
-17.2159 -12.0015 1.24002
-14.5014 -12.4652 -1.44653
-15.0466 -12.8116 0.0676386
-15.4868 -12.3306 -1.09825
-14.2179 -11.8493 -1.48502
-15.8094 -12.0929 -1.7385
-15.5726 -12.815 -0.358822
-15.5922 -13.056 -1.5284
-14.948 -13.6452 -0.811921
-14.2985 -12.4662 -0.496034
-12.8528 -14.1248 -3.41588
-14.3018 -12.5218 0.166234
-13.7876 -13.5644 -2.01304
-13.8196 -12.4371 -1.22617
-13.9433 -14.0081 -0.592399
-12.6458 -14.1772 -0.59114
-17.4419 -11.4734 -1.41448
-18.3843 -11.5502 0.207633
-16.3754 -12.1794 -1.87128
-18.5763 -12.8092 0.770451
-17.6247 -14.0337 0.608627
-17.5818 -12.8047 0.369596
-16.0821 -12.0546 -0.83661
-16.8557 -11.9946 1.32279
-16.6542 -12.1597 0.366004
-17.0404 -13.3717 1.08262
-15.3222 -13.0505 -1.0161
-13.3539 -12.1939 -2.53883
-15.4424 -13.0943 0.988661
-16.2253 -12.9447 0.742131
-14.2365 -13.4652 -0.207157
-13.4499 -12.3572 1.71865
-15.1253 -13.717 -0.13145
-13.6679 -12.731 -3.99525
-14.4509 -12.1117 -1.1623
-13.521 -12.9024 -3.22084
-13.2401 -13.7597 -0.755694
-13.6662 -13.1517 -0.255068
-17.761 -11.1607 -1.27443
-16.9828 -12.5701 -3.4047
-17.1914 -11.7126 -1.76151
-17.5137 -11.5598 0.631787
-19.0781 -12.037 1.42833
-15.497 -12.057 -1.14495
-18.0499 -12.2275 0.942293
-16.3907 -12.3894 -2.29108
-17.5531 -12.5459 0.116127
-16.557 -12.1197 2.52491
-14.6065 -12.0291 -1.80832
-17.3694 -13.4647 2.20973
-14.9823 -12.9905 -1.26148
-14.7849 -12.9111 0.0750837
-12.9168 -13.0468 -3.85139
-14.1363 -13.6662 -2.30249
-13.7748 -13.4566 -0.610799
-13.6249 -13.6883 -1.59375
-13.3226 -14.7094 -0.647664
-14.8437 -11.5355 -3.93096
-16.3491 -12.9475 -0.524375
-15.3193 -11.426 -2.96254
-14.8409 -11.9744 -2.00085
-17.5083 -12.8242 0.0634239
-14.881 -12.5117 -1.9045
-14.4446 -12.5713 -2.02523
-15.1994 -12.8623 -0.782128
-14.5829 -12.8605 -0.110364
-14.5953 -13.0579 -1.03742
-15.5059 -12.4688 0.104482
-14.0979 -12.2767 -3.531
-15.7193 -11.9238 -1.98359
-16.9783 -11.468 -0.964798
-14.7444 -12.5469 -2.46295
-15.0674 -12.4826 -1.71529
-15.9407 -12.7452 0.424777
-14.2394 -13.0983 -1.51009
-14.8356 -12.7308 -0.500956
-16.1659 -12.6203 0.0566875
-17.1774 -13.6392 0.854977
-12.8241 -13.0274 -1.81047
-17.4 -12.6131 0.594959
-17.2416 -11.9938 1.22994
-13.9923 -12.502 -0.789271
-13.102 -14.013 -1.63892
-15.284 -13.3024 -2.28858
-13.4841 -12.947 -2.35134
-14.3545 -12.9337 -1.51887
-13.4194 -13.5705 -2.46015
-17.9572 -11.5678 -1.49815
-18.3511 -11.9996 -1.57709
-17.9357 -12.4551 0.998289
-17.747 -11.7818 -0.062617
-17.2335 -11.7616 -1.56523
-16.388 -12.5134 -1.13508
-16.6881 -11.5613 -2.77637
-15.4721 -11.8747 -0.566605
-15.2402 -13.1113 -0.267617
-14.727 -11.8529 -1.55151
-14.0847 -11.5601 1.03586
-13.662 -12.1818 -3.9459
-15.2457 -13.2176 0.104107
-13.6256 -13.792 -1.83659
-13.382 -13.5143 -0.362886
-14.1635 -13.7554 -0.975339
-18.5032 -10.503 -2.42121
-17.9453 -12.235 0.775622
-17.8343 -11.6925 -1.18115
-16.6628 -12.6851 0.0759862
-16.6528 -12.2395 1.08058
-16.8725 -12.1418 -0.713282
-17.271 -12.1412 -0.316918
-16.2263 -12.806 0.538484
-14.6372 -11.7882 -2.07852
-14.9541 -12.8592 -1.49605
-14.6231 -11.5905 -1.38554
-15.3868 -13.3785 0.0915658
-15.1069 -13.2615 -1.99614
-15.1564 -12.5797 -1.49293
-13.7067 -13.0832 -2.51889
-14.6066 -13.2785 -0.166844
-14.6518 -13.3219 -2.01563
-13.4563 -12.6891 -3.26085
-13.9764 -14.5371 0.0835228
-14.4093 -13.1388 -0.511038
-14.0329 -14.1081 -0.862603
-13.8531 -13.0012 -3.25298
-12.7463 -12.8233 -4.01821
-17.9096 -11.5719 -1.55951
-17.1947 -12.1694 -0.796847
-18.0573 -11.8324 -1.66016
-16.801 -11.6709 -1.83094
-17.7264 -12.8676 0.999147
-16.1392 -12.3933 0.672987
-16.4075 -12.5519 1.22739
-15.245 -12.5663 -0.188463
-14.4297 -12.8019 -1.85935
-14.7431 -13.6176 -1.04953
-13.3984 -12.9437 -1.92199
-17.8527 -12.0194 -0.72484
-17.919 -11.7313 -1.53387
-17.4871 -13.109 -1.04734
-16.8639 -12.3947 -0.70279
-16.2539 -11.6182 -1.08924
-14.4693 -11.5865 -1.79697
-15.1564 -13.292 -0.367084
-15.2342 -12.0621 0.465313
-13.7672 -13.3016 -1.86424
-14.5425 -13.656 -0.641532
-14.3441 -12.8565 -1.54555
-13.903 -14.014 -1.64038
-18.4549 -11.0241 -1.18123
-17.6273 -12.542 -0.209962
-16.7255 -12.9843 1.15532
-16.4619 -11.4001 0.027842
-15.9747 -12.3991 1.26379
-15.2349 -12.5643 -0.752365
-14.5931 -13.4311 -0.144639
-13.0945 -13.6114 0.520059
-13.118 -11.9182 -2.50319
-15.9168 -11.4461 -1.93286
-15.828 -12.4297 -1.36116
-14.3101 -11.9437 -1.87535
-13.4951 -12.1893 -1.79219
-13.9674 -13.7011 -1.44455
-11.966 -13.4786 -2.15684
-14.8923 -12.3792 -2.49177
-15.5087 -12.586 0.845543
-15.4662 -13.301 -1.1681
-13.4651 -13.3889 -1.35288
-12.4416 -14.4131 -1.47726
-13.1963 -12.2888 -1.50119
-14.3157 -13.6506 -1.22906
-13.9552 -11.9339 1.28641
-17.812 -11.7679 0.38239
-17.6753 -13.0256 0.904376
-17.5178 -11.1992 -0.968394
-17.3324 -11.5893 -0.644213
-17.5335 -10.6346 -1.04164
-18.2392 -11.0561 -1.17979
-17.3191 -11.8626 -1.7913
-15.8424 -12.7778 0.886442
-18.0075 -11.0715 -1.25453
-14.0021 -11.8915 2.15435
-15.0473 -12.7728 0.773725
-17.3942 -11.8049 -0.390502
-13.5663 -12.3194 2.0357
-16.6128 -12.927 -1.18391
-17.0432 -11.9856 -2.43351
-14.8669 -13.3002 -0.383331
-14.3423 -12.9624 -0.238361
-12.5879 -12.2377 1.36968
-14.9735 -13.1252 0.358483
-14.2163 -12.9924 -1.34383
-14.2552 -12.5085 -1.1188
-13.8064 -14.4254 -1.27523
-13.9413 -13.052 -1.70961
-13.7447 -13.1291 -0.232002
-13.8661 -11.8628 -3.23155
-13.8802 -13.8998 -0.896813
-13.9382 -13.1058 -2.12034
-13.0037 -13.3602 -2.56711
-13.0269 -13.2229 -4.0443
-14.0521 -12.5877 -3.91456
-18.4347 -10.8252 -0.364103
-17.6175 -11.8553 -0.632305
-15.9005 -13.1446 0.509484
-16.9767 -11.7335 -1.84814
-17.0446 -11.538 -0.598647
-17.052 -11.6515 -1.38307
-17.5037 -12.2878 -0.323317
-17.2804 -11.1878 -2.25326
-16.5809 -12.0124 -0.240907
-17.7672 -12.5758 -2.03934
-16.1919 -11.585 -0.173155
-17.4989 -11.8732 -1.69436
-13.4009 -11.8525 2.19993
-15.8254 -12.3839 -1.25553
-16.1485 -11.9767 0.0103311
-13.4067 -12.7591 2.16254
-15.5806 -12.5105 0.192648
-14.0126 -13.0498 -0.261324
-14.7557 -12.9937 -0.990042
-14.5546 -12.8136 -0.229223
-13.9974 -13.1974 -0.590879
-14.398 -13.1405 -0.648416
-13.9605 -13.5117 -0.678843
-13.6871 -12.6141 -0.821194
-13.5469 -14.3455 -0.25447
-14.5407 -12.6561 -1.05189
-14.0536 -13.1931 -2.2499
-13.0438 -13.2627 -0.664167
-13.6558 -12.2634 -1.93778
-13.7591 -12.6607 -2.29904
-13.7081 -12.4571 -2.32302
-13.0578 -14.0351 -2.3301
-13.5971 -14.0332 -1.70295
-13.7846 -14.5912 -1.23569
-13.8936 -12.5672 -3.37114
-12.5682 -12.8288 -3.26478
-13.032 -12.4059 -3.61171
-12.6982 -12.7617 -4.07634
-17.8533 -12.151 0.562509
-17.8278 -13.2017 0.57763
-17.9103 -12.4086 0.239476
-17.6986 -11.7258 0.126291
-17.374 -12.2558 -1.45883
-18.1757 -11.1656 -2.42788
-17.739 -10.7771 -0.771377
-18.1395 -11.1657 -1.33727
-17.0595 -11.8698 -1.30042
-14.7664 -12.2802 0.403679
-16.2582 -12.0802 -1.68575
-16.0866 -12.2827 -1.22897
-16.0494 -11.4491 -2.3451
-16.0628 -12.0495 -2.08603
-14.5481 -12.8745 -0.5718
-14.6485 -13.2833 -0.0640223
-14.789 -13.4807 -1.63416
-14.422 -12.048 -0.0943143
-15.5582 -13.1727 -0.435763
-13.6303 -12.7901 -0.693789
-13.9737 -13.4894 -1.05131
-14.1121 -12.8618 -1.01273
-13.1395 -12.9946 -0.983071
-14.8342 -13.6524 -1.40562
-12.6699 -12.8272 -2.12025
-12.9604 -13.7305 -2.0077
-12.9387 -12.9502 -2.84687
-13.7223 -12.6214 -3.85585
-12.7081 -12.9742 -3.95459
-17.5184 -12.8929 0.289433
-18.552 -11.0566 0.10151
-17.5344 -11.6967 0.115407
-18.053 -12.218 -0.0980631
-18.0065 -10.8059 -2.0289
-16.1977 -11.9636 0.235505
-14.7708 -12.5672 1.57072
-15.1946 -13.3614 -0.0312919
-16.2345 -12.6648 1.08825
-16.5642 -12.82 0.388103
-16.0841 -11.382 -2.05222
-17.1077 -11.6215 -2.21335
-17.4708 -12.0662 -2.9215
-14.8792 -12.6188 -1.92377
-14.2243 -13.8367 -1.50198
-14.4809 -13.0907 -1.41962
-13.3603 -13.26 -0.111411
-13.5048 -13.0715 -1.98912
-12.8203 -13.4353 -3.763
-18.3749 -11.2856 -1.5584
-18.1686 -11.3008 -0.46575
-18.1152 -10.6294 -1.93963
-15.4092 -12.8918 0.833935
