-14.0125 -13.4481 0.101888
-12.3587 -14.2365 0.832527
-12.1372 -14.624 1.70879
-14.7958 -13.4296 -3.40844
-12.9006 -13.5099 -1.66548
-12.301 -13.8426 -2.16232
-15.6982 -13.3888 -1.65131
-11.8574 -15.5193 -3.28331
-14.6686 -13.3724 -0.982932
-13.728 -13.4233 0.0509568
-11.1825 -14.5427 -1.0452
-16.1481 -13.3582 1.05196
-16.2893 -14.2215 0.979911
-15.873 -13.4248 0.556651
-15.9945 -13.4353 0.151942
-12.9817 -13.7629 0.288016
-13.9575 -13.5913 0.661368
-15.5743 -12.5732 -2.13222
-12.4475 -14.2913 -1.6154
-15.6244 -13.9756 0.461147
-15.9974 -12.8462 0.782253
-12.5073 -14.4339 -0.452869
-13.1754 -14.037 0.690669
-12.9087 -14.3073 0.717489
-13.4522 -12.9576 -1.84633
-15.1301 -13.5518 0.601143
-13.1507 -14.026 1.1601
-13.9084 -13.551 -2.31589
-14.2637 -14.2442 -0.18441
-14.5397 -13.399 -0.425312
-12.0313 -12.6345 2.10024
-12.6711 -14.2579 -1.5794
-12.8829 -13.7564 -0.82864
-13.9586 -13.7406 -2.0721
-12.6286 -13.8952 -1.34868
-12.9059 -14.4549 -0.206976
-12.6837 -14.3802 -2.06841
-15.7699 -12.7209 -0.862959
-16.3235 -12.679 -2.35828
-16.7076 -12.2783 -1.74052
-15.418 -13.4199 -0.823666
-11.9847 -13.8817 -2.29518
-16.0028 -12.481 -1.0276
-11.723 -13.7467 -1.80399
-15.6622 -14.2552 -0.151933
-15.3486 -13.1723 -1.55886
-12.8232 -12.717 -1.48969
-13.1207 -13.4337 -1.13693
-12.2887 -15.214 -3.05668
-13.0318 -14.2725 -1.18375
-12.7395 -13.8906 -1.8464
-12.4929 -14.3582 -1.7132
-15.4018 -12.2802 1.15427
-12.4817 -14.2147 -1.49297
-13.0124 -13.4299 -1.56813
-13.9003 -14.6534 -1.32789
-13.2742 -13.3958 -0.290997
-12.0036 -15.1764 -2.94272
-15.4727 -14.3965 0.732555
-11.9536 -15.022 -2.89824
-12.9094 -14.28 -1.51255
-13.2692 -14.4146 -0.0350754
-11.9477 -15.5399 -2.7794
-13.8783 -14.2274 -0.454589
-13.468 -14.6133 -0.111817
-14.8497 -14.3449 -0.292382
-12.9141 -14.058 -1.13755
-13.4044 -13.1356 0.548399
-12.7349 -15.2256 -0.54485
-14.1759 -13.9748 0.619382
-13.0867 -15.2951 0.0941339
-12.5265 -14.6023 1.11217
-13.6087 -14.5909 -0.253392
-12.5059 -15.7609 0.162306
-11.2196 -15.763 -0.177596
-12.2836 -13.825 1.56618
-12.74 -14.7892 -2.31001
-14.1452 -13.4841 -1.46289
-13.1353 -13.322 -1.37791
-13.4229 -13.3475 -1.21076
-13.5597 -14.172 -2.39138
-16.6685 -12.7128 0.983261
-17.0842 -13.5972 0.640318
-12.4757 -14.5263 -2.78684
-13.3059 -13.74 -0.0280469
-15.3598 -13.2341 1.8754
-15.0095 -13.0827 1.29322
-11.9944 -14.6892 -3.00928
-11.9408 -15.1767 -2.82365
-13.4884 -14.4762 0.851919
-13.2794 -14.0298 -0.634653
-13.9289 -14.0025 1.09645
-13.0312 -14.1546 -0.556193
-12.3873 -15.0519 -1.04633
-12.3205 -14.7907 -1.39703
-12.6625 -15.1989 0.147358
-12.6026 -15.8725 -0.455821
-12.271 -14.5033 -0.882282
-12.2198 -12.9197 -2.58992
-13.9979 -13.4153 -1.25565
-13.6356 -12.3845 -1.64352
-15.5816 -12.8908 0.500174
-16.2853 -12.3208 0.740178
-11.7616 -15.1287 -2.98677
-16.539 -13.2986 0.582185
-15.0552 -14.0521 1.24873
-16.7221 -13.1799 0.94247
-14.4948 -13.3553 0.824785
-14.3153 -13.4908 1.66018
-13.9667 -14.0353 -0.423424
-13.3623 -14.388 0.305412
-13.6591 -13.6425 -0.372052
-13.6228 -13.0762 2.07737
-12.1687 -14.7448 -2.61346
-13.2679 -15.3037 -1.16743
-13.5147 -13.7449 1.31248
-13.3863 -13.3538 -2.16308
-14.2749 -13.1588 -1.44898
-13.2055 -13.7898 -0.928775
-12.8362 -14.0516 0.658989
-14.1267 -15.4049 0.364745
-13.3145 -13.7369 0.651275
-12.9251 -14.4607 -0.635883
-13.2534 -14.7643 0.0747449
-12.7639 -16.2511 0.0714064
-13.2387 -13.849 -2.8411
-13.6609 -13.2613 -0.174379
-13.2358 -13.778 -1.60984
-15.948 -12.8621 0.91861
-12.8546 -14.4323 -2.06675
-14.774 -13.6903 -0.46195
-12.3928 -14.9089 -0.675719
-12.27 -14.5329 0.744382
-12.5915 -13.564 -1.97463
-13.046 -14.1273 -1.34539
-14.6473 -13.3376 -0.0242863
-12.9334 -14.5518 -0.0613964
-13.2892 -14.4044 -1.14886
-14.2699 -14.1737 -0.0646011
-16.7372 -12.202 -0.0654226
-15.9142 -13.251 1.60409
-13.6371 -13.0442 -2.19654
-17.2866 -13.2473 2.22985
-13.8891 -12.897 1.19754
-13.8621 -14.8705 -1.81286
-14.3491 -13.3613 -0.254062
-12.8638 -14.4026 -1.02132
-13.1967 -13.7367 -2.12623
-13.4445 -13.5373 0.0575465
-12.9846 -14.5377 -0.912541
-12.7954 -14.5753 -0.36932
-14.5461 -15.1884 0.0582679
-14.1355 -13.5201 0.23286
-13.5848 -14.6788 -1.14086
-12.6765 -14.3312 -1.19573
-12.7041 -15.3396 -2.35489
-12.0806 -15.2022 1.30958
-16.0549 -11.434 -1.37264
-15.7776 -12.5878 -1.73776
-16.3921 -13.1447 0.0494064
-16.7472 -13.2695 1.16636
-13.5472 -13.2496 -1.69871
-12.5701 -14.0851 -2.22501
-15.2135 -13.138 1.20634
-12.8497 -13.4884 -0.857999
-11.843 -13.8407 -2.67076
-11.5115 -14.0386 2.55126
-12.4331 -14.4979 -0.305028
-11.011 -15.4739 -2.97412
-12.9881 -14.5681 1.16371
-12.303 -15.3857 -0.306672
-13.2843 -14.2153 0.577274
-11.7708 -15.0198 -0.91796
-16.7162 -12.9234 0.417966
-14.1338 -13.1175 -1.01684
-13.4659 -13.2973 0.749181
-14.2098 -14.9083 0.822218
-13.4471 -15.0358 0.525966
-13.4528 -15.0583 0.38724
-13.0034 -14.8102 -3.45544
-13.4268 -13.3987 -0.694513
-11.9774 -15.4631 -2.19236
-13.0947 -13.9875 -0.633247
-12.6928 -14.9668 1.79535
-12.6602 -14.7602 0.307191
-12.5347 -14.9296 -0.708804
-15.7996 -12.3875 -0.902894
-15.8099 -12.9921 0.648496
-13.1436 -14.6225 -1.44974
-13.1341 -14.5115 -0.146355
-12.5457 -14.9708 -0.0691285
-12.0781 -15.5875 -1.27179
-13.9951 -13.0878 -1.72338
-11.9918 -15.8294 -2.26788
-12.7158 -14.2802 0.155961
-12.9517 -13.3372 -0.719669
-16.3754 -11.6931 -1.54991
-15.7023 -12.3627 -0.749727
-16.4956 -12.9637 0.599627
-15.945 -12.8607 1.34175
-15.4382 -12.435 -2.63046
-14.7312 -13.8017 -0.521364
-13.5953 -12.901 -3.14592
-13.9944 -14.4225 -0.311189
-13.0572 -13.4486 -1.24682
-14.1748 -14.0412 -0.42555
-13.1556 -13.7807 0.634928
-12.3984 -14.7944 -1.149
-12.9463 -13.7291 -2.27965
-11.3563 -14.1711 -0.743384
-12.4336 -15.2474 -0.407481
-11.9567 -15.3486 -2.84125
-11.6385 -14.134 -3.19459
-15.7986 -13.1128 -0.169343
-15.2987 -13.3025 -0.351496
-15.6428 -14.7217 -0.00539087
-14.9479 -14.3361 -1.12156
-14.5822 -13.9199 -0.596648
-13.1642 -14.7711 -0.732918
-12.1346 -14.9607 -0.454251
-16.5658 -13.2408 -0.562728
-16.0485 -13.7881 0.182123
-14.0587 -13.8594 -1.25008
-14.1842 -13.9148 -2.10698
-14.7272 -13.9814 -0.923687
-13.7038 -14.2123 -0.224836
-13.2719 -14.1097 -0.509401
-13.1077 -13.5087 -1.09954
-13.2662 -13.7124 -1.1531
-12.8411 -14.357 -0.0173568
-13.2542 -14.3756 0.980593
-13.0629 -14.5996 -0.779995
-16.7173 -13.1639 0.91691
-14.5182 -12.9845 2.35937
-14.0793 -13.1857 -1.6044
-13.3663 -14.48 0.470533
-14.6327 -14.5491 -1.30393
-15.3787 -12.8914 -1.87455
-13.3369 -13.4548 -0.581018
-12.8689 -15.172 -0.700626
-12.7109 -14.329 0.199546
-16.8358 -12.3265 -1.68925
-16.2243 -13.0312 1.44971
-16.3749 -11.5941 -2.6637
-16.3721 -12.492 -0.113061
-14.405 -12.5248 -0.661293
-15.2482 -13.0649 -1.59428
-13.2842 -14.0659 -1.75316
-14.8272 -14.1376 0.0520378
-14.1326 -13.9252 0.555305
-13.3723 -14.5659 -0.191805
-13.7436 -15.4053 0.0034561
-13.7471 -13.9665 -2.47708
-12.6626 -13.99 0.271049
-12.85 -14.9075 -2.0723
-13.0871 -14.0356 -2.04751
-12.9073 -14.3786 -1.71531
-16.4006 -12.2914 1.14492
-15.8067 -11.6539 -2.36863
-16.6588 -13.6069 0.528832
-13.3581 -12.7193 -1.29248
-12.1334 -15.1616 -0.234456
-11.9597 -15.7738 -2.1635
-16.4972 -13.3406 0.947475
-14.0649 -13.7631 1.15578
-13.9234 -12.91 -3.13986
-13.1551 -13.8542 -0.533702
-16.7278 -12.4676 -0.142877
-15.8689 -13.5524 1.95697
-15.584 -13.6172 -0.72466
-15.1616 -12.9906 -0.183233
-14.8784 -12.5582 -0.287272
-13.5528 -14.5842 -0.165026
-12.7408 -14.6398 -0.528214
-13.8969 -13.098 -3.00141
-13.5303 -13.3118 -0.881748
-16.563 -12.0977 0.579999
-16.0099 -12.8207 -1.4895
-14.316 -13.5483 -0.641028
-13.9116 -14.6706 -0.922593
-13.7951 -14.2016 -0.615816
-14.8517 -12.2276 -2.18928
-12.597 -14.2548 0.337811
-14.1974 -14.9977 0.0530251
-13.5703 -13.8822 -0.0746739
-14.0045 -14.3055 0.091042
-15.6015 -12.9099 -2.81014
-13.7594 -14.4163 -0.826516
-12.3598 -14.7116 0.353962
-13.6808 -13.4439 -1.44741
-12.3283 -14.4461 0.138217
-13.0941 -13.6986 -1.19428
-12.5058 -15.1733 -0.366417
-11.8868 -14.7736 -1.5719
-14.5013 -13.238 1.22446
-13.912 -13.9633 -0.561115
-14.3509 -13.9613 0.151244
-12.9405 -14.2238 -1.31558
-13.4182 -12.8771 -1.69328
-12.7573 -14.5246 -0.0646281
-12.7473 -15.0246 -0.50966
-12.5916 -15.037 0.0929955
-12.7786 -14.4684 0.553591
-13.0244 -14.2943 -1.10757
-12.7333 -14.8302 0.226145
-12.3361 -14.9682 0.412969
-14.879 -12.368 -2.05014
-14.2558 -12.9856 -2.44996
-14.6017 -14.975 1.07184
-13.7577 -14.2624 -0.657211
-13.4562 -13.8727 -0.026086
-12.597 -14.048 -0.310806
-13.0914 -14.5728 -0.693848
-12.9705 -14.7239 -0.791807
-11.6233 -15.8107 -1.77547
-13.092 -14.448 -0.137011
-14.3112 -13.9494 -0.965866
-12.4375 -14.7586 -0.489275
-13.1073 -14.2005 -1.47186
-12.8384 -13.864 -1.78793
-12.9677 -14.5027 0.285292
-11.3229 -14.738 -0.817404
-12.4981 -15.044 -0.876372
-13.0702 -14.1326 -0.79225
-11.7691 -12.7256 2.29238
-16.1346 -11.8645 -0.66725
-16.8745 -11.8589 -2.46319
-13.9142 -13.3991 -0.786656
-13.2305 -14.6128 -1.17589
-11.9978 -14.3249 -1.34881
-12.6116 -14.9582 -3.60164
-16.2471 -12.419 0.588911
-15.1885 -13.1795 -1.49623
-13.9828 -13.9339 -0.28397
-13.9086 -15.8565 -0.6653
-14.1328 -13.7172 -0.262627
-13.7171 -13.1778 -0.464139
-12.2585 -15.4119 -0.210571
-15.522 -12.6619 -1.92671
-13.2653 -14.6417 0.323582
-12.3625 -14.1932 -0.842388
-13.4596 -15.2011 0.0472426
-12.4514 -15.2142 -0.386005
-14.2384 -14.0977 -1.22287
-12.4805 -14.7716 -0.608667
-12.7955 -14.8778 -0.965015
-11.8788 -14.3681 0.0892
-11.372 -14.5495 0.527265
-12.873 -13.4319 -2.45697
-12.3712 -14.4641 -2.27179
-11.6298 -14.555 -3.0333
-16.4492 -12.175 1.89945
-16.5476 -12.0021 0.0894938
-13.6134 -12.7909 1.15281
-14.6028 -13.5035 0.751872
-14.4386 -13.8285 0.719528
-13.7195 -13.6742 1.18349
-15.1532 -13.5659 0.0761229
-14.7097 -13.6206 -0.18829
-13.5765 -14.3834 0.188446
-12.8917 -13.2957 -0.331088
-12.4399 -14.8812 0.00330569
-15.2228 -13.2877 -2.61745
-13.0308 -15.1784 -1.10024
-12.6626 -13.8985 -2.20051
-14.3265 -13.1189 0.124012
-15.8514 -13.4411 -1.29303
-13.945 -14.1341 0.393474
-13.2512 -15.2062 0.0289055
-13.6294 -14.2461 -1.91383
-14.1152 -13.9323 1.50507
-14.5753 -13.8952 0.884536
-12.7049 -14.4435 -0.499373
-13.9408 -14.2545 -0.924074
-13.647 -14.4469 -1.27279
-12.1393 -14.8761 -0.658504
-12.5588 -13.9504 -2.78461
-13.0127 -14.5282 -1.76568
-16.8323 -12.975 2.16513
-11.6181 -13.0254 2.19406
-12.5771 -13.3429 2.49281
-14.4128 -13.6831 1.07144
-16.1312 -13.089 -0.809211
-16.6307 -12.6774 -0.424024
-16.8198 -12.5518 -0.792818
-16.9317 -13.0306 -0.644647
-16.0508 -12.2395 -0.713029
-14.1735 -14.3378 -0.277354
-14.269 -14.1911 0.0484855
-13.0705 -13.8091 -0.689841
-14.3433 -13.1566 0.663832
-12.7927 -14.5202 0.561663
-13.4415 -14.8969 -0.0382234
-14.0659 -14.8501 0.18899
-13.9556 -14.4781 0.0121126
-12.3875 -14.5721 0.193794
-15.2508 -12.66 -1.36217
-13.1398 -14.263 -0.69104
-12.9391 -14.767 -0.355605
-15.1501 -13.0385 -2.82787
-16.3496 -12.8796 -2.66228
-12.8448 -14.7237 -0.536891
-12.8869 -14.7632 -0.679884
-12.6547 -15.3625 -0.0105381
-15.7994 -12.1076 -3.33887
-13.6498 -14.0789 -1.55457
-15.1242 -12.7123 -2.63957
-13.2071 -13.4309 -1.99655
-14.3201 -13.5684 -1.30684
-12.8509 -13.9625 -0.597641
-13.145 -13.3529 -1.48767
-13.2722 -14.4681 -1.25488
-13.5434 -12.8469 -2.05019
-14.1083 -12.6915 -2.68919
-13.2732 -14.4068 -1.71374
-12.4773 -14.8776 -2.12857
-15.6456 -13.4009 1.36095
-12.685 -14.708 0.31465
-13.0578 -14.1824 -0.191639
-13.4886 -14.5789 1.33233
-13.5898 -14.3265 -0.669226
-12.3897 -14.8979 0.224121
-15.672 -13.0307 -1.61755
-12.3631 -13.1996 -0.362923
-12.4993 -15.0108 -1.09365
-14.9191 -12.7956 -2.38473
-13.2742 -14.8452 -1.57394
-13.0588 -14.2496 -1.66754
-13.1937 -14.904 -2.44873
-11.8038 -15.13 -2.89483
-12.5229 -15.1736 -3.70591
-15.6952 -13.0645 1.6188
-16.2976 -13.1043 0.528302
-14.9747 -13.4449 1.70425
-14.7542 -12.4142 0.590449
-17.1374 -12.3709 -0.857953
-13.6926 -14.8819 1.0207
-12.7419 -15.3588 -0.374212
-12.0418 -15.1924 -0.751297
-13.4962 -15.0665 0.623535
-12.8746 -15.2664 -1.18655
-12.6834 -14.2238 -0.604469
-13.8405 -15.0241 -0.696271
-13.1842 -14.8948 -1.76622
-14.2095 -12.5726 -3.18761
-14.9696 -13.7931 -2.0531
-14.738 -12.433 -2.56615
-12.523 -14.328 -2.63819
-14.6482 -13.6802 0.611098
-12.0682 -14.7951 0.453542
-12.8001 -14.9362 -0.438896
-11.8866 -16.4188 -0.338742
-13.3363 -14.5074 -2.57368
-14.2797 -12.9297 0.500309
-14.0993 -13.873 0.957519
-14.4636 -14.5623 0.450439
-13.9996 -14.0033 -0.3147
-12.3711 -13.5049 1.83592
-14.5425 -13.076 0.300403
-13.7153 -15.3624 0.971697
-12.851 -14.6312 -1.57641
-13.0775 -14.9842 -0.615794
-11.8837 -15.6665 -0.324167
-13.6592 -14.6185 -1.59332
-11.9493 -15.3765 -1.61089
-12.5892 -14.0267 0.604864
-11.5504 -14.7596 0.0263252
-12.6494 -15.171 -2.05681
-12.6529 -15.4973 -0.925277
-13.2051 -13.3595 1.4011
-11.6844 -13.5439 1.4732
-16.1925 -13.0188 1.56286
-15.4477 -13.04 1.00027
-13.6933 -14.1532 1.79408
-16.7921 -13.5242 0.364109
-12.867 -14.7165 0.949459
-11.981 -14.1673 0.709049
-15.5577 -12.4612 0.142813
-16.9218 -11.8612 -1.43585
-15.5365 -12.3143 0.136831
-15.7711 -12.504 -0.477277
-12.6268 -14.8306 -0.736849
-12.2877 -13.4077 -0.586244
-13.4859 -13.9986 0.8873
-16.5291 -12.4877 -1.47783
-13.4193 -15.0018 -0.237317
-15.7779 -12.5376 -1.4776
-14.0032 -12.8447 -0.44933
-16.1661 -11.9006 -0.4677
-15.3602 -13.9532 -1.28816
-15.9696 -12.5123 -1.74575
-12.8492 -14.0023 -0.0457066
-15.8747 -13.7964 -1.16289
-13.8453 -15.0441 -1.7735
-15.0907 -13.9691 -1.096
-14.5555 -13.0083 -2.02102
-15.3039 -12.7518 -2.63837
-14.3898 -12.7064 -1.847
-15.8171 -12.2276 -2.3766
-14.0645 -12.6536 -1.38903
-11.7929 -16.1865 -0.546568
-15.1542 -12.2921 -2.30605
-14.1204 -14.2645 -1.70036
-13.2892 -13.786 -1.74585
-15.5289 -13.4212 -2.90572
-12.9464 -14.5542 -0.963257
-15.8237 -13.1763 -2.73999
-14.7832 -12.0103 -2.26191
-14.4503 -12.2926 -2.25748
-14.1917 -12.2274 -2.38794
-15.7259 -12.7082 -2.5301
-15.4555 -13.5963 -2.08261
-12.6025 -13.8509 -1.70598
-13.048 -14.2815 -1.76022
-12.3716 -13.4941 -1.95764
-14.4237 -12.4209 -1.6633
-13.0353 -14.4656 -1.46083
-12.6868 -13.6872 -2.7335
-11.217 -14.6026 -2.17022
-12.8078 -14.6213 -2.42245
-16.5101 -13.8879 1.91232
-16.2012 -12.4947 1.68373
-16.7241 -12.741 2.16065
-15.2544 -13.5495 0.411772
-15.3167 -13.2134 0.0275285
-16.7885 -13.0652 -0.966432
-13.4222 -15.2137 1.3602
-13.3742 -14.1515 -0.0441392
-13.3171 -13.956 -0.684237
-13.1284 -14.097 0.137989
-12.472 -14.4769 0.0897999
-17.0242 -12.7104 -1.49114
-16.0335 -11.8039 -1.57297
-16.8042 -11.9027 -1.78729
-13.7178 -13.8835 -0.869357
-16.083 -13.3436 -2.98448
-14.628 -13.3186 -2.37752
-13.0727 -14.4111 -1.39361
-12.01 -14.604 -1.94912
-11.9189 -15.4 -2.07059
-12.1911 -14.6611 -3.37764
-11.9996 -15.5154 -3.8868
-13.2685 -12.337 1.78821
-15.389 -13.5064 1.17476
-12.5974 -15.0526 0.570503
-15.1406 -12.9608 -0.545503
-11.7391 -14.9158 -0.13869
-13.2073 -14.8357 -0.374484
-13.0762 -15.148 -0.183867
-11.6227 -15.0002 -1.16486
-13.5458 -13.6336 -2.27596
-12.3706 -13.7377 -2.09587
-13.8039 -13.6603 -2.18299
-13.2021 -13.499 -1.58707
-12.7119 -13.3584 -2.05043
-12.7446 -13.2417 -3.05072
-11.406 -13.3009 3.43979
-13.2202 -14.3972 -0.887859
-13.6007 -14.2169 -1.16339
-11.3416 -15.2947 -0.981
-13.6744 -13.5496 -3.27822
-13.2491 -13.6579 -2.01166
-14.0072 -14.633 -1.43939
-13.256 -13.9169 -2.24704
-15.1928 -13.1575 -1.97928
-12.3817 -14.369 -1.48303
-12.9885 -13.0425 -2.76421
-15.6826 -14.2387 0.59835
-13.0246 -14.2341 -0.941563
-13.2875 -13.7921 -2.407
-12.4532 -13.832 -1.97852
-13.1703 -14.514 -1.66402
-12.1935 -14.9539 -2.73812
-11.6408 -15.3838 -3.02966
-16.103 -13.4133 0.718798
-13.0023 -14.4368 -0.571974
-14.156 -13.7821 -1.03027
-12.745 -14.4883 0.538597
-13.1189 -14.388 -1.6422
-12.5016 -14.2041 -3.26812
-12.8888 -14.241 -0.491466
-12.1486 -14.1371 -0.402448
-13.214 -14.5348 -1.5479
-13.7625 -14.6002 -1.99842
-13.5149 -13.0405 -1.03386
-11.0019 -15.3284 -3.49704
-16.5427 -12.8804 -2.45287
-16.1709 -10.9564 -1.85051
-11.2827 -15.4001 -3.07428
-15.4472 -13.0574 -2.69385
-16.0372 -13.1364 -1.44012
-12.0022 -13.7412 -2.29718
-16.2549 -12.8246 -1.30127
-12.5263 -14.1614 -1.49447
-16.8618 -11.8402 -1.41708
-15.7585 -11.9513 -1.72108
-13.2988 -14.1507 -2.81835
-13.0617 -13.9671 -2.51085
-13.5253 -13.738 -1.04428
-14.6786 -12.8987 -0.514707
-12.9854 -13.9443 -1.12525
-15.8978 -13.484 -1.0686
-13.9181 -14.0717 -1.17644
-13.8219 -13.7706 -0.648744
-15.8937 -12.706 -0.362076
-14.9098 -13.0089 -0.970408
-15.6147 -13.7398 -1.40704
-15.302 -13.0834 -0.780999
-12.5972 -15.2768 -0.100628
-12.1476 -14.8393 -0.670711
-13.3053 -13.6264 -0.845793
-13.1833 -12.9371 -1.31293
-14.1113 -13.9487 0.372777
-13.8114 -14.4244 -0.575093
-16.4119 -13.3657 -0.0954372
-14.2109 -13.2951 0.215671
-16.0582 -12.3632 0.601873
-16.5262 -12.9641 -0.202763
-15.5919 -13.7148 0.0612001
-14.9917 -14.2183 -0.808439
-16.8763 -12.0457 1.18425
-15.9791 -13.333 0.746613
-16.2812 -13.4624 0.441038
-13.9633 -13.3448 -0.0923458
-14.6046 -13.5231 0.339297
-16.7114 -14.3068 0.311347
-16.4678 -12.4195 1.84829
-14.2288 -13.6875 0.939005
-13.2334 -15.3942 0.892115
-12.3462 -14.9736 1.24948
-14.6471 -14.2936 1.44519
-13.1711 -13.2873 -2.35195
-15.3682 -13.5656 -2.67113
-14.4097 -13.7508 -2.38065
-13.5346 -13.4194 -1.78508
-14.2457 -13.1169 -1.88122
-13.7965 -13.722 -1.09587
-16.265 -12.2579 -1.59615
-13.57 -13.0693 -1.23868
-16.5599 -13.0203 -1.11424
-12.6584 -13.9343 -0.583071
-11.3027 -15.4629 -1.48626
-12.6693 -14.4494 -0.676423
-16.7762 -12.9302 0.309273
-15.084 -12.6584 -0.535262
-14.0359 -15.1707 0.178855
-12.7654 -13.8716 0.134638
-12.9074 -14.8456 0.105031
-15.7592 -14.0324 0.687751
-14.4176 -14.7978 0.334961
-15.8179 -12.9143 1.18353
-14.548 -13.8256 0.942983
-16.6438 -12.9652 1.41636
-12.0588 -13.5914 -2.37933
-14.1157 -13.325 -0.285025
-11.5695 -14.58 -0.734988
-12.6956 -14.2541 0.455977
-15.0781 -12.5039 0.702589
-12.8472 -14.3923 0.242317
-11.2335 -15.2629 -2.66969
-15.2797 -12.9791 0.0503239
-13.2801 -13.0399 -1.33441
-13.5312 -14.23 -0.159084
-15.7551 -13.1307 0.200577
-14.0901 -13.9852 1.39867
-14.2615 -14.1065 1.641
-13.0074 -13.8043 1.45986
-16.1056 -13.5451 2.18364
-12.1963 -12.7817 1.02738
-12.3285 -14.5179 -1.1507
-13.7679 -13.7071 -1.7715
-13.3769 -14.5281 -2.36543
-14.9857 -12.6794 -1.28021
-14.8241 -12.761 -0.550404
-15.9261 -13.167 0.748008
-13.6888 -14.5517 -0.080525
-16.2753 -12.5006 0.781742
-13.7245 -12.7944 1.55709
-12.6945 -13.7285 0.549276
-15.9356 -12.7873 1.82027
-12.0418 -12.6674 2.7808
-12.4243 -14.2265 -1.5421
-13.7861 -13.4561 -0.757978
-12.7691 -14.2645 0.172417
-13.1086 -14.5947 0.215226
-12.4306 -14.0693 0.285574
-12.2438 -14.8161 0.15924
-12.5942 -14.7029 -1.35913
-12.0964 -12.4309 2.24372
-13.3926 -14.814 -1.42284
-12.2153 -14.4592 -3.39489
-15.66 -11.7576 -1.40875
-12.573 -14.0781 -2.92882
-11.8618 -14.7757 -2.48979
-12.3558 -14.9295 -3.37945
-12.0588 -15.8565 -2.37975
-12.6948 -13.6738 -0.794882
-14.349 -14.315 -0.22901
-13.7769 -14.8369 -0.807432
-14.5907 -13.66 -0.223205
-14.07 -14.0175 -0.503803
-13.4702 -14.6139 -0.953304
-15.838 -12.8505 -0.710136
-15.5965 -13.2237 0.470335
-12.7682 -14.4349 -0.192215
-14.0878 -13.5885 0.647883
-15.9461 -12.6385 1.60643
-15.9536 -12.8002 1.32877
-13.8496 -14.2432 0.838096
-16.3556 -14.014 1.11544
-11.4354 -13.2176 1.79183
-12.3313 -13.7088 2.95939
-11.6918 -15.1858 -3.38913
-11.8449 -14.6807 -1.16447
-13.306 -13.6197 -1.27195
-13.648 -14.8742 -0.91058
-16.8249 -11.8022 -0.0129532
-14.8457 -12.5006 -0.02312
-12.3692 -16.2774 -1.49836
-14.5126 -13.1396 0.842735
-13.5725 -14.343 -0.946872
-17.161 -12.3473 1.63843
-15.1728 -13.7704 -1.99069
-14.3151 -13.9856 -0.735923
-16.0915 -12.4911 -0.460486
-15.8757 -11.9797 -0.0161783
-16.7804 -12.7317 1.87499
-12.4611 -15.1896 1.17937
-11.0824 -15.0644 -2.85575
-13.5519 -13.4423 -2.02212
-12.942 -14.7406 -1.91827
-13.5211 -14.0292 -0.818755
-15.122 -13.5134 -0.264917
-15.6875 -12.4822 -0.17314
-14.696 -13.0754 0.832315
-13.8804 -13.4165 -0.720745
-14.0911 -14.3855 1.12728
-13.0248 -13.9276 0.385299
-13.6171 -15.0026 0.494855
-11.8208 -14.7479 -1.66817
-14.3626 -12.6754 -0.752107
-15.6124 -13.1156 0.00483049
-12.7386 -13.8879 -0.596572
-13.4867 -12.8865 -1.80617
-12.3278 -14.8027 -0.12666
-15.6891 -12.1148 -0.788913
-11.9545 -15.0237 -3.23025
-12.711 -14.6831 -2.03018
-15.5545 -13.0001 -0.762877
-11.8124 -15.1449 -2.98685
-15.5852 -13.2329 1.00679
-13.1912 -13.4055 -1.27465
-13.4761 -13.5253 0.537208
-14.617 -14.1779 0.776752
-12.7531 -15.0109 0.886012
-13.7127 -14.263 -2.37007
-12.8998 -13.447 -2.24467
-11.8033 -15.1476 -2.30004
-12.3895 -14.5519 -2.19075
-12.9686 -13.2121 -1.81016
-13.4154 -14.416 -1.09245
-12.5197 -14.7327 -1.76256
-14.5649 -12.9332 -0.454529
-13.4954 -14.075 -0.291439
-13.8205 -13.2073 0.0984335
-12.4182 -15.384 -1.69143
-12.2461 -14.2033 -1.44275
-14.3034 -14.1729 0.411888
-12.8944 -15.4825 -0.631891
-12.6434 -15.8955 -0.556712
-12.865 -14.3924 0.676404
-13.2222 -13.4479 2.31633
-14.0503 -13.1349 -1.06963
-14.3538 -13.7467 0.429687
-11.556 -14.2081 -2.31255
-12.8935 -14.9307 0.600582
-14.1532 -13.6893 0.168322
-11.7474 -15.4532 -0.734482
-12.894 -13.5586 -0.494574
-14.665 -14.2465 -0.0232674
-12.7424 -14.0901 0.696689
-14.15 -14.9997 -2.16114
-15.2617 -12.3761 -0.150591
-15.1627 -14.455 -0.118181
-13.4392 -12.2664 -1.12893
-13.8293 -12.9125 -1.86511
-13.3766 -12.9396 0.187511
-15.3765 -13.105 1.41489
-14.3264 -13.3136 -1.39592
-15.9707 -13.5163 2.34893
-16.9815 -13.7422 1.49594
-14.3318 -12.5875 0.787781
-14.6285 -13.3486 1.48176
-13.1867 -14.228 -0.633679
-13.0164 -13.1444 -0.0818646
-13.3433 -14.6247 0.816949
-12.2001 -14.4114 0.0129239
-13.3215 -15.0278 0.516857
-10.977 -13.1416 1.60065
-13.1979 -14.1425 -3.15799
-14.198 -13.3982 -0.909819
-13.1092 -14.8045 -2.52931
-12.8767 -13.9659 -0.73074
-11.4713 -14.4474 -2.78305
-14.046 -13.688 -0.823251
-13.2351 -14.0211 -0.514259
-12.0218 -14.4696 0.0612705
-11.4573 -15.2448 -1.35908
-12.2031 -15.4044 -0.241024
-14.6706 -13.486 -0.830392
-12.8704 -13.2803 -0.547674
-13.2719 -13.7078 -0.357194
-14.7387 -15.0685 0.239289
-13.0089 -15.159 0.178882
-12.9919 -13.7485 0.731076
-12.3185 -14.8347 -0.673381
-12.996 -14.2256 -0.537509
-11.9238 -15.2985 0.79986
-12.8684 -14.5499 -0.09486
-12.64 -14.4591 1.21409
-12.8824 -15.2526 0.783576
-15.3309 -12.3452 0.812014
-12.3709 -14.453 1.40392
-13.1215 -12.8266 -1.89149
-14.2742 -13.1685 -0.738796
-11.8438 -13.8148 -1.12466
-14.6678 -12.9664 1.69625
-14.506 -12.9311 0.264349
-13.9197 -14.1523 0.176391
-13.0885 -15.0317 -0.740423
-15.7653 -12.6858 0.669525
-17.0452 -12.9669 0.84075
-13.9583 -12.9956 -1.15965
-14.9709 -12.9036 1.07432
-12.6647 -13.4829 -1.13964
-13.0648 -13.3576 1.7654
-13.5439 -13.9549 0.724861
-13.1075 -13.8837 -0.685611
-12.7383 -14.3032 0.700593
-15.9797 -12.6254 0.958395
-12.0141 -15.3803 -2.25988
-14.2961 -13.7719 0.541759
-12.5815 -14.9502 0.0950223
-14.0097 -12.6232 -0.00816919
-14.2871 -12.8785 -1.45657
-13.2338 -13.2577 -2.11132
-16.0327 -13.6001 1.68662
-12.658 -14.6148 -0.531018
-14.326 -13.8548 -1.23328
-13.2284 -14.7508 -1.26376
-13.1567 -14.8703 -1.26912
-12.0815 -15.1536 -1.73684
-14.6553 -12.8921 -3.58649
-16.7906 -12.6817 0.114276
-15.2784 -13.0628 -0.673793
-13.7439 -13.9083 -1.605
-12.9186 -16.1256 -1.50026
-12.7319 -15.0019 -0.0465044
-14.5995 -13.5742 -1.32894
-15.1903 -12.5071 0.155514
-16.6684 -12.7711 1.54897
-13.8226 -13.8832 -0.414937
-12.1056 -15.1978 -0.683816
-14.7163 -13.0997 -2.30777
-14.2598 -14.2152 -0.565014
-14.8726 -13.4983 -0.994435
-12.3336 -14.8597 -0.655458
-12.6615 -11.9392 -1.52655
-12.7098 -13.6019 -0.459728
-12.9188 -14.6717 -1.61421
-15.8363 -12.6558 1.20249
-16.1345 -12.7809 1.14115
-15.8621 -13.3252 1.51917
-14.4463 -14.9952 0.15917
-12.6635 -15.2558 -0.545085
-16.0521 -12.8911 0.744404
-16.0957 -12.8659 -0.21791
-12.0959 -14.0544 -0.069138
-17.0771 -13.208 1.19425
-15.2889 -13.0884 -1.30419
-14.3469 -13.7057 1.59784
-14.5556 -13.2076 -0.470162
-13.3643 -14.264 -1.5424
-13.2603 -14.7741 -0.616816
-13.29 -14.2584 0.691073
-13.2722 -14.9805 -0.504931
-12.4173 -13.9087 -1.881
-12.9641 -14.9481 -1.68233
-12.9121 -14.511 -0.338293
-14.3767 -13.0209 -1.05959
-13.8851 -13.442 -0.684655
-16.2485 -12.8278 1.87783
-13.2335 -14.7691 -0.580282
-16.5564 -12.5305 1.79439
-13.6457 -14.2887 -1.13812
-12.0327 -15.1074 -0.942408
-12.7659 -12.6498 1.74927
-15.8729 -13.5265 1.63192
-12.915 -14.9658 0.4342
-11.4947 -15.021 -3.48929
-16.1634 -12.6468 -1.33587
-13.7541 -13.7769 0.315658
-14.5116 -14.8086 0.424625
-14.0929 -14.428 -0.365153
-12.6772 -13.8631 -1.88403
-12.6084 -14.737 -0.400079
-11.5957 -15.0484 -2.49996
-16.1068 -13.157 1.90917
-16.3414 -12.6859 -1.35531
-13.1347 -14.3731 1.3935
-13.6352 -14.5282 -2.60234
-12.464 -14.229 -2.41418
-12.175 -15.0819 -0.374111
-12.9661 -14.5143 -0.374516
-12.716 -14.6609 -1.13628
-15.1496 -13.0613 -1.88875
-12.4473 -14.0414 -0.582441
-12.061 -14.0078 -1.62816
-15.877 -13.1273 -0.991195
-12.2307 -15.3662 -3.00044
-11.9174 -15.3515 -3.59617
-13.101 -14.5355 -0.988242
-13.7173 -14.3671 -2.08813
-12.3911 -15.5519 -0.0201811
-12.4668 -14.0224 -1.96904
-13.8315 -13.7359 -0.596423
-13.3827 -13.4053 -1.17853
-11.242 -12.9718 1.69191
-12.8532 -14.2981 -0.0599546
-13.6884 -12.6912 -1.08631
-14.029 -13.2334 -1.64262
-12.1807 -15.4675 -0.412587
-12.987 -14.5757 0.343395
-12.3607 -15.2375 -0.782174
-13.4557 -13.7388 -1.32394
-12.6518 -15.7761 -2.21775
-12.3958 -13.6887 1.6944
-13.677 -14.5219 -0.477184
-13.163 -14.4206 0.288847
-12.2061 -15.9116 -1.50375
-16.143 -13.6943 0.394248
-13.365 -13.0614 -1.91978
-11.7174 -15.3217 -1.06877
-12.4652 -13.9519 -1.90242
-12.5566 -13.9675 0.382324
-13.6682 -12.3128 -0.377814
-12.8313 -14.4352 -0.0917336
-12.7854 -14.0105 -0.652557
-16.7278 -12.3713 0.637484
-15.9991 -13.0686 1.74749
-16.059 -12.5136 0.208399
-14.1682 -13.2272 -0.307647
-15.1752 -12.5223 -1.19348
-16.4583 -12.264 -2.55648
-13.1149 -14.1691 0.551633
-13.9208 -14.6767 1.26879
-14.1289 -13.8234 -1.22264
-12.1712 -14.006 -0.857893
-12.3961 -15.1305 -0.504161
-17.1527 -13.3687 1.52644
-17.0909 -12.5834 1.27599
-13.8224 -13.7109 1.45921
-12.129 -14.3052 -0.151515
-14.6224 -12.6962 -2.96125
-12.8564 -14.2719 -0.533478
-12.1986 -15.09 -2.49992
-16.8155 -12.2711 -1.36328
-13.2151 -14.2776 -0.322977
-12.826 -15.0843 -0.0462102
-13.1519 -15.0665 0.721791
-12.9927 -14.9542 -1.06226
-12.2785 -14.1687 -0.827756
-14.3946 -13.0939 0.105229
-12.5281 -15.2675 -1.27752
-12.5183 -14.4673 -0.751184
-15.8243 -13.3792 0.781729
-15.3444 -13.1185 -0.578905
-16.1704 -12.5548 -1.39117
-13.6154 -14.2819 0.240046
-15.7737 -13.3436 -1.75772
-16.1599 -13.2 -1.69086
-15.4218 -12.7649 -1.24987
-13.0404 -14.4978 -0.0708123
-14.029 -14.2031 -0.438687
-12.7778 -14.7931 -0.251307
-15.6 -12.5648 -1.87034
-13.3605 -13.7428 -1.17735
-13.2352 -15.0135 -0.140036
-12.1236 -15.1944 0.401797
-17.4546 -12.2833 -0.918487
-13.2196 -13.5493 0.236651
-13.5643 -15.2569 0.969691
-15.117 -12.739 -0.532186
-13.2586 -13.634 -0.549413
-13.1606 -14.0742 -0.485499
-11.8708 -15.4791 -0.494873
-13.0178 -14.6053 -0.00778952
-12.3447 -15.1589 -0.451739
-12.9681 -14.8331 -1.92222
-11.1732 -15.5905 -3.32224
-16.9752 -11.4662 1.11421
-15.0792 -13.4991 0.185921
-12.0885 -14.6856 0.271308
-13.2532 -16.1611 0.0712251
-12.148 -14.5996 -0.648132
-13.0386 -14.2143 0.0279893
-12.2748 -14.1728 0.0309447
-11.7654 -13.6532 -1.16673
-13.9272 -13.7624 -0.293895
-13.7268 -12.2147 -1.51962
-12.7684 -15.3555 -1.18183
-13.3016 -14.1848 -1.58854
-12.5308 -13.9547 -1.25089
-12.5174 -14.6371 -1.22954
-13.1795 -15.6419 0.432397
-12.2432 -14.9749 -1.82475
-13.5596 -13.9092 0.602665
-13.7478 -13.6611 0.41684
-16.1085 -12.4795 -0.961711
-12.596 -13.9647 -0.174365
-15.9325 -12.7106 -0.833451
-15.4998 -12.0078 -2.1667
-12.3757 -15.778 -1.89299
-12.6603 -14.3917 -2.20971
-13.1733 -13.1324 -2.15984
-13.5851 -13.257 -2.01562
-12.5259 -14.0083 -2.01681
-13.7285 -14.6461 0.843221
-12.4802 -14.7024 1.49944
-12.5712 -13.5691 -0.060311
-12.7536 -15.1528 -0.276775
-13.2225 -13.5635 0.245711
-13.2434 -15.4747 -1.26517
-13.5807 -14.9934 -0.590053
-12.4333 -15.2913 0.304966
-14.1297 -13.3498 -1.80555
-13.2429 -14.7901 0.271413
-13.0968 -13.6915 -1.27409
-11.8957 -13.2857 -0.596988
-12.086 -15.7196 -3.48141
-12.4481 -15.5364 -2.88528
-14.5262 -13.0722 -1.64969
-12.2451 -14.4199 -0.410814
-12.0266 -14.9696 -0.245528
-12.8981 -13.5753 -2.67635
-12.4896 -15.4238 -3.67383
-12.9148 -14.5973 0.21931
-13.7466 -14.8376 -0.916543
-14.1354 -14.2057 -1.48888
-14.066 -13.3015 -2.04976
-12.5902 -13.7186 -2.36639
-13.8879 -14.469 -2.07912
-12.3276 -15.7541 -1.87594
-14.2399 -13.8468 -0.957116
-11.202 -15.4945 -1.38513
-14.0305 -13.4987 -0.668671
-13.0012 -14.4802 -1.15874
-13.1828 -14.1568 -1.46305
-13.2608 -15.0312 0.306578
-12.529 -14.2904 0.117957
-17.4109 -13.0596 2.31953
-12.2745 -15.4408 0.465193
-12.0317 -14.5725 0.693911
-12.3536 -15.1767 -0.540664
-12.7427 -15.149 0.29934
-12.9915 -13.893 -0.533648
-12.689 -14.623 -0.369962
-13.1126 -14.4736 -0.42725
-15.3001 -12.6915 -0.213193
-17.7112 -12.7255 -1.79929
-15.8033 -12.0729 -1.81008
-12.9037 -14.2991 -0.792969
-15.3017 -12.7273 -0.483561
-16.4382 -11.8663 -1.74439
-16.6999 -11.2528 -2.25553
-16.0385 -12.6547 -1.79552
-16.2957 -13.1893 -0.911489
-15.2904 -12.5978 -1.63065
-15.8388 -12.9297 -1.7685
-13.7814 -14.1197 -1.07913
-14.2788 -12.3361 -1.47595
-15.826 -12.2637 -1.90291
-11.6016 -15.3363 -1.68953
-15.4598 -13.1687 -1.9145
-12.2105 -13.0692 -2.16538
-11.0818 -15.4583 -2.53012
-11.929 -15.7102 -3.20069
-11.5811 -13.2127 0.31465
-16.1177 -13.0576 1.9811
-15.7763 -12.0462 -0.00155817
-15.1047 -13.4418 -0.399418
-12.9433 -14.272 -0.684353
-14.7577 -13.6077 -0.134795
-16.3418 -11.6512 -1.71928
-15.05 -12.7612 -0.777177
-12.7017 -15.4663 -0.779426
-13.772 -13.0224 -1.39715
-13.2672 -13.3068 -1.75305
-12.9708 -13.8972 -1.45351
-11.4236 -15.0097 -2.37551
-13.0356 -14.938 -0.0670491
-11.6729 -14.8632 -1.45643
-11.7984 -14.2494 -2.89742
-12.5501 -14.1334 -0.425637
-15.6672 -12.1948 -0.139633
-14.5738 -13.6465 -1.0711
-11.488 -14.0973 -2.77475
-14.4108 -14.3129 -0.131753
-13.1576 -13.8164 -0.558469
-12.4641 -14.3393 -2.0912
-14.1322 -13.4313 1.6921
-14.8568 -13.504 0.311678
-13.1008 -15.0083 -2.44855
-16.3318 -13.2019 1.71237
-12.5458 -15.1128 0.527671
-12.2231 -14.9542 0.871186
-13.8275 -13.3567 0.721507
-16.5451 -12.8064 1.17273
-17.353 -12.2891 1.49525
-15.1559 -12.9597 0.249129
-15.8708 -13.4721 0.964643
-13.4125 -14.4945 0.633791
-12.9801 -14.1649 0.377281
-16.0431 -11.8394 0.769381
-15.0579 -13.1827 -0.305128
-16.0303 -13.0576 -0.0135764
-13.7407 -14.602 -1.31746
-12.1609 -15.3995 -0.471714
-14.4811 -14.1636 -0.686778
-13.9807 -14.2749 -0.0712112
-13.7566 -14.3208 -1.08956
-12.0788 -14.308 -1.21616
-14.188 -14.0433 -0.691844
-14.6506 -13.696 -0.507222
-13.3481 -14.3937 -0.996332
-16.5668 -12.0062 -0.0665359
-16.6674 -12.212 -1.29905
-16.5088 -11.5535 -1.46558
-16.2219 -12.307 -2.0633
-14.6595 -14.468 -1.95748
-15.6677 -13.1338 -2.07368
-12.5618 -14.6156 -2.27125
-13.6852 -12.8266 -2.05275
-12.8929 -13.5537 -2.14688
-13.6098 -13.3824 -1.91213
-16.7883 -11.6814 -2.44067
-15.7474 -13.0596 -2.03951
-15.7517 -12.236 -2.21392
-14.6401 -12.0295 -2.26957
-12.3709 -14.6156 -3.21596
-11.5898 -16.1337 -2.82127
-11.871 -15.0144 -2.19571
-13.5366 -12.7178 -2.15026
-12.4136 -14.7471 -3.55417
-12.1287 -14.3344 -2.50673
-12.8464 -15.6726 -3.13877
-13.0819 -14.5495 -3.19476
-12.3751 -15.3114 -3.37904
-12.2073 -14.5459 -3.36628
-14.7809 -12.7624 1.39929
-16.6219 -13.4506 1.8975
-15.8931 -13.9227 1.11807
-17.0662 -13.1104 0.83521
-13.8089 -13.1826 0.648423
-14.2124 -14.095 0.861227
-16.3921 -13.4476 1.56381
-16.3742 -13.0896 0.765572
-16.3475 -12.8936 1.22372
-13.9339 -15.3911 0.446218
-15.0162 -12.6528 -0.250447
-12.9338 -15.176 0.28733
-12.8589 -15.8444 0.106364
-13.1236 -13.6799 0.486989
-14.2746 -14.6183 -0.338359
-15.9582 -13.1725 0.628172
-13.0354 -14.8356 -0.0194347
-12.5638 -13.6792 -0.935614
-15.9143 -13.1409 -0.582348
-11.3716 -16.1749 -1.64829
-15.5406 -13.7182 -1.36732
-14.094 -13.1284 -0.804457
-15.0607 -12.9346 -1.33027
-13.3483 -14.0888 -1.75971
-13.0556 -13.9156 -1.11784
-12.9746 -12.617 -1.41274
-16.7224 -11.5077 -1.71809
-14.3648 -12.1536 -2.12639
-15.2795 -14.0635 -1.99098
-11.8012 -14.5711 -1.96695
-16.6632 -11.0612 -2.53609
-16.2518 -12.4278 -2.77892
-14.7421 -12.7537 -2.59538
-11.7605 -15.3837 -2.52961
-14.1833 -13.4418 -2.01938
-12.0114 -15.4579 -2.79279
-12.9078 -13.6671 -2.79821
-11.7724 -13.9761 -2.27727
-12.8873 -13.5641 -2.59522
-12.5514 -15.4733 -2.40227
-11.0537 -14.5986 -2.49169
-12.6793 -15.0211 -3.20499
-11.242 -13.4211 2.34662
-12.4892 -13.2487 2.66838
-16.7393 -13.047 2.97511
-15.0927 -12.8532 1.27872
-14.1053 -13.4904 0.939551
-16.3084 -12.7325 1.69211
-14.8274 -13.1858 0.270666
-14.5979 -13.7082 1.24561
-12.0856 -13.791 0.192446
-15.8415 -13.7107 -0.590604
-12.427 -14.7959 -0.93343
-15.6241 -12.9451 -0.375853
-12.6175 -13.9397 -0.790672
-11.797 -15.3325 -1.00413
-13.6357 -13.7072 -0.876383
-15.4958 -12.0468 -2.56679
-15.5469 -13.52 -1.83
-15.4275 -12.6509 -2.67764
-14.809 -13.3114 -2.35035
-13.8693 -13.7493 -1.85947
-16.7322 -12.305 -2.37729
-13.6523 -14.0066 -1.68385
-12.1678 -14.8364 -2.55754
-12.9639 -14.7943 -2.06554
-11.9284 -15.3632 -3.06562
-11.9652 -15.0899 -3.77317
-12.7933 -14.2261 0.250386
-14.2405 -13.6963 1.02374
-16.3578 -13.5273 -0.337161
-12.561 -14.4568 -0.677786
-14.2765 -13.7501 -3.16142
-12.1244 -14.3099 -2.84072
-11.5658 -15.9344 -2.73621
-12.2835 -13.2292 -3.25504
-11.832 -13.7055 -3.34431
-11.3955 -13.1241 2.26643
-16.351 -12.8498 1.91437
-16.2742 -12.9726 1.96996
-14.312 -12.4266 0.783417
-12.7673 -14.9186 0.163784
-15.6733 -14.1199 1.11227
-14.1881 -13.4763 0.275201
-12.763 -13.7737 -0.1309
-15.5212 -12.168 -0.663403
-12.1655 -15.2675 -1.83242
-12.9726 -15.4349 -1.59202
-16.415 -12.3565 -1.96344
-13.5231 -13.3567 -2.61587
-12.7926 -13.8421 -2.48526
-13.4296 -13.9142 0.868926
-12.3781 -14.8279 -0.53483
-14.1901 -13.1123 -1.53093
-12.7493 -14.8116 -0.738227
-13.6903 -14.2946 -0.610941
-14.5229 -13.2867 1.1823
-13.5346 -14.1051 0.0286595
-13.6098 -13.8755 1.91197
-12.9528 -14.9771 -0.0359707
-11.9245 -14.2376 -1.70368
-13.6248 -14.8078 0.203216
-13.2992 -13.9983 -0.656831
-12.4715 -14.7248 -0.782831
-13.892 -13.1536 -2.72962
-12.5218 -15.4231 -3.384
-11.2606 -15.3434 -2.82178
-12.2543 -15.0699 -3.3483
-12.156 -15.0457 -3.18118
-14.7947 -12.3718 -3.19292
-16.1733 -12.2681 -2.76942
-15.9842 -11.8356 -1.31017
-12.2912 -14.9049 -2.83368
-15.1913 -12.2728 -1.60443
-14.6867 -13.7683 -2.99314
-16.1473 -11.9943 -1.64881
-14.9521 -12.0154 -2.59876
-15.0048 -13.7942 -2.25659
-14.5448 -13.1951 -2.36011
-14.8016 -12.3699 -2.04906
-16.6232 -12.1635 -2.11802
-15.0306 -12.0206 -1.87344
-15.8445 -11.3101 -1.79896
-14.5797 -12.7466 -2.10797
-15.6028 -12.8529 -2.60926
-16.9493 -11.0689 -2.46549
-16.4307 -12.398 -1.96668
-16.2932 -11.8346 -1.7019
-16.0491 -11.9328 -2.02895
-16.2208 -12.3113 -2.50655
-15.1412 -12.692 -1.25491
-15.3483 -12.3364 -1.99189
-14.9444 -13.2921 -2.14469
-14.0705 -13.3471 -1.34305
-14.8168 -13.9481 -1.89855
-16.2128 -13.1017 -2.07146
-15.5946 -13.4106 -1.43038
-15.7639 -12.9752 -1.8839
-12.6827 -13.2977 -2.22999
-13.0073 -13.3996 -1.46822
-15.8856 -12.8592 -1.6992
-15.9097 -12.519 -2.5614
-17.6117 -10.8881 -1.73099
-16.2313 -12.1363 -1.46737
-15.0559 -12.8401 -1.59015
-15.9718 -12.2936 -1.75467
-12.5354 -13.9792 -1.86049
-15.4365 -13.3163 -1.44581
-12.0246 -13.9084 -1.7519
-14.1182 -13.8747 -0.856941
-14.5394 -14.2032 -1.8623
-15.8832 -12.5814 -0.45996
-16.4865 -11.5496 -0.357624
-13.9564 -12.7772 -1.49436
-14.6306 -14.1492 -0.351916
-12.2943 -15.5808 -2.62432
-12.8186 -13.5958 -1.10234
-11.6488 -14.3473 -1.84981
-15.5907 -12.5123 -2.09344
-16.4085 -13.4406 -0.573319
-14.0619 -12.6772 -1.27557
-12.8172 -12.8342 -2.36626
-13.1838 -13.3009 -0.282686
-15.0704 -13.4335 -0.924441
-14.6483 -13.1476 -0.242059
-14.6103 -12.6548 -1.72693
-14.9175 -12.8535 -1.58528
-16.786 -12.7721 0.196593
-14.8117 -13.3547 -0.508784
-15.4099 -13.4101 -0.763915
-15.2285 -12.8706 -0.867113
-11.7692 -14.7721 -1.65716
-16.1031 -12.5253 -2.06104
-14.972 -12.9635 -0.555556
-11.9753 -15.4339 -1.01908
-14.2821 -13.0396 -1.1367
-15.2756 -12.9611 -1.39564
-13.5859 -14.5424 -0.804555
-12.8967 -14.1193 -0.859548
-16.5206 -12.5377 -1.11207
-13.9252 -12.9358 -0.52364
-14.2475 -13.7176 -0.337648
-14.3094 -13.0172 -0.674352
-15.7618 -12.7915 -1.91292
-14.9936 -13.5081 -1.63802
-15.6814 -12.5805 -0.535481
-14.3383 -12.7794 -0.443357
-14.3579 -14.3852 -0.547103
-16.1062 -12.4344 -0.559758
-14.8776 -12.978 -0.317555
-17.3829 -12.9382 0.392773
-16.3977 -14.4145 -0.00319069
-16.8974 -13.0488 -0.772257
-16.4471 -13.1627 0.308272
-16.0564 -12.347 0.910128
-13.7068 -14.6797 -1.23765
-14.3273 -14.4514 -0.358233
-12.1726 -13.9372 -1.67073
-13.5793 -15.2347 -0.342303
-12.6028 -14.8099 -0.827709
-16.5319 -13.1034 0.985527
-13.0318 -14.0798 -0.194598
-15.9208 -13.0001 0.265827
-16.1004 -12.6364 -0.393429
-16.1112 -12.3945 -0.125709
-14.2086 -14.7956 0.238112
-14.4558 -12.981 0.316037
-12.8318 -14.3644 0.0879083
-13.9929 -13.2597 0.765979
-14.1828 -13.699 0.178087
-14.9534 -12.4592 0.267548
-15.4307 -12.4819 0.352437
-12.8349 -14.507 -0.292605
-12.8524 -14.2822 -0.673553
-16.142 -12.8155 0.577809
-16.0525 -12.6973 0.284431
-13.0742 -15.0649 -0.295091
-13.5687 -14.0979 0.748224
-13.2014 -14.1414 0.660172
-13.0537 -13.9376 -0.322443
-16.9874 -11.9468 0.0668054
-15.3484 -13.7695 0.149689
-13.9978 -14.161 0.760528
-12.5381 -14.3769 0.628392
-14.2963 -13.9596 -0.523006
-17.3562 -12.6447 1.41832
-17.0287 -12.4352 0.113014
-16.659 -12.9023 0.20197
-16.7277 -12.6579 0.777941
-15.7059 -12.9789 0.916852
-15.7516 -12.4334 0.567529
-16.0294 -13.0734 0.444209
-14.881 -13.769 1.07519
-16.5388 -13.2782 0.49712
-16.3 -12.2685 1.20864
-14.6245 -12.8561 2.1458
-16.9132 -11.6332 1.59499
-14.2661 -13.897 0.623088
-15.3571 -13.2341 1.86942
-17.6175 -12.5519 1.78943
-16.5388 -13.9648 1.81599
-16.1849 -13.2098 1.53496
-15.8649 -13.1743 2.13022
-11.2957 -13.3978 1.72822
-11.7461 -13.3358 1.72198
-11.9959 -14.9181 -3.7298
-11.605 -14.4219 -3.10771
-11.9621 -15.949 -3.46265
-12.3581 -16.1455 -3.81229
-11.8225 -15.4344 -2.69308
-12.2697 -15.4661 -3.93114
-12.1582 -15.4663 -3.39861
-12.2358 -14.2552 -2.64167
-11.5551 -15.1564 -2.68351
-11.6446 -15.3919 -2.27722
-12.4651 -14.7637 -2.53931
-11.4512 -14.9063 -3.11426
-13.2212 -12.2144 -3.13651
-11.5822 -15.4014 -3.07794
-12.4601 -15.1878 -2.66001
-17.1872 -11.8238 -2.36246
-16.5257 -12.5831 -2.76036
-15.5906 -13.596 -3.25168
-15.5748 -12.9637 -2.88302
-13.4574 -12.8652 -2.8805
-12.4166 -15.1969 -2.50393
-16.654 -11.7686 -1.50787
-15.9488 -10.935 -1.09438
-15.7389 -12.2426 -1.30902
-12.7089 -13.9555 -1.83934
-13.0204 -14.3547 -2.04315
-12.0632 -13.7473 -2.10165
-11.9918 -13.4304 -2.16617
-13.5022 -13.0768 -1.42654
-13.1276 -14.3147 -2.52946
-14.4531 -14.0076 -1.76113
-16.5528 -11.4561 -2.20329
-13.0331 -14.2297 -1.44846
-15.9675 -11.6636 -1.77967
-14.955 -13.4694 -1.28389
-13.4399 -14.3654 -2.03886
-14.613 -13.3566 -1.92695
-15.9818 -14.049 -1.26262
-16.8519 -11.5351 -1.11925
-10.9641 -15.5004 -1.66425
-16.0577 -12.6487 -1.1465
-15.8911 -12.9121 -1.18371
-14.2121 -13.3991 -0.915357
-15.528 -12.965 -1.42088
-16.2177 -12.7709 -1.04748
-12.3805 -14.4676 -1.62061
-15.1381 -11.9558 -2.3396
-12.4704 -15.0668 -1.7797
-14.0845 -14.1931 -1.30609
-15.9602 -12.9367 -1.72244
-14.3134 -13.513 -2.11387
-15.1811 -12.4645 -0.671193
-15.812 -13.4401 -1.50503
-15.7508 -13.4129 -1.49893
-15.8329 -12.6594 -0.869251
-15.9641 -12.8361 -1.03796
-16.4199 -13.3602 -1.03113
-16.1278 -11.9922 -0.284611
-14.7337 -12.4348 -1.77532
-16.8715 -12.6787 -0.239884
-16.7534 -11.5888 -0.34218
-16.0151 -13.1678 -0.419312
-14.2532 -13.691 -0.29866
-13.6188 -13.2155 -0.949009
-15.5877 -13.6443 -0.212144
-14.5014 -13.3509 -0.56916
-15.4328 -13.7471 -0.171892
-15.1145 -12.9541 -1.04115
-14.7086 -13.8398 0.110261
-17.1023 -12.2815 -0.923386
-16.7543 -11.799 -0.505155
-16.4759 -12.1259 -0.501257
-16.3071 -13.2669 0.243364
-16.3307 -13.1782 -0.387472
-16.9692 -12.7684 -0.200195
-14.7863 -13.5304 -0.124518
-12.6875 -14.5918 -0.991867
-16.0527 -12.8194 -0.408469
-13.5217 -13.9308 -0.415404
-15.5147 -13.5435 0.249251
-15.1719 -13.3686 0.0196465
-12.339 -14.7312 -1.20727
-16.8155 -13.4827 0.567307
-14.2935 -12.2545 0.331763
-13.9655 -14.2984 -1.21374
-14.0265 -14.7317 -0.940094
-12.5023 -14.7617 -0.490479
-12.0259 -13.7264 0.0440001
-14.5089 -14.1423 0.872401
-13.4083 -15.07 -0.051445
-12.6852 -16.3308 0.664336
-14.7884 -13.6087 0.611558
-12.7637 -15.435 -0.665969
-14.0235 -13.8499 0.465847
-13.2509 -14.3811 0.420675
-15.2898 -13.47 0.366246
-15.5629 -13.5237 0.261711
-15.3911 -13.9124 0.702196
-15.5873 -13.7853 0.609201
-13.3024 -14.1909 -0.334978
-13.8751 -14.4663 -0.480694
-13.0549 -15.3489 0.691431
-15.4679 -14.4442 0.8759
-13.9021 -14.4645 0.669174
-14.2109 -13.3816 0.518646
-13.0411 -15.1063 -0.818363
-12.916 -13.3672 0.452725
-14.4757 -13.437 -0.398567
-14.4028 -14.5224 -0.451804
-15.9349 -12.7738 -0.161218
-14.8424 -13.0118 0.939951
-15.1128 -12.5196 0.745403
-15.5739 -12.8725 0.542204
-14.6932 -14.0656 0.200636
-14.3346 -13.9846 0.0408981
-13.8623 -13.5267 1.29047
-16.7898 -13.4843 0.0674355
-14.4229 -13.9477 0.585966
-13.1675 -14.1146 0.324538
-13.8937 -13.2522 1.54925
-13.577 -12.9955 1.00651
-13.1644 -14.8843 0.717532
-14.5699 -14.3407 0.597717
-12.0554 -15.0673 -0.0472621
-13.1965 -14.3276 0.0427138
-13.0323 -13.2114 0.906793
-11.9234 -14.6831 0.340654
-16.5777 -12.1068 1.15979
-16.2327 -13.2608 0.953143
-12.8259 -14.9405 0.632159
-13.9547 -14.1615 0.419092
-15.2082 -13.6012 0.148339
-14.1921 -13.7022 0.775062
-15.713 -12.7073 2.0086
-14.4607 -12.7808 1.31647
-13.4473 -14.1889 0.610965
-14.4251 -13.9695 1.63199
-13.8321 -13.7508 1.43658
-13.5227 -13.0932 0.371192
-15.389 -13.2107 1.14893
-13.8782 -14.768 1.38847
-13.767 -15.8085 0.931562
-13.5927 -13.8995 0.851837
-12.6975 -14.5103 1.19328
-16.428 -14.2545 1.26106
-12.2386 -14.3269 0.601765
-16.6886 -13.7188 1.31483
-12.624 -15.3117 1.03237
-16.9106 -13.0156 0.947692
-16.0466 -13.3752 1.11282
-14.6924 -13.7563 1.86958
-15.2017 -13.4822 2.86745
-16.429 -13.5653 2.80767
-15.8546 -13.2203 2.37557
-16.2928 -13.6391 1.96392
-16.3283 -13.117 1.88477
-15.2762 -13.4475 2.04721
-16.2396 -13.3678 1.79026
-12.7376 -12.0216 1.81544
-12.1067 -13.5552 1.46515
-11.3582 -12.7702 1.81038
-12.7742 -13.8762 1.81248
-12.2714 -14.6514 1.03262
-11.806 -13.103 1.32659
-11.5061 -12.9824 2.64258
-11.7155 -13.1825 0.818337
-12.6297 -13.9928 2.07475
-11.5478 -13.3545 2.27003
-12.1384 -12.1228 1.77704
-12.8316 -13.3545 2.17212
-12.3755 -12.9763 2.79485
-12.4287 -16.0398 -2.20519
-11.4912 -15.7319 -3.09148
-15.9872 -11.5073 -1.95208
-13.1392 -13.9159 -2.64175
-14.1108 -12.4133 -1.58662
-16.6758 -12.8747 -1.69291
-15.5557 -12.3638 -2.20808
-15.1022 -13.826 -1.50232
-13.1406 -14.2758 -1.91786
-15.3693 -13.6555 -1.29883
-15.3762 -12.1829 -1.45704
-12.3982 -15.3219 -2.78928
-16.1175 -12.057 -0.449526
-16.5583 -13.0555 -0.755831
-16.2011 -11.6589 -1.26626
-15.2935 -12.5869 -1.35706
-14.9214 -12.6453 -1.07825
-13.7948 -13.3943 -1.21474
-17.101 -12.4081 -0.582232
-15.509 -13.0169 -1.00131
-15.9365 -13.7722 -1.69198
-11.4972 -15.1429 -1.9805
-15.5144 -13.1172 -1.35961
-15.1234 -13.2943 -1.6149
-15.6294 -12.1482 -1.75848
-15.3909 -13.7376 -0.690228
-16.6638 -12.7526 -0.658427
-15.4387 -12.5605 -0.918488
-16.8924 -12.8529 -0.832626
-15.8241 -11.6545 -0.881846
-11.9446 -15.1151 -0.899312
-16.1653 -11.3262 -0.766392
-15.1235 -13.3193 -0.967765
-16.0192 -13.2759 -1.40305
-15.9757 -13.3257 -1.37263
-15.3949 -13.4991 0.0725533
-12.3497 -14.7221 -0.54784
-14.3104 -13.9415 -1.73412
-15.3467 -13.6867 -0.794714
-15.125 -14.0988 -0.351803
-16.6301 -12.9862 -0.208445
-16.5238 -12.2003 -0.442953
-16.1271 -11.1006 -0.84052
-16.0837 -12.8012 0.552963
-15.6086 -12.3363 0.38506
-14.8136 -14.5054 -0.473845
-13.3261 -14.6606 -0.61562
-14.0823 -13.0654 0.47348
-15.1455 -13.5265 0.010404
-15.9944 -12.7117 0.954937
-13.8707 -13.4519 0.145578
-15.9714 -11.9441 0.0659967
-15.479 -13.5147 0.292596
-13.4355 -14.6544 -0.461045
-15.7351 -12.9528 0.0630258
-13.3086 -14.9286 0.171991
-15.2567 -12.945 0.105077
-13.3076 -14.0326 -0.204173
-14.1073 -13.7914 0.163266
-12.0653 -14.9108 0.16077
-16.2335 -13.0322 0.34152
-15.4335 -12.798 0.747395
-16.2366 -13.0059 1.36436
-16.9056 -12.931 0.740761
-14.7853 -13.7803 1.21528
-15.6521 -12.7986 0.656623
-13.2945 -14.7948 0.447381
-15.5135 -12.507 1.41579
-15.4177 -13.2015 0.13796
-15.7916 -13.2263 1.15923
-16.3995 -13.682 0.553359
-13.2075 -15.0094 1.04084
-16.4576 -12.9679 2.17565
-15.6652 -13.4948 0.633125
-14.6528 -12.7541 0.829037
-14.9857 -12.1888 0.587797
-14.3081 -13.1012 0.513431
-13.4399 -13.4576 -0.0809386
-13.8875 -14.0382 0.489369
-15.9571 -12.1239 1.00028
-15.8308 -12.5863 1.1512
-15.7436 -12.5142 0.83504
-12.2008 -14.6686 1.04521
-12.6542 -14.5064 1.03863
-12.6806 -14.5016 0.536862
-13.138 -14.6326 0.286806
-17.0051 -12.8118 1.1522
-17.2977 -13.0288 1.98345
-16.0746 -13.1533 1.8447
-15.6095 -14.3371 0.965379
-15.0257 -12.9711 2.12009
-15.7421 -13.5127 1.76159
-12.2202 -12.3249 2.40923
-10.9516 -12.7134 1.9587
-13.4508 -12.5517 0.779958
-13.0027 -14.0816 1.66657
-12.8169 -12.1854 1.25327
-16.2997 -13.4153 2.78337
-12.0784 -13.2914 1.70175
-13.0959 -13.0958 1.67975
-12.0873 -13.5469 2.67842
-13.0145 -13.1756 2.38763
-12.2939 -13.3857 2.24649
-12.2936 -12.833 1.63805
-11.4695 -15.6419 -3.25362
-12.5949 -15.4166 -3.16337
-11.9261 -15.8447 -2.91667
-15.7443 -13.1113 -3.0094
-14.9534 -12.9816 -1.98555
-16.049 -13.0035 -1.79176
-13.055 -13.7482 -1.20317
-13.4357 -14.5437 -1.54527
-13.2077 -14.7148 -1.7704
-15.2493 -13.2868 -2.16711
-14.1507 -13.3679 -1.18631
-16.6718 -11.9607 -0.941494
-15.9543 -12.3601 -1.42389
-16.0284 -12.2448 -1.35293
-15.8856 -13.5756 -1.71032
-13.1835 -14.9315 -2.11852
-15.2219 -12.8324 -1.1237
-13.6749 -13.6803 -1.95295
-13.4653 -13.0224 -0.77025
-11.7629 -16.7157 -2.06247
-16.3788 -12.0485 -0.487565
-13.6089 -13.5688 -1.13358
-13.3821 -13.6116 -1.59159
-14.3724 -13.69 -1.50472
-15.4779 -12.8651 -0.600289
-15.5039 -14.5204 -1.95775
-14.2884 -14.4089 -2.21995
-16.2659 -12.545 -0.459142
-15.7764 -12.759 -0.548699
-14.4513 -13.7182 -1.44415
-16.1826 -13.3665 -0.751231
-15.6782 -12.4513 -1.77012
-14.9404 -13.1508 -1.47659
-17.4248 -12.8167 -0.216592
-15.7965 -13.2643 -1.91867
-15.0192 -13.1363 -1.03926
-14.8871 -12.0275 -0.991673
-16.1039 -12.6702 -0.0055159
-12.3166 -14.0239 -1.00093
-12.9813 -14.215 0.699859
-13.7992 -14.517 -0.109836
-12.894 -13.1821 -1.28543
-15.0509 -14.2429 -0.179168
-14.8007 -14.3046 0.182046
-14.2157 -13.9906 0.470047
-13.7064 -14.2934 -1.45039
-12.5295 -16.1745 -0.310219
-13.0527 -14.6771 0.386558
-13.8469 -13.244 -0.733539
-14.009 -13.0943 -0.283977
-15.0535 -13.2575 0.658213
-16.4754 -12.478 1.20057
-13.4814 -13.8625 -0.4285
-14.3361 -12.3667 0.117901
-12.8436 -14.7438 -0.340727
-13.3019 -14.0153 0.236167
-13.5704 -14.495 -0.571714
-15.044 -13.703 0.932408
-15.7443 -12.9673 0.186765
-16.8294 -12.9257 0.735204
-15.9314 -13.6581 0.00237303
-15.6527 -13.5328 2.0539
-16.3449 -12.4155 0.773198
-14.5323 -13.1828 0.921565
-13.7132 -15.3246 1.06672
-12.825 -14.6574 0.150808
-14.6823 -13.6619 0.79149
-12.6238 -14.4315 1.39455
-16.6137 -13.2855 1.21974
-16.985 -12.8759 1.61194
-16.111 -13.6216 1.51551
-16.2345 -12.0673 1.94773
-15.9367 -13.7562 1.60333
-12.954 -12.3021 2.14492
-11.3296 -13.5716 1.7539
-14.6799 -13.3661 -1.67094
-15.4953 -13.5746 -1.36503
-14.2203 -13.0415 -2.53886
-15.7799 -13.545 -1.90699
-15.9895 -11.8788 -1.46417
-13.7484 -13.3303 -1.87026
-13.4362 -13.7158 -2.09134
-12.495 -13.5559 -1.75032
-16.5246 -13.5136 -1.60009
-13.3045 -13.3747 -1.93706
-13.5409 -13.39 -2.462
-14.995 -13.2458 -1.27298
-14.243 -14.0812 -1.98498
-15.8841 -12.9635 -1.09397
-16.1008 -11.1903 -0.924356
-14.9241 -13.2974 -1.74509
-14.8758 -13.2209 -0.410516
-13.1667 -13.8483 -1.17217
-16.5377 -11.8529 0.904036
-15.9918 -12.844 -0.2487
-15.7464 -12.1147 0.345767
-13.6226 -14.1009 0.0258688
-13.7628 -14.6152 -0.511124
-13.199 -14.4567 0.229072
-12.6089 -15.7176 0.7627
-13.5493 -13.9696 -0.194776
-13.4098 -13.5076 -0.304437
-13.1642 -14.6898 -0.191447
-11.8615 -14.8667 -0.682817
-14.9805 -13.4584 0.285337
-15.8137 -14.089 1.09077
-15.6291 -12.9401 0.674673
-16.7539 -12.4725 1.0584
