-13.1573 -14.6549 -0.889379
-11.4972 -14.2607 -2.54672
-13.5202 -13.3128 2.43043
-14.3459 -13.5892 0.801028
-15.382 -13.5059 0.0666927
-16.0755 -12.5723 -0.655166
-16.0255 -12.7721 -0.5711
-16.3827 -12.0149 -0.0317852
-15.4021 -13.7592 -0.888112
-16.591 -12.0688 -1.05089
-15.1081 -12.3122 -1.21758
-15.9922 -13.3876 -0.9615
-12.431 -13.9611 -1.93367
-16.1141 -13.1738 0.45826
-16.9162 -12.3967 -0.203701
-16.1637 -12.8696 0.0366151
-14.0734 -13.9485 0.990575
-16.0998 -12.6495 -0.105156
-15.5091 -13.5276 -0.0587828
-15.3635 -12.9837 -0.294904
-13.7447 -14.835 0.666382
-15.4998 -13.3795 -0.207598
-15.2079 -13.0554 -0.156145
-14.8968 -12.8441 -0.34616
-16.3898 -12.3614 -1.27398
-14.5667 -13.5577 -2.0632
-13.4935 -13.5744 -2.21397
-12.6906 -13.6034 -2.83169
-13.28 -13.4907 0.0271156
-13.4787 -14.7637 1.74636
-15.4626 -13.2393 -0.882545
-12.5915 -15.0577 0.359928
-15.2938 -12.8489 -0.456784
-14.3459 -14.5374 -1.12368
-14.8174 -13.4997 -1.63561
-14.9709 -13.2263 -1.63074
-14.3506 -14.1022 -2.7265
-15.8517 -13.4107 0.430518
-16.2436 -12.3206 0.558177
-14.4582 -14.3108 0.321547
-16.2352 -12.1587 0.110933
-12.84 -14.3757 0.550812
-15.3197 -13.5693 -0.0195519
-14.6633 -13.4489 0.11504
-16.2461 -13.3508 1.7818
-16.6616 -13.1112 0.130001
-16.4226 -12.9746 1.18051
-16.1589 -13.4143 0.317201
-15.5003 -13.2795 -0.240288
-16.2661 -12.7147 0.1699
-15.9075 -13.2242 -0.855564
-16.1529 -12.979 -0.435598
-15.6017 -12.0979 0.257723
-16.5031 -12.5484 -0.211421
-16.006 -12.9204 -0.0469669
-15.9829 -12.3857 0.0124677
-16.0738 -12.9654 -0.217815
-16.29 -12.0484 -0.646304
-15.0733 -12.2619 -1.26154
-15.3801 -12.9585 -1.37239
-15.2646 -12.2926 -0.349382
-15.2555 -12.8437 -0.610259
-15.6154 -13.0328 -1.42474
-15.0867 -12.1846 -1.63381
-15.1029 -12.7119 -1.73721
-15.9611 -12.6724 -1.49604
-14.4547 -12.7965 -0.971218
-14.5311 -13.5625 -2.40103
-15.6665 -12.7318 -2.16984
-15.2167 -12.9147 -2.03215
-13.3693 -13.3846 -2.06906
-14.2217 -13.28 -1.9868
-12.4756 -13.3056 -0.884557
-11.7971 -14.4757 -3.17453
-12.5563 -14.0654 -2.78189
-11.9571 -15.2773 -3.35596
-13.2893 -12.484 3.02799
-15.7435 -12.7222 1.12817
-15.1771 -12.7257 0.806917
-15.6167 -12.4483 0.725606
-15.1064 -12.3209 1.2123
-17.262 -12.5628 0.87433
-15.4804 -12.7595 -0.294317
-16.7466 -12.6937 -0.04865
-14.6264 -13.4128 0.288683
-13.7693 -13.8524 -0.783138
-16.0415 -13.257 -0.488814
-16.1081 -12.3372 -1.3417
-14.2712 -13.9472 -1.43489
-15.2123 -13.1402 -1.60522
-16.2142 -13.9964 -1.72047
-14.9777 -13.0293 -2.15816
-13.3765 -13.8503 -1.33649
-14.7432 -13.2998 -1.70661
-14.6561 -13.2471 -1.83777
-12.7533 -13.8423 -2.281
-16.4842 -13.6868 1.67568
-15.8345 -14.245 0.535346
-15.9115 -12.7983 0.299078
-15.8072 -12.7787 0.898427
-14.5494 -13.2276 -0.325267
-16.0966 -13.1383 -0.254698
-13.3243 -14.3725 -0.271327
-15.0302 -12.48 0.157051
-14.4204 -12.5222 0.29231
-16.1341 -11.8055 -0.389855
-16.1162 -12.476 0.321456
-15.7631 -12.1615 -1.75733
-15.043 -13.3346 -1.76719
-13.3609 -13.9397 -1.97713
-14.7356 -13.2371 -1.00535
-15.5824 -13.7321 0.278238
-13.721 -13.1215 0.983818
-15.51 -13.0819 0.42272
-15.1057 -12.2053 -0.593125
-12.3516 -14.3583 -0.82654
-15.1105 -13.9866 -1.37777
-14.2457 -13.2811 -1.19631
-14.2684 -12.8818 -0.878925
-12.5976 -13.9258 -2.12772
-15.2743 -13.4347 0.393188
-15.1458 -13.4205 0.364373
-16.4683 -12.8217 0.76815
-13.5807 -13.6583 0.374729
-13.5671 -14.7489 -0.236256
-14.969 -12.6455 -1.33733
-14.7975 -12.1698 -2.52522
-14.0686 -13.0732 -1.82458
-15.3825 -13.8941 1.05383
-15.841 -12.4847 0.76953
-16.3779 -12.1957 0.0481663
-15.45 -13.0331 -2.15231
-14.6541 -13.6448 -1.6707
-15.9382 -13.2954 0.921563
-14.8281 -13.605 0.840273
-14.3431 -13.0882 0.91052
-13.4055 -14.3599 -1.42116
-13.2483 -13.3561 -2.06947
-12.8704 -14.4487 0.301963
-16.6368 -12.8427 1.02631
-13.2112 -14.0219 0.297066
-12.606 -14.1559 -2.26558
-16.7271 -13.6958 2.18147
-15.8519 -13.4639 0.74883
-15.9867 -13.1263 1.92265
-15.9199 -13.1638 1.14932
-16.8876 -13.303 1.29094
-16.5658 -13.2094 0.421008
-15.635 -13.4939 1.30797
-13.9076 -12.8502 0.809677
-16.3787 -12.3332 1.27215
-16.1347 -13.2572 0.37155
-17.5481 -13.6756 0.682333
-16.2115 -13.2517 1.56124
-16.3852 -12.7963 0.887486
-15.3101 -13.0396 0.690278
-17.2645 -13.6806 0.844823
-15.8873 -14.5298 0.950093
-15.1891 -13.9188 -0.216378
-15.1935 -13.8712 1.73192
-15.3549 -13.8353 0.775918
-16.1755 -12.2779 0.888139
-16.4254 -12.6836 1.12337
-14.7803 -13.7131 0.244338
-15.8067 -12.8428 -0.0640951
-13.4499 -15.1622 -0.244934
-16.4957 -12.6766 0.356029
-16.3246 -12.5491 0.802567
-13.3614 -14.8536 -0.657399
-13.4782 -13.6055 -1.03862
-15.601 -13.3523 -0.297092
-16.247 -12.499 0.0346044
-15.9715 -13.3904 -0.231751
-15.8379 -12.9958 0.452789
-15.9539 -13.5877 -0.674403
-15.9905 -12.8711 -0.784391
-16.8351 -12.2653 -0.67278
-14.962 -13.398 -0.334507
-15.7717 -12.4034 -0.554343
-15.0871 -13.7248 -0.528336
-15.4064 -13.0581 -0.324425
-14.7995 -12.4831 -0.787214
-15.7744 -13.9978 -1.56948
-14.655 -14.0529 -0.531169
-15.3276 -13.7067 -1.45868
-15.2815 -12.1307 -1.2151
-15.4115 -12.6753 -1.3259
-16.5089 -12.6967 -1.7304
-16.6366 -12.3607 -1.50254
-16.3404 -12.0961 -1.03136
-15.3036 -13.7135 -1.60143
-14.5514 -13.4918 -2.40176
-14.3205 -13.5151 -1.0235
-14.712 -13.7695 -2.42197
-15.4707 -12.2401 -1.7306
-14.4257 -12.271 -1.16235
-15.5666 -12.8014 -2.34063
-16.0993 -12.9357 2.69178
-13.6665 -12.8142 1.35883
-14.2675 -13.3458 1.42625
-13.4474 -14.2044 0.285534
-15.7516 -13.1364 0.547537
-13.47 -14.7545 0.373616
-13.5384 -14.1744 -0.286515
-14.7938 -13.1386 -0.425259
-16.1624 -13.1728 0.339647
-15.4615 -13.4472 -0.424291
-12.9381 -15.0433 0.045997
-16.0276 -12.2653 -0.618761
-15.6239 -13.5881 -0.720476
-15.0565 -12.5103 -0.776728
-13.9175 -12.9442 -1.4166
-13.0056 -14.6844 -1.08884
-14.5197 -11.9262 -2.08629
-15.4091 -12.3351 -1.50129
-15.075 -12.6877 -2.55959
-13.9426 -13.401 -1.44764
-15.3267 -12.7294 -2.11813
-15.2258 -13.3239 2.07746
-14.0159 -13.9685 2.51197
-14.8269 -13.2004 1.32243
-16.4997 -13.1163 1.40924
-15.5827 -13.6492 0.885398
-17.2889 -14.4401 2.01351
-15.2424 -13.9522 0.534523
-15.6248 -12.7117 0.854989
-12.9323 -13.9112 0.241884
-14.0314 -13.8578 0.134444
-15.2577 -12.7228 0.202366
-15.8035 -13.5074 0.959374
-15.873 -13.1615 0.0364766
-15.9205 -13.0181 0.582117
-13.7924 -13.7331 -0.540774
-13.9132 -13.4239 -1.8017
-14.853 -13.6289 -1.20739
-13.5172 -13.7605 -1.26561
-14.2878 -14.2426 1.07188
-14.5709 -13.8235 0.874609
-14.5323 -14.081 1.55044
-15.2824 -13.6704 0.968181
-13.4963 -15.0243 0.0565542
-13.5721 -13.3162 0.592896
-15.1541 -13.0334 -0.91504
-15.6611 -13.7668 -0.157713
-15.6731 -13.4412 -2.34888
-13.5193 -13.5196 -1.69216
-14.7311 -13.7015 2.32194
-13.0819 -15.0238 -0.271626
-13.0876 -14.692 -0.522014
-12.4138 -14.0075 0.603603
-15.5945 -13.8181 -0.802129
-16.0413 -13.1254 -1.06056
-15.0908 -13.101 -0.701105
-12.9707 -14.5143 -2.46992
-13.3401 -13.3842 -1.96932
-11.8081 -13.3638 1.67061
-13.6279 -13.8742 1.58026
-14.2705 -13.1931 1.03965
-13.1136 -13.4596 -0.169386
-16.5111 -13.6585 -0.0151188
-12.7438 -14.3647 0.901461
-13.6508 -14.0993 1.59562
-15.6256 -12.9173 0.547495
-13.7204 -13.7166 -0.947233
-13.7288 -12.5904 0.955351
-15.488 -13.2405 0.0863137
-15.6428 -13.7788 -0.490223
-12.5888 -13.7249 0.585064
-14.1971 -13.1304 -2.12177
-15.7414 -13.7853 -2.15881
-15.1834 -13.4189 -3.2198
-14.7484 -12.9884 -1.51353
-15.4648 -12.6796 -1.46778
-15.2587 -13.0608 -1.3313
-15.5145 -12.1505 -1.5212
-16.5286 -12.1662 -0.338694
-15.74 -13.6242 -1.4092
-16.2775 -12.0244 -1.69562
-15.7071 -12.3923 -1.13205
-14.4221 -12.9148 -0.80808
-14.8083 -13.3529 -1.46831
-16.8294 -12.5773 -0.710868
-15.1733 -12.4894 -1.04083
-15.5726 -12.1884 -2.07893
-15.6408 -13.7189 -1.71458
-15.1749 -13.0991 -0.33091
-15.2735 -12.102 -1.56781
-16.0063 -13.9462 -0.258715
-16.5285 -13.0445 1.23401
-16.544 -12.5596 0.0180015
-16.8761 -12.9966 0.47286
-15.2879 -11.9899 -0.238158
-14.9081 -13.2322 -0.0365128
-15.4242 -11.8495 -0.154783
-16.1556 -12.8047 -0.348562
-15.3497 -12.944 -0.25638
-16.928 -13.3483 -0.359305
-16.2658 -12.6346 -0.383386
-16.1866 -13.9288 -0.211442
-16.0083 -13.452 0.50864
-16.3755 -12.0368 0.169208
-13.0416 -14.2768 -0.320594
-12.9285 -14.1629 -0.973291
-15.0479 -13.3659 0.389795
-16.0738 -12.9781 -0.357621
-15.7013 -12.7494 -0.0298786
-13.9509 -14.2811 -0.703719
-14.182 -13.5928 0.146727
-16.0833 -13.4724 0.0836543
-16.227 -12.3445 0.637896
-12.9503 -14.9371 -0.488647
-13.6285 -13.2399 0.241908
-16.6809 -12.7149 0.883839
-16.5108 -11.8421 0.530473
-16.4492 -13.2445 1.08928
-13.8387 -14.8795 -0.0185753
-15.9709 -14.046 1.96447
-15.9894 -12.9437 0.252198
-13.348 -14.2746 0.0971291
-16.2602 -12.9233 0.776517
-16.0039 -13.4029 1.15469
-15.4433 -13.1689 0.375551
-16.4932 -12.235 1.17391
-14.8289 -13.812 0.287371
-14.1139 -14.001 0.0555238
-16.1876 -12.3571 0.691287
-16.6065 -14.6523 0.934231
-16.0397 -12.5387 0.976546
-16.7883 -13.22 1.25223
-15.8993 -12.8586 1.21787
-15.9084 -13.1496 1.0436
-14.6417 -13.6111 2.05306
-12.3557 -13.4497 -1.79483
-15.694 -13.4497 -2.15483
-15.4611 -12.9481 -2.38395
-14.7615 -13.6192 -2.55919
-15.1559 -13.0579 -2.01646
-12.1997 -14.6055 -2.78807
-16.2148 -12.6881 -1.71876
-15.0825 -13.6345 -2.08448
-15.9798 -13.0683 -1.1716
-15.2857 -13.0644 -0.923583
-15.29 -12.4978 -0.399616
-15.3372 -12.8722 -0.709062
-15.5872 -13.5473 -0.66676
-16.0993 -12.6811 -0.370126
-15.2403 -12.7907 -1.05231
-15.5741 -11.6049 -0.431316
-15.6878 -12.9464 -0.749667
-16.7313 -12.8416 -0.904246
-16.6551 -12.8547 0.136275
-15.7934 -12.6053 -0.65669
-14.327 -13.2345 -1.30023
-15.5664 -13.0551 -0.309777
-16.7066 -12.4187 0.215665
-15.5528 -12.4894 -0.25732
-16.2764 -12.4821 0.178778
-16.8519 -12.7642 0.736597
-15.1943 -12.6451 -0.60194
-14.1933 -13.7146 -0.204772
-16.9499 -12.3329 0.947033
-15.726 -13.2281 -0.111938
-15.4969 -12.7587 -0.435391
-15.8542 -13.8149 -0.634682
-15.9727 -13.7895 -0.408513
-15.4513 -12.8989 -0.0926467
-16.0345 -12.8635 -1.00448
-14.9782 -13.2134 0.206922
-13.4331 -13.7195 -0.429939
-15.5286 -13.7761 0.0382878
-11.8216 -15.0584 0.053401
-16.18 -13.3071 0.717523
-12.2688 -14.1587 -0.760738
-15.891 -13.5098 0.584879
-12.532 -14.8956 -0.163699
-15.6031 -12.7971 0.00495843
-13.3468 -14.0935 0.289992
-15.1779 -12.2883 0.670652
-14.9102 -13.5202 0.517486
-12.975 -14.8956 0.436044
-15.7137 -13.044 0.672256
-12.6181 -13.8858 0.42411
-15.541 -12.9286 0.944952
-13.1449 -14.0498 0.571768
-13.4895 -14.354 -0.478945
-15.9526 -12.4808 0.0898638
-15.8221 -12.7376 0.333434
-16.362 -12.4623 0.722151
-16.4014 -14.5653 0.659058
-15.9516 -12.5561 0.434168
-15.7806 -14.1588 0.256529
-15.8963 -13.763 1.2922
-14.0313 -13.6913 1.2461
-12.3013 -14.5008 1.48501
-15.7076 -13.0476 1.83575
-15.6556 -13.274 1.61727
-16.4968 -13.3754 0.387925
-17.836 -13.8313 1.44607
-16.3142 -13.5118 1.02499
-13.233 -13.7999 1.86788
-11.6615 -13.6338 -1.55785
-15.4129 -12.0173 -1.38834
-15.5491 -14.1947 -1.3794
-14.924 -12.0234 -0.768595
-16.351 -13.3779 0.487767
-12.691 -14.3924 -0.376907
-14.0132 -13.9231 -1.18911
-15.5948 -13.0603 -1.12778
-16.1224 -12.1218 -0.449627
-16.4293 -12.5695 0.357974
-14.4317 -14.3696 -0.291533
-13.356 -13.9126 -0.110704
-15.9081 -13.3776 -0.155229
-16.8267 -13.5221 0.0495527
-14.7841 -13.6498 -1.05011
-16.0246 -13.3799 -0.404893
-14.5939 -13.8902 -0.581236
-16.4072 -13.1145 -0.376569
-15.8696 -12.1518 0.0760181
-16.6396 -13.237 -0.885289
-14.9383 -13.9152 0.21683
-13.534 -13.7689 -0.223843
-16.2793 -12.798 0.0503263
-13.5495 -14.5029 0.117486
-13.3573 -15.0941 -0.0564594
-13.5317 -14.3231 0.686972
-12.7269 -15.2834 0.80883
-13.2435 -14.3173 0.12735
-16.3321 -12.7725 0.712807
-12.6641 -14.2473 -0.214831
-15.3051 -13.0838 1.04956
-13.7663 -14.4865 0.940596
-15.8299 -13.3569 0.587267
-17.1161 -13.2446 0.334262
-14.8783 -13.9524 1.22192
-16.8364 -12.8654 -0.0624933
-16.4101 -12.9084 0.82262
-13.3687 -12.7365 0.723178
-14.1124 -12.9507 0.867341
-15.5793 -13.4132 0.471591
-15.7213 -13.8134 0.999032
-15.744 -12.5605 0.600155
-15.3783 -13.6021 1.5668
-15.6081 -13.6588 1.26765
-11.4274 -13.7318 0.359578
-13.3612 -12.2666 2.37554
-15.8318 -13.1402 2.27759
-15.4345 -12.8615 -1.11441
-13.2166 -12.954 -2.68848
-15.1807 -13.3013 -1.53787
-16.4476 -11.8635 -1.30904
-15.3241 -12.5772 -1.96128
-16.9709 -13.0163 -0.0502729
-15.1694 -13.2068 -0.0353663
-16.3008 -13.0539 -0.959025
-15.8291 -12.8021 -0.65578
-16.092 -12.3289 -1.06829
-15.0358 -13.2552 -1.58533
-15.251 -13.1433 -0.74456
-16.1837 -13.3596 -0.812548
-16.0028 -13.7194 -0.187134
-15.3411 -12.6611 -0.283177
-15.4766 -12.6016 -0.546207
-16.3233 -12.4942 0.13397
-13.3302 -14.2883 -0.100789
-13.4979 -14.3248 -0.519052
-13.0869 -14.7404 0.607058
-13.2195 -13.9267 -0.225429
-12.9841 -13.8128 0.842547
-15.8123 -13.1323 -0.709005
-16.8087 -12.476 0.241654
-13.1511 -14.5419 0.244375
-14.1829 -13.5971 0.978671
-13.5163 -14.7283 0.592857
-15.6601 -13.2522 0.552917
-15.0786 -12.804 1.08794
-16.194 -13.0283 0.848698
-16.6247 -13.6244 1.30179
-16.6755 -13.4209 1.32251
-16.042 -14.5826 0.930959
-15.6697 -12.9932 1.13325
-15.3898 -12.7998 2.19823
-16.5942 -12.7915 2.28479
-15.7223 -13.7445 1.89116
-15.8313 -13.228 2.27134
-16.5117 -13.4201 1.21574
-16.0797 -12.8012 1.80083
-15.7215 -14.4373 -0.144664
-12.3361 -12.8672 2.0733
-14.6167 -14.5884 2.00679
-17.1981 -12.1824 2.64815
-16.6335 -13.4278 -1.51637
-13.7071 -13.6102 -1.06031
-13.0121 -13.6237 -2.45452
-15.1852 -12.4887 -1.64158
-16.52 -12.3737 -2.44837
-15.643 -13.1398 -0.817245
-14.2635 -13.4156 -0.874685
-13.4887 -14.0934 -0.639497
-12.1712 -14.6152 -0.936004
-14.5832 -14.2622 -0.759922
-15.0451 -13.8887 -0.475682
-16.2563 -13.1853 -0.218373
-15.4028 -13.8903 -0.694797
-14.4844 -13.8974 -0.766151
-16.055 -13.017 -0.283089
-15.6121 -12.8082 -0.126576
-14.8239 -12.8093 -0.481193
-13.899 -13.5496 -0.48204
-12.0034 -13.5474 -0.305505
-12.5904 -14.1053 -0.176338
-13.8681 -13.8453 0.571059
-16.3636 -12.7149 1.08632
-13.1147 -14.1748 0.884663
-15.1225 -13.2412 1.60593
-12.8328 -14.0306 -0.0246458
-15.7218 -13.2085 0.539078
-13.861 -14.6639 1.12697
-15.1518 -14.1122 1.6129
-15.6637 -12.8151 1.71184
-15.4936 -13.741 2.06794
-15.1371 -12.9223 1.0558
-17.0115 -13.5145 1.53819
-15.5056 -14.1224 1.50195
-12.7796 -13.5281 2.30033
-16.0475 -13.5258 1.51275
-15.6631 -13.3552 1.66198
-12.4185 -12.4154 2.03323
-14.1417 -12.719 -1.97274
-15.7766 -12.8013 -1.33292
-15.0685 -13.1436 -0.363565
-13.5265 -13.2121 -0.75233
-12.4927 -13.3437 -0.658671
-15.0532 -13.5877 -0.0267112
-12.9697 -14.2053 -1.26342
-14.1375 -14.9681 0.153347
-12.7358 -14.6272 -0.272658
-13.72 -13.9674 0.652195
-12.6661 -13.3346 0.658569
-13.0593 -14.1934 0.326672
-15.6875 -13.8509 1.02823
-16.8901 -13.6907 1.21222
-15.9656 -13.7588 2.24062
-15.538 -13.4546 1.82827
-16.5239 -13.6817 2.24451
-12.6873 -13.952 2.67236
-12.9133 -13.2977 -0.91205
-15.9745 -12.0986 -0.293994
-15.3008 -13.3124 0.271854
-15.838 -12.8385 -0.268304
-16.2315 -12.6416 0.0977957
-14.7043 -14.7553 -0.327026
-14.9009 -13.6752 0.766825
-14.6555 -13.077 1.77203
-16.0178 -13.5672 0.336784
-13.5263 -13.4287 1.40277
-13.9717 -13.8495 -0.659122
-15.4946 -13.7234 -0.674518
-13.55 -14.1512 0.268514
-12.6917 -14.6994 1.13932
-14.5395 -13.4463 0.547717
-15.5513 -13.3179 1.07626
-12.9091 -13.605 0.592387
-15.0022 -13.0819 1.09
-13.4026 -13.2281 -0.391111
-15.4703 -13.1559 0.839888
-13.662 -13.6608 0.156037
-15.1966 -13.0509 -0.701931
-16.218 -12.6289 -0.43754
-17.1071 -12.4715 0.148516
-16.0225 -12.0818 0.299646
-16.5775 -12.3585 0.892291
-16.2082 -13.364 0.867652
-16.0151 -13.7037 0.404334
-15.4476 -12.533 -1.3127
-15.655 -13.2021 -2.06123
-15.6595 -13.3276 -1.56501
-16.106 -12.1239 1.24907
-16.1378 -13.6782 0.644083
-17.1632 -13.3348 1.20677
-16.0727 -13.3344 -0.125437
-14.9982 -13.2708 -0.58059
-16.5156 -13.125 1.42972
-15.025 -13.344 1.73985
-13.7643 -13.9182 0.155666
-15.0418 -13.56 0.940323
-13.9683 -14.3343 -1.32318
-13.9435 -14.162 -0.412725
-14.851 -14.1395 0.656564
-13.1602 -14.2367 0.228106
-12.0363 -14.8929 1.01103
-13.0411 -14.8119 -0.859117
-12.4573 -15.1725 -0.283529
-13.4585 -14.3015 0.968041
-12.8888 -14.3968 0.548486
-12.1072 -14.8071 1.72813
-17.128 -12.6951 -1.41646
-16.3445 -13.5001 -0.775724
-15.6971 -12.7581 -0.0447337
-16.4341 -12.6379 -0.430126
-15.9499 -12.7163 -0.759156
-15.2225 -12.6487 -0.419257
-16.3978 -13.3231 -0.740863
-15.7105 -13.4238 0.0330529
-16.0062 -12.9125 0.729179
-15.4384 -12.6975 0.332519
-16.1889 -12.7552 -0.0546818
-14.9801 -13.0785 0.373432
-15.9352 -12.5799 -0.316889
-15.0289 -13.3552 0.701234
-15.2581 -13.5738 2.01709
-15.1593 -13.1768 -0.561736
-16.1881 -13.6911 0.356314
-16.1001 -12.3509 1.75871
-14.9738 -12.8224 2.28415
-13.0514 -14.0596 -2.27181
-13.7102 -13.0174 -0.603399
-13.6598 -14.4909 -1.1783
-12.9157 -14.2555 -2.59567
-14.0286 -14.2133 -0.249296
-13.4153 -15.0325 -0.660831
-13.4522 -14.7404 0.193205
-14.7448 -14.0861 1.68955
-14.5558 -13.0471 1.30891
-11.5105 -14.6251 -0.636791
-13.824 -14.5175 -0.342631
-12.9916 -14.4548 0.77706
-13.7059 -15.0586 0.030524
-13.2923 -14.6604 -0.178278
-15.5492 -13.3703 2.30573
-13.2305 -14.1739 0.388966
-13.5117 -14.5802 -0.283653
-13.3071 -14.9379 0.260601
-13.2038 -13.6513 0.546757
-12.6829 -14.9601 -1.0347
-11.6552 -15.5937 1.21691
-15.9643 -12.4985 -1.6882
-16.4388 -13.3092 0.139456
-15.3381 -13.2679 -0.93255
-15.6099 -13.0479 -0.341732
-15.5673 -12.8915 0.0793199
-15.6529 -13.2703 0.436494
-16.3056 -12.9214 0.723835
-16.7316 -13.2708 -0.642133
-15.207 -12.3138 -0.522451
-13.7274 -13.2139 -1.75901
-15.7443 -12.6489 -0.597629
-16.3493 -13.3104 0.785701
-14.5234 -13.0255 -1.6556
-15.6397 -13.7562 0.342916
-16.4856 -12.2044 2.09422
-15.1838 -13.2333 -0.823102
-15.9673 -13.984 2.42901
-16.2362 -13.4209 2.55987
-15.0586 -13.2402 0.62325
-13.748 -14.4727 -2.3289
-13.9287 -12.7308 -0.251528
-14.1331 -13.5792 -0.773121
-14.5789 -14.1626 -0.597412
-12.9385 -13.8016 -2.82029
-14.3802 -14.3787 -0.210481
-14.6453 -13.7771 0.343412
-13.5334 -13.8837 0.233937
-14.8468 -13.7456 0.73516
-14.1612 -13.3984 -0.15048
-14.1702 -13.8437 -0.386401
-13.1313 -13.9611 -0.291612
-13.6159 -13.6317 0.696256
-14.0068 -14.4951 -0.65424
-13.6391 -14.271 0.389903
-12.7181 -14.4562 -0.511084
-12.4166 -15.0405 -0.498093
-13.3704 -14.535 0.477724
-12.5996 -14.0668 -1.02173
-13.1876 -14.4088 -0.703619
-13.0249 -13.9234 -0.363185
-13.2891 -13.5097 0.0917904
-14.7866 -13.9507 1.52562
-13.2396 -14.0318 0.913882
-12.5414 -13.8513 1.56867
-13.1817 -13.4628 1.42403
-12.1087 -13.6068 2.52108
-17.1653 -11.3775 -0.906088
-15.3775 -12.5402 -1.37734
-16.2325 -12.3858 1.69045
-14.6393 -12.9734 -0.784404
-17.3446 -12.3541 0.197672
-14.6233 -13.3503 -1.45575
-16.2881 -13.2967 0.239001
-15.5012 -13.3586 -1.73146
-15.0732 -13.5174 -1.13559
-15.7569 -12.626 0.76722
-16.1567 -12.2906 -0.780021
-14.6709 -13.0853 -0.048021
-16.0603 -14.1013 0.850341
-15.5126 -13.4267 0.107244
-15.3811 -13.41 0.770959
-15.0364 -13.3108 -0.337107
-16.8903 -13.3129 1.41815
-14.2938 -13.5941 -0.663325
-13.3526 -14.1807 -1.31113
-13.8041 -14.5685 -0.80184
-13.7028 -14.1001 0.116446
-14.0548 -13.1918 1.9359
-13.2427 -14.3799 -0.949191
-14.1923 -13.9107 0.3326
-14.2647 -12.6734 2.2572
-13.239 -13.4831 0.273885
-14.3596 -13.9449 2.13252
-13.9527 -14.3573 0.266696
-12.4889 -14.6227 -0.336451
-13.6113 -15.1754 -0.421428
-12.9409 -14.7734 -0.805967
-12.488 -14.9976 0.708859
-14.0254 -15.2291 0.852875
-12.6594 -13.7585 2.08954
-16.6501 -11.5389 -0.421952
-15.6765 -12.7813 -0.844566
-15.907 -12.1388 -1.00189
-16.2811 -11.8 -1.88465
-16.6922 -13.0065 -0.489639
-16.3389 -13.453 0.167674
-15.4312 -13.0928 -0.587113
-14.8297 -12.7086 -2.33485
-14.8944 -13.5453 -1.74683
-16.1094 -12.8528 0.943181
-16.1349 -13.3743 -0.246937
-16.6326 -14.6881 0.771339
-13.8071 -12.7848 -2.54622
-13.3391 -13.6508 -0.88543
-15.3307 -13.9161 0.761522
-13.0989 -13.2319 -2.17544
-14.4299 -13.5064 -2.56175
-13.5559 -13.8211 -1.75927
-15.9818 -14.2478 0.801327
-13.2156 -13.8389 -0.275816
-14.0322 -14.2012 -0.0736053
-14.103 -13.9337 -1.51455
-14.5973 -13.1782 0.239833
-11.9587 -13.5593 -1.99165
-13.2714 -14.9776 -2.54889
-13.9388 -14.4462 -0.472391
-12.962 -14.048 -0.379534
-13.3404 -14.0085 1.71713
-13.4941 -13.8829 0.297995
-12.6034 -15.0345 -1.16496
-13.2933 -14.4922 0.468973
-13.8995 -14.3438 0.588929
-12.7414 -15.2957 -1.18701
-13.5608 -14.4773 0.53259
-13.629 -14.0621 0.855665
-12.6021 -15.1454 1.05465
-14.6929 -14.0445 2.51438
-13.3619 -14.9315 0.94827
-12.4927 -14.126 0.717112
-16.1776 -12.6315 -1.35505
-14.9266 -13.2531 -1.49029
-16.0737 -13.8446 -1.72341
-15.7074 -13.2249 -1.76261
-15.9608 -13.7355 1.8872
-15.8084 -14.193 -0.407393
-15.8226 -12.616 -1.18
-15.9364 -14.156 0.753176
-16.1084 -13.8935 1.61418
-13.4977 -13.6446 -2.83974
-16.5007 -14.3135 2.00074
-12.9381 -13.6436 -1.54243
-14.2498 -13.861 -0.918538
-15.2901 -13.7249 -0.33102
-12.13 -14.3411 -0.259339
-11.44 -13.9581 -2.54522
-12.9828 -14.3809 -2.63879
-14.9977 -13.1776 1.73741
-13.3195 -14.4434 -1.1233
-13.167 -13.7445 2.05164
-16.8156 -12.1733 -1.86653
-17.1206 -12.9689 -0.667048
-16.3616 -11.9536 -0.310911
-17.1669 -12.5393 -0.830245
-17.6321 -12.6903 0.671997
-14.0201 -12.5346 -1.29644
-16.0175 -12.2698 0.67613
-16.3218 -13.1896 0.856072
-13.7898 -13.661 -0.537937
-13.8258 -14.2609 -0.641452
-12.9189 -13.3018 -1.17336
-13.4636 -13.7924 0.43142
-14.5886 -14.5745 0.0446746
-12.3885 -14.8644 -1.24603
-12.7314 -13.5085 1.72824
-16.6368 -12.5392 0.372782
-14.3926 -13.0459 -0.881722
-13.3774 -13.998 -1.77709
-14.6491 -13.5295 0.744042
-13.7341 -15.2583 0.107807
-16.2872 -13.76 0.363425
-15.4032 -13.8149 -0.151039
-13.1924 -13.9437 -1.64852
-12.6142 -13.8443 0.230684
-14.8909 -13.2089 -0.430123
-13.0168 -14.5076 -1.52496
-13.1303 -13.7314 -1.06792
-14.6102 -12.7492 1.20206
-12.5133 -13.7503 1.11907
-14.1151 -12.9824 0.381546
-13.0103 -13.6815 -0.378796
-13.8647 -14.3508 -0.081908
-13.7039 -12.3078 -1.34383
-16.2781 -13.3207 0.872382
-16.4837 -12.7929 0.376002
-16.6839 -12.4228 0.507676
-15.8034 -13.9053 1.95856
-15.9525 -12.7332 0.702557
-16.1873 -13.0897 0.0797774
-16.8681 -14.3223 0.744594
-15.5499 -12.8646 -1.2727
-16.8423 -12.2686 -1.50086
-15.153 -12.6049 -0.187563
-15.7189 -12.0352 -1.49203
-16.0977 -14.0162 -1.62219
-15.7229 -12.6592 -1.14932
-14.3549 -12.3011 -0.366252
-14.5591 -12.7643 -1.29201
-14.5932 -14.0323 1.16712
-14.9194 -12.9309 -0.863257
-15.8128 -13.8221 -0.875725
-13.7214 -13.0404 -1.37549
-13.7877 -14.2017 -0.179189
-12.5449 -13.8513 -0.712205
-12.3264 -15.0684 -1.17561
-15.805 -11.9372 -0.569941
-15.9318 -12.7805 -0.565035
-15.5332 -11.4902 -1.01439
-16.3702 -13.3459 1.48296
-16.2575 -12.1054 0.213653
-16.526 -11.9473 -1.21091
-16.1764 -13.163 0.037003
-17.6318 -13.5142 1.15428
-15.2829 -12.487 1.27527
-15.417 -13.7461 0.540375
-15.9496 -12.6804 1.00814
-16.2744 -13.26 -0.806008
-16.0694 -12.4566 0.377356
-16.0186 -13.5095 0.343245
-15.1153 -13.093 1.02599
-16.0803 -12.6346 -0.104141
-14.6783 -12.4581 -1.13238
-14.6117 -13.283 -0.519873
-15.9627 -13.1136 -1.2547
-15.9481 -13.5257 0.356975
-15.9776 -13.2908 -1.36984
-15.233 -13.1307 1.39935
-15.9137 -13.44 -1.65012
-14.9998 -12.2921 -0.584454
-14.8013 -13.4576 0.639985
-15.1818 -13.4515 -1.87718
-14.7494 -13.9883 -2.36965
-14.1225 -13.0653 0.213409
-13.6471 -13.9015 -2.2576
-14.1077 -14.4102 0.744602
-14.8453 -13.7485 -0.258442
-14.9139 -14.3187 -0.937399
-13.3898 -13.9894 -0.352549
-12.8287 -14.5843 -0.073153
-13.3337 -14.3115 -0.869855
-13.5917 -13.8623 -0.604365
-16.2016 -12.5802 1.65735
-16.4368 -13.5444 0.837122
-16.6779 -12.9486 1.7674
-15.835 -13.9394 1.16481
-16.8217 -12.1106 0.452403
-16.7777 -12.7999 1.32871
-15.7855 -13.6105 1.28287
-16.2152 -12.7271 0.86394
-16.4716 -13.6333 0.391209
-16.7091 -12.3078 -1.26064
-15.7982 -12.4042 -1.05775
-15.9266 -11.9461 -1.1929
-14.7705 -12.9876 0.567359
-14.947 -13.836 1.41666
-16.0983 -13.426 -1.15037
-16.0919 -13.0135 -0.541994
-15.7171 -13.2584 -0.184377
-15.1712 -12.7024 -1.21954
-16.0488 -12.7721 -1.31689
-15.3388 -13.444 1.33132
-15.1758 -14.3806 -0.919378
-15.3211 -12.8142 -1.53303
-14.6338 -13.5821 -0.77095
-14.093 -14.0936 0.0593787
-13.4041 -14.9348 -0.0634257
-13.7794 -14.259 0.24848
-13.3292 -14.207 0.330874
-13.2175 -14.4432 -0.825358
-12.9796 -15.238 1.35765
-13.2847 -15.7305 0.0705761
-13.1897 -13.858 -2.21563
-12.5861 -13.9681 -1.15176
-12.4929 -12.7844 1.52788
-13.4106 -14.6676 -1.46648
-12.2195 -14.5591 -2.14268
-11.6656 -13.1047 1.87096
-15.778 -13.5378 0.0877414
-16.0492 -13.4047 1.80447
-16.1364 -13.1035 0.216766
-17.0825 -11.9662 0.222159
-15.9792 -12.7635 -0.149748
-16.3502 -12.6641 0.870592
-15.0699 -13.7151 0.180044
-16.0342 -14.0234 0.382991
-15.4951 -12.4234 1.55299
-15.7022 -13.348 -0.397368
-15.6716 -12.4273 -2.08741
-15.6958 -12.8679 -1.28166
-14.938 -12.5506 1.85763
-15.6547 -12.8355 -1.62239
-15.6361 -13.2056 -2.69317
-14.6924 -13.6177 -0.366009
-14.0819 -14.0139 -0.153571
-14.5127 -14.9938 -0.744228
-13.9702 -13.9969 -2.63837
-13.2228 -15.477 -0.645396
-14.7383 -13.4337 -0.863015
-13.3228 -14.0317 1.81876
-12.7221 -13.3482 -1.04703
-13.9094 -13.1229 -1.60868
-13.1667 -14.6932 0.294815
-12.2795 -14.8054 0.855126
-12.9646 -14.7506 -0.290281
-13.1397 -14.5427 -0.124532
-16.7527 -13.3885 1.3455
-15.9833 -12.9143 1.66254
-16.212 -13.3432 1.04279
-16.8734 -13.1767 0.25416
-15.8609 -12.7589 0.733788
-15.8302 -13.0583 0.348739
-16.1326 -11.8798 -0.832399
-16.7396 -13.0355 -0.0328457
-15.5628 -13.3743 1.24835
-16.0991 -13.3623 -0.580289
-15.304 -13.0646 -0.126937
-15.6168 -13.5687 -0.909359
-15.3394 -12.9295 -0.789463
-14.3257 -13.6038 1.34229
-13.602 -12.6909 -1.57591
-14.4664 -13.4089 -2.15798
-13.3762 -13.9038 -0.740226
-14.1817 -13.7773 -0.0357652
-13.7593 -14.1241 0.340018
-14.2888 -14.4643 1.37949
-12.4069 -14.3174 -0.146906
-12.8495 -14.2698 -0.222111
-12.9607 -13.0316 1.46586
-12.4531 -12.2422 2.22225
-13.0476 -14.0654 -1.82397
-11.9548 -14.5667 -0.160553
-13.1185 -15.3469 -0.921391
-13.1145 -14.412 -1.58335
-11.8283 -14.0048 -0.846161
-12.6568 -12.8545 -2.29558
-15.6634 -12.9259 1.34963
-15.1202 -13.9038 2.93026
-15.3763 -12.5694 -0.0706034
-16.0286 -14.0404 0.504874
-15.4385 -11.9686 -0.893922
-15.2632 -13.8908 0.667941
-15.542 -13.3943 1.29593
-15.6324 -12.7908 -0.399882
-16.1958 -13.2114 -1.48072
-14.275 -13.6646 2.25286
-15.4449 -14.2689 -0.499881
-14.2725 -14.4001 2.19155
-14.0665 -14.3157 -1.47992
-14.7413 -13.8793 -1.09658
-14.2415 -11.9354 -2.12274
-13.6639 -13.5532 -0.884948
-12.5376 -13.283 -0.541639
-13.3113 -14.5846 -0.689549
-13.2018 -14.9792 -0.878545
-12.8754 -14.0321 -1.68179
-15.5443 -12.963 1.64952
-16.4994 -14.274 0.912635
-16.6582 -13.6712 1.33154
-16.3861 -13.2014 -0.675788
-16.0828 -14.1523 -0.337372
-15.872 -13.1892 -1.64999
-15.3126 -12.9566 -0.0229409
-13.4089 -13.861 -0.580641
-14.2563 -13.4446 0.545195
-13.8879 -15.047 -0.947166
-13.5407 -14.1868 0.328435
-12.7973 -14.0075 2.39382
-12.0722 -15.1853 -0.239417
-16.4769 -13.5453 0.384594
-16.3839 -13.0384 1.60845
-15.5273 -13.5964 0.65201
-15.6441 -12.7555 0.762777
-15.8892 -13.3617 0.258524
-15.5603 -13.5498 -0.279851
-15.9321 -14.0289 0.00107953
-13.5112 -14.5908 -0.408059
-12.4339 -15.4061 -1.54598
-12.1881 -14.072 2.44142
-16.1072 -12.8472 -0.875928
-14.4162 -13.0097 -0.234603
-14.0213 -12.6938 -1.03743
-14.0903 -12.8675 0.122546
-13.079 -14.8401 -1.32508
-12.2973 -14.765 -2.14619
-13.9336 -13.0168 -1.2715
-12.3342 -13.945 -0.521884
-13.2225 -13.6116 -2.33802
-12.6163 -14.2935 -0.860464
-12.71 -14.5545 -1.72959
-14.6132 -13.0274 1.36581
-13.8622 -12.9495 -1.24945
-14.9143 -13.5443 0.0470193
-14.0321 -13.4759 -2.1394
-13.8494 -14.1119 -0.724791
-13.4208 -13.8905 -1.99813
-16.4253 -13.9554 2.0295
-15.6244 -13.5128 1.7515
-13.5375 -13.5803 2.74872
-15.4402 -12.5623 1.15633
-15.8036 -12.1759 1.76499
-16.4554 -13.0346 0.539719
-16.2869 -13.1694 1.07857
-15.7527 -13.6635 0.56661
-15.9926 -12.6602 0.790201
-16.3981 -13.2128 1.65886
-16.3722 -12.8979 0.189448
-15.6865 -13.3768 1.3706
-15.6065 -13.1497 0.143045
-17.1829 -13.922 -0.702763
-16.1886 -13.1462 0.71087
-16.3369 -12.9993 0.911236
-14.8106 -13.1724 1.73396
-15.2789 -13.0858 -0.117247
-15.5788 -12.4254 -0.374512
-16.7753 -13.3216 -0.415446
-14.9281 -13.9052 1.22032
-16.2257 -12.3105 0.00344458
-15.4015 -13.09 0.504475
-15.0368 -12.9122 -0.211033
-16.1244 -12.6604 -0.0120412
-16.5301 -12.871 -1.01448
-16.9814 -12.6022 -0.927516
-13.2351 -13.7411 0.906404
-13.2653 -14.4283 0.771405
-16.4238 -12.7878 -0.0757528
-16.0607 -13.6849 -0.84817
-16.3287 -13.4198 -0.445025
-15.4738 -12.5336 -0.246835
-13.4793 -14.1183 0.939633
-16.2689 -12.5927 -0.631616
-15.9451 -12.3901 -0.583633
-16.6755 -12.0385 -0.0389015
-16.9158 -12.0966 -0.646803
-14.64 -14.6604 0.20527
-15.8474 -11.0164 0.0438849
-13.0356 -14.8159 0.68874
-15.9189 -12.9183 -1.44915
-13.1938 -15.056 0.317188
-14.7963 -13.2557 -0.566221
-15.2945 -14.0699 0.356626
-15.3339 -12.9851 0.0533511
-12.9759 -14.4643 0.472019
-12.949 -13.9934 -0.169476
-13.4022 -14.2269 -0.303959
-14.4462 -13.8407 -1.07169
-17.8566 -12.5886 -1.46675
-13.5141 -13.9226 0.226092
-12.9728 -13.9143 -0.319992
-13.1076 -14.6504 0.506223
-15.3543 -12.7477 -0.685701
-15.9424 -13.6572 -0.440175
-15.5681 -12.4044 -1.5435
-16.7391 -12.8557 -0.685898
-15.4474 -12.5125 -0.368054
-15.4843 -11.8589 -1.58093
-15.6932 -12.1838 -0.67364
-16.168 -13.3265 -0.486801
-15.2805 -12.8675 -1.12846
-13.3121 -14.7671 -0.154092
-15.4141 -13.2115 -0.862204
-14.9292 -12.2467 -0.661322
-15.4519 -12.2857 -1.03968
-14.7104 -13.5289 -1.06287
-16.5678 -14.0799 1.69058
-16.0334 -13.9269 0.554076
-14.0391 -13.8982 0.419619
-16.787 -12.6681 -0.782455
-16.2336 -12.9048 1.39389
-16.5499 -12.5365 1.17859
-16.4002 -12.6596 0.446608
-15.2584 -13.4054 0.356245
-15.5398 -13.7948 1.75655
-15.7095 -12.8188 0.00641193
-15.7197 -13.5585 0.0721647
-15.7343 -13.7516 -0.0977188
-16.2281 -12.8526 -0.117175
-13.6866 -12.5273 1.94647
-17.0182 -12.4891 -0.402804
-15.3288 -12.8312 -0.366769
-15.9501 -13.0496 0.536212
-16.2036 -12.5162 0.503076
-15.8343 -12.8738 -0.579222
-15.6661 -12.6678 0.597461
-15.6014 -12.3729 -0.549788
-15.6694 -12.0962 -0.0672185
-16.9983 -12.8884 -0.378934
-15.2435 -13.1619 -0.698853
-16.3648 -12.918 -1.01628
-16.5851 -12.8449 0.119281
-16.3928 -12.7395 -0.118733
-14.6607 -12.4453 -0.814142
-13.8974 -14.4418 -0.502493
-14.421 -13.6722 -0.722635
-15.6366 -14.0397 -0.904443
-13.7261 -14.7456 -0.492341
-13.3914 -13.7357 -0.00147605
-13.8569 -14.3416 0.255566
-15.036 -13.5826 -0.709941
-13.0925 -14.6394 0.0395308
-15.0527 -13.6498 -0.582314
-13.4151 -14.7464 -0.320326
-15.4544 -12.5907 -1.17575
-12.6276 -14.8605 0.275161
-12.6863 -14.7122 0.28618
-13.4625 -14.3381 -0.113924
-12.6627 -14.3148 -0.347275
-14.202 -13.8255 -0.793264
-16.6469 -12.7225 -0.459322
-12.9759 -14.4685 0.485959
-12.7843 -13.6763 -0.0538653
-14.0881 -14.0446 -0.728194
-13.0009 -13.8072 -0.769617
-15.4587 -12.676 -1.03251
-15.9262 -13.4099 -1.28629
-15.4411 -12.6848 -1.71951
-15.6087 -12.3588 -2.04326
-14.447 -13.8217 -1.49209
-15.5367 -12.7021 -1.18328
-13.0779 -14.6584 -0.726277
-14.5628 -13.3187 -2.69977
-15.0947 -13.676 -2.45805
-12.6774 -14.5442 -1.45755
-16.8172 -13.7268 1.19798
-16.2383 -13.1409 0.460304
-16.3024 -13.9015 2.01419
-15.6137 -12.9222 1.79681
-16.3671 -13.5772 0.481842
-16.155 -13.9512 0.809958
-16.4249 -13.0514 0.397744
-16.3313 -13.1915 1.3881
-16.4246 -12.5748 0.364596
-16.7167 -12.8712 0.092765
-12.7201 -12.1578 2.41384
-13.0606 -12.9857 1.97892
-12.7975 -13.5525 2.10348
-16.1967 -13.961 0.376731
-15.7037 -12.5904 0.1394
-15.218 -14.213 0.488503
-15.8658 -12.9305 -0.237173
-15.9723 -12.0766 -0.150726
-13.1068 -14.542 0.442911
-15.1414 -13.9985 0.346989
-16.4405 -12.8488 0.390133
-16.3076 -12.8659 -0.839099
-16.0398 -11.7457 -0.381358
-17.2808 -11.2042 -0.524407
-13.1694 -13.6494 2.10309
-16.5486 -12.3954 -0.525781
-15.2136 -13.5147 -1.01374
-16.3953 -14.1779 0.477419
-15.6468 -14.8849 0.0290864
-13.3547 -14.1056 0.250128
-16.7012 -13.181 -0.650044
-12.9663 -15.7223 -0.646552
-13.7092 -14.0318 -0.0206976
-13.1142 -14.2309 -0.193332
-15.4741 -13.2819 -0.908787
-15.5986 -12.3868 -1.01814
-12.911 -14.4109 -0.917345
-13.0138 -13.499 -1.30213
-13.5204 -13.6317 -1.16504
-14.1981 -13.9635 -2.179
-13.7878 -14.939 -2.68719
-11.5283 -13.3387 -1.33869
-16.5483 -13.1661 0.955406
-16.0714 -12.5556 1.66507
-16.4296 -12.4844 0.142217
-15.9852 -12.6432 1.0107
-16.063 -12.9732 0.500694
-15.9551 -13.0171 0.630822
-16.3066 -11.6227 1.09546
-16.1648 -13.4323 1.28222
-14.2862 -12.9698 1.0655
-15.5357 -13.24 -0.19897
-16.3463 -12.3635 0.186154
-14.3255 -14.226 0.672698
-14.2181 -13.7844 -1.11458
-13.6413 -14.3356 0.0616265
-16.0008 -12.1684 -1.59643
-15.5789 -12.5606 -0.279378
-13.337 -14.2293 0.241289
-13.8131 -14.2375 0.0706073
-13.0014 -14.1874 0.705056
-13.6928 -14.3745 -0.45943
-13.1014 -14.0994 0.968576
-12.4497 -13.7579 0.0666091
-15.8986 -12.4647 -1.49697
-15.3026 -13.3689 -0.765108
-15.4077 -13.3857 -1.99104
-15.2923 -13.2845 -2.16879
-15.01 -13.0819 -1.58438
-14.68 -13.5432 -1.58154
-14.8096 -13.2193 -2.18805
-15.1093 -12.732 -1.30773
-15.0454 -13.1135 -1.42994
-14.3818 -13.17 -1.53511
-14.084 -13.201 -2.6951
-12.9983 -12.9445 -1.32346
-15.5222 -14.3067 1.36157
-16.9647 -12.0274 1.00824
-16.7761 -12.8091 0.785744
-15.6568 -13.2133 2.0556
-15.2126 -13.8228 1.9194
-16.3947 -12.2741 0.490938
-13.4416 -12.8379 2.31164
-15.7844 -12.5202 0.329994
-15.3313 -13.1092 0.67755
-15.2535 -13.8205 1.48078
-15.6708 -13.2711 -0.481617
-16.4562 -12.1506 -1.2606
-14.8386 -14.0084 0.91874
-15.1274 -12.9946 0.0912059
-15.3652 -13.1982 -0.518699
-12.63 -13.7922 1.13238
-17.2806 -12.1587 -0.17275
-14.6062 -12.6432 -0.430033
-12.7931 -14.0899 0.052734
-15.2874 -13.3893 0.590274
-14.7884 -14.1057 -0.533325
-16.52 -12.2899 -0.640936
-14.9703 -13.8933 -1.08401
-16.0686 -12.7109 -1.37836
-13.7851 -14.4219 -0.406016
-12.802 -13.818 0.686055
-14.6111 -14.6846 -0.0473166
-13.6603 -14.3043 -0.396196
-12.2007 -13.4238 -0.89787
-16.9238 -12.5258 -2.03459
-15.0312 -13.4928 -1.82034
-14.0088 -12.8963 -1.55697
-13.4429 -14.2906 -1.5295
-15.5664 -12.9347 2.77696
-14.2216 -13.254 1.76398
-16.8993 -12.607 1.44945
-15.9403 -13.6206 1.08078
-14.0254 -14.2031 1.55425
-15.9818 -13.0322 0.50929
-15.4118 -13.5954 0.393239
-15.1231 -13.7514 0.346614
-14.0313 -13.9266 1.20146
-15.8725 -13.6931 -0.971849
-12.7605 -14.2066 1.26651
-14.402 -13.9661 0.590037
-15.9185 -14.1935 -0.254276
-13.7394 -14.9928 -0.633192
-16.3762 -12.752 -1.26373
-12.9919 -15.5662 -1.2065
-14.4821 -12.9685 -1.66496
-15.2364 -13.6513 -1.96496
-13.8453 -12.9239 -1.99117
-13.4381 -12.9503 -0.864866
-13.2948 -13.3788 -1.88024
-12.6322 -13.7121 -1.83447
-12.5714 -13.8242 -2.39571
-16.2371 -13.519 1.1895
-16.5477 -13.493 1.03845
-16.3567 -13.076 1.66529
-14.8519 -13.4386 1.69573
-16.2217 -13.361 1.09905
-15.6523 -12.914 0.238595
-17.1479 -12.8034 0.24755
-12.9186 -14.6387 1.2472
-14.5828 -13.5583 -0.339945
-13.6954 -14.0399 -0.355756
-15.4266 -12.2219 -0.792444
-15.2404 -13.329 -1.65082
-15.6659 -12.9031 -0.81577
-12.6733 -13.7337 -1.54288
-14.0256 -12.9933 2.39903
-16.3278 -13.1573 0.96348
-13.8043 -14.6126 0.92924
-13.6287 -14.2357 0.481539
-13.9488 -14.4608 0.173241
-15.1314 -13.5176 0.357908
-15.9929 -13.1045 -0.601767
-12.9873 -13.7638 -0.469923
-14.801 -14.2018 0.12507
-15.2531 -13.7269 0.0992307
-13.3975 -14.0161 -1.47388
-13.8684 -14.3766 0.350482
-13.8013 -15.1788 0.521887
-15.2264 -13.8616 -1.28856
-15.0265 -12.1993 -0.99633
-16.6856 -12.9015 -0.298823
-16.6739 -12.9814 -0.765102
-15.9928 -12.7536 0.0383354
-16.0661 -12.8565 0.478687
-15.6363 -12.9292 -1.41592
-15.7591 -12.5173 0.563255
-15.7342 -13.0527 -0.0508632
-15.8827 -12.061 0.170977
-16.3435 -13.2056 -0.499959
-16.3968 -13.1061 -0.191356
-13.4242 -14.409 -0.857359
-16.2755 -13.3745 -0.347659
-13.662 -15.1977 -0.209429
-16.906 -13.2873 0.155662
-15.5476 -12.7736 0.810049
-15.6523 -13.0169 -0.55296
-12.5572 -14.1575 -0.0153779
-15.4668 -13.915 0.904694
-15.9102 -13.0598 0.592758
-16.7395 -13.7545 1.18859
-15.6683 -12.7964 0.420281
-16.3976 -13.3233 1.28573
-17.3655 -13.4912 0.826972
-13.6581 -13.416 1.98004
-15.0343 -13.5862 2.37108
-15.7055 -12.872 -1.66775
-13.9457 -13.9995 -1.32534
-15.7202 -12.6455 -0.734295
-16.6954 -12.8659 0.0914807
-16.2852 -12.6854 0.377336
-15.5126 -12.5918 0.865263
-13.0432 -14.43 -1.50841
-15.8827 -13.5398 -0.257566
-15.2687 -12.3539 -0.715385
-15.8122 -12.696 -0.187041
-16.5215 -13.2086 0.589768
-16.377 -12.2486 -0.698766
-16.0419 -13.3191 -0.508505
-15.7832 -13.0112 -0.0172987
-14.6773 -14.1811 -0.309353
-15.9662 -12.7 0.630685
-15.9424 -12.8527 0.323083
-12.9551 -13.9249 1.16328
-12.4491 -13.6709 0.256106
-15.1436 -13.0244 0.456555
-15.8939 -13.509 0.40445
-15.9403 -13.4003 0.308543
-13.056 -13.8861 -0.32451
-13.4188 -14.2373 -0.506591
-15.5024 -13.7764 1.01591
-16.3825 -12.7072 0.932737
-15.6045 -14.44 0.980492
-16.5018 -14.191 1.40126
-17.1554 -12.7437 1.71947
-16.4487 -12.5483 0.749979
-14.9989 -13.3115 0.14485
-16.4492 -13.0907 0.210012
-12.2545 -14.3475 0.121732
-16.7288 -12.6775 0.487652
-13.0604 -14.4445 0.0572263
-14.518 -15.0916 1.30398
-16.1456 -12.7635 1.23728
-17.1794 -12.9092 0.562584
-16.1928 -13.3675 1.67767
-16.5089 -13.6903 0.800416
-16.4524 -13.08 0.947354
-15.1717 -13.9489 2.00241
-14.1282 -13.2769 2.04546
-15.9079 -12.7831 -0.352797
-15.2363 -12.6203 -0.415931
-12.8848 -14.6507 -1.38456
-14.1895 -12.8453 0.122342
-15.1768 -13.5607 -0.307861
-13.433 -14.3164 -0.644767
-13.5024 -14.3916 0.0656063
-16.6651 -14.173 0.941017
-15.6474 -14.1661 2.1988
-14.1379 -13.7887 2.36985
-16.5616 -13.4917 2.42541
-13.9887 -14.0422 -1.62118
-13.3828 -14.369 -0.456869
-13.165 -13.3821 0.346774
-15.6585 -12.798 2.07891
-13.1487 -13.7214 0.636487
-16.0074 -12.7375 1.29855
-14.0701 -13.9335 -0.22261
-16.8814 -12.9028 0.571312
-13.7205 -13.6961 0.450805
-15.6662 -13.5854 0.742611
-16.4695 -14.1699 0.809483
-14.8501 -13.008 -0.491881
-15.5322 -12.9383 -0.769758
-14.7621 -14.9348 0.742526
-16.6193 -13.0124 0.0527519
-15.9708 -13.7779 1.39539
-13.7518 -14.8799 1.78767
-15.0991 -13.1852 1.97222
-14.5123 -13.2525 0.661464
-13.7778 -14.3702 0.197523
-13.0607 -14.3835 0.368411
-16.1345 -13.6569 1.8377
-12.4756 -14.7381 -0.341181
-16.5371 -12.8394 1.90047
-12.7069 -13.043 1.26273
-13.7002 -13.2148 -0.968325
-13.5322 -13.1111 -1.85179
-16.1993 -13.4592 0.274485
-14.8564 -13.8258 1.66158
-15.2628 -13.4266 0.730675
-15.1025 -14.1779 1.42234
-12.6686 -14.7608 -2.11987
-12.2165 -13.3267 2.71214
-16.1044 -11.6024 0.375043
-16.2676 -12.3328 -1.29236
-15.8098 -12.1645 -0.365997
-15.8758 -12.9404 -0.65095
-15.5911 -13.2323 -0.878652
-16.7534 -13.4601 0.0359114
-16.7238 -12.9513 -0.922609
-15.0042 -12.8389 -2.41655
-16.4376 -12.4924 0.929778
-16.1441 -12.6181 1.32774
-15.537 -13.7537 0.908278
-16.1844 -12.4698 -0.0879601
-15.4381 -13.6159 -0.426906
-13.7031 -13.8313 -0.808517
-15.7734 -12.5973 0.0804847
-15.6745 -12.0695 0.496879
-16.0554 -13.5968 2.41682
-14.5091 -14.1201 -0.227991
-16.6206 -13.3978 1.60878
-16.17 -13.7721 1.81117
-14.2283 -13.767 -0.368822
-13.4051 -13.6148 -0.412787
-14.1467 -15.0227 -0.161958
-14.8916 -12.9359 1.0612
-13.1243 -14.0036 0.334536
-13.218 -13.9625 -0.178518
-13.3297 -14.6024 -0.453401
-13.3386 -14.2705 0.658079
-13.5261 -13.8774 -0.571108
-13.7232 -14.1387 -0.208476
-13.0687 -13.912 -0.519957
-16.6272 -12.2486 -0.562473
-15.5006 -12.5551 -0.798877
-16.5709 -12.7692 0.714497
-15.6025 -12.589 0.180272
-14.5319 -13.6656 -0.443617
-15.3573 -13.8492 -0.538458
-14.7563 -13.5426 -2.52703
-16.4105 -13.0575 1.36908
-15.4879 -13.3237 -0.190572
-16.1933 -12.4764 0.934604
-16.6458 -13.578 0.530818
-16.0188 -12.9216 0.259303
-13.7636 -13.9398 -1.31452
-15.7918 -14.2844 1.14747
-15.667 -12.9347 2.44124
-15.9089 -13.4235 1.74283
-14.7886 -14.2585 1.34224
-15.8429 -13.8158 0.098534
-14.574 -13.5566 1.05158
-14.7437 -13.0536 0.374976
-12.3741 -14.6275 0.261106
-12.2487 -14.2126 -0.00953774
-13.4704 -14.5394 0.300013
-12.8648 -14.3512 0.380092
-16.5672 -12.7526 -0.377116
-16.0248 -11.8487 -0.58195
-17.0455 -14.193 -0.279728
-16.1872 -12.699 0.138948
-15.6169 -13.4651 -0.221349
-16.7192 -13.0879 0.982937
-12.8937 -13.963 -2.01531
-17.1748 -13.1265 -0.299676
-16.4486 -13.2142 1.05905
-15.9674 -13.8852 1.40617
-17.1304 -13.6019 1.06438
-15.7353 -13.721 2.13297
-13.5722 -13.8575 -0.781083
-14.0653 -13.9305 0.0808557
-16.8116 -13.2449 1.96044
-13.8716 -14.4007 -0.760957
-15.8038 -12.7296 1.26849
-13.4821 -13.8223 0.109129
-13.4997 -14.0037 -0.0242161
-13.0142 -15.2415 0.733797
-13.1191 -13.5409 -0.0353002
-13.3154 -14.6273 0.602027
-13.3329 -13.8802 -0.285631
-12.3958 -14.403 -0.0368095
-13.4821 -14.3936 0.0389703
-11.6049 -14.2994 -1.15291
-13.4589 -14.3479 0.434416
-13.4786 -14.7355 0.239491
-14.4863 -13.615 -0.663422
-16.5754 -12.5303 0.802722
-15.5808 -12.886 1.54898
-15.3948 -13.6039 -0.998441
-15.2565 -13.445 0.388741
-15.8223 -13.5675 -0.605378
-16.7097 -13.1682 0.692098
-16.4307 -12.6389 -0.104659
-13.0922 -15.0114 -2.28107
-15.7607 -14.4121 1.4881
-15.9111 -14.2367 1.4178
-13.224 -14.4744 -0.678582
-14.3659 -14.4636 1.19547
-15.6579 -13.8857 1.5949
-14.5311 -13.7336 2.21527
-12.3684 -14.3879 -0.257949
-14.942 -13.7101 1.89577
-12.4701 -14.7691 0.46873
-12.5924 -15.2616 -0.22094
-12.95 -14.0434 1.17481
-14.1347 -12.9638 2.01614
-15.2171 -12.8085 -1.94885
-14.5026 -12.9474 -2.12222
-14.7875 -13.0525 -2.07255
-14.2418 -12.4191 -0.227639
-14.2704 -12.8976 -0.805005
-14.1657 -13.1209 -0.60497
-16.0356 -13.6136 1.65408
-15.5473 -12.559 1.78304
-15.8854 -13.4608 1.27556
-15.9759 -14.5274 1.50108
-12.4647 -14.3199 -0.737774
-13.7631 -14.1486 -1.27164
-12.6797 -14.7996 -1.07724
-13.2215 -13.6973 0.183266
-12.8138 -14.4193 -0.470327
-15.2999 -13.9055 1.6951
-15.9172 -13.0684 1.36699
-13.1278 -14.3222 -0.11977
-12.9619 -14.9833 0.598333
-14.941 -13.9841 0.864739
-16.6615 -13.8873 0.842142
-13.7113 -13.894 -1.18352
-14.9362 -12.6506 0.0724068
-11.9591 -14.917 -2.02026
-14.3013 -13.9538 -0.0300834
-15.024 -13.7665 1.35542
-13.4229 -14.1273 0.134337
-13.4391 -13.8853 0.133049
-12.7691 -13.986 1.06744
-13.8487 -13.3343 1.44763
-14.3954 -14.0793 -1.33852
-14.9793 -12.7522 1.50673
-14.8289 -13.6013 -0.406769
-14.4339 -13.6524 -1.76247
-16.5047 -11.7654 0.649037
-16.8584 -12.8594 0.819957
-15.6691 -13.6709 -0.12196
-14.7741 -12.6979 -2.23029
-16.1186 -12.9931 1.34991
-14.7205 -13.3243 -0.616424
-13.9668 -13.3417 -1.74596
-14.2291 -13.5446 2.09477
-13.9595 -13.4631 0.430652
-13.7455 -14.39 0.00221867
-13.3898 -14.2431 0.67774
-12.1866 -15.5532 -0.674812
-13.5769 -13.014 0.625802
-17.0755 -13.1354 -0.617611
-16.1076 -12.7688 -0.91646
-15.526 -12.5861 -1.09212
-16.3532 -13.3401 0.87069
-16.5633 -13.3088 1.20798
-17.4045 -13.4852 0.227128
-15.1106 -13.3879 1.78268
-15.9277 -12.8786 1.67552
-16.2705 -13.169 2.362
-16.7805 -13.2654 1.53538
-15.7593 -13.1061 2.23695
-15.8704 -13.8068 1.67387
-15.847 -14.554 0.972786
-15.2635 -13.6275 -1.6054
-15.5696 -13.7973 -0.139724
-15.9362 -12.6427 0.126095
-14.4689 -13.3341 1.27041
-15.6954 -13.1688 0.107794
-14.6268 -13.8257 -1.10556
-14.3295 -13.2668 0.467579
-14.0576 -13.351 -0.147858
-13.9897 -13.5087 1.29439
-13.629 -13.8187 0.17203
-13.2596 -14.6445 0.302354
-14.8043 -13.4617 0.566654
-13.0618 -13.9615 0.752583
-12.3757 -14.799 1.26368
-13.1631 -11.8802 0.296878
-16.1127 -12.0387 -0.453377
-16.248 -12.9832 0.503267
-16.7941 -13.5386 1.13547
-16.3229 -13.4001 0.871793
-15.4168 -12.1954 0.41286
-15.7873 -12.5328 0.568079
-15.8275 -13.7524 0.881278
-15.6584 -13.0702 -1.99261
-15.8797 -14.9159 1.18683
-14.6746 -13.6968 0.64268
-14.5077 -12.5585 1.08952
-13.1158 -13.5776 -0.950235
-13.1814 -14.2233 -0.476187
-12.8642 -13.3592 -0.149974
-14.5875 -13.3334 0.938572
-13.9183 -14.5262 -0.665054
-12.2026 -14.3159 -2.13174
-14.0719 -14.981 0.210094
-13.0875 -14.4062 -1.49767
-12.1187 -14.7304 -1.42135
-13.5714 -14.5038 0.812934
-12.8545 -14.5652 0.200694
-13.4643 -14.2677 -0.440673
-13.8407 -13.7623 -0.139716
-13.0486 -14.2688 -0.056983
-12.6005 -15.803 0.123902
-13.281 -15.3627 0.11911
-13.0193 -13.3167 1.71353
-15.8545 -14.1389 0.183093
-16.3374 -13.5935 1.44908
-15.9961 -13.6334 1.58264
-15.4119 -13.292 -0.743754
-15.5007 -12.6645 1.02081
-15.0424 -13.0107 -0.121491
-14.1643 -13.7644 -1.39431
-14.3621 -13.7627 -0.926698
-14.4518 -13.3616 -1.90081
-13.5622 -14.5395 0.236713
-14.2915 -14.5089 -1.106
-14.623 -13.436 0.511002
-13.4917 -14.4283 -0.00276173
-13.5442 -14.6312 0.875526
-13.3299 -14.281 0.888647
-12.9407 -14.1142 0.982715
-12.9925 -14.284 -0.0588973
-12.6039 -14.6395 -1.61214
-13.2113 -15.0411 0.326528
-15.6245 -13.418 1.12384
-14.6864 -13.6797 1.24373
-15.4219 -13.4505 0.0527157
-15.7895 -14.3625 1.05539
-15.9363 -13.1877 0.166712
-14.0125 -13.705 -2.4524
-13.6827 -13.5325 -1.26003
-14.0652 -13.5985 -1.66342
-14.4381 -12.7996 1.75607
-14.1455 -14.1859 -0.538269
-13.8709 -13.6377 -1.7027
-13.8221 -14.2423 -0.710086
-13.5284 -13.4885 0.731071
-12.7052 -13.9004 -1.6642
-12.2947 -14.7146 -2.59654
-11.8112 -15.0487 -0.669406
-12.6254 -13.5407 1.87253
-16.7204 -11.8185 -0.339985
-15.6554 -12.6291 -1.35483
-15.5536 -12.8497 1.86551
-14.7635 -12.5288 0.273947
-14.3084 -14.5697 0.570101
-15.8192 -13.59 -1.09003
-15.0667 -13.2628 -0.449585
-14.8197 -13.1305 0.117524
-16.1337 -13.5286 -0.858042
-15.0131 -13.472 0.892742
-15.2587 -12.6908 0.639857
-13.9348 -14.0956 -0.425088
-13.9113 -12.8642 -1.48516
-14.4279 -14.1235 -0.240889
-12.864 -14.3787 0.0972274
-14.3 -13.5307 -0.726986
-13.5435 -13.9022 -0.634482
-16.4993 -11.3417 0.926187
-17.2909 -11.6808 0.293383
-15.9123 -12.2923 -0.695475
-17.0698 -12.7022 -0.421654
-16.8003 -11.8654 -0.28867
-16.2126 -12.3338 -0.573149
-15.7242 -12.303 -0.0279969
-15.7712 -12.4064 -0.336331
-15.614 -13.4732 -0.581407
-15.9521 -13.5693 -0.703915
-14.5074 -14.0904 0.24913
-14.7896 -13.1372 0.609093
-14.4624 -13.1789 -0.728884
-14.4829 -13.0837 -1.13415
-13.0004 -13.0169 -0.532241
-13.8573 -13.9714 -0.386077
-13.041 -14.1954 2.10131
-16.3025 -13.2288 1.8906
-16.5324 -12.4897 1.13973
-16.0574 -13.5045 1.32051
-16.261 -13.0428 0.162818
-16.5734 -12.4761 0.597085
-16.8195 -12.7977 -0.167758
-16.3186 -12.7399 0.612007
-15.4659 -12.7613 -0.965438
-16.3479 -12.753 0.469337
-16.0837 -13.2461 -0.0226894
-15.467 -13.0496 -0.365794
-16.4291 -13.8712 0.0846626
-16.2183 -13.6956 0.123436
-16.7602 -12.7394 -0.400426
-15.5132 -12.7917 0.219486
-15.7465 -12.763 0.0923367
-15.991 -12.9373 0.649036
-15.8777 -13.8396 -0.535818
-14.7216 -13.2579 -2.53339
-15.5637 -13.8545 -2.27967
-13.6407 -14.323 -0.0476073
-13.7532 -13.2506 -0.0499486
-12.5446 -12.93 2.21972
-13.0775 -12.8268 2.34757
-12.6244 -14.2798 -0.613233
-13.5809 -14.313 -0.701633
-13.4323 -14.0453 0.0649165
-12.8425 -13.3331 1.79699
-15.976 -13.3124 2.78021
-17.1463 -12.6852 2.21887
-16.678 -13.1563 0.168967
-16.6459 -12.4741 0.650862
-15.5557 -12.8803 -0.731729
-16.0199 -13.2044 0.0100454
-15.2734 -12.8707 -0.351317
-15.03 -13.2433 -1.02724
-15.1557 -13.2971 -0.33278
-15.6143 -13.2964 1.66452
-14.617 -13.5063 0.940148
-15.3525 -13.1112 -0.260672
-15.21 -13.4154 -0.623277
-14.8923 -13.13 -0.0420301
-14.4249 -13.5045 1.1702
-15.2367 -13.4689 -1.18316
-14.296 -13.7996 2.00801
-15.8572 -12.9091 -1.87988
-13.3182 -13.0682 2.00268
-13.335 -14.1261 -0.160255
-13.4979 -15.011 -0.639361
-13.7676 -14.1992 0.432822
-13.5681 -12.7377 -1.42874
-13.4806 -13.7878 -1.90252
-12.1957 -14.4016 0.429595
-12.9147 -14.0708 -0.566118
-13.0234 -14.3521 -2.04937
-15.2198 -14.0416 1.58448
-16.1341 -12.0003 1.34206
-16.0047 -12.5677 0.85275
-14.7575 -12.9615 1.41606
-15.8426 -13.1378 -0.634909
-15.3313 -13.8567 -0.3516
-15.6834 -12.4262 -2.0624
-15.221 -13.8841 -0.188004
-15.2827 -12.966 1.27692
-14.0813 -14.5129 2.01458
-14.9114 -12.8166 -0.000604624
-15.6242 -12.5513 -0.159023
-15.152 -13.2699 -1.0794
-15.5356 -12.7696 -2.47677
-15.0377 -13.0965 -2.49842
-12.766 -14.8006 0.461309
-12.2547 -13.663 -0.264101
-12.7286 -13.7355 -0.991265
-13.4729 -13.8851 -1.05786
-12.9246 -14.1461 -2.20159
-12.2841 -13.3637 1.69472
-16.4736 -12.411 0.583892
-15.8538 -14.1804 0.557491
-15.6138 -12.5811 -0.771591
-16.4713 -12.6991 -1.69438
-15.8927 -13.1253 1.82444
-15.2333 -13.6195 1.51158
-16.08 -13.1774 1.42404
-15.4884 -12.552 1.32907
-15.5912 -11.6147 -0.836706
-15.0838 -12.6806 -1.05346
-16.8407 -12.3768 -0.0180092
-15.9202 -12.1909 -1.02654
-14.9675 -13.4452 -1.31213
