-16.1305 -11.9578 -1.32972
-17.4889 -12.9599 0.0127602
-16.2513 -11.4696 -0.76515
-17.1871 -12.4436 -0.10558
-16.5637 -11.9982 -0.528027
-16.3371 -13.3023 -1.30356
-15.4275 -12.5274 -2.46734
-16.146 -13.133 0.911348
-15.7596 -13.2172 1.4014
-14.6839 -12.3742 -2.62425
-15.4025 -13.1721 1.43754
-15.2092 -13.6581 1.96402
-15.2072 -13.9235 -0.610672
-15.3381 -13.6092 -0.409286
-14.7054 -14.1857 -0.810317
-14.2639 -12.8535 -0.808944
-13.4139 -13.6307 0.0353629
-14.398 -14.8881 0.0339752
-13.4043 -13.1876 -1.91176
-13.5996 -14.1607 -1.54763
-13.7372 -13.1006 -0.354634
-13.2967 -13.6703 -2.24728
-13.5525 -13.678 -0.586066
-13.3029 -13.9498 -1.44655
-13.3955 -13.8801 0.381862
-12.7041 -13.6928 -1.31003
-13.7333 -13.4547 -0.615592
-17.4623 -11.3406 -1.99935
-16.2157 -13.3537 -2.37806
-17.4913 -12.6352 -0.516909
-17.3184 -11.6373 -1.00192
-18.2654 -12.784 1.05218
-16.3125 -12.2747 -0.2761
-16.5485 -13.4585 1.11486
-17.305 -13.7896 1.49181
-15.965 -12.9493 -1.31629
-14.6845 -12.4551 -3.20041
-14.8373 -13.7171 -1.06169
-14.4096 -13.1241 -1.43451
-14.8806 -13.0643 0.967998
-13.651 -13.3279 0.0470928
-13.8211 -13.3455 0.184857
-13.1655 -14.2001 -1.15401
-13.3218 -13.6834 -1.85885
-13.3165 -14.5405 -1.12147
-16.388 -11.8304 -1.01915
-16.8808 -11.9951 -1.03776
-16.9802 -12.3395 -1.21369
-15.5944 -12.4747 -0.107993
-14.3581 -12.7292 -0.529023
-14.2233 -14.1546 -0.504114
-14.2444 -13.2992 -0.880587
-14.2007 -13.6066 -0.205947
-14.2969 -14.2868 0.0127533
-14.1452 -12.864 -1.39149
-14.2351 -13.198 -0.974323
-14.2488 -13.27 0.0627231
-13.7759 -13.2674 -0.835894
-13.5982 -13.0121 -1.00592
-13.0372 -14.6311 -0.985366
-13.4428 -13.7853 -0.814925
-18.0319 -12.752 0.31927
-15.2792 -11.8866 -0.196996
-14.2148 -13.3372 -0.104889
-15.3628 -12.3732 0.489037
-14.359 -12.9946 0.130886
-13.1948 -13.6286 -2.45167
-15.8675 -11.6137 -1.60485
-14.9801 -12.8223 -1.49858
-13.3365 -14.2159 -1.89428
-16.8302 -13.3129 0.629419
-15.7929 -12.5314 -1.03315
-14.8061 -13.3713 -0.99831
-13.653 -14.0291 -0.138302
-13.5185 -12.8203 -1.4983
-12.8344 -15.4657 -0.780626
-15.3198 -13.7346 2.3338
-15.5708 -12.8074 -0.660214
-14.4441 -12.291 -1.05168
-13.0481 -13.648 -2.05422
-15.8755 -12.3287 1.14187
-17.751 -13.4532 0.256933
-16.6977 -12.0257 1.86804
-16.7277 -12.4422 0.124437
-17.0292 -11.1596 -1.6346
-16.4352 -12.8596 -0.519143
-16.2207 -12.995 0.0471572
-15.1007 -13.951 1.0912
-15.6093 -12.8363 -0.597857
-16.933 -12.2583 -0.39899
-16.2209 -11.6141 -1.701
-16.6053 -12.3738 -2.831
-16.0449 -12.7112 -1.64868
-16.7745 -12.0222 -1.7267
-16.7993 -12.6348 -1.4923
-16.8832 -12.3878 -1.68525
-17.1905 -13.049 -1.65907
-15.8038 -12.948 -1.37139
-16.4636 -11.7384 -1.55308
-15.7433 -12.412 -2.96172
-15.745 -12.5538 -2.16719
-15.5657 -12.2244 0.620962
-16.1787 -12.8891 -0.709877
-15.9567 -13.0449 -0.502453
-13.827 -13.1017 1.8665
-15.0282 -13.3277 0.998795
-15.8769 -12.7238 -2.00783
-14.9786 -13.9179 -0.868863
-15.4777 -12.3705 -2.34996
-13.4355 -13.0827 -1.78282
-14.043 -12.96 -0.758673
-13.204 -13.7638 0.653278
-12.5467 -13.9316 -1.28841
-13.4325 -14.6952 -2.68114
-13.6769 -13.1916 -2.96943
-17.6955 -12.1814 2.11504
-17.7455 -12.8328 1.70142
-16.386 -11.7291 0.491836
-16.0981 -12.3602 0.625755
-16.9425 -11.4058 -0.655486
-16.6752 -12.1907 0.980578
-16.6105 -13.2116 0.954214
-17.2675 -11.9886 -0.00685881
-16.8435 -13.122 0.228583
-17.2566 -12.6365 -0.284393
-16.3149 -11.2867 -0.814862
-16.0137 -12.9002 0.881373
-16.7767 -12.6656 -0.0669451
-16.4702 -11.8295 -1.77084
-16.0875 -14.1826 -1.22863
-15.7581 -11.9608 -1.23747
-15.1746 -14.3346 1.37137
-14.6298 -12.1374 0.48607
-15.8236 -12.1887 -2.06984
-15.8484 -13.3992 0.139942
-15.9838 -12.4356 -2.09755
-16.2237 -12.113 -2.20272
-15.9499 -13.2306 -1.83086
-15.746 -13.0733 -0.423819
-13.7835 -13.158 1.38572
-13.3315 -13.3148 1.12826
-13.6164 -12.4884 1.32445
-14.0666 -12.9328 -1.90554
-14.1313 -14.213 -0.554663
-12.0697 -12.5166 1.08303
-13.4803 -13.1522 0.120113
-13.1016 -14.5768 0.0218488
-13.1465 -14.2026 -1.09298
-13.4185 -13.4759 -1.06232
-13.6875 -13.2334 -1.51866
-17.1672 -13.912 2.62607
-17.3143 -13.0081 0.396261
-17.3151 -12.9996 -0.807324
-16.16 -14.2531 3.22771
-16.2278 -11.8528 -0.125604
-17.0047 -12.2123 -1.59845
-15.7262 -11.6028 -0.413854
-16.7324 -13.5502 0.21646
-17.6383 -12.1054 -0.834785
-15.2198 -12.9116 1.32476
-15.2892 -13.2972 0.283964
-15.6163 -13.0044 -0.732347
-14.7474 -12.8737 0.570643
-15.0547 -12.7445 0.689207
-15.4555 -12.1043 -1.66985
-14.2991 -11.8494 2.42612
-14.3647 -12.13 2.04403
-13.3824 -13.1936 0.732607
-15.9325 -13.4516 -2.60808
-14.6488 -12.5787 -0.568982
-14.7556 -13.3391 -1.21853
-14.7822 -12.3887 -0.989346
-15.1794 -13.3839 -0.196974
-14.0324 -14.6601 0.158884
-14.5976 -12.1583 -0.527094
-13.4925 -12.7691 -1.06776
-12.5318 -12.8635 1.94588
-13.0102 -13.9515 0.678232
-13.206 -14.0235 -1.15391
-12.3301 -13.6761 -1.38712
-11.8756 -14.2538 -3.19976
-16.7518 -12.2894 -0.460851
-17.2832 -12.5686 -0.157279
-16.6694 -13.0991 0.361072
-16.7591 -12.4107 -0.628392
-17.4206 -12.1709 -1.03786
-15.8235 -12.0381 -0.934718
-15.3719 -11.376 -1.24151
-16.1671 -14.2244 -2.01914
-16.3385 -12.409 -1.65272
-15.3852 -13.4274 1.47874
-15.3225 -12.8644 0.404214
-15.6121 -12.8256 -0.411162
-16.2669 -13.5001 0.107463
-14.3285 -12.5973 -0.623172
-15.0922 -12.6088 -1.51638
-14.0277 -13.307 0.460421
-14.9672 -13.9633 0.416803
-14.6229 -13.9813 -0.625702
-13.4244 -14.1701 0.178238
-13.7294 -14.6159 -1.60189
-13.8394 -15.0121 -1.66669
-13.3823 -14.1899 -0.0473012
-17.8815 -11.6451 -0.405122
-17.3033 -11.8756 -0.409197
-17.2633 -11.5811 -1.34894
-17.0196 -12.2815 -0.25078
-15.2846 -12.6376 1.36629
-16.4511 -12.0244 -1.45435
-15.1912 -12.9786 1.93857
-15.9148 -12.8607 -1.08921
-14.2313 -12.7094 2.19178
-13.7241 -12.6827 1.10006
-14.8624 -13.7389 0.02453
-14.38 -13.8619 -0.418101
-14.334 -13.8411 -0.149956
-14.0606 -13.6317 -1.28268
-13.3415 -14.2611 -0.155773
-13.3942 -13.3807 -1.46678
-13.1895 -13.4391 -0.852033
-12.9163 -13.2949 -1.5824
-14.1665 -15.1335 -1.02098
-13.2886 -14.7217 -2.38959
-17.1112 -12.5406 0.108411
-18.035 -11.8274 -1.28367
-17.2793 -12.7497 0.518992
-15.2962 -12.6194 1.01855
-15.6826 -13.6428 0.265316
-15.0782 -12.9271 -1.54751
-13.4468 -14.3183 -1.7513
-16.822 -12.5235 -0.520089
-15.4878 -11.7338 0.459576
-13.72 -14.3018 -1.82266
-13.1937 -13.3051 -1.83902
-13.235 -13.6596 -1.41727
-13.6959 -14.0159 -1.28645
-14.5828 -12.7525 -1.81275
-13.7359 -14.9703 0.942365
-17.0377 -13.6231 0.938305
-14.9303 -12.5301 -0.000137841
-15.1853 -14.0552 1.6048
-15.3391 -12.5291 -1.30601
-14.206 -12.9432 -2.51815
-15.4194 -12.701 0.25161
-14.2402 -13.5744 -0.114755
-12.95 -14.5007 -0.961997
-14.3175 -12.4886 -2.16878
-13.325 -12.4446 2.46594
-17.6173 -12.4408 2.39464
-16.3968 -13.3201 1.07289
-16.7193 -12.9155 0.389704
-17.4129 -12.2319 -0.429993
-15.1313 -12.776 1.59547
-17.4534 -11.2793 -0.674143
-17.0503 -12.6349 -0.99561
-16.1815 -13.5367 0.779663
-17.4188 -10.8137 -0.727253
-16.9377 -12.0554 -1.0994
-17.4177 -11.7393 -1.07435
-14.1706 -12.1753 2.34629
-16.7682 -12.0277 -1.73108
-15.3941 -12.3677 -0.0101538
-17.8883 -12.2077 -1.71923
-16.9095 -11.4518 -1.77832
-16.1038 -12.0217 0.223546
-15.2002 -12.9746 0.426031
-16.3388 -12.5084 -0.421499
-16.5288 -12.8899 -0.785882
-16.8956 -11.701 -0.936103
-15.2902 -13.4922 0.591786
-16.6104 -11.1511 -1.11909
-16.6613 -12.6843 -1.1015
-16.2494 -12.3999 -0.606263
-15.1558 -13.7931 1.57435
-16.3314 -12.1739 -1.92475
-11.9488 -12.746 1.74116
-16.0501 -12.4043 -0.629402
-12.2702 -12.1085 1.87497
-16.6036 -12.4147 -1.64782
-16.2207 -12.5573 -1.48419
-15.3015 -12.7996 -1.72801
-15.8899 -12.8914 -2.20903
-14.4208 -12.263 0.287344
-16.241 -12.594 -2.92561
-16.3847 -13.2107 -0.844621
-15.3579 -11.7295 -1.5017
-15.8782 -12.3704 -2.04958
-16.051 -12.4849 -0.566846
-15.9562 -12.1471 -2.06838
-15.0444 -13.4869 -0.860708
-14.6894 -12.6415 0.580839
-15.2473 -14.0554 -0.635285
-17.5889 -11.8649 -2.01689
-15.9129 -12.2747 -1.61072
-13.7909 -13.5308 -0.732787
-15.7184 -12.6333 -1.61908
-13.3195 -13.7854 0.264588
-13.3519 -14.136 0.00305644
-13.2082 -14.5208 0.761933
-15.6976 -12.8919 -2.20658
-15.4516 -12.7899 -1.89448
-15.1968 -12.8028 -2.50107
-15.1928 -11.6754 -2.80494
-15.5865 -12.8903 -1.75592
-14.4513 -12.5209 -1.58996
-16.2866 -13.8298 2.02151
-16.6608 -12.8799 0.527527
-16.93 -12.7063 1.29072
-16.3289 -13.3323 0.878727
-16.6024 -13.3941 1.40116
-15.0098 -13.3856 1.48538
-17.2431 -13.5425 0.25792
-15.2642 -12.9518 1.04952
-16.2955 -11.6119 -0.024056
-16.6299 -11.9585 0.183492
-16.1893 -12.2584 -0.33464
-16.7876 -11.565 -2.26681
-16.01 -13.1803 0.842052
-16.6096 -12.6589 -1.15817
-15.2862 -12.5019 0.8978
-16.6292 -12.4604 -1.55479
-15.9715 -13.4851 -0.513033
-16.4632 -13.9318 -0.678294
-17.0541 -12.543 -0.504039
-14.916 -11.1356 -0.981915
-16.7327 -11.3229 -0.604329
-16.9438 -12.6736 -1.01465
-16.1527 -13.0356 -1.31732
-17.195 -12.3816 -1.26034
-17.4997 -12.1013 -1.16018
-16.2772 -12.5409 -1.33588
-17.1487 -11.7969 -2.00142
-14.6685 -14.1398 1.13839
-14.188 -13.6779 0.793323
-13.2897 -13.0507 2.24298
-14.6053 -13.3939 0.0754086
-16.1611 -13.0991 -1.85782
-15.8879 -12.3337 -0.81982
-16.5596 -12.8875 -1.42799
-14.3859 -13.4319 -0.665049
-13.713 -13.8488 0.846887
-11.1591 -12.7554 2.33825
-13.7694 -12.9664 -0.951539
-12.9886 -13.1949 1.69704
-12.3915 -12.1474 2.14599
-14.2197 -13.0285 -0.241361
-13.5065 -13.3045 -0.380428
-14.3273 -13.5766 -0.668702
-14.3169 -13.6363 -1.14125
-15.1923 -13.3388 -1.63755
-15.7135 -13.2054 -0.950564
-12.531 -15.2849 -0.455666
-13.5538 -12.2621 -3.36502
-12.1653 -13.7037 -0.494204
-12.6429 -14.5205 -1.92315
-16.898 -14.0009 1.76416
-16.5713 -13.4745 1.677
-17.9654 -12.4734 -0.576773
-16.1448 -12.3797 1.71715
-17.5285 -11.4123 -0.738924
-17.7427 -11.1918 -0.186243
-16.4379 -12.4028 -1.09911
-14.7236 -13.3582 1.85796
-15.5438 -12.8815 1.5428
-16.3165 -12.7358 0.330601
-16.4106 -13.001 -0.293179
-17.1459 -12.7265 -0.143688
-15.6241 -11.5382 0.631632
-17.6377 -11.4535 0.0525192
-16.6333 -12.5297 -0.0271909
-16.5682 -12.3864 -0.581399
-16.8227 -12.5458 -0.801081
-16.6578 -12.4292 -0.366578
-16.1777 -12.7017 0.554437
-17.1293 -12.4744 -0.91615
-16.2736 -11.7499 -1.34314
-16.2438 -12.6201 -1.11236
-17.1695 -12.4588 -1.98724
-15.3176 -13.0805 -0.486257
-16.5811 -11.2441 -1.08225
-15.8903 -12.0565 -1.60224
-16.4693 -12.8611 -1.03914
-16.4436 -11.8473 -0.790871
-15.6805 -12.3012 -0.681183
-12.9438 -11.9664 1.88106
-14.5876 -13.929 -0.446081
-12.541 -12.2146 1.4265
-14.3451 -12.7857 -0.648175
-13.2275 -13.3749 -0.16677
-15.574 -11.4928 -1.73103
-13.9768 -13.0514 -1.11493
-12.9115 -13.4586 0.031926
-13.1014 -14.2885 -0.506615
-13.861 -12.5173 -1.54722
-12.0707 -14.0291 -1.00929
-12.5519 -13.1201 -1.40277
-13.1301 -13.8587 -0.431429
-12.6197 -13.7071 -3.2976
-13.0816 -13.7203 -2.11695
-13.1175 -13.7259 -2.53833
-14.942 -12.7162 1.86969
-15.6277 -12.0717 1.657
-14.8155 -13.9507 2.1361
-15.8486 -12.9556 1.35446
-16.1255 -12.5803 0.33322
-16.6048 -11.8209 -1.08074
-15.3665 -14.7601 2.06774
-16.9806 -11.7659 -1.2623
-16.7281 -12.2894 -0.912911
-13.8037 -13.0841 0.195247
-12.2147 -12.1142 2.23316
-15.9356 -12.9377 -2.14918
-14.0833 -13.85 -0.976717
-11.9843 -13.2504 0.943744
-13.9154 -13.9013 -1.12041
-14.761 -13.5663 -1.24013
-13.6891 -13.648 -0.752374
-12.8781 -15.065 -0.567799
-13.6617 -13.9648 -0.826621
-14.0026 -13.4664 -1.52414
-16.8648 -13.0073 1.78357
-17.2674 -12.7193 0.460873
-16.0621 -13.0729 0.654016
-17.6749 -11.8531 0.0402339
-16.4103 -13.3839 0.440232
-13.0641 -12.8205 2.91983
-14.7154 -12.3973 -0.274711
-12.9063 -12.6417 0.884674
-14.2688 -13.7128 0.00024081
-14.8265 -13.8023 0.257283
-14.5344 -13.5032 0.558326
-14.0552 -13.4167 1.11059
-13.5351 -13.7963 1.10649
-13.5721 -13.7935 0.811047
-16.0528 -12.2408 -1.28433
-14.5219 -13.7542 -0.599
-15.1778 -12.8032 -1.32039
-14.457 -12.7153 -0.20251
-15.9837 -11.8742 -1.68051
-15.2434 -13.9348 -0.314772
-14.8275 -13.7223 -0.951185
-14.4515 -12.1503 -1.58311
-14.579 -11.4172 -2.47135
-13.2292 -13.37 -2.85755
-13.1198 -12.8982 -1.71048
-13.5765 -13.6983 -2.5109
-12.5067 -13.3917 -2.82053
-15.7469 -12.8418 -0.814643
-14.8764 -13.6751 0.507455
-14.9613 -13.3358 0.179655
-15.3733 -12.8301 -0.162988
-14.8294 -12.9248 -0.482004
-14.8062 -13.3007 0.400488
-15.303 -12.276 -1.95773
-14.6099 -13.2816 0.214223
-14.7707 -14.723 0.00682778
-14.248 -14.7801 0.637652
-13.5584 -14.5203 0.33891
-13.2847 -13.0739 -3.22527
-16.5322 -12.8925 0.04351
-15.1512 -11.9239 0.88859
-14.9637 -12.8214 -0.189186
-15.0448 -14.3325 -0.159955
-14.5764 -14.087 0.348158
-15.4048 -12.0773 -2.04299
-14.8612 -13.6725 -1.64392
-15.9325 -12.2978 1.19282
-16.4583 -12.8801 -0.566597
-15.5567 -13.3469 1.09524
-15.7284 -11.5305 -0.482417
-14.9126 -13.1733 -0.606783
-13.0483 -13.558 -0.606976
-15.4522 -12.5542 -1.80095
-13.5717 -11.8294 -1.06372
-12.2311 -14.5633 -3.32406
-13.8046 -13.5297 -0.640324
-14.5139 -13.5037 0.0970061
-12.9076 -13.9916 -1.96493
-14.1216 -13.4906 -0.144381
-13.5344 -12.8633 -1.72636
-12.9607 -13.4666 -1.97374
-14.3859 -12.4784 2.52216
-14.8357 -13.3513 -1.33871
-17.1206 -12.8652 1.24456
-17.1263 -12.8799 1.68452
-17.5765 -12.4414 0.766297
-17.9895 -13.0558 -0.0436859
-16.2544 -13.0413 1.37882
-16.3257 -13.708 1.6861
-16.607 -12.8895 0.488429
-12.9489 -12.411 1.18873
-15.5883 -12.9917 0.997194
-16.2101 -13.4068 1.42567
-16.5486 -12.4598 1.07477
-17.0655 -12.665 -0.250568
-16.2896 -13.2883 1.56479
-15.3605 -12.9034 1.57403
-16.4022 -13.5884 -0.0938343
-15.072 -12.8915 1.02014
-14.8982 -13.4833 0.995132
-16.8652 -12.2426 -0.596656
-16.468 -12.4178 -0.743136
-16.3844 -12.9955 -0.149315
-14.4774 -13.1351 1.12422
-17.5355 -11.934 0.903042
-17.4545 -10.9998 -0.00916213
-16.707 -12.1537 0.0381324
-16.5881 -13.2992 -0.155075
-17.1501 -13.0077 -0.851961
-16.3341 -13.718 -0.958877
-17.346 -12.368 -0.831698
-15.6556 -13.0611 -1.65022
-16.5042 -12.2584 -1.01705
-16.1755 -13.7611 -0.0230117
-16.1517 -13.3926 -0.162421
-16.8874 -12.7691 -0.509018
-14.5596 -14.1389 0.598671
-16.2146 -11.5471 -1.07669
-15.0851 -13.7279 -0.743511
-15.5367 -12.6631 -0.761202
-15.4993 -12.4853 -0.075875
-16.917 -11.6375 -1.71535
-16.3485 -12.0922 -1.42669
-13.7587 -13.3261 0.0930873
-16.3148 -11.9025 -2.06458
-14.0762 -13.1011 -1.07339
-16.1232 -11.7859 -2.30493
-17.9184 -11.5624 -1.69282
-15.7937 -11.795 -1.73571
-16.221 -12.2686 -1.48249
-16.4392 -12.1303 -1.68911
-17.0262 -12.0124 -1.85001
-15.6324 -11.853 -1.00484
-16.5292 -13.1583 -2.10737
-16.4031 -12.8233 -1.07913
-16.3915 -11.6026 -1.41427
-16.0903 -12.023 -1.92333
-16.4306 -12.294 -1.73718
-16.3642 -11.6834 -1.40777
-16.5074 -12.2665 -1.06616
-13.5021 -14.4242 -0.911827
-16.7073 -12.5839 -2.64113
-16.3812 -11.8361 -1.76543
-15.9982 -12.7193 -1.42111
-15.349 -12.0188 -1.2692
-14.1795 -12.8541 -1.70146
-13.4229 -13.631 -2.16819
-16.4248 -13.678 1.85279
-16.7446 -13.3143 2.29996
-17.722 -12.3678 1.31642
-17.0907 -13.3883 0.23935
-17.6475 -11.8389 0.972019
-16.1083 -12.2804 0.989284
-16.7158 -13.0923 1.22098
-14.3495 -12.3335 1.31942
-16.8205 -12.5458 0.042451
-16.4354 -11.5348 -0.29427
-14.5136 -13.1657 1.81931
-15.8462 -12.3469 1.41297
-16.096 -12.5105 0.167024
-16.5604 -12.7451 0.181702
-14.8908 -13.575 1.25463
-17.18 -13.3738 0.148526
-17.0632 -12.41 0.182166
-16.4511 -12.7155 -0.247097
-16.4416 -12.9861 -0.743078
-17.5506 -11.7418 -0.131356
-16.8489 -11.4696 -0.621633
-16.6937 -11.8072 -0.598636
-16.2781 -12.8692 0.286385
-17.5738 -11.6675 -0.267751
-15.0153 -13.3543 0.162926
-17.0375 -11.4931 -0.64622
-16.784 -12.2225 -0.437402
-18.2514 -12.7623 -0.305477
-17.7249 -13.59 0.595991
-13.5019 -14.4764 -0.216649
-16.8944 -13.1266 0.224367
-16.5621 -12.4016 -1.18769
-16.6641 -12.0471 -1.05128
-16.7356 -11.0265 -0.302962
-16.7629 -12.5494 -1.08837
-17.596 -11.5542 -0.0640506
-17.3967 -11.7611 -0.0378637
-16.6738 -11.8611 0.0312932
-15.3874 -13.3677 0.407309
-15.1329 -13.1381 -0.624892
-15.8591 -13.066 -0.495169
-15.9069 -12.7153 0.127084
-17.4785 -11.9828 -1.06373
-16.1098 -12.4933 -1.04111
-14.5804 -14.6356 0.819525
-17.6133 -11.5103 -1.80078
-16.0695 -12.5046 -1.64072
-14.3252 -13.6999 -0.643133
-14.9857 -12.3918 -0.9882
-16.5084 -11.9769 -1.79857
-13.7516 -13.5993 0.866489
-15.8729 -13.0244 -1.15024
-14.0684 -13.402 -0.0306627
-16.9028 -11.2053 -1.61424
-17.2351 -11.5051 -1.27819
-15.5382 -12.7005 -0.523489
-13.3587 -14.3165 -0.943548
-16.0169 -12.0956 -2.18826
-14.2365 -13.7065 -0.673441
-14.7152 -13.0671 -1.0323
-15.7479 -12.5218 -1.5501
-16.3669 -13.1889 -0.90465
-15.7024 -12.2424 -1.67905
-13.75 -13.9621 -1.07889
-14.5905 -12.5387 -1.06011
-16.1116 -12.3734 -1.64213
-13.6169 -14.9141 -1.56778
-14.7117 -12.8579 -0.904197
-16.4245 -11.6343 -2.15632
-12.3821 -13.8747 -0.756916
-16.1392 -11.5206 -2.02352
-14.394 -12.6703 -2.9099
-15.1463 -12.4453 -2.5144
-14.3412 -12.6354 -2.46036
-12.6069 -12.9381 -1.41565
-13.8551 -12.8017 -2.09762
-13.3849 -12.4066 -1.83004
-13.0951 -13.5012 -3.20048
-16.9006 -13.9936 0.1111
-15.7498 -12.4162 1.81549
-15.5883 -14.0828 1.05785
-17.2269 -12.0475 0.115295
-16.2015 -12.5049 1.11901
-16.7308 -12.1298 0.322798
-16.3343 -13.2651 -0.243643
-15.9013 -13.0583 -0.253862
-13.0353 -12.2777 1.76323
-13.006 -13.7309 1.75757
-17.7224 -11.8839 -0.593701
-17.1905 -12.0627 -0.389666
-16.6947 -12.4806 -0.0323005
-15.6636 -13.0436 -0.362877
-13.9828 -15.0255 0.337599
-16.1628 -13.6372 -1.08062
-17.6054 -12.0106 -0.368829
-17.7287 -12.1989 -0.935824
-16.0869 -12.6915 -1.407
-17.6277 -11.5373 -1.34293
-17.6369 -12.6045 -2.68693
-14.897 -13.4878 -1.33539
-13.8219 -12.6728 0.0551375
-13.2576 -14.5395 -0.412049
-13.1811 -14.6209 -1.35704
-14.2342 -13.3923 -1.99458
-12.5268 -13.952 -1.64451
-13.3929 -12.5178 -1.92905
-13.2603 -14.3981 -3.65137
-16.663 -12.4648 2.58604
-16.8806 -13.2813 1.33467
-16.7614 -12.7025 1.95701
-17.2705 -13.5097 1.447
-16.1256 -13.2988 1.35867
-16.8007 -13.5283 0.625007
-17.4327 -12.7762 1.53948
-13.3343 -13.5282 1.90465
-13.5031 -12.8341 2.02719
-17.2488 -12.663 0.46535
-16.2841 -12.2458 -0.678522
-14.3619 -13.0773 -0.137743
-13.1518 -14.2945 0.41109
-14.1365 -13.8157 -0.258621
-14.0305 -13.8108 -0.305766
-14.9178 -12.9169 -1.29668
-16.5322 -13.1386 -1.08063
-17.0731 -12.2695 -2.47715
-15.8868 -11.6812 -1.87732
-14.0369 -13.3294 -0.874105
-12.4386 -13.2385 -1.81862
-12.8981 -15.1862 -2.14969
-17.3121 -12.66 1.09259
-15.8011 -12.85 0.64489
-14.9637 -12.9452 1.6375
-15.9816 -13.7183 -0.810289
-16.2122 -12.6483 0.526396
-16.2713 -12.6432 1.08203
-16.9098 -12.3782 -0.452812
-16.85 -12.7083 -0.772984
-16.9166 -13.0878 0.136066
-16.5622 -12.0571 -0.699318
-15.295 -14.4008 0.743879
-15.973 -11.7882 0.101936
-16.9333 -11.4487 -0.185152
-15.362 -13.2126 -1.09697
-14.4457 -13.6295 -1.0415
-14.3588 -12.4837 -0.381036
-12.6945 -13.7866 -0.360369
-17.3802 -11.2933 -1.60077
-14.1901 -13.0908 -0.948172
-13.2998 -13.7497 -0.528125
-17.0122 -12.3427 -1.89839
-15.5892 -11.7253 -1.3241
-16.5231 -11.8227 -2.13535
-13.4915 -14.6314 -2.46738
-14.1233 -12.3245 -1.66419
-14.781 -13.0195 1.49116
-15.7085 -12.5838 0.559121
-16.1581 -12.6318 0.287854
-16.6056 -13.6346 0.120806
-16.63 -12.1183 -0.119041
-16.1914 -13.8457 -0.766984
-13.9029 -14.2635 -0.0586861
-13.6893 -13.226 0.132835
-14.8149 -12.7365 -1.04601
-12.8178 -14.6855 -1.90752
-17.09 -11.4591 0.666107
-13.3383 -12.229 1.27339
-15.2943 -13.817 0.618859
-14.4495 -14.0597 1.43023
-15.1483 -12.7846 -0.552992
-13.4661 -13.7866 -0.157615
-15.2641 -13.2702 -0.284559
-13.8459 -13.595 -0.450626
-15.2434 -13.4559 1.67868
-15.4621 -12.7685 0.0102104
-15.6287 -12.4353 -0.909896
-14.4577 -13.4293 -1.51956
-14.182 -12.1781 -1.29487
-13.4633 -13.9652 0.299571
-14.0757 -13.8314 0.118948
-14.4647 -14.0877 -0.206275
-12.3314 -13.1496 -2.67264
-12.5864 -14.476 -2.02236
-16.3786 -13.5156 1.13635
-12.8035 -13.0711 0.786751
-15.3556 -13.0657 -0.750867
-13.2192 -13.185 -2.08559
-12.6163 -13.8729 -3.23549
-13.6688 -12.2457 2.98355
-15.4455 -13.1108 2.11241
-15.9265 -14.4919 1.77427
-16.3121 -13.7397 2.36372
-16.7092 -13.3857 1.76908
-18.0885 -12.6138 1.91408
-17.2026 -13.5529 1.87707
-16.964 -12.7448 1.36108
-14.984 -13.2843 2.00762
-16.2832 -12.7716 1.57348
-16.3618 -13.9984 1.28102
-16.7837 -12.302 1.28546
-16.9745 -13.0664 2.08639
-17.8394 -13.2505 1.40504
-18.3188 -13.2768 1.60143
-16.4692 -12.4857 0.237638
-17.6879 -13.3006 0.742125
-15.0589 -12.7514 1.13602
-17.4108 -12.7248 1.78714
-17.3481 -12.0227 0.682862
-14.6685 -14.1966 1.31326
-15.9738 -12.3266 0.796035
-17.4266 -13.3758 0.313251
-16.6611 -14.1596 1.02017
-17.3443 -12.7306 0.506259
-16.6274 -12.5918 0.5612
-16.9355 -13.2722 0.488589
-12.8912 -13.4023 0.731389
-16.3681 -12.0434 1.32112
-17.4149 -11.4663 1.57092
-15.1076 -13.4156 1.02048
-15.3132 -13.0659 0.612319
-16.4094 -12.425 0.751743
-17.2422 -13.4009 -0.51877
-14.0285 -14.0225 -0.583107
-16.8652 -12.0986 0.686853
-16.5156 -13.6266 -0.306301
-16.9747 -12.1926 1.34973
-16.6932 -12.8681 1.24983
-16.1855 -13.5725 0.544388
-16.9676 -12.0647 1.309
-15.52 -12.4981 1.30549
-17.1806 -12.7807 0.302251
-15.1093 -13.2539 -0.150161
-16.5443 -14.1445 0.603839
-17.2776 -12.1969 -0.335211
-17.3541 -12.5359 -0.011829
-16.4941 -12.0406 0.0571111
-17.2957 -12.8486 0.824969
-17.1977 -12.303 0.0491582
-15.5034 -13.7786 -0.341851
-16.48 -12.4303 -0.37969
-16.4372 -12.6703 -0.0882775
-16.4573 -13.3524 -0.239716
-12.831 -12.9632 -0.622056
-14.2203 -13.5877 0.0495066
-15.8421 -12.565 1.2431
-15.066 -13.3911 -0.105019
-16.5853 -12.1489 -0.105857
-13.8502 -13.449 -0.109269
-16.3494 -12.5596 -0.625382
-13.4324 -14.3002 -0.887518
-17.3513 -13.0911 -0.323354
-17.3198 -12.3844 -0.580721
-16.7439 -13.2793 0.0301049
-14.5544 -13.653 0.0420965
-16.4509 -13.2484 -0.531647
-16.0235 -13.3008 -0.352847
-14.3265 -14.1996 -0.101819
-12.9306 -13.6818 -0.83448
-16.0431 -12.4917 -0.629681
-16.0559 -12.7644 -0.914022
-17.3135 -11.8614 -0.856211
-17.4377 -12.231 -0.387539
-17.4435 -11.6789 0.0946439
-16.7458 -12.7717 -0.701459
-16.8206 -13.0406 -1.03907
-16.2865 -12.3402 -0.555798
-12.9789 -14.2299 -1.7734
-16.8197 -13.1477 -0.317669
-16.7841 -12.638 -0.609977
-14.4147 -13.7318 -1.27907
-16.3648 -12.3991 -1.04237
-17.5633 -11.8136 -0.455607
-16.5008 -12.2857 -0.404027
-16.7377 -12.8948 1.12059
-17.5609 -12.9221 0.0565357
-15.9779 -13.278 -1.12927
-15.3322 -12.4507 -0.272096
-15.4294 -12.7333 -0.969115
-15.7683 -12.3711 -0.413792
-16.0164 -12.6632 -0.754517
-15.8075 -13.4022 -0.584998
-16.1136 -12.6254 -1.03114
-16.7366 -12.9029 -0.532162
-16.201 -12.6797 -0.57415
-15.5833 -12.7957 -1.21447
-15.9555 -12.0564 -0.992764
-17.3148 -11.7045 0.0405836
-17.1988 -12.0849 -1.15291
-16.7555 -12.5032 -1.1729
-18.1953 -11.28 -0.534687
-15.6926 -12.4172 -1.35881
-17.5852 -12.0731 -0.748128
-17.3092 -11.6198 -1.30837
-16.7038 -12.5962 -0.276523
-16.0534 -11.8729 -0.552819
-17.2961 -12.8536 -0.693517
-16.5139 -12.4819 -0.513458
-17.3851 -11.7892 -2.44145
-16.6506 -11.9818 -1.37612
-17.2159 -11.7831 -1.52205
-16.9986 -11.8248 -0.96289
-16.4963 -11.9309 -1.69574
-16.3159 -13.3053 -0.665469
-15.6787 -13.0151 -1.71928
-14.7438 -12.1601 -1.95505
-16.3114 -12.5205 -0.565819
-16.145 -11.8434 -1.87331
-16.0539 -12.1936 -1.2041
-16.027 -12.3397 -2.39566
-16.826 -11.1558 -1.04638
-15.2023 -12.2557 -2.11782
-17.2654 -12.2378 -0.982143
-17.4629 -11.0699 -1.85303
-17.6447 -11.0098 -1.95069
-17.1563 -12.5062 -1.04452
-15.9622 -12.4681 -1.17214
-15.7555 -12.567 -1.86654
-15.6434 -13.1374 -1.63415
-16.7367 -12.4467 -1.57771
-17.0208 -12.6629 -2.05877
-16.8554 -11.5154 -0.859862
-17.7513 -11.3531 -1.34027
-16.1637 -11.7479 -1.2733
-16.6818 -12.3543 -1.85387
-16.2223 -12.0794 -2.15551
-17.3003 -11.7141 -1.44836
-17.019 -11.3556 -2.00543
-17.2031 -11.4119 -0.622586
-14.1487 -12.8236 -2.65706
-14.4484 -12.7964 -2.56624
-14.6524 -13.2626 -1.38363
-15.5876 -12.6613 -2.56603
-15.8828 -12.479 -2.9158
-15.6026 -11.5209 -2.1009
-15.8098 -12.0548 -2.62171
-15.635 -12.4362 -2.81152
-16.6111 -12.6793 -2.55652
-13.5041 -13.0938 -2.77675
-14.0077 -11.7305 -2.26181
-15.4685 -12.6371 -2.33173
-12.4438 -13.1344 2.35411
-17.1307 -13.2237 1.57885
-18.0637 -12.2274 2.309
-17.506 -13.7625 1.70977
-17.0591 -14.0596 0.725473
-12.0601 -13.9268 0.959381
-17.5033 -12.948 0.519327
-14.8784 -13.3421 1.17356
-16.6337 -13.3827 0.779393
-16.5924 -12.1775 0.712358
-13.3038 -14.7146 0.380124
-15.0753 -13.2502 1.24679
-14.2916 -13.9631 0.288417
-17.1868 -12.3749 0.0882454
-16.2173 -12.5748 0.244769
-17.1843 -13.1845 0.320933
-16.1228 -12.9522 -0.0733966
-16.9111 -12.1739 0.18279
-16.6153 -12.7103 0.783929
-18.2608 -11.9026 0.83332
-13.9809 -14.0244 0.0907945
-15.5225 -11.8437 0.715563
-12.788 -13.3404 -0.236433
-16.1148 -12.4445 -0.257492
-16.5757 -12.198 0.308003
-14.6655 -12.6132 -0.443704
-13.9904 -14.0794 0.0828654
-14.7455 -13.269 1.10411
-13.9503 -13.6938 -0.663236
-14.8577 -12.599 -0.308321
-16.5234 -12.4049 -0.384588
-16.4871 -12.3054 -0.462242
-16.7683 -12.3784 -0.533336
-14.8977 -13.091 -0.990257
-15.8683 -12.1308 -0.541259
-16.5328 -12.3682 -1.33222
-13.7564 -13.8304 -2.0456
-16.8864 -11.0908 -0.917874
-13.9587 -13.027 -1.86892
-16.6039 -12.6705 -0.453186
-15.6503 -12.4041 -1.56754
-15.8273 -13.3042 -1.05076
-15.5079 -11.7738 -1.69887
-15.285 -12.1666 -1.86289
-17.2505 -11.9591 -1.89499
-13.1486 -13.0879 -2.18739
-16.5769 -12.5998 -1.97632
-17.0538 -12.5955 -2.10045
-14.0518 -12.3966 -2.09211
-15.3608 -11.9902 -2.45338
-16.9036 -12.4183 -1.73868
-15.7258 -12.4525 -2.38516
-14.8076 -13.0678 -2.72434
-13.106 -12.9592 -2.21333
-13.4683 -11.2872 1.5582
-13.6856 -12.2096 2.80842
-14.0936 -12.5092 1.71866
-14.5215 -13.1154 2.78466
-17.2315 -12.4595 1.02991
-17.3477 -13.4847 1.77936
-14.1185 -13.8403 0.330546
-16.8264 -12.925 0.991315
-14.2135 -14.0348 1.24154
-16.3623 -13.6949 -0.693211
-15.7468 -13.4911 0.136734
-16.8419 -13.0585 0.0156218
-15.0993 -13.4537 -0.726049
-16.6587 -12.8571 0.739672
-17.1028 -12.7225 0.0780326
-16.5741 -12.4063 0.421464
-13.4584 -13.4962 0.686059
-13.6142 -13.7234 -0.191463
-14.5509 -13.9152 -0.148449
-16.9498 -13.6428 -0.627302
-16.3003 -12.4143 0.517438
-15.6583 -13.4035 -0.0186701
-16.5748 -12.7652 -0.322116
-16.313 -12.0711 -0.560073
-14.2987 -14.3811 -0.384316
-13.7296 -13.7672 -0.0332978
-16.1505 -12.8192 0.655213
-16.5475 -12.1566 -1.10498
-15.1119 -13.2147 -1.57911
-16.5823 -11.8621 -1.04487
-16.9525 -12.41 -1.07943
-14.9959 -13.5427 -0.932121
-16.2307 -13.0802 -1.62295
-15.7121 -12.9776 -1.30135
-16.9103 -11.6654 -1.56497
-15.968 -13.1618 -1.63835
-14.3962 -13.0962 -1.20093
-16.8531 -12.9165 -2.43065
-16.172 -12.5856 -0.898544
-15.9539 -12.7306 -0.728524
-14.9679 -12.1162 -1.75205
-12.0567 -13.585 -2.69309
-15.5838 -13.717 2.06035
-14.1069 -11.9116 1.68939
-14.4631 -13.2623 2.31732
-15.8073 -13.1884 0.933742
-14.9512 -11.866 0.52559
-16.7981 -13.4167 1.26361
-16.5458 -12.6688 1.08564
-16.993 -13.2023 0.0778449
-17.4616 -12.4539 -0.153064
-14.7534 -13.3301 -0.276914
-14.5628 -12.4116 0.348198
-17.2668 -12.5125 0.83177
-14.543 -13.4166 -0.689174
-16.6087 -12.4673 -0.106359
-14.0786 -13.8671 -0.618979
-14.5006 -13.0969 -0.675107
-16.0743 -12.1946 -0.602696
-15.6945 -13.6805 -1.2889
-15.9672 -13.1266 -1.16125
-15.6102 -12.4836 -0.90634
-15.0016 -13.0455 -0.477262
-13.1148 -14.2548 -0.806667
-14.6685 -12.4967 -1.49428
-15.0439 -13.3734 -1.65104
-13.8169 -14.2541 -1.3246
-13.7622 -13.3385 -2.26583
-14.2359 -12.8607 -0.642128
-15.9922 -12.4179 -1.61998
-14.2879 -12.8517 -2.43948
-15.9036 -13.2997 -1.86096
-14.3015 -12.6264 -2.22655
-16.1443 -12.1453 -1.47109
-14.6464 -12.7067 -1.38405
-13.4437 -13.192 -2.21098
-13.0977 -13.1376 -2.36082
-16.7351 -13.269 1.71434
-15.9941 -12.4144 0.39101
-15.3594 -13.6066 0.794238
-13.3615 -13.3174 0.701716
-17.0021 -13.9537 1.06112
-15.6196 -12.8105 1.29661
-15.8578 -13.285 1.27197
-15.8906 -12.8985 0.638063
-15.5111 -12.9983 0.123778
-14.7139 -13.2972 0.0946818
-16.3767 -12.3228 0.544341
-14.6266 -13.8544 0.769221
-17.8102 -13.0748 -0.145893
-14.7901 -12.0422 0.0389951
-16.3942 -13.5015 0.1074
-17.3885 -13.1198 -0.688597
-16.4555 -12.2839 -0.564816
-17.4777 -12.732 -0.587375
-14.0162 -13.4525 -1.26271
-15.3575 -13.193 -2.82439
-17.1585 -11.7698 -1.61518
-16.6599 -12.596 -2.35854
-16.1061 -12.4593 -2.69383
-14.2906 -12.862 -1.5431
-13.8694 -12.7967 -2.33658
-14.8153 -12.2059 -1.71476
-14.8002 -12.6515 -2.57059
-13.2915 -13.6638 -3.14422
-12.9223 -13.176 -2.72368
-13.4211 -12.7512 -3.38769
-16.0901 -12.1139 1.98008
-15.8034 -13.7116 1.30547
-15.7823 -13.1201 1.41372
-15.9661 -12.6586 1.05692
-15.6526 -12.6184 0.40546
-14.2982 -13.9806 0.482764
-14.6248 -13.2526 0.765432
-13.8251 -13.0409 -0.0353918
-15.8109 -13.147 0.775935
-14.2687 -12.5757 -0.746637
-14.692 -12.7549 -0.682836
-14.0583 -12.9972 -1.01325
-13.7341 -12.9144 -1.49357
-13.5714 -13.7581 -1.13388
-13.8164 -13.2984 -3.01774
-17.2133 -12.6999 -1.73908
-14.2266 -12.1765 -2.12253
-12.9605 -13.8348 -2.79028
-12.1585 -13.4106 -2.71634
-13.4608 -13.1189 -3.08936
-14.0945 -13.1867 -0.445159
-14.5935 -13.4656 -0.200012
-16.5638 -11.3227 -0.487822
-16.6497 -11.7567 -1.91121
-14.8807 -13.7811 -2.45697
-15.3645 -13.2993 0.418269
-17.3174 -12.1 0.793854
-15.2031 -12.7602 -0.247148
-13.9851 -13.0468 -2.19309
-12.5317 -15.2116 -2.27707
-15.1472 -12.6937 -1.2964
-14.5705 -13.3487 0.296762
-15.0065 -13.6476 -0.114609
-14.5175 -12.9623 0.250169
-15.5991 -13.0809 0.607168
-14.9693 -13.7363 -0.127858
-16.7523 -13.1861 0.0957088
-15.9584 -13.3092 -0.829978
-13.958 -12.0668 2.10336
-16.767 -13.1504 -0.220682
-16.079 -13.2348 0.662078
-15.7969 -13.2673 -0.204958
-13.2504 -13.6574 -2.11695
-13.6848 -13.1631 -1.30653
-15.6143 -11.7071 -1.63024
-12.5042 -12.6232 -1.74723
-15.8658 -12.1274 -1.74243
-16.5727 -12.3496 -2.5144
-16.8216 -11.3898 -1.42767
-17.4302 -11.4404 -1.58999
-17.5485 -12.1708 -1.17531
-15.0898 -12.9216 -1.67229
-16.8437 -11.7729 -0.292604
-17.3224 -12.6885 -0.855221
-17.5308 -12.2496 -0.619937
-13.3611 -13.2515 -1.71411
-16.6073 -11.9126 -0.83502
-16.3219 -13.1787 -1.90783
-14.6643 -12.7423 -1.11639
-16.7905 -12.5842 -0.460953
-16.3424 -12.4258 -0.494403
-16.3688 -12.0289 -0.583289
-17.0039 -12.4012 -0.931408
-13.884 -13.8373 -0.718991
-16.5458 -12.1323 -0.992026
-16.9712 -12.8116 -0.0762672
-13.996 -14.0492 -1.13592
-17.6562 -13.4244 -0.32764
-15.8127 -12.3577 -0.226169
-18.2629 -12.3585 0.883371
-14.2566 -12.8386 -0.202834
-16.1835 -12.3387 0.283278
-14.6152 -13.7708 0.430071
-15.0263 -13.3708 -0.151736
-14.0369 -13.21 -0.513402
-17.7055 -12.4688 0.758083
-17.8045 -12.7232 0.0228433
-16.2662 -12.336 -0.131513
-14.0422 -14.0312 -0.7865
-14.6721 -13.8403 -0.241654
-13.6917 -12.459 -0.0854818
-15.9201 -13.2542 -0.681865
-14.2141 -12.9221 -0.206247
-15.7279 -13.0325 0.230522
-17.492 -12.6939 0.248527
-16.5041 -13.29 -0.0403958
-16.6565 -12.7756 0.0521542
-16.7215 -12.9553 1.05414
-16.728 -13.4272 0.904553
-14.5339 -13.9787 0.160752
-13.5209 -14.172 0.248209
-16.3673 -13.5775 0.941211
-16.4798 -13.3039 0.740704
-15.9318 -12.2397 -0.21892
-16.5763 -12.4313 0.772654
-13.3701 -14.1654 0.744446
-15.1971 -13.4263 0.455153
-15.111 -13.186 1.37241
-16.6807 -13.4279 1.18935
-16.2775 -13.3252 1.01025
-17.6955 -13.8895 1.22678
-17.6532 -13.35 0.836849
-15.8554 -13.1158 1.15082
-17.4345 -12.3958 1.34783
-16.4282 -12.1541 1.00723
-17.1372 -13.3031 1.88289
-17.6065 -14.0399 2.0435
-17.0574 -13.0515 0.622397
-16.4192 -12.9147 1.85862
-11.99 -12.8158 0.987071
-16.3033 -13.5644 1.66973
-16.9513 -13.2323 1.95964
-15.9057 -13.2729 2.32452
-14.6644 -12.8114 2.11338
-11.4747 -13.7155 1.94302
-13.1645 -12.7669 -3.14679
-14.7629 -12.8583 -2.02945
-17.8007 -12.2814 -1.44581
-15.1374 -12.2411 -1.9135
-13.3289 -12.8568 -1.97959
-15.6516 -12.3881 -0.862152
-15.9989 -13.1527 -1.31966
-16.0747 -13.2019 -0.508681
-16.9104 -11.951 -1.10408
-16.3626 -11.9704 -1.28853
-15.0481 -13.4997 -1.54921
-16.1064 -12.17 -0.200546
-16.5364 -12.1487 -0.269698
-15.74 -13.1007 -0.706135
-15.7238 -12.7382 -1.30558
-16.7568 -12.5172 -0.925718
-16.4789 -13.3101 -0.585244
-16.9094 -11.9064 0.467633
-14.1687 -12.9487 -0.273465
-15.8436 -13.1784 0.946998
-16.4767 -13.2002 0.983751
-17.5031 -12.9768 1.5559
-14.3985 -12.9803 1.09518
-15.0878 -13.0685 1.19801
-15.4774 -13.7494 1.01683
-15.1454 -13.1274 0.801092
-16.7116 -12.3447 0.984645
-16.8525 -12.9183 0.588402
-16.002 -13.4739 1.81891
-16.1558 -13.2901 1.39694
-12.3063 -12.4029 1.46478
-15.7112 -13.3644 1.22999
-13.5511 -13.1018 -2.47603
-14.6277 -13.3062 -1.87163
-13.3636 -13.0389 -1.88576
-14.8255 -12.8237 -0.842605
-14.514 -13.538 -0.943037
-15.608 -12.3143 -0.737712
-15.701 -13.3484 -0.939727
-14.1065 -13.2815 -1.16616
-14.3666 -13.0546 -1.19885
-16.9189 -12.3577 -0.220988
-16.1786 -12.4116 0.110699
-15.5445 -12.949 -0.500717
-14.3135 -14.2202 -0.637151
-15.5324 -13.0325 1.73948
-15.6039 -12.7343 -0.0962744
-16.5564 -12.5563 0.740266
-15.3506 -13.1801 0.477997
-17.3162 -13.0908 1.46288
-16.9025 -12.6366 -0.239016
-16.3826 -13.0398 0.841038
-17.9968 -11.5818 1.54065
-17.467 -12.9327 0.734427
-13.3916 -14.4464 0.199324
-17.2283 -12.9476 0.894205
-13.4939 -11.9972 1.61729
-16.0504 -13.1242 1.37812
-15.7901 -13.7605 1.79416
-14.9399 -12.9326 1.3438
-12.3238 -13.5604 1.55603
-14.1928 -13.9277 -3.32632
-14.3086 -12.1665 -1.58684
-15.6122 -11.8875 -1.91843
-16.6859 -12.1019 -0.147247
-14.6225 -15.4159 0.339439
-17.0459 -12.6891 0.263576
-17.6269 -13.6816 0.537283
-14.5037 -12.9317 0.805574
-16.9084 -12.9756 -0.272437
-14.9834 -12.949 0.353006
-16.2323 -13.2834 1.11112
-17.2852 -12.7694 1.41472
-13.1066 -12.7617 0.712161
-16.416 -13.3162 -2.2029
-15.3727 -13.0677 -0.150217
-15.1344 -13.3276 -0.737466
-14.5979 -12.9854 0.180493
-16.0814 -12.5194 1.30426
-14.6472 -12.4781 -1.60018
-15.0912 -12.2465 -2.15978
-16.1645 -12.3441 -1.48455
-13.3935 -13.6635 -0.448116
-13.1722 -13.3141 1.21748
-14.6675 -13.2026 1.42884
-14.3632 -13.0511 -0.880199
-13.2951 -13.6473 -1.71303
-13.6049 -14.2216 -1.41105
-16.2931 -11.9501 0.085563
-17.1645 -12.5494 -0.923253
-17.3418 -12.7286 1.16391
-16.6621 -12.3432 0.977179
-13.9238 -14.0333 -1.31062
-14.9344 -13.6526 -1.49299
-13.9392 -12.6216 -0.243385
-14.1248 -13.1968 -0.403039
-13.3177 -13.5454 0.445218
-13.297 -12.7236 1.24883
-16.4176 -12.5562 0.0390732
-14.1751 -14.151 0.648941
-13.6343 -14.6177 -0.48484
-14.5882 -13.6868 0.245246
-17.4273 -11.431 -1.42743
-15.9755 -12.3649 -1.14546
-16.7929 -12.3288 -1.02794
-15.0321 -12.5803 -1.12679
-13.5647 -12.8437 -1.5122
-17.6974 -12.6869 -0.623133
-13.5056 -13.6033 -2.4958
-17.0461 -11.8237 0.136572
-15.2014 -12.3266 -1.55483
-16.134 -12.3927 -0.0216348
-17.269 -12.1054 1.03611
-16.1248 -11.9692 -0.214967
-17.5143 -12.6987 0.364915
-17.1527 -12.1801 0.314575
-16.259 -12.6325 0.689906
-15.4355 -13.9863 -1.00734
-17.4157 -13.2663 1.30754
-13.9155 -14.2002 -0.581954
-16.142 -12.3533 1.14681
-14.2763 -13.24 -0.445483
-16.7685 -13.706 0.617315
-16.6379 -12.8263 0.685378
-16.7127 -13.8041 1.02403
-15.445 -13.2167 1.20656
-16.5236 -12.4561 2.18076
-15.2831 -12.9604 0.486058
-17.2367 -12.4852 1.95489
-16.6667 -12.3259 1.56297
-14.7497 -14.0787 -0.874048
-14.4173 -14.3676 -0.205522
-15.6864 -12.4605 1.00822
-15.6322 -13.7814 0.626048
-17.1413 -13.1668 1.50194
-16.7995 -13.5638 1.66392
-15.5497 -13.4432 1.82169
-16.2526 -13.6002 1.76569
-16.4852 -13.3229 0.988716
-14.5977 -12.5481 1.05745
-15.9063 -12.3595 -1.85842
-16.3814 -12.049 -0.893
-16.3678 -12.0806 -2.19723
-17.7386 -11.9508 -0.188652
-16.1713 -12.3987 -0.755142
-15.9183 -13.0285 -0.270516
-17.2276 -12.5613 0.584095
-16.2645 -12.904 0.196985
-16.2513 -11.6863 0.361142
-17.4801 -12.7037 0.553449
-15.3305 -13.384 0.0128023
-15.6991 -12.6491 0.20547
-17.1196 -12.7719 -0.775505
-15.9193 -11.7814 1.66543
-16.2553 -12.3656 0.474388
-17.373 -13.243 1.65184
-16.5254 -13.0672 -0.00940552
-13.9956 -14.0788 -0.367174
-13.3742 -14.0811 -0.237855
-15.5023 -12.7588 1.73161
-13.2064 -14.4582 -1.52084
-16.2315 -12.5897 1.87704
-13.2549 -12.6396 1.49811
-16.2646 -13.0545 -2.3479
-16.035 -12.7171 -3.33108
-12.3682 -13.6531 -2.20082
-13.6841 -12.5928 -2.02095
-16.5351 -12.8185 -1.56337
-17.2981 -12.335 0.75659
-15.1876 -13.0878 -0.159494
-16.2383 -14.1364 0.62773
-15.6565 -12.4569 0.433508
-14.5279 -12.8876 -0.0791487
-16.0499 -12.9402 1.12315
-16.5003 -13.1586 1.3378
-15.4442 -12.9976 1.83434
-15.3572 -12.3066 -2.29406
-15.3523 -12.655 -1.55746
-16.5194 -12.7989 -0.35589
-16.6294 -12.0807 -1.24986
-16.2105 -12.9962 0.292853
-13.2437 -13.2947 -1.32915
-17.1596 -13.0963 1.1109
-15.331 -13.9408 -0.267323
-17.6076 -12.7045 0.618253
-16.6477 -13.0533 1.61609
-16.4013 -12.4263 0.450255
-14.2391 -13.1934 -0.135542
-15.7675 -13.2691 1.07539
-16.8687 -13.8104 1.04265
-14.4217 -14.7015 0.0332757
-14.0382 -14.3313 0.826178
-15.5751 -13.0081 1.73282
-12.5884 -11.9088 1.93372
-13.9431 -13.4102 1.94415
-14.9232 -13.3519 2.33374
-15.1967 -12.3856 -3.10521
-13.2505 -12.7227 -2.85444
-16.2853 -12.6674 1.85082
-13.7524 -14.0821 -0.0498606
-13.3733 -13.2482 0.287446
-15.425 -13.0777 -0.393291
-14.3673 -13.1477 -0.503178
-14.2815 -13.4105 0.599519
-12.8944 -11.8452 1.33986
-16.4866 -12.4772 -0.251324
-12.6868 -14.3951 -0.615706
-15.4624 -13.383 1.2941
-15.8584 -12.1212 -0.444052
-14.3786 -12.6373 -1.47983
-12.7402 -12.8721 -2.57364
-16.1001 -11.8731 -1.68428
-16.0766 -13.2685 0.0701401
-16.2225 -12.7186 0.137428
-14.0545 -13.0228 -1.5905
-13.791 -12.7711 -2.90974
-14.9446 -12.9525 0.547429
-16.085 -13.9535 0.912752
-15.2642 -13.5543 1.66541
-13.5278 -13.3329 -0.890122
-13.5 -14.0916 0.0669016
-13.4489 -14.2313 -0.144421
-17.4612 -12.5198 -1.03747
-16.7346 -11.345 -0.417686
-15.3672 -12.7905 -1.79258
-17.1763 -13.9851 0.627989
-16.8133 -12.3153 0.511661
-15.8132 -12.5338 1.77222
-15.8843 -13.2527 1.77909
-16.5212 -13.7547 2.40056
-13.8246 -13.8411 0.124788
-13.2955 -13.5663 0.41333
-16.3912 -11.7184 -1.27673
-15.5693 -12.2168 -1.65396
-15.2849 -11.5982 -1.79171
-13.1367 -13.9943 -1.35227
-12.1029 -14.0877 -3.91849
-14.5509 -13.7293 -0.970647
-16.1969 -14.201 1.43961
-14.4226 -13.6836 -0.560534
-14.4692 -14.0368 -0.226981
-13.7437 -15.2972 -1.17776
-17.6608 -12.1209 -0.330413
-13.3614 -14.4627 -0.263522
-13.1746 -14.9536 -1.26548
-13.8383 -14.741 -2.02779
-15.9999 -11.3075 -1.54053
-15.5965 -12.454 -0.0162206
-15.4705 -11.8753 -1.39212
-16.095 -12.3843 0.415125
-12.361 -14.6859 -2.76904
-17.9826 -13.1705 1.03085
-14.4349 -13.6467 0.562844
-14.7497 -11.6633 -1.34255
-14.3911 -14.7423 -0.314348
-14.5243 -14.0903 -0.232722
-12.7432 -13.0108 -2.68808
-16.5975 -11.4351 -1.08564
-17.2798 -11.5328 -1.64442
-16.8472 -11.9289 -0.665063
-17.1206 -12.1658 1.20854
-15.0165 -12.6182 -1.98115
-15.798 -12.5306 -1.1966
-14.9887 -12.7482 -0.937778
-14.9321 -12.6711 -1.40302
-16.6369 -13.7806 1.18533
-13.658 -12.7335 -1.31266
-14.7789 -13.3525 -1.19765
-14.5953 -13.4832 -0.0149436
-13.4957 -12.8816 1.72005
-16.4867 -12.4464 -1.81066
-17.0476 -12.3035 0.139617
-13.9767 -11.9087 -2.62335
-15.4116 -13.3926 0.611898
-14.3909 -13.1948 -1.40703
-14.3085 -13.5737 -0.987698
-14.1688 -13.2514 -0.696912
-14.4013 -13.7773 -0.842793
-14.5268 -13.7244 -0.269727
-13.2017 -14.3563 0.216076
-17.0229 -12.1815 -0.0486315
-16.34 -13.1371 -0.908861
-15.6694 -12.933 -1.64345
-15.9613 -11.8334 0.845789
-12.3581 -13.5229 -2.2959
-15.7112 -13.7064 1.1366
-14.7991 -13.347 -0.237324
-13.6717 -13.5776 0.0445038
-14.2986 -14.1099 -0.70412
-13.1183 -14.1731 -1.47763
-12.7491 -13.9247 -0.0230265
-14.7879 -12.6135 0.747731
-14.6917 -13.5172 1.2408
-15.0504 -13.6136 -0.509705
-12.7746 -15.0168 -1.4008
-16.5458 -12.9696 0.946199
-14.649 -13.81 -1.048
-17.878 -12.8622 0.376104
-13.6721 -13.1216 -0.811033
-16.257 -12.6303 -0.627093
-16.043 -12.6791 -0.873987
-16.1517 -11.9436 -1.61981
-17.1292 -12.6929 -1.54056
-16.5229 -12.621 0.325918
-16.8674 -12.3684 0.439954
-16.4755 -11.8084 0.0287806
-16.565 -12.0269 0.420845
-15.9273 -13.0648 -0.327839
-16.124 -12.0943 -0.520703
-16.2079 -12.6201 -1.34766
-15.9656 -11.9869 -0.544102
-16.48 -13.3865 -0.409983
-14.6374 -12.3545 -2.06269
-13.9291 -12.4148 -1.74904
-13.5383 -13.3175 -0.351793
-14.2586 -14.0884 -0.380781
-13.5315 -13.8033 -0.674349
-13.2328 -13.748 -0.914093
-12.6411 -12.6842 -0.947071
-12.9758 -14.8248 -1.24985
-16.5677 -13.2042 0.540222
-16.8328 -13.221 -1.32293
-16.841 -13.0251 0.364303
-15.2677 -12.3804 -1.73122
-15.9577 -12.548 -3.18527
-14.8049 -14.0279 -0.173136
-13.4175 -12.9092 -1.19233
-13.572 -14.0794 -1.48073
-12.8939 -13.8217 -0.998912
-13.972 -14.4651 -1.34179
-14.3434 -15.366 -0.915702
-13.2622 -13.051 -0.625088
-14.4635 -14.4949 -1.37627
-17.2805 -12.045 -1.38881
-17.5254 -11.8344 1.13121
-17.8633 -12.2064 2.08005
-16.9356 -11.4203 0.300072
-16.9708 -12.2663 0.7407
-16.2419 -12.1548 -0.581237
-14.6427 -12.0457 -2.87689
-14.3274 -13.6155 1.42765
-14.3017 -14.0488 -1.89406
-13.4833 -13.5927 -1.10284
-12.8158 -13.8514 -1.09076
-16.8166 -12.401 1.13534
-15.2239 -12.6869 1.02523
-16.2312 -13.4639 2.25474
-15.325 -13.8651 -0.586933
-13.6685 -13.1378 0.475472
-12.6682 -14.0216 -0.749289
-13.1703 -15.1566 -1.01262
-13.5142 -13.8913 -1.341
-13.1822 -15.2472 -0.25623
-12.7194 -13.7087 -1.55847
-13.0675 -13.8598 0.304007
-14.6088 -12.7448 -0.970518
-16.4841 -12.3222 0.50134
-13.6502 -12.6735 -1.12006
-12.2262 -14.4232 -1.27618
-17.0745 -13.6107 0.573657
-13.8879 -14.3639 0.261833
-15.9898 -12.9818 -1.45121
-13.7942 -13.5056 -1.45288
-13.6255 -12.4611 2.23151
-15.8522 -12.6004 -0.63496
-17.5924 -11.8228 0.263198
-17.4329 -13.409 0.846372
-17.5752 -11.3186 -1.59302
-17.4772 -13.0545 0.488209
-16.5797 -12.227 -0.982973
-16.6303 -12.6928 0.966164
-16.6852 -12.4404 -1.28578
-17.0497 -12.1261 1.10701
-16.4472 -13.5954 0.516369
-16.4194 -11.9903 -0.926609
-16.4757 -12.204 -1.33751
-16.8958 -12.0074 -0.00775633
-15.9666 -13.9458 2.06416
-16.1952 -13.0553 -0.79072
-16.2313 -11.6667 -2.04591
-16.5792 -11.6573 -1.0569
-15.9321 -13.2071 -1.98936
-15.5566 -13.1265 -1.49978
-16.293 -12.8317 -2.40897
-15.274 -13.6192 -0.454396
-15.16 -13.4365 0.00721205
-15.3257 -13.1268 -0.0455707
-14.3644 -14.1052 -0.632862
-13.4303 -13.0176 -1.00643
-14.7605 -13.3455 0.0990228
-14.8168 -13.6729 -1.12949
-14.614 -12.877 -0.425932
-14.4295 -13.0335 -1.1898
-13.9493 -14.5569 0.234386
-13.4899 -12.0094 1.27072
-14.3645 -13.9409 -1.2615
-13.6151 -13.9354 0.118914
-13.0459 -13.5086 -2.43281
-12.8324 -13.8732 0.791269
-13.2898 -13.6255 -1.48481
-13.6789 -13.6944 -0.76497
-13.785 -13.635 -0.0152503
-12.4141 -14.4628 -1.98894
-17.366 -11.4451 -0.194093
-16.8058 -12.1487 -1.45068
-16.9324 -13.1234 -1.16778
-15.7893 -12.8425 -1.49723
-17.9062 -12.1763 -0.755187
-17.1251 -12.322 -0.830672
-17.0526 -10.969 -0.941087
-16.2991 -12.557 -1.13463
-15.9836 -13.0842 1.70905
-16.8622 -12.7644 -0.117786
-16.4411 -12.5924 -1.09035
-15.1158 -13.0586 0.673591
-15.4161 -12.3142 0.941194
-15.1729 -12.3765 -0.854454
-15.7627 -13.8885 0.340636
-13.8144 -11.556 -1.44327
-13.2006 -14.0064 0.283544
-13.4009 -13.84 -0.0498609
-13.9329 -14.1435 -0.68652
-13.2493 -13.7794 -0.298074
-13.6222 -13.3955 -1.07063
-13.8965 -14.2149 -1.53012
-13.598 -13.9205 -1.14118
-12.6615 -13.7334 -0.85137
-13.7128 -14.3733 -1.41555
-17.6438 -11.8509 0.271964
-17.3083 -12.2351 0.22227
-16.6911 -12.7504 -0.14579
-15.9434 -13.0941 -0.251539
-15.3585 -13.4251 1.19992
-15.495 -12.7969 -1.31016
-14.9695 -12.7271 -1.60797
-13.5023 -13.7122 -0.293369
-14.9426 -12.0035 -0.363021
-14.218 -13.8234 0.536126
-13.7794 -13.419 -1.2731
-12.957 -13.9185 0.14615
-11.9788 -12.9726 1.26348
-13.2862 -13.7248 -1.38141
-13.3329 -13.21 -0.840075
-13.4374 -13.8534 -1.77343
-13.6792 -14.01 -0.673979
-14.1491 -13.0186 -0.615019
-13.7357 -14.0914 -1.53297
-16.9462 -13.0095 -0.242545
-16.4665 -11.5334 -1.5285
-13.6227 -13.7817 -1.09987
-14.0005 -13.5745 -1.30765
-13.8408 -12.582 -2.43058
-13.5192 -14.0394 -1.24242
-13.0396 -14.0776 -0.708857
-13.2307 -14.8921 -0.805067
-14.1068 -15.083 -1.9143
-12.7442 -14.2983 -2.66564
-17.2881 -11.6785 -1.62764
-16.8297 -11.5889 -0.500048
-17.1037 -12.3778 0.818613
-17.3566 -11.9525 -1.20967
-17.3354 -12.814 0.135268
-15.2755 -14.1197 -0.129473
-14.5979 -13.1426 -0.507838
-14.1415 -13.2731 -0.311684
-13.7116 -13.6484 -0.601216
-14.9834 -13.9788 -1.37612
-14.0262 -13.631 -1.12194
-13.7504 -14.3813 0.908628
-12.9257 -13.6817 1.92335
-12.3417 -13.4733 -1.26064
-13.0527 -13.8466 -0.960822
-13.0349 -13.4169 -2.53227
-17.6841 -12.5273 0.330103
-16.6714 -12.3718 0.873635
-14.8455 -13.0859 0.971118
-13.5081 -12.3333 -1.31494
-14.7674 -13.0123 -1.35192
-14.1142 -13.7012 0.0331192
-14.5157 -12.9519 -0.546573
-14.2396 -14.9935 -0.678507
-13.6229 -13.0183 -0.690287
-12.3973 -13.8647 -1.58146
-13.9949 -12.6175 -1.91366
-13.058 -13.5586 -1.23244
-13.4347 -12.1633 1.80986
-14.0881 -12.8324 -0.356883
-14.3884 -14.2997 -0.939827
-12.9644 -13.4488 -3.16172
-14.3762 -13.3033 -0.991312
-17.1364 -12.6008 0.897214
-17.4305 -11.4161 -1.455
-16.6559 -12.429 -1.04488
-16.149 -10.8794 -1.06188
-17.3892 -12.6806 -1.26256
-14.9546 -12.8224 0.319186
-16.872 -12.2651 -1.48924
-16.6098 -11.4534 -0.868091
-16.1318 -11.4554 -1.32423
-16.0037 -12.6076 0.677495
-15.8572 -12.6487 0.0433405
-14.9648 -12.67 1.39107
-17.1614 -12.5744 -1.74183
-15.4977 -12.3277 -1.46933
-15.9724 -12.4364 -1.0369
-16.6716 -11.9729 -1.66555
-15.0476 -13.6076 -0.130149
-14.5558 -13.7479 -0.820467
-13.784 -13.6436 -0.894401
-13.5117 -13.1312 -2.70748
-14.0308 -13.5471 -2.68165
-17.5307 -11.2144 -0.284014
-17.5219 -11.1033 -2.22172
-17.179 -11.575 -1.22472
-17.0877 -12.0041 -0.981635
-17.009 -11.7155 0.084097
-16.6505 -13.4976 -1.24943
-17.301 -12.3517 -0.820459
-16.2394 -11.8844 -1.53677
-17.4001 -11.7612 -0.607399
-16.938 -12.9778 -1.20809
-15.0479 -12.9019 1.25903
-16.9656 -12.6026 -1.55378
-16.6903 -12.8291 -1.22649
-15.9984 -12.9698 -0.746224
-15.0251 -12.6755 -2.14923
-15.9245 -13.7564 -2.47962
-14.4313 -13.1741 -1.0032
-14.3398 -13.3413 -0.906194
-15.2138 -12.6714 -0.420934
-12.4798 -12.3586 1.81328
-14.2044 -13.2018 -0.3757
-12.8322 -12.5439 0.503253
-12.9712 -12.9241 1.22025
-13.1749 -14.1974 -1.22315
-12.7378 -14.0839 -1.04996
-17.3123 -12.2951 0.225196
-16.2619 -12.7913 0.177038
-15.2436 -12.9347 1.92705
-16.2418 -12.9531 0.147705
-16.9877 -12.0651 -1.20116
-17.1913 -12.2884 -1.18017
-14.9926 -13.8612 2.3627
-16.2575 -12.6593 -1.1568
-14.916 -13.3075 0.268283
-16.0332 -12.5738 -1.4726
-15.012 -12.6981 -1.19126
-13.7425 -13.9782 0.373322
-13.1077 -14.0235 -0.126833
-14.1761 -13.8725 -0.594602
-14.2573 -12.3778 -2.14895
-14.1643 -13.4729 0.0316122
-14.6629 -13.6495 -0.82553
-13.5387 -13.7617 -0.467255
-12.5247 -14.4203 -1.39807
-13.6505 -14.0314 -0.297915
-13.2895 -14.8187 -0.810003
-13.5983 -14.7877 -0.625042
-12.4735 -14.1541 0.0902971
-13.6342 -13.7652 -1.57442
-13.8068 -14.3867 -1.38139
-13.8684 -12.6469 -2.00195
-13.4134 -13.3931 -3.03418
-16.5143 -12.7101 0.894701
-15.9752 -12.4255 1.486
-16.4773 -11.7457 -0.406352
-17.8835 -12.2719 -0.357566
-16.5159 -12.524 0.392053
-14.8363 -12.0535 1.10131
-16.5015 -12.4069 -2.58342
-14.5188 -13.0363 -0.847711
-13.793 -14.2674 0.771325
-14.5349 -13.0456 -0.426893
-13.6852 -13.3333 -0.725956
-15.2137 -13.2146 -0.947861
-13.6185 -12.2451 -1.86734
-12.9996 -13.7919 -1.55499
-13.6829 -13.1744 -0.612222
-13.2954 -13.6891 -1.23487
-17.6307 -11.8824 0.730651
-17.1817 -12.5705 -0.582314
-17.3726 -12.5092 -0.469824
-16.5969 -13.3118 1.31965
-15.0497 -12.9422 0.0436541
-14.3223 -12.9949 -0.29169
-12.9483 -14.6007 -0.709783
-14.9724 -13.4081 2.52564
-14.9776 -13.3164 -0.218588
-14.714 -13.3723 -0.12394
-15.1839 -14.0125 -0.0343135
-14.8601 -12.3926 -1.60308
-13.771 -13.2092 -1.08992
-13.6805 -12.9809 -1.85326
-13.0794 -12.9108 -1.92529
-13.7956 -13.2645 -1.63572
-16.0988 -12.9513 -0.454526
-17.366 -13.5957 0.12065
-15.1103 -13.1779 1.17684
-16.2839 -11.5393 -1.84418
-17.2873 -13.7295 -0.360252
-16.4331 -12.6572 -1.33018
-17.0563 -12.2914 -0.741013
-16.7615 -12.6476 -0.453851
-16.1919 -12.8156 -0.87708
-16.4113 -11.715 -1.44985
-15.3746 -12.4772 -0.316962
-16.1745 -13.0311 -1.32618
-14.9884 -13.0737 -0.993018
-16.0119 -13.6295 -2.50101
-13.2002 -14.2281 -0.349062
-13.1235 -13.8515 -0.0832561
-13.9854 -12.0567 -0.979311
-14.2952 -13.1596 -1.63956
-14.6201 -12.7369 -2.51708
-13.9121 -12.721 -1.82951
-12.7016 -13.8172 -0.45939
-13.7854 -12.8508 -2.25981
-14.0764 -13.7464 -1.92779
-13.5972 -11.7802 -2.2995
-13.6805 -13.4442 -2.94445
-13.6484 -13.0828 -2.69536
-13.5219 -12.6496 -2.06089
-13.3303 -12.7324 -2.40605
