-17.877 -11.4057 -1.98202
-15.0973 -13.7248 0.915333
-14.6711 -13.1988 0.591397
-13.7845 -12.5939 2.05762
-15.1353 -12.905 -0.0930315
-16.774 -12.6201 -1.95809
-16.5354 -11.9062 -0.875796
-17.1752 -12.4754 -1.50378
-14.9379 -12.8721 -0.839904
-14.1814 -13.3292 0.619942
-11.6863 -12.1143 2.11681
-14.3748 -12.3342 -1.10881
-13.49 -12.6724 1.49494
-12.9732 -11.6085 2.00137
-14.7942 -12.4853 -0.393102
-14.0643 -12.6855 -0.570493
-14.867 -13.0103 -0.855431
-14.8669 -13.0362 -1.33114
-15.7811 -12.7857 -1.78142
-16.2891 -12.7475 -1.073
-12.9207 -14.5597 -0.812824
-14.302 -11.4492 -3.47079
-12.6976 -12.953 -0.748208
-13.148 -13.7096 -2.21853
-17.3084 -13.8314 1.6087
-17.0327 -13.2729 1.55063
-18.5833 -12.2496 -0.587975
-16.7035 -12.1493 1.65738
-18.2474 -11.1447 -0.685616
-18.4619 -10.983 -0.113098
-17.086 -12.0054 -1.14452
-15.1974 -13.0027 1.69004
-16.0665 -12.5816 1.4317
-16.8886 -12.4234 0.25404
-16.9794 -12.6526 -0.384336
-17.7307 -12.4566 -0.196074
-16.2952 -11.1917 0.621148
-18.3264 -11.2499 0.103501
-17.234 -12.2228 -0.0795572
-17.2001 -12.0365 -0.623672
-17.4467 -12.2028 -0.84729
-17.2785 -12.1019 -0.410137
-16.7461 -12.3924 0.475951
-17.762 -12.1517 -0.948753
-16.9882 -11.3251 -1.34565
-16.8741 -12.2029 -1.17842
-17.8387 -12.0663 -2.01455
-15.8906 -12.6195 -0.6117
-17.3304 -10.8683 -1.04124
-16.5881 -11.5772 -1.6361
-17.0748 -12.4678 -1.11658
-17.1307 -11.4752 -0.797398
-16.3272 -11.8646 -0.740777
-13.5478 -11.4604 1.76487
-15.0877 -13.3993 -0.65165
-13.1399 -11.6394 1.28317
-14.9538 -12.2275 -0.778069
-13.7733 -12.7449 -0.369923
-16.3272 -10.9798 -1.73275
-14.5791 -12.4261 -1.27226
-13.4448 -12.8131 -0.186206
-13.5783 -13.6178 -0.777317
-14.5253 -11.8553 -1.66827
-12.5917 -13.2324 -1.28754
-13.164 -12.3457 -1.60219
-13.6423 -13.1985 -0.670923
-13.2421 -12.805 -3.53158
-13.6619 -12.9409 -2.34297
-13.711 -12.9209 -2.76257
-15.4713 -12.3854 1.75337
-16.2178 -11.7924 1.60557
-15.2275 -13.6187 1.92757
-16.3696 -12.6698 1.24675
-16.7121 -12.2519 0.262645
-17.303 -11.4437 -1.08025
-15.7067 -14.4681 1.81636
-17.688 -11.4105 -1.24732
-17.3788 -11.9318 -0.943033
-14.3607 -12.5329 0.0271666
-12.7972 -11.5656 2.08594
-16.5733 -12.4193 -2.24311
-14.61 -13.2387 -1.18857
-12.51 -12.585 0.713068
-14.443 -13.2646 -1.33999
-15.3185 -13.0001 -1.41289
-14.228 -13.0177 -0.960986
-13.2893 -14.3649 -0.899678
-14.1752 -13.3249 -1.05835
-14.5817 -12.8127 -1.70919
-17.3626 -12.8426 1.69805
-17.8325 -12.502 0.410489
-16.5949 -12.7576 0.545674
-18.3285 -11.6494 0.063738
-16.9211 -13.0834 0.319616
-13.5578 -12.3912 2.74291
-15.3445 -11.9008 -0.368099
-13.4837 -12.0595 0.722203
-14.7746 -13.1862 -0.199711
-15.3135 -13.3433 0.0650833
-15.0391 -13.0403 0.378796
-14.5515 -12.9489 0.922837
-14.0003 -13.2788 0.877792
-14.0472 -13.2591 0.584392
-16.7231 -11.7969 -1.32793
-15.0427 -13.2091 -0.793408
-15.8035 -12.274 -1.42735
-15.0568 -12.1983 -0.325691
-16.6997 -11.3992 -1.69865
-15.7356 -13.4733 -0.503633
-15.3614 -13.1809 -1.13414
-15.1467 -11.5417 -1.66212
-15.3678 -10.7639 -2.49208
-13.8641 -12.5554 -3.0525
-13.7591 -12.1555 -1.87801
-14.1695 -12.9368 -2.721
-13.1417 -12.5141 -3.0364
-16.35 -12.3986 -0.910641
-15.3661 -13.2386 0.324936
-15.4914 -12.8866 0.0245603
-15.9576 -12.398 -0.270019
-15.4182 -12.421 -0.609382
-15.3328 -12.8529 0.243114
-15.9957 -11.7179 -2.0219
-15.1452 -12.8034 0.0535128
-15.1848 -14.2358 -0.251816
-14.6386 -14.2885 0.359157
-13.9849 -13.9475 0.0614101
-13.9577 -12.2409 -3.39654
-17.0989 -12.579 -0.0376438
-15.7819 -11.5498 0.837222
-15.5515 -12.3504 -0.306448
-15.4977 -13.8611 -0.382934
-15.0363 -13.6097 0.12871
-16.1174 -11.5237 -2.09001
-15.4222 -13.0869 -1.82041
-16.5166 -12.0128 1.13475
-17.0466 -12.5181 -0.647064
-16.053 -13.0144 0.952581
-16.4364 -11.1169 -0.486328
-15.4832 -12.6668 -0.749303
-13.5933 -12.8803 -0.826692
-16.1145 -12.0185 -1.88143
-14.2821 -11.1789 -1.14483
-12.7804 -13.6187 -3.62941
-14.3497 -12.9184 -0.837744
-15.0339 -13.0073 -0.0817685
-13.4596 -13.2051 -2.21539
-14.6525 -12.9422 -0.331987
-14.1755 -12.1572 -1.88029
-13.5592 -12.6877 -2.1853
-14.9171 -12.1436 2.40607
-15.4151 -12.7864 -1.49385
-17.6475 -12.6875 1.17756
-17.6375 -12.7328 1.61536
-18.1546 -12.2749 0.743094
-18.5383 -12.867 -0.0973396
-16.7652 -12.7934 1.27576
-16.7671 -13.4833 1.53649
-17.1591 -12.6132 0.408199
-13.5364 -11.8551 1.04297
-16.1191 -12.6576 0.881007
-16.6873 -13.1557 1.29521
-17.1195 -12.2213 1.02193
-17.6597 -12.381 -0.300405
-16.7723 -13.0546 1.44451
-15.8811 -12.5889 1.45638
-16.9126 -13.2492 -0.227702
-15.6131 -12.513 0.897251
-15.3887 -13.0835 0.82546
-17.509 -11.9194 -0.620699
-17.103 -12.0475 -0.789853
-16.949 -12.6547 -0.241202
-14.9963 -12.7083 0.967788
-18.1542 -11.7764 0.91455
-18.1861 -10.7783 0.0694734
-17.3385 -11.8604 0.0143669
-17.1252 -12.9744 -0.263173
-17.7335 -12.6878 -0.922238
-16.8619 -13.3124 -1.10129
-17.9844 -12.0713 -0.85117
-16.2673 -12.5509 -1.76187
-17.1621 -11.8736 -1.05063
-16.6693 -13.4051 -0.175452
-16.6828 -13.0273 -0.288807
-17.4817 -12.4506 -0.570284
-15.0068 -13.677 0.374344
-16.9386 -11.1366 -1.06708
-15.6104 -13.224 -0.920593
-16.1548 -12.2058 -0.850221
-16.1105 -12.0728 -0.155202
-17.651 -11.2461 -1.69159
-17.0353 -11.6662 -1.45138
-14.2979 -12.7623 -0.0931627
-17.0395 -11.4309 -2.07479
-14.6723 -12.4874 -1.23172
-16.867 -11.2813 -2.31124
-18.6538 -11.2636 -1.63705
-16.5194 -11.2996 -1.75311
-16.8946 -11.8261 -1.52301
-17.1309 -11.6943 -1.71334
-17.7309 -11.6192 -1.8497
-16.3296 -11.3928 -1.0328
-17.1435 -12.6951 -2.20131
-17.0135 -12.4215 -1.15553
-17.121 -11.1846 -1.40293
-16.8007 -11.5401 -1.94853
-17.1094 -11.8529 -1.77317
-17.0864 -11.2628 -1.40294
-17.1662 -11.8786 -1.1001
-13.9786 -13.7611 -1.18034
-17.3891 -12.1038 -2.68779
-17.1016 -11.3915 -1.77
-16.631 -12.258 -1.4999
-16.0415 -11.5137 -1.31579
-14.8177 -12.2082 -1.83759
-14.0112 -12.8796 -2.37858
-16.863 -13.4739 1.70747
-17.1987 -13.1721 2.18783
-18.2879 -12.2526 1.30076
-17.6048 -13.1355 0.137167
-18.2718 -11.6968 0.9931
-16.6998 -11.9974 0.937737
-17.2253 -12.8749 1.12706
-14.9333 -11.9137 1.21619
-17.4167 -12.2605 -0.00626741
-17.1337 -11.1981 -0.28017
-15.0067 -12.7897 1.65964
-16.4191 -12.0688 1.34846
-16.6944 -12.1685 0.101121
-17.1355 -12.4445 0.111418
-15.3647 -13.1918 1.07746
-17.6979 -13.1229 0.0500275
-17.6657 -12.1571 0.149208
-17.0434 -12.3757 -0.31694
-17.0265 -12.6098 -0.831042
-18.2202 -11.5158 -0.102732
-17.5619 -11.1482 -0.590891
-17.3769 -11.4712 -0.59619
-16.8401 -12.5495 0.19941
-18.2545 -11.4347 -0.232809
-15.5441 -12.9088 0.00799643
-17.7484 -11.187 -0.612056
-17.4247 -11.903 -0.46264
-18.8335 -12.5811 -0.330444
-18.2066 -13.4177 0.495313
-13.9508 -13.8606 -0.490909
-17.4329 -12.8567 0.13566
-17.2127 -12.0094 -1.22944
-17.341 -11.6758 -1.06543
-17.4778 -10.7196 -0.244558
-17.3963 -12.1812 -1.1356
-18.2798 -11.3382 -0.0210287
-18.0622 -11.5274 -0.0149943
-17.3314 -11.5662 0.027532
-15.9053 -12.9725 0.260651
-15.7063 -12.6505 -0.758966
-16.4313 -12.6534 -0.605093
-16.4893 -12.352 0.041644
-18.158 -11.6847 -1.05151
-16.7495 -12.0696 -1.10191
-14.9763 -14.1875 0.559684
-18.3582 -11.1768 -1.74912
-16.7282 -12.0361 -1.70166
-14.8531 -13.1343 -0.838788
-15.6376 -11.8707 -1.07191
-17.2169 -11.5407 -1.80969
-14.2412 -13.0862 0.658317
-16.4703 -12.5684 -1.25493
-14.6036 -12.8572 -0.213698
-17.6717 -10.8223 -1.56033
-17.9649 -11.1734 -1.23777
-16.145 -12.2594 -0.615829
-13.8463 -13.6389 -1.20811
-16.73 -11.5874 -2.21984
-14.7652 -13.1308 -0.871846
-15.3101 -12.5142 -1.17128
-16.4034 -12.0303 -1.62111
-16.9395 -12.7934 -1.0086
-16.3871 -11.7397 -1.73097
-14.2717 -13.3129 -1.30734
-15.2336 -11.9761 -1.16464
-16.7817 -11.9095 -1.69258
-14.0711 -14.2132 -1.86628
-15.3209 -12.3148 -1.02871
-17.1755 -11.1681 -2.14419
-12.907 -13.1244 -1.01657
-16.8971 -11.0384 -2.01128
-15.0873 -11.962 -3.02369
-15.8431 -11.8336 -2.5932
-15.023 -11.9535 -2.57438
-13.2352 -12.169 -1.60058
-14.5124 -12.0995 -2.23752
-14.0704 -11.6829 -1.95509
-13.7303 -12.65 -3.40736
-17.3663 -13.7109 -0.038965
-16.3037 -12.1567 1.74229
-16.0207 -13.7459 0.86365
-17.8629 -11.8072 0.112757
-16.7686 -12.2378 1.05356
-17.3548 -11.8583 0.300548
-16.8785 -12.9115 -0.355823
-16.4661 -12.6662 -0.362815
-13.6153 -11.7699 1.62761
-13.458 -13.2106 1.51752
-18.3939 -11.6408 -0.569286
-17.8419 -11.7843 -0.392791
-17.2996 -12.1792 -0.0795085
-16.2343 -12.6226 -0.476812
-14.3628 -14.4877 0.0353919
-16.7024 -13.2082 -1.22149
-18.2589 -11.7715 -0.357226
-18.3838 -11.9308 -0.932717
-16.7213 -12.2394 -1.48148
-18.3551 -11.2364 -1.29414
-18.3142 -12.2052 -2.71012
-15.464 -12.9278 -1.49864
-14.4198 -12.1163 -0.0827082
-13.7084 -13.8878 -0.696769
-13.6563 -13.8969 -1.64686
-14.8343 -12.7277 -2.16679
-13.0734 -13.1534 -1.90324
-14.0718 -11.7872 -2.06153
-13.8305 -13.5252 -3.91652
-17.1832 -12.3404 2.5315
-17.3689 -13.0854 1.23133
-17.2808 -12.5422 1.88998
-17.7332 -13.3553 1.33745
-16.615 -13.0361 1.23386
-17.2909 -13.2748 0.503976
-17.9564 -12.6476 1.48631
-13.7978 -13.049 1.68739
-14.0232 -12.3831 1.8636
-17.8187 -12.4447 0.418473
-16.9329 -11.8644 -0.718063
-14.928 -12.5538 -0.289472
-13.5976 -13.6913 0.138637
-14.6423 -13.2587 -0.46869
-14.5388 -13.241 -0.518175
-15.5338 -12.3651 -1.41876
-17.1143 -12.7463 -1.17608
-17.7756 -11.8358 -2.4921
-16.6268 -11.1852 -1.8837
-14.6064 -12.7243 -1.05035
-13.0545 -12.4245 -2.02829
-13.3507 -14.3786 -2.48509
-17.8614 -12.4906 1.04579
-16.355 -12.5119 0.545508
-15.4803 -12.5989 1.5061
-16.506 -13.2909 -0.962563
-16.7861 -12.3406 0.452722
-16.827 -12.3789 1.00868
-17.5367 -12.068 -0.485753
-17.4585 -12.3686 -0.830144
-17.4613 -12.8141 0.0509698
-17.2271 -11.7007 -0.71792
-15.7109 -14.0137 0.520073
-16.6379 -11.4353 0.0844663
-17.6334 -11.1651 -0.151936
-15.9433 -12.7128 -1.22888
-14.9924 -13.0479 -1.22776
-14.9854 -11.947 -0.489794
-13.2127 -13.0924 -0.606555
-18.1387 -10.9539 -1.54043
-14.7825 -12.496 -1.1031
-13.8241 -13.099 -0.755034
-17.6894 -11.9428 -1.92187
-16.3084 -11.2401 -1.34318
-17.2562 -11.3657 -2.1341
-14.001 -13.8591 -2.74643
-14.8073 -11.6795 -1.76415
-15.2966 -12.6461 1.35
-16.2892 -12.2332 0.476507
-16.7415 -12.3029 0.214605
-17.104 -13.3282 -0.0115483
-17.2701 -11.8075 -0.141883
-16.7022 -13.4395 -0.922879
-14.3637 -13.6963 -0.307518
-14.2363 -12.6593 -0.0482438
-15.439 -12.1938 -1.1587
-13.307 -13.8904 -2.21005
-17.7604 -11.248 0.700292
-13.9374 -11.7153 1.15076
-15.7659 -13.425 0.437049
-14.8767 -13.6455 1.2062
-15.7504 -12.3056 -0.66165
-13.9742 -13.1761 -0.383793
-15.814 -12.8169 -0.425541
-14.3789 -13 -0.652152
-15.7123 -13.1344 1.51819
-16.0457 -12.3567 -0.0905606
-16.2713 -11.9776 -0.979779
-15.0378 -12.8173 -1.68984
-14.8665 -11.5647 -1.38389
-13.9405 -13.3847 0.0592499
-14.568 -13.2947 -0.0949598
-14.9433 -13.5623 -0.427144
-12.9837 -12.268 -2.87636
-13.0989 -13.6534 -2.31578
-16.855 -13.2591 1.00348
-13.3467 -12.4702 0.591188
-15.9385 -12.5901 -0.873469
-13.8451 -12.4237 -2.26985
-13.2221 -12.9736 -3.48156
-14.2085 -11.8792 2.86358
-15.9296 -12.8396 1.98067
-16.2976 -14.2321 1.55783
-16.7285 -13.56 2.20952
-17.1747 -13.2034 1.65246
-18.6113 -12.5713 1.88891
-17.6476 -13.4216 1.76138
-17.4985 -12.5618 1.29816
-15.4583 -12.963 1.85149
-16.8114 -12.5413 1.48987
-16.7908 -13.7472 1.11284
-17.3606 -12.1003 1.24954
-17.4566 -12.932 1.9987
-18.3239 -13.1464 1.32928
-18.7923 -13.2293 1.53603
-17.0658 -12.1824 0.183261
-18.1904 -13.1369 0.660672
-15.6087 -12.3805 1.02245
-17.931 -12.6115 1.73633
-17.967 -11.8324 0.683681
-15.0865 -13.7932 1.08565
-16.5682 -12.0178 0.738166
-17.9378 -13.1586 0.220707
-17.0831 -13.9166 0.849229
-17.9065 -12.5233 0.456988
-17.2032 -12.3244 0.502533
-17.4523 -13.0232 0.389824
-13.4065 -12.8034 0.514697
-16.9685 -11.8082 1.29245
-18.0534 -11.3467 1.61063
-15.6023 -13.0369 0.861157
-15.8513 -12.68 0.484613
-16.9946 -12.152 0.698609
-17.7794 -13.1096 -0.615604
-14.5273 -13.4321 -0.809869
-17.4794 -11.8645 0.669352
-17.0291 -13.2828 -0.439248
-17.5583 -12.0133 1.32653
-17.2217 -12.6521 1.17121
-16.6772 -13.2575 0.404021
-17.5639 -11.8828 1.29485
-16.0845 -12.1821 1.2218
-17.7458 -12.5443 0.245626
-15.6568 -12.796 -0.29451
-16.982 -13.8625 0.432066
-17.915 -11.9293 -0.345748
-17.9506 -12.2952 -0.0454466
-17.1359 -11.7301 0.035675
-17.8372 -12.6581 0.765054
-17.8134 -12.0538 0.0278064
-16.0092 -13.3398 -0.512554
-17.1018 -12.086 -0.428034
-17.0284 -12.3405 -0.155729
-16.9931 -13.0096 -0.354849
-13.4299 -12.2687 -0.8051
-14.7357 -13.061 -0.142962
-16.4014 -12.2735 1.16341
-15.6001 -12.9315 -0.260438
-17.2225 -11.8347 -0.132106
-14.3848 -12.8788 -0.30126
-16.9685 -12.1857 -0.685721
-13.9193 -13.6333 -1.14912
-17.909 -12.8252 -0.395748
-17.9485 -12.1025 -0.602795
-17.276 -12.9815 -0.0729531
-15.0629 -13.1555 -0.146086
-17.0055 -12.8857 -0.638684
-16.5696 -12.9113 -0.475548
-14.7924 -13.6681 -0.334659
-13.4727 -12.9771 -1.06551
-16.6696 -12.0903 -0.69334
-16.6677 -12.3429 -0.995968
-17.9975 -11.5634 -0.840339
-18.0731 -11.974 -0.396079
-18.1118 -11.4591 0.124241
-17.3469 -12.4271 -0.76613
-17.4087 -12.6779 -1.11995
-16.9229 -11.9669 -0.60237
-13.5032 -13.4616 -2.03952
-17.3745 -12.8337 -0.408306
-17.3938 -12.304 -0.664352
-14.9604 -13.1304 -1.47277
-17.0117 -11.999 -1.08963
-18.2372 -11.566 -0.430824
-17.1361 -11.9425 -0.441431
-17.2679 -12.6737 1.04164
-18.12 -12.7023 0.000686362
-16.5517 -12.8313 -1.24931
-15.9538 -12.0098 -0.352841
-16.0485 -12.2515 -1.0654
-16.3996 -11.9604 -0.476809
-16.632 -12.2497 -0.830762
-16.3532 -12.9766 -0.720024
-16.7413 -12.2019 -1.10128
-17.3205 -12.5682 -0.606925
-16.8084 -12.2951 -0.647164
-16.2043 -12.3106 -1.31038
-16.6329 -11.6249 -1.02665
-17.9832 -11.4692 0.0650797
-17.8734 -11.7547 -1.15518
-17.3958 -12.1288 -1.21678
-18.9162 -11.0876 -0.454741
-16.3513 -11.9345 -1.4244
-18.2458 -11.8057 -0.740419
-18.0295 -11.2919 -1.27406
-17.3066 -12.2781 -0.331029
-16.732 -11.4817 -0.572282
-17.8872 -12.5588 -0.749364
-17.1354 -12.1311 -0.564191
-18.1275 -11.3893 -2.41391
-17.3441 -11.5874 -1.38502
-17.9293 -11.4311 -1.50127
-17.6908 -11.4912 -0.952501
-17.2055 -11.5009 -1.7042
-16.8706 -12.9208 -0.77978
-16.2966 -12.5025 -1.82683
-15.4492 -11.5523 -2.02589
-16.9321 -12.1475 -0.624553
-16.8694 -11.37 -1.88438
-16.7257 -11.7556 -1.24453
-16.7252 -11.8166 -2.44378
-17.5809 -10.8052 -0.992626
-15.9026 -11.6776 -2.18276
-17.9206 -11.9243 -0.994039
-18.2491 -10.7221 -1.77381
-18.4386 -10.6721 -1.86205
-17.7903 -12.1768 -1.0783
-16.6091 -12.0223 -1.23469
-16.4175 -12.0541 -1.93965
-16.2478 -12.6267 -1.75162
-17.3954 -12.0432 -1.61689
-17.675 -12.2506 -2.10439
-17.5722 -11.178 -0.831527
-18.4943 -11.0648 -1.27505
-16.8767 -11.318 -1.27881
-17.358 -11.9275 -1.88712
-16.9348 -11.5921 -2.18054
-18.0169 -11.3752 -1.42061
-17.7869 -10.9553 -1.958
-17.9196 -11.1228 -0.578273
-14.8212 -12.1095 -2.78907
-15.119 -12.1158 -2.68857
-15.2419 -12.6787 -1.53721
-16.2651 -12.0846 -2.64831
-16.5866 -11.9062 -2.97619
-16.3654 -10.9849 -2.10279
-16.5417 -11.4983 -2.65464
-16.3402 -11.8484 -2.87577
-17.2821 -12.1958 -2.6128
-14.1595 -12.3114 -2.94489
-14.7644 -11.0378 -2.32075
-16.1409 -12.0659 -2.41616
-12.9313 -12.6082 2.13987
-17.6149 -13.0675 1.48559
-18.6077 -12.2122 2.30959
-17.9366 -13.6458 1.58771
-17.4979 -13.8329 0.573148
-12.5252 -13.265 0.682429
-18.0451 -12.7546 0.458753
-15.3755 -12.9537 1.01291
-17.1324 -13.1257 0.663843
-17.2 -11.92 0.681875
-13.7129 -14.1204 0.0818496
-15.5773 -12.8852 1.09774
-14.7657 -13.4568 0.0703778
-17.795 -12.1269 0.0613623
-16.8069 -12.2487 0.177289
-17.7133 -12.9471 0.235548
-16.69 -12.5932 -0.169395
-17.5351 -11.9089 0.162608
-17.1734 -12.4562 0.715844
-18.8813 -11.806 0.866626
-14.4574 -13.476 -0.139336
-16.1642 -11.4918 0.680329
-13.3411 -12.6661 -0.448653
-16.733 -12.0754 -0.316948
-17.1949 -11.9111 0.276785
-15.2813 -12.0992 -0.553338
-14.4624 -13.531 -0.150909
-15.252 -12.8643 0.945334
-14.4811 -13.093 -0.868406
-15.4694 -12.1117 -0.412204
-17.1474 -12.0643 -0.429946
-17.1227 -11.9569 -0.501248
-17.3985 -12.0499 -0.569836
-15.4884 -12.5573 -1.12619
-16.5246 -11.722 -0.584095
-17.1912 -11.9636 -1.37195
-14.3216 -13.1163 -2.26168
-17.6424 -10.755 -0.858255
-14.5881 -12.3485 -2.02279
-17.2063 -12.3308 -0.515146
-16.3172 -11.9033 -1.6327
-16.397 -12.8491 -1.17692
-16.2355 -11.2552 -1.72249
-15.9844 -11.614 -1.92
-17.9605 -11.5834 -1.88475
-13.7868 -12.3139 -2.36631
-17.2359 -12.1535 -2.02953
-17.7152 -12.1838 -2.14027
-14.7438 -11.7152 -2.19788
-16.0949 -11.4051 -2.49418
-17.5694 -12.019 -1.77091
-16.4152 -11.9021 -2.44938
-15.4578 -12.4071 -2.85599
-13.7566 -12.1804 -2.38412
-14.1406 -10.8109 1.50539
-14.2343 -11.8328 2.69199
-14.6499 -12.0925 1.59491
-14.9872 -12.8068 2.62598
-17.8009 -12.2797 0.995443
-17.8013 -13.3603 1.67268
-14.6028 -13.322 0.116527
-17.3578 -12.703 0.912943
-14.6501 -13.5864 1.01353
-16.8833 -13.3102 -0.833995
-16.2611 -13.109 -0.008351
-17.3936 -12.77 -0.0690254
-15.6483 -12.9541 -0.883242
-17.2051 -12.603 0.662404
-17.6809 -12.464 0.0241372
-17.1712 -12.1257 0.375015
-13.9644 -12.9449 0.477937
-14.1283 -13.1244 -0.409081
-15.0425 -13.4026 -0.354878
-17.4705 -13.3161 -0.748883
-16.8947 -12.1154 0.462835
-16.1859 -13.0033 -0.159417
-17.1647 -12.4313 -0.39199
-16.9732 -11.7016 -0.586724
-14.7581 -13.8265 -0.630024
-14.2342 -13.1892 -0.25142
-16.7053 -12.5136 0.567326
-17.217 -11.7703 -1.12989
-15.7101 -12.6592 -1.71643
-17.2758 -11.485 -1.04801
-17.597 -12.0605 -1.11168
-15.5442 -13.019 -1.09782
-16.8371 -12.6237 -1.7207
-16.3193 -12.4969 -1.40655
-17.6368 -11.2835 -1.54382
-16.569 -12.68 -1.74888
-14.9955 -12.5027 -1.35001
-17.4979 -12.462 -2.49776
-16.7986 -12.1768 -0.964678
-16.563 -12.3128 -0.811318
-15.6694 -11.5429 -1.81435
-12.6724 -12.6742 -2.93514
-16.0155 -13.4508 1.88921
-14.7169 -11.498 1.6087
-14.9314 -12.9153 2.14796
-16.3218 -12.8685 0.809547
-15.5998 -11.4491 0.474074
-17.2772 -13.2076 1.14861
-17.098 -12.4295 1.01778
-17.5293 -12.9308 -0.0132098
-18.0694 -12.2137 -0.177551
-15.3001 -12.8309 -0.435827
-15.1708 -11.944 0.247904
-17.8379 -12.3219 0.795044
-15.0964 -12.8694 -0.858675
-17.2177 -12.1532 -0.154702
-14.5921 -13.2799 -0.833218
-15.0821 -12.5489 -0.822971
-16.726 -11.7998 -0.644409
-16.2393 -13.1946 -1.44475
-16.5556 -12.6777 -1.27068
-16.2486 -12.0241 -0.980167
-15.5788 -12.5568 -0.608669
-13.6045 -13.565 -1.07374
-15.3292 -11.9115 -1.59246
-15.6307 -12.8057 -1.80129
-14.3206 -13.5922 -1.57137
-14.378 -12.613 -2.44603
-14.8384 -12.2926 -0.780304
-16.6581 -11.9444 -1.67686
-14.9501 -12.1649 -2.57041
-16.5 -12.7959 -1.9824
-14.9766 -11.9569 -2.34166
-16.8287 -11.6975 -1.50489
-15.285 -12.1257 -1.49813
-14.0721 -12.4424 -2.38938
-13.7374 -12.3467 -2.54413
-17.2126 -13.0861 1.60689
-16.5941 -12.0791 0.328595
-15.8435 -13.2339 0.628661
-13.8832 -12.7595 0.503718
-17.4395 -13.7457 0.913854
-16.1564 -12.501 1.19331
-16.3524 -12.9922 1.14126
-16.4401 -12.5677 0.537631
-16.0704 -12.5972 0.00759197
-15.2513 -12.82 -0.0640133
-16.978 -12.0332 0.498229
-15.093 -13.4121 0.566485
-18.3614 -12.8627 -0.205394
-15.4399 -11.5762 -0.0279774
-16.9057 -13.1759 -0.0210631
-17.9555 -12.832 -0.760985
-17.0965 -11.9256 -0.602829
-18.0752 -12.4617 -0.630012
-14.5877 -12.8181 -1.44716
-15.9975 -12.5744 -2.95
-17.8764 -11.4063 -1.59471
-17.3315 -12.131 -2.40816
-16.8033 -11.9221 -2.7475
-14.9224 -12.2369 -1.67729
-14.5349 -12.0795 -2.47505
-15.5084 -11.6207 -1.78765
-15.4822 -12.0033 -2.67318
-13.9097 -12.8332 -3.35762
-13.5714 -12.3441 -2.91336
-14.1273 -11.9215 -3.53183
-16.6638 -11.8984 1.93704
-16.2594 -13.4135 1.14277
-16.2872 -12.8313 1.29234
-16.5226 -12.3649 0.974405
-16.2356 -12.2519 0.319338
-14.7643 -13.4881 0.263088
-15.1445 -12.8138 0.605587
-14.3934 -12.4761 -0.199149
-16.3342 -12.8169 0.655249
-14.8996 -12.0052 -0.8633
-15.3031 -12.2259 -0.801175
-14.6617 -12.3866 -1.16483
-14.362 -12.242 -1.6465
-14.1137 -13.0903 -1.35238
-14.4603 -12.5264 -3.19144
-17.8528 -12.3268 -1.78314
-14.9383 -11.5103 -2.20784
-13.5534 -12.9975 -3.02574
-12.79 -12.5086 -2.94316
-14.1245 -12.3109 -3.25953
-14.6623 -12.6172 -0.610939
-15.1263 -12.9562 -0.373081
-17.2867 -10.9856 -0.454598
-17.3807 -11.3269 -1.90252
-15.4587 -13.1408 -2.63833
-15.8882 -12.9032 0.275845
-17.926 -11.9141 0.788013
-15.7971 -12.3073 -0.353488
-14.6234 -12.3483 -2.34673
-12.9879 -14.3619 -2.62369
-15.7818 -12.1642 -1.39644
-15.0974 -12.8722 0.129974
-15.5186 -13.1803 -0.289883
-15.0803 -12.4802 0.109671
-16.1348 -12.7205 0.486035
-15.4742 -13.2642 -0.31042
-17.2904 -12.8942 -0.000667755
-16.5197 -12.8811 -0.953633
-14.5413 -11.6672 2.00643
-17.3186 -12.8383 -0.3132
-16.5972 -12.9205 0.542616
-16.3421 -12.8677 -0.331746
-13.8354 -12.8937 -2.33398
-14.2849 -12.4975 -1.47906
-16.345 -11.2033 -1.64646
-13.1718 -11.8241 -1.91147
-16.5621 -11.6359 -1.7816
-17.2716 -11.8676 -2.54831
-17.5683 -11.0111 -1.38963
-18.1752 -11.1053 -1.53884
-18.2147 -11.8701 -1.17431
-15.717 -12.3596 -1.78903
-17.5191 -11.4717 -0.284595
-17.9333 -12.386 -0.898122
-18.1718 -11.985 -0.626647
-13.9682 -12.5281 -1.9004
-17.2893 -11.5518 -0.84171
-16.9286 -12.7103 -2.00934
-15.291 -12.1811 -1.2333
-17.4 -12.2614 -0.511752
-16.969 -12.0611 -0.545764
-17.0333 -11.6632 -0.605375
-17.6442 -12.0666 -0.962091
-14.4042 -13.2258 -0.936004
-17.2138 -11.7538 -1.01558
-17.5472 -12.5301 -0.139586
-14.5108 -13.4178 -1.36385
-18.1832 -13.1836 -0.415662
-16.4389 -11.9641 -0.28759
-18.8414 -12.2626 0.884067
-14.8464 -12.3026 -0.340154
-16.7929 -12.0137 0.23163
-15.1002 -13.3047 0.233979
-15.5639 -12.9045 -0.306632
-14.6051 -12.6304 -0.682178
-18.281 -12.3131 0.7364
-18.3812 -12.5244 -0.0122139
-16.8891 -11.99 -0.17956
-14.5468 -13.4281 -1.01293
-15.1728 -13.3328 -0.439237
-14.3137 -11.8825 -0.211143
-16.4816 -12.8331 -0.803047
-14.7968 -12.3816 -0.350656
-16.2798 -12.6582 0.117374
-18.0653 -12.4825 0.206562
-17.0387 -12.9656 -0.150409
-17.2327 -12.4747 -0.0173687
-17.2486 -12.7278 0.970625
-17.2183 -13.187 0.787985
-15.0098 -13.4855 -0.0515612
-13.9813 -13.5919 -0.00518215
-16.8446 -13.3062 0.804185
-16.9874 -13.0308 0.626782
-16.5676 -11.858 -0.26876
-17.1596 -12.1748 0.723461
-13.8154 -13.6057 0.486059
-15.7091 -13.0168 0.299091
-15.6144 -12.8333 1.22853
-17.1618 -13.203 1.07064
-16.7753 -13.0521 0.888627
-18.13 -13.7559 1.10211
-18.1484 -13.1893 0.750674
-16.369 -12.8156 1.03246
-17.9981 -12.2567 1.3224
-17.0289 -11.9021 0.973172
-17.6044 -13.1679 1.78325
-18.0012 -13.9534 1.90336
-17.5887 -12.8242 0.542237
-16.9246 -12.7154 1.7676
-12.5527 -12.1566 0.787429
-16.7581 -13.3375 1.52981
-17.4231 -13.086 1.85987
-16.3665 -13.0568 2.19288
-15.1784 -12.4716 1.98215
-11.9286 -13.0696 1.66266
-13.8626 -11.9305 -3.2996
-15.4089 -12.2426 -2.14936
-18.4649 -11.9843 -1.44519
-15.8324 -11.6712 -1.97972
-13.9798 -12.1148 -2.13781
-16.2967 -11.936 -0.928194
-16.59 -12.6956 -1.42965
-16.6344 -12.807 -0.622507
-17.5965 -11.599 -1.10464
-17.0556 -11.556 -1.30456
-15.6204 -12.9386 -1.70866
-16.747 -11.8058 -0.240808
-17.1792 -11.8188 -0.296762
-16.3166 -12.6627 -0.821105
-16.3523 -12.2599 -1.39338
-17.3877 -12.1598 -0.971285
-17.0297 -12.9458 -0.69578
-17.5477 -11.6625 0.465663
-14.7515 -12.3992 -0.420783
-16.3584 -12.8627 0.82445
-16.9856 -12.9442 0.87644
-18.0083 -12.8544 1.49026
-14.9323 -12.5454 0.947766
-15.6074 -12.7024 1.06241
-15.9411 -13.4017 0.843573
-15.6727 -12.7389 0.663974
-17.2949 -12.1155 0.944625
-17.3976 -12.6709 0.512377
-16.4613 -13.2305 1.67698
-16.6445 -13.0329 1.27344
-12.8883 -11.8079 1.30165
-16.2008 -13.055 1.08982
-14.1957 -12.3443 -2.64436
-15.2295 -12.6862 -2.02756
-13.9952 -12.3053 -2.05632
-15.4352 -12.2953 -0.961821
-15.0652 -12.97 -1.12124
-16.2558 -11.8673 -0.800012
-16.2636 -12.8892 -1.07273
-14.6896 -12.663 -1.33629
-14.9697 -12.4589 -1.34576
-17.54 -12.0644 -0.252896
-16.7872 -12.0738 0.054223
-16.1286 -12.5083 -0.610677
-14.7953 -13.6506 -0.870255
-16.0353 -12.744 1.61673
-16.1934 -12.3282 -0.19051
-17.1298 -12.2949 0.681722
-15.8829 -12.7877 0.34353
-17.8152 -12.9443 1.38439
-17.4995 -12.3388 -0.291207
-16.9107 -12.7666 0.743067
-18.6235 -11.512 1.58774
-18.0033 -12.7508 0.673353
-13.8299 -13.8494 -0.076952
-17.759 -12.7551 0.825227
-14.1014 -11.5227 1.51434
-16.5549 -12.8572 1.2637
-16.2258 -13.4944 1.6262
-15.4674 -12.564 1.21351
-12.8004 -12.9657 1.31052
-14.7896 -13.1645 -3.53397
-15.0032 -11.5446 -1.67081
-16.3365 -11.3625 -1.94674
-17.3281 -11.7942 -0.16734
-14.9651 -14.9336 0.0264458
-17.6211 -12.4384 0.210006
-18.1028 -13.4959 0.427619
-15.0509 -12.4867 0.665275
-17.4766 -12.6739 -0.348562
-15.5419 -12.5162 0.225589
-16.7306 -13.0135 0.990975
-17.8143 -12.6189 1.35846
-13.6781 -12.185 0.546975
-17.02 -12.8352 -2.31085
-15.9356 -12.6348 -0.274246
-15.6947 -12.8312 -0.884698
-15.1606 -12.5057 0.0406936
-16.6416 -12.2541 1.23403
-15.3132 -11.8839 -1.6973
-15.7941 -11.6555 -2.22691
-16.8317 -11.8959 -1.53195
-13.9224 -13.0274 -0.666611
-13.678 -12.7745 1.01318
-15.1696 -12.8135 1.27178
-14.9561 -12.477 -1.02787
-13.8675 -12.9155 -1.92932
-14.1153 -13.5348 -1.66092
-16.9429 -11.6239 0.0651363
-17.7907 -12.2289 -0.960244
-17.8826 -12.5663 1.11281
-17.2461 -12.109 0.935971
-14.4461 -13.3834 -1.53883
-15.4918 -13.0841 -1.66654
-14.551 -12.0555 -0.373579
-14.6902 -12.6329 -0.568852
-13.8278 -12.9644 0.230535
-13.8534 -12.2012 1.08988
-17.0147 -12.2342 -0.0211361
-14.6212 -13.6577 0.413344
-14.079 -13.9946 -0.764871
-15.0868 -13.2061 0.0549625
-18.1677 -11.1069 -1.37616
-16.6306 -11.9228 -1.20038
-17.4436 -11.9689 -1.05881
-15.6717 -12.0528 -1.22231
-14.2003 -12.1553 -1.66455
-18.2991 -12.4343 -0.656585
-14.1067 -12.837 -2.70106
-17.7019 -11.5699 0.145113
-15.8768 -11.7866 -1.62648
-16.7489 -12.0419 -0.0775673
-17.8693 -11.9318 1.02788
-16.7835 -11.607 -0.240372
-18.0832 -12.4973 0.322868
-17.7707 -11.9459 0.30002
-16.8287 -12.3403 0.618132
-15.9452 -13.4943 -1.19274
-17.9038 -13.1171 1.21963
-14.399 -13.5986 -0.824413
-16.7218 -12.0837 1.09051
-14.8385 -12.6866 -0.61021
-17.2434 -13.4479 0.48277
-17.1889 -12.5668 0.609906
-17.1658 -13.5683 0.879816
-15.9496 -12.8825 1.06989
-17.0585 -12.2913 2.12431
-15.8349 -12.5638 0.365441
-17.7733 -12.3692 1.91605
-17.2329 -12.1325 1.52142
-15.2498 -13.5332 -1.08473
-14.8714 -13.8361 -0.447623
-16.2634 -12.1395 0.932516
-16.1052 -13.4207 0.455775
-17.633 -13.0067 1.41324
-17.2523 -13.3813 1.53731
-16.0136 -13.1593 1.66987
-16.7013 -13.375 1.62158
-16.983 -13.0672 0.87286
-15.1701 -12.1315 0.946292
-16.5857 -11.8622 -1.91273
-17.0542 -11.663 -0.915285
-17.0809 -11.6036 -2.21834
-18.3909 -11.7366 -0.169755
-16.8096 -12.0009 -0.808382
-16.4861 -12.637 -0.376844
-17.8028 -12.3499 0.543558
-16.8264 -12.5766 0.107425
-16.9154 -11.377 0.357616
-18.0425 -12.5122 0.509581
-15.8602 -12.9565 -0.135395
-16.2858 -12.2729 0.118974
-17.7214 -12.4561 -0.829999
-16.5335 -11.531 1.64247
-16.8557 -12.06 0.422184
-17.852 -13.1137 1.56345
-17.0785 -12.7483 -0.103048
-14.4824 -13.4999 -0.599458
-13.8593 -13.4549 -0.487262
-16.0298 -12.4689 1.6276
-13.7013 -13.7263 -1.7979
-16.7659 -12.3768 1.80415
-13.8107 -12.1311 1.3433
-16.8971 -12.5515 -2.4408
-16.7308 -12.128 -3.40319
-12.9604 -12.8039 -2.44085
-14.3581 -11.8818 -2.15073
-17.1613 -12.3954 -1.6345
-17.8872 -12.1433 0.733576
-15.7498 -12.6374 -0.289874
-16.6772 -13.8283 0.448304
-16.2528 -12.0937 0.358929
-15.1081 -12.3843 -0.213085
-16.5791 -12.6568 1.02259
-17.001 -12.9293 1.23305
-15.9475 -12.7079 1.71145
-16.0581 -11.7301 -2.35799
-15.9981 -12.1263 -1.64851
-17.1077 -12.4573 -0.429542
-17.3101 -11.6924 -1.26675
-16.7614 -12.67 0.194993
-13.8349 -12.5868 -1.52277
-17.6704 -12.9115 1.02885
-15.8207 -13.4905 -0.454414
-18.1673 -12.5289 0.577545
-17.1479 -12.8571 1.52198
-16.9965 -12.1319 0.397684
-14.7955 -12.6582 -0.298837
-16.2704 -12.9548 0.943973
-17.32 -13.59 0.902093
-14.8384 -14.1847 -0.233225
-14.4632 -13.8366 0.573548
-16.0802 -12.7232 1.61297
-13.1974 -11.3747 1.812
-14.4131 -12.9896 1.75145
-15.3811 -13.0471 2.17023
-15.918 -11.7383 -3.17669
-13.9425 -11.9144 -3.00264
-16.8135 -12.4571 1.77389
-14.2295 -13.503 -0.289792
-13.9147 -12.6634 0.0959018
-15.9947 -12.6328 -0.515935
-14.9392 -12.5992 -0.658727
-14.7942 -12.9282 0.41973
-13.5272 -11.2984 1.23257
-17.1 -12.142 -0.303212
-13.1597 -13.6788 -0.904765
-15.9493 -13.0554 1.14577
-16.5124 -11.7182 -0.486744
-15.0278 -12.026 -1.59583
-13.412 -12.036 -2.74693
-16.8158 -11.4084 -1.69923
-16.6113 -12.9132 -0.0500729
-16.8029 -12.3846 0.0601456
-14.6747 -12.3721 -1.74233
-14.4781 -12.0076 -3.04682
-15.4965 -12.5295 0.418164
-16.5313 -13.6523 0.741449
-15.7247 -13.2332 1.4985
-14.0998 -12.6806 -1.08016
-13.9736 -13.4976 -0.180782
-13.9174 -13.6173 -0.402825
-18.0924 -12.2184 -1.0641
-17.4524 -11.0281 -0.381703
-16.0087 -12.2461 -1.89221
-17.6244 -13.7629 0.484385
-17.4143 -12.0631 0.477826
-16.3579 -12.2763 1.69245
-16.365 -12.9974 1.64991
-16.9342 -13.5964 2.25076
-14.3169 -13.2821 -0.0965342
-13.8049 -12.9811 0.19665
-17.1058 -11.309 -1.27405
-16.2561 -11.704 -1.70768
-16.0321 -11.0542 -1.80849
-13.6672 -13.2707 -1.59859
-12.7144 -13.0938 -4.19162
-15.086 -13.1615 -1.16143
-16.6036 -13.9445 1.25211
-14.9488 -13.1326 -0.752667
-14.953 -13.5107 -0.444039
-14.1507 -14.632 -1.50133
-18.303 -11.8888 -0.325316
-13.8137 -13.8311 -0.540423
-13.6174 -14.2332 -1.57947
-14.3221 -14.0296 -2.3067
-16.7613 -10.8472 -1.51821
-16.2082 -12.0546 -0.0908896
-16.1792 -11.3737 -1.42487
-16.6964 -12.06 0.357476
-12.8806 -13.7904 -3.08129
-18.4858 -13.0541 0.965711
-14.9272 -13.1742 0.37041
-15.4787 -11.1013 -1.37956
-14.8158 -14.1986 -0.583565
-15.0033 -13.5685 -0.452112
-13.4065 -12.1662 -2.87086
-17.33 -11.0594 -1.0578
-18.0191 -11.1798 -1.60372
-17.5211 -11.6015 -0.667011
-17.7105 -11.9901 1.19155
-15.681 -12.0303 -2.0773
-16.4409 -12.0679 -1.26793
-15.6075 -12.2286 -1.04698
-15.5732 -12.1149 -1.50689
-17.0871 -13.5491 1.04031
-14.2964 -12.0678 -1.45523
-15.3537 -12.7922 -1.35481
-15.1205 -12.9866 -0.189759
-14.0217 -12.4086 1.55377
-17.1542 -12.0043 -1.85582
-17.661 -12.0469 0.113963
-14.7297 -11.1873 -2.69478
-15.9205 -13.0135 0.463514
-14.9883 -12.586 -1.56268
-14.859 -12.9838 -1.1738
-14.7388 -12.6709 -0.864594
-14.9287 -13.2044 -1.04136
-15.0393 -13.2026 -0.462838
-13.6483 -13.7439 -0.0588885
-17.6533 -11.9106 -0.0656963
-16.9174 -12.7392 -1.00982
-16.292 -12.4253 -1.74561
-16.5977 -11.5301 0.822626
-12.9649 -12.6671 -2.52663
-16.1737 -13.3884 0.972302
-15.3427 -12.8545 -0.39634
-14.1907 -13.0009 -0.161865
-14.7925 -13.5351 -0.929554
-13.6373 -13.438 -1.73682
-13.2438 -13.2578 -0.278588
-15.3639 -12.1924 0.637884
-15.1721 -13.1154 1.06248
-15.5783 -13.1234 -0.68024
-13.2181 -14.2505 -1.72959
-17.0759 -12.7187 0.85729
-15.1791 -13.2452 -1.24169
-18.4305 -12.6934 0.33207
-14.2596 -12.4891 -0.982375
-16.8703 -12.2475 -0.694933
-16.6611 -12.2597 -0.950309
-16.8589 -11.4875 -1.63859
-17.7632 -12.3259 -1.58693
-17.1044 -12.3278 0.263064
-17.4659 -12.1158 0.403984
-17.1388 -11.4957 0.0234986
-17.1957 -11.7478 0.401222
-16.4938 -12.67 -0.436349
-16.7817 -11.7102 -0.554167
-16.8461 -12.1834 -1.41399
-16.6343 -11.5876 -0.574065
-17.0183 -13.0339 -0.526451
-15.3296 -11.7285 -2.14991
-14.6087 -11.7458 -1.86037
-14.0939 -12.7033 -0.542019
-14.7438 -13.5323 -0.606692
-14.0548 -13.1632 -0.898479
-13.7703 -13.0647 -1.14155
-13.2763 -11.9521 -1.11434
-13.4303 -14.0882 -1.56001
-17.0904 -12.926 0.436339
-17.4142 -12.8387 -1.41552
-17.3841 -12.7607 0.281
-15.9438 -11.8339 -1.80443
-16.664 -11.963 -3.2478
-15.2862 -13.5359 -0.380756
-14.0375 -12.229 -1.35421
-14.0974 -13.3857 -1.72113
-13.4292 -13.1015 -1.24042
-14.4569 -13.8147 -1.59943
-14.7331 -14.7726 -1.22894
-13.8515 -12.3947 -0.802877
-14.9448 -13.8864 -1.62282
-17.966 -11.7062 -1.38537
-18.1454 -11.6922 1.14889
-18.4177 -12.1575 2.07745
-17.6222 -11.1704 0.333964
-17.568 -12.0444 0.713898
-16.8957 -11.7768 -0.615696
-15.389 -11.3662 -2.93958
-14.7945 -13.1929 1.23206
-14.8401 -13.393 -2.1116
-14.0396 -12.9201 -1.31199
-13.3518 -13.1176 -1.33621
-17.3895 -12.1913 1.09366
-15.7823 -12.3238 0.920973
-16.6759 -13.2712 2.11838
-15.832 -13.3927 -0.767853
-14.2121 -12.5933 0.299136
-13.1786 -13.2968 -1.01181
-13.5868 -14.4518 -1.34194
-14.0519 -13.2032 -1.56993
-13.5657 -14.5949 -0.593901
-13.2838 -12.935 -1.79496
-13.5556 -13.2445 0.0606266
-15.2307 -12.1886 -1.08952
-17.0864 -12.0394 0.45826
-14.2875 -12.0208 -1.25912
-12.7204 -13.6197 -1.57762
-17.5579 -13.3779 0.454207
-14.3292 -13.8166 0.00450979
-16.6003 -12.516 -1.54887
-14.3683 -12.8377 -1.6465
-14.1712 -12.0377 2.0972
-16.4702 -12.1806 -0.711451
-18.2417 -11.6271 0.286013
-17.9235 -13.2287 0.750082
-18.3304 -10.9972 -1.5293
-18.0108 -12.8559 0.419428
-17.2389 -11.8516 -1.0124
-17.1839 -12.4527 0.899201
-17.3351 -12.0523 -1.32673
-17.6468 -11.9373 1.09125
-16.9367 -13.3021 0.381434
-17.0984 -11.6058 -0.943591
-17.1491 -11.795 -1.36705
-17.5408 -11.7289 -0.0159145
-16.3763 -13.713 1.8869
-16.7766 -12.653 -0.890059
-16.9766 -11.1904 -2.04158
-17.2911 -11.2805 -1.04549
-16.5408 -12.6977 -2.10307
-16.158 -12.6172 -1.61918
-16.9471 -12.3285 -2.48505
-15.7986 -13.153 -0.619523
-15.686 -12.9929 -0.149266
-15.88 -12.6965 -0.175379
-14.856 -13.5413 -0.856415
-14.0345 -12.3506 -1.17625
-15.2933 -12.8726 -0.0618927
-15.361 -13.1186 -1.30868
-15.2061 -12.3578 -0.555807
-15.0338 -12.4441 -1.33355
-14.3742 -14.0121 -0.0349915
-14.1078 -11.5107 1.16781
-14.8913 -13.3349 -1.4715
-14.1003 -13.3564 -0.114708
-13.6554 -12.7057 -2.64376
-13.3043 -13.27 0.539238
-13.8567 -12.909 -1.70035
-14.2142 -13.0621 -0.977129
-14.3003 -13.0641 -0.222521
-12.9275 -13.6271 -2.28611
-18.0648 -11.2 -0.149045
-17.4864 -11.7621 -1.46713
-17.5169 -12.7613 -1.2512
-16.4146 -12.3562 -1.59016
-18.5565 -11.9368 -0.746256
-17.7685 -12.0057 -0.852759
-17.8194 -10.6474 -0.868275
-16.9354 -12.1437 -1.19465
-16.481 -12.8341 1.59475
-17.4442 -12.4704 -0.180519
-17.0722 -12.1947 -1.14924
-15.6534 -12.6591 0.540959
-16.0094 -11.9651 0.868905
-15.8209 -11.8817 -0.932463
-16.2351 -13.5193 0.16703
-14.5604 -10.9032 -1.4973
-13.6759 -13.4008 0.0333188
-13.901 -13.2307 -0.281907
-14.4248 -13.5366 -0.924166
-13.7636 -13.1397 -0.529116
-14.1943 -12.739 -1.26209
-14.4101 -13.5463 -1.77138
-14.1261 -13.2535 -1.37054
-13.2007 -13.0028 -1.09321
-14.2094 -13.695 -1.67335
-18.2901 -11.6603 0.294125
-17.9239 -12.0082 0.208214
-17.2759 -12.4391 -0.212014
-16.5047 -12.7057 -0.361927
-15.8454 -13.0813 1.0461
-16.1194 -12.2972 -1.40825
-15.6123 -12.1599 -1.71423
-14.0213 -13.0961 -0.512878
-15.6084 -11.524 -0.422
-14.6966 -13.3284 0.32537
-14.3553 -12.7627 -1.46146
-13.4456 -13.282 -0.103913
-12.5186 -12.3304 1.05155
-13.8408 -13.0144 -1.60443
-13.915 -12.5444 -1.0267
-13.9929 -13.129 -2.00045
-14.1836 -13.3819 -0.908905
-14.7371 -12.4435 -0.766857
-14.2609 -13.4089 -1.76971
-17.5102 -12.713 -0.320165
-17.2055 -11.1147 -1.50988
-14.1616 -13.1207 -1.31879
-14.5629 -12.9348 -1.5011
-14.5286 -11.8571 -2.55422
-14.0405 -13.3576 -1.48207
-13.542 -13.3888 -0.965578
-13.6635 -14.2087 -1.11451
-14.5554 -14.4015 -2.21076
-13.293 -13.4471 -2.94031
-18.0139 -11.3264 -1.59716
-17.5283 -11.2734 -0.478685
-17.6878 -12.1725 0.787178
-18.0441 -11.6336 -1.19813
-17.9025 -12.5799 0.0808875
-15.7451 -13.6727 -0.331208
-15.1694 -12.6146 -0.656851
-14.697 -12.7164 -0.482758
-14.2455 -13.0306 -0.809696
-15.5079 -13.4207 -1.57198
-14.5774 -13.0059 -1.31927
-14.1695 -13.8659 0.644514
-13.3769 -13.1659 1.68418
-12.9188 -12.6874 -1.49128
-13.5838 -13.1432 -1.19998
-13.6558 -12.6067 -2.73668
-18.2685 -12.34 0.304914
-17.2562 -12.1312 0.830938
-15.3721 -12.6823 0.828458
-14.1825 -11.6565 -1.43296
-15.3775 -12.4425 -1.48466
-14.6207 -13.163 -0.170224
-15.1056 -12.4151 -0.684067
-14.6547 -14.4094 -0.968629
-14.2157 -12.3904 -0.855925
-12.9502 -13.0593 -1.8376
-14.6618 -11.9418 -2.03722
-13.6235 -12.8389 -1.45012
-14.0215 -11.6956 1.69293
-14.6843 -12.2707 -0.497816
-14.8729 -13.7157 -1.17573
-13.6036 -12.5889 -3.36847
-14.9504 -12.721 -1.1563
-17.6981 -12.4024 0.850516
-18.1731 -11.0905 -1.40251
-17.299 -12.0549 -1.0865
-16.9318 -10.4683 -1.00644
-18.014 -12.3563 -1.30193
-15.5255 -12.3856 0.200128
-17.5433 -11.8811 -1.51211
-17.3335 -11.0936 -0.841863
-16.8724 -11.021 -1.30957
-16.5772 -12.2916 0.600725
-16.4485 -12.2757 -0.0384369
-15.5138 -12.3086 1.28005
-17.8124 -12.1972 -1.77831
-16.1689 -11.8204 -1.53341
-16.6176 -12.001 -1.09732
-17.3754 -11.5605 -1.67241
-15.5635 -13.1432 -0.301434
-15.0843 -13.1907 -1.01288
-14.3276 -13.0122 -1.09976
-14.1615 -12.354 -2.87828
-14.6407 -12.8159 -2.86834
-18.2521 -10.9795 -0.217849
-18.317 -10.7353 -2.14224
-17.9011 -11.2414 -1.19094
-17.7643 -11.6762 -0.98161
-17.6763 -11.4555 0.0995159
-17.2059 -13.102 -1.36683
-17.9406 -12.0519 -0.840004
-16.9487 -11.4424 -1.54923
-18.0844 -11.4888 -0.582793
-17.5367 -12.6145 -1.28087
-15.5803 -12.5375 1.13406
-17.6087 -12.2205 -1.59805
-17.3039 -12.4431 -1.29521
-16.5868 -12.5533 -0.844844
-15.6901 -12.0765 -2.24876
-16.5008 -13.209 -2.63128
-15.0171 -12.5969 -1.15747
-14.908 -12.7614 -1.07512
-15.8213 -12.2081 -0.520149
-13.0535 -11.8035 1.65692
-14.768 -12.6469 -0.539827
-13.4311 -11.9295 0.346883
-13.5122 -12.369 1.03839
-13.6831 -13.4847 -1.48331
-13.2523 -13.3444 -1.31419
-17.9224 -12.0684 0.206959
-16.8344 -12.4631 0.0955052
-15.7503 -12.6337 1.80303
-16.8011 -12.6201 0.0541751
-17.6666 -11.7126 -1.20751
-17.8488 -11.9544 -1.19708
-15.4042 -13.5614 2.16462
-16.8857 -12.24 -1.22516
-15.4459 -12.8605 0.113743
-16.6804 -12.1131 -1.53993
-15.6434 -12.1635 -1.29553
-14.2149 -13.4279 0.139308
-13.5954 -13.3811 -0.379566
-14.6878 -13.2957 -0.806693
-14.952 -11.7113 -2.24773
-14.6908 -12.9406 -0.154103
-15.1998 -13.1023 -1.00805
-14.0589 -13.1367 -0.688819
-13.0219 -13.6354 -1.69098
-14.1407 -13.4263 -0.536227
-13.7287 -14.1408 -1.11263
-14.0328 -14.1506 -0.917753
-12.9454 -13.4685 -0.189313
-14.1901 -13.0727 -1.79047
-14.3007 -13.7192 -1.63774
-14.5362 -11.9536 -2.13074
-14.0513 -12.5828 -3.22534
-17.0692 -12.4545 0.823612
-16.5381 -12.1636 1.41911
-17.1605 -11.4037 -0.405849
-18.5124 -12.057 -0.357213
-17.1038 -12.2352 0.335745
-15.4499 -11.6647 1.03167
-17.198 -11.9133 -2.62312
-15.1112 -12.4786 -0.99027
-14.2265 -13.7471 0.516873
-15.1125 -12.5181 -0.570904
-14.251 -12.7065 -0.912302
-15.7906 -12.7117 -1.0843
-14.3184 -11.541 -1.97452
-13.5554 -13.0433 -1.78994
-14.2591 -12.5563 -0.787625
-13.8484 -12.9899 -1.45553
-18.2592 -11.7219 0.748881
-17.7947 -12.2748 -0.621341
-17.9864 -12.2389 -0.49971
-17.0842 -13.089 1.20661
-15.6187 -12.4943 -0.0806102
-14.901 -12.4578 -0.43815
-13.4049 -13.9002 -1.00626
-15.4187 -13.1205 2.35887
-15.5225 -12.8414 -0.370706
-15.252 -12.8797 -0.287363
-15.6603 -13.5644 -0.231118
-15.5328 -11.818 -1.68842
-14.3595 -12.566 -1.26406
-14.3147 -12.2787 -2.01132
-13.7249 -12.1496 -2.09417
-14.3971 -12.5857 -1.81157
-16.6787 -12.564 -0.549994
-17.8644 -13.3583 0.0113621
-15.6208 -12.8117 1.03409
-17.0336 -11.0824 -1.82994
-17.7901 -13.4511 -0.47979
-17.0664 -12.2419 -1.3932
-17.6997 -11.9753 -0.763016
-17.3652 -12.3222 -0.509966
-16.7974 -12.4085 -0.95915
-17.1319 -11.2956 -1.44589
-15.9951 -12.0369 -0.398335
-16.7758 -12.5903 -1.42279
-15.5802 -12.5481 -1.12528
-16.5998 -13.0894 -2.64123
-13.6768 -13.5776 -0.613278
-13.6249 -13.2148 -0.32343
-14.6711 -11.4479 -1.06584
-14.9038 -12.5264 -1.79458
-15.2936 -12.0756 -2.63072
-14.5675 -12.0429 -1.96291
-13.2204 -13.1167 -0.707282
-14.444 -12.1309 -2.4046
-14.6436 -13.0698 -2.12968
-14.3526 -11.0475 -2.37282
-14.3097 -12.664 -3.13239
-14.3015 -12.3191 -2.85909
-14.1929 -11.9208 -2.19895
-14.0063 -11.962 -2.55411
-13.7333 -11.3335 -2.95131
-18.6064 -11.7786 0.688736
-16.6168 -11.4456 -0.174316
-18.3387 -11.912 -0.774302
-16.1299 -12.7029 0.668182
-18.9091 -12.0878 -0.417383
-17.8066 -12.2286 -0.774382
-17.2197 -12.434 -0.905766
-17.2867 -12.4479 -0.0835775
-17.2645 -12.5164 -0.170436
-15.2398 -13.2251 -1.5473
-14.4515 -13.1594 -1.74797
-15.4951 -12.2489 1.63265
-16.9301 -12.2883 -0.104112
-16.8785 -12.8002 0.590048
-17.6262 -12.6275 0.769917
-18.2234 -11.5198 0.165429
-18.2686 -11.7245 -1.12801
-17.0551 -12.3927 -0.193823
-14.7373 -13.7803 0.57878
-17.1776 -11.9312 -0.646974
-15.076 -12.8435 -0.591815
-16.6772 -12.9638 -1.06365
-17.4943 -11.8093 -1.92917
-15.0252 -13.3641 0.175292
-14.8351 -13.0029 -0.58031
-13.172 -12.6343 1.29167
-13.9537 -13.2029 -0.279407
-14.8801 -13.102 -0.06648
-14.8632 -12.6771 -0.441468
-15.3257 -12.5521 -1.04719
-14.9941 -13.5926 -1.35797
-14.4856 -12.9428 -1.30219
-13.1272 -12.809 -0.890902
-12.7133 -13.0023 -2.04132
-17.6731 -12.6194 0.580232
-16.1568 -13.3473 0.681906
-16.5158 -12.5842 0.358204
-15.7589 -13.0757 0.239209
-14.1407 -13.3221 0.492432
-15.645 -11.5154 -2.1682
-12.8179 -12.7851 0.189442
-14.0569 -12.9965 -0.866141
-13.1152 -14.0615 -1.88142
-13.8005 -13.5257 -2.60517
-17.2369 -11.9325 0.420421
-16.0211 -11.6994 -0.656408
-16.6502 -12.6142 -0.799903
-15.3142 -12.7907 -0.598763
-12.9864 -11.843 2.01672
-14.0132 -13.7021 -0.358704
-14.5229 -13.2037 -1.07806
-12.892 -13.6603 -2.41949
-16.7538 -13.1197 0.242957
-15.8408 -12.2275 -0.197978
-14.726 -12.7792 -0.627289
-15.5833 -12.7691 -1.81307
-13.4377 -12.5258 -2.88759
-14.9439 -12.646 0.837747
-15.3286 -13.2111 2.12634
-16.8806 -12.3919 -0.136096
-14.6883 -12.5935 -2.93436
-14.4188 -12.1337 -1.4927
-14.6853 -12.4688 -2.71571
-12.8341 -13.5596 -2.72752
-15.7942 -13.1315 -0.292594
-16.4865 -13.2485 1.36269
-17.6649 -13.4879 0.295272
-17.8918 -12.9247 1.14379
-16.2591 -12.3448 0.491925
-16.3162 -13.1391 -0.0561192
-16.0071 -11.6803 1.65059
-15.2996 -13.3523 0.128088
-17.2571 -12.6794 -0.298188
-17.911 -10.9258 -0.873197
-18.2736 -12.533 -0.547349
-16.8159 -12.1509 0.00102751
-17.7666 -11.7956 0.695868
-16.8589 -11.7648 -0.895659
-16.0311 -12.0011 0.0733491
-17.0058 -12.3489 -0.194605
-15.9126 -12.8133 0.54718
-17.4401 -11.0756 -1.92699
-17.4819 -11.73 -1.3935
-16.5751 -11.4844 -0.912896
-16.926 -13.6126 -0.604726
-17.712 -11.7728 -1.31716
-15.0567 -13.1705 -0.491464
-15.0689 -12.4299 -0.96893
-14.9593 -12.4269 -0.924356
-17.5309 -11.1264 -1.14724
-16.4054 -12.3682 -0.734426
-16.4751 -12.0169 -1.91514
-15.4834 -12.66 -1.65416
-16.0774 -12.355 -0.963571
-17.1131 -12.5263 -1.81056
-16.3055 -11.44 -2.14341
-17.1075 -12.0483 -1.927
-16.0901 -11.6932 -1.59938
-13.1452 -13.6028 -1.28006
-15.5339 -12.0001 -3.17009
-14.0419 -11.7358 -2.1958
-19.1365 -13.1177 2.20412
-17.5147 -12.8893 0.724365
-15.3325 -12.8354 1.47742
-16.3063 -12.7064 1.37804
-17.3025 -12.892 0.622982
-17.9622 -11.5359 -0.722968
-17.0128 -12.5403 0.28582
-17.591 -11.6021 -0.650808
-14.2662 -12.0448 0.368813
-16.8663 -12.1636 0.27273
-17.4062 -12.2544 -0.843739
-19.0326 -11.7609 -1.0606
-17.9609 -11.3656 -0.866721
-17.785 -11.4713 -1.3636
-16.8478 -11.3812 -1.12551
-18.3124 -11.2384 -0.736698
-14.735 -12.9092 -0.622703
-16.7374 -13.3549 -0.511448
-17.4008 -12.0597 -1.83083
-13.9121 -13.4932 0.257927
-15.8201 -12.0611 -1.07497
-16.0245 -13.3564 -1.7413
-13.9891 -12.3506 -0.180288
-16.7292 -12.0932 -1.18263
-14.2013 -12.7667 -0.847813
-14.891 -13.4119 -1.52783
-14.6243 -12.0149 -0.979603
-15.5228 -13.6382 -0.922753
-15.9827 -12.1139 -1.77079
-15.9742 -12.5276 -2.33925
-15.1643 -12.0675 -1.59133
-14.918 -12.2468 -1.0095
-14.7823 -11.3255 -1.46126
-15.6425 -11.4807 -3.11041
-13.3011 -13.4074 -2.13937
-16.3153 -12.0468 -3.18109
-14.5979 -11.2584 -1.8419
-14.4395 -12.6115 -2.10037
-15.4574 -11.9585 1.80874
-17.5697 -13.531 0.693014
-17.3466 -12.9431 0.930143
-16.7489 -12.1667 -0.808132
-17.5389 -12.1949 -0.580014
-16.5802 -12.6517 -0.459856
-15.1704 -13.1219 0.62156
-14.4437 -13.0888 0.242185
-14.087 -13.6224 0.118273
-17.5591 -12.4478 -1.17803
-14.7442 -12.9832 0.167614
-14.919 -12.8422 -0.554179
-17.3076 -11.2419 -1.39353
-15.4308 -13.1615 -0.665166
-16.2456 -11.764 -2.04133
-15.1602 -11.9748 -0.653461
-16.5925 -11.4793 -0.735237
-13.4427 -12.9325 -0.276586
-13.6198 -12.8899 -1.73073
-14.2257 -12.4427 -2.32314
-17.2082 -13.0258 1.98444
-18.4011 -12.3645 1.24648
-17.752 -13.2543 0.203727
-17.2105 -12.9297 -0.0627495
-16.7619 -11.89 -0.860267
-18.1297 -12.0773 -0.102067
-15.2441 -12.912 0.608766
-14.4452 -12.5946 -0.534113
-14.9093 -13.3662 -0.766461
-14.6977 -12.5985 0.165473
-14.3821 -12.8779 -0.45936
-16.4685 -12.2074 -1.80709
-14.1482 -13.6528 -0.320583
-13.8331 -13.2015 -1.02664
-15.0077 -11.5637 -3.00246
-13.2514 -12.1498 -2.20033
-15.0014 -11.7496 -2.45193
-13.5958 -11.9683 -3.85027
-14.6617 -11.7757 -2.73022
-17.1643 -13.0328 2.37862
-17.0984 -12.9237 0.237177
-15.7466 -12.0063 0.325317
-13.9027 -11.6461 1.02101
-16.3289 -13.2246 -1.65178
-14.6848 -12.1568 0.219482
-14.9537 -13.1665 -0.590937
-14.7174 -13.6382 -0.431319
-14.1487 -12.8519 -1.02642
-14.0555 -12.9968 -1.10093
-15.0396 -12.9248 1.22107
-16.6651 -13.2286 1.16205
-15.0814 -13.526 -0.00586068
-15.7091 -13.8217 -0.978421
-14.1768 -14.0537 -0.531807
-15.8823 -12.9118 -2.14316
-15.01 -13.8335 -1.92517
-15.7168 -13.8421 0.714925
-15.6647 -13.2065 1.09499
-14.7847 -13.2762 -0.547658
-15.8849 -12.4151 -1.26546
-15.4145 -13.9502 -0.136541
-16.0072 -13.553 -0.889665
-13.8203 -13.0298 -2.12831
-17.0665 -13.0954 1.25717
-17.1835 -12.6767 0.170273
-18.0382 -12.3159 1.06716
-17.9209 -12.8695 1.00211
-17.4406 -13.1158 -0.0797918
-13.3409 -11.8231 1.76269
-16.7672 -13.1904 0.702426
-16.9521 -12.2869 0.670964
-13.1381 -12.2459 1.31776
-17.0074 -12.994 0.268574
-15.2341 -13.0423 0.669317
-16.4764 -12.8775 0.779642
-16.5148 -12.7116 -0.856106
-17.3292 -12.6392 1.11432
-17.5177 -11.2981 1.58076
-15.6055 -13.7162 0.751197
-16.0696 -12.567 0.907376
-17.1893 -11.859 -0.0479939
-17.6123 -11.6109 0.680697
-17.0807 -12.9045 0.535441
-15.3069 -13.7376 0.292492
-17.7436 -11.9457 0.430252
-17.7293 -12.117 -1.0451
-15.2674 -12.535 0.107126
-16.2282 -12.0962 -0.0200477
-13.9616 -13.5319 -0.125125
-17.959 -12.3512 -0.0870684
-17.2668 -11.464 -1.02165
-18.5746 -12.6249 0.0946897
-17.5646 -11.8138 -0.434539
-17.6457 -11.168 -1.42426
-17.0763 -11.6887 -0.0121742
-17.7119 -10.4014 0.0430507
-17.7062 -11.8473 -0.715592
-17.4688 -11.5608 -1.81243
-16.8009 -11.9699 -0.0189058
-13.6795 -12.947 0.036339
-18.4132 -10.9526 -0.0291628
-17.1349 -13.2116 -0.414849
-15.483 -12.7418 -0.868762
-14.8142 -13.4023 -0.411519
-17.9216 -12.1458 -0.434603
-17.7159 -11.3138 -1.47512
-17.0744 -12.3757 -1.06189
-17.9656 -11.8769 -0.836907
-18.3601 -11.4795 -0.761715
-14.3371 -12.9458 -0.74419
-18.5953 -12.5103 -1.36042
-17.0752 -12.4526 -0.775664
-17.8614 -11.2631 -1.21479
-16.668 -10.8785 -1.54807
-16.982 -11.8465 -1.32813
-16.0258 -12.565 -1.5624
-17.0911 -10.4647 -1.02089
-18.2579 -11.2075 -0.51594
-17.9158 -11.0609 -0.963652
-18.0918 -11.2084 -1.05572
-14.9631 -13.5184 -0.49409
-18.9446 -11.8091 -1.52265
-16.3686 -12.4627 -1.79191
-17.4738 -13.432 -0.283547
-17.3709 -11.6451 -2.25375
-14.0062 -13.0546 -2.26593
-17.0183 -12.8009 -2.39445
-13.2196 -13.5998 -1.68615
-14.2345 -13.3631 -1.43398
-17.2796 -11.3081 -0.705914
-16.6194 -11.9947 -0.728953
-16.3793 -11.2634 -1.93372
-17.4245 -11.3102 -1.94389
-16.2314 -11.5835 -1.92536
-16.7501 -12.2955 -1.34638
-15.2336 -12.509 -1.3756
-15.8497 -11.624 -2.9998
-17.172 -11.7197 -1.91312
-17.1562 -12.4432 -1.61785
-16.7511 -11.9188 -2.33377
-17.6737 -13.3019 1.96544
-14.3753 -13.0156 2.11037
-15.874 -12.8751 1.41284
-17.5442 -13.1251 1.16025
-17.7275 -11.7058 0.815568
-17.9648 -12.5228 0.690991
-16.9481 -13.6186 1.34067
-17.7152 -13.0517 0.55058
-17.9024 -12.8458 -0.612944
-17.9361 -12.4662 0.0546835
-17.6012 -12.1143 0.895309
-17.9675 -11.9329 -0.0739479
-14.0728 -13.5458 -0.23775
-14.588 -14.1978 0.411077
-17.1008 -12.3669 -0.478186
-18.3297 -11.8922 -0.00918901
-18.114 -12.4479 -0.719606
-18.2483 -11.7716 -0.424338
-15.6087 -13.1861 -0.335389
-16.4194 -12.1927 0.845421
-17.5282 -11.7958 -0.285038
-16.6026 -13.6535 -0.763906
-15.2688 -12.7277 -0.923124
-16.6329 -12.9147 -0.361634
-14.9518 -12.5332 -0.0408783
-14.8584 -13.3893 0.166125
-17.4224 -11.499 -1.11464
-17.4552 -11.6898 -1.37945
-17.0252 -12.3119 -1.43515
-14.7744 -12.7847 -1.84849
-18.1817 -11.6895 -0.830176
-15.111 -11.5409 -0.56255
-17.4445 -11.4271 -1.94772
-17.472 -11.8471 -1.97816
-16.5943 -12.0097 -1.23569
-16.8868 -11.2277 -1.50431
-17.7074 -11.238 -0.236544
-16.1732 -12.4215 -0.676005
-15.3848 -12.5952 -0.895744
-17.9047 -11.4172 -1.40584
-17.0281 -12.7504 -2.01878
-16.7777 -11.2293 -2.19778
-16.7067 -11.1674 -2.08114
-18.1119 -12.1386 -1.73916
-15.4981 -11.5126 -2.60915
-13.3966 -12.8447 -2.38582
-16.0654 -11.8982 -2.24355
-14.5672 -12.0316 -2.31448
-16.4468 -11.504 -2.57338
-16.4883 -11.8916 -1.6558
