-12.8333 -15.6788 1.98841
-11.7746 -16.4212 0.44958
-13.5767 -14.75 1.5694
-14.3649 -13.9547 2.43821
-11.4662 -15.8941 1.19603
-12.3949 -16.0015 1.16876
-11.5986 -15.8091 1.32894
-12.354 -16.9633 0.606751
-12.7498 -15.1497 1.5352
-12.3754 -14.9799 0.41951
-11.7753 -16.0092 1.1024
-12.3982 -15.9929 2.50745
-12.4646 -14.6412 1.22044
-12.2722 -16.3656 0.825964
-10.7291 -16.4941 1.84424
-13.2272 -13.8654 1.88788
-12.3277 -16.2787 1.89117
-11.5902 -14.4272 3.27088
-11.2995 -14.651 2.79599
-10.4902 -15.9289 0.83922
-11.2029 -17.2129 1.0191
-11.9548 -13.5382 2.5105
-11.5733 -17.1805 1.23548
-12.2797 -15.6132 1.58555
-12.875 -16.3619 2.09513
-11.2107 -16.5942 1.2013
-12.2956 -15.4055 2.15721
-12.7295 -16.6444 1.17135
-11.8987 -14.0089 2.94524
-12.7226 -14.1958 2.39105
-13.0883 -14.0949 -2.53605
-13.4129 -13.4473 -1.97647
-12.6262 -14.1223 -1.49977
-13.3283 -14.0042 -2.20671
-14.5261 -12.9551 -3.28834
-12.1862 -14.9831 -2.61106
-12.7069 -14.8529 -2.82378
-12.8832 -14.3869 -3.18103
-11.0422 -16.0763 -2.80251
-14.1614 -12.4816 -2.61522
-12.1876 -14.5563 -3.44385
-14.8156 -12.6412 -2.43481
-15.3624 -13.2184 -2.75299
-13.1479 -14.8215 -2.10227
-16.4879 -11.615 -1.71423
-13.0487 -13.8401 -2.01992
-16.7824 -11.7209 -2.6867
-11.062 -15.3902 -2.62847
-13.4277 -13.485 -2.36374
-16.7847 -12.0906 -2.22431
-14.4249 -14.7538 -1.7382
-13.8029 -14.0352 -1.82274
-17.001 -12.1733 -2.0927
-11.9063 -16.4399 -2.70337
-11.717 -15.4768 -2.76343
-12.6045 -15.4585 -2.36412
-13.4158 -15.1003 -1.58354
-11.6494 -15.1464 -2.08337
-12.2251 -14.4452 -1.36933
-17.1828 -11.8318 -1.71221
-12.9549 -15.5495 -1.66678
-12.6009 -15.3298 -1.27815
-15.2952 -12.2397 -1.24984
-13.3051 -13.9305 -2.49677
-11.4123 -15.4587 -1.68339
-13.1321 -14.3747 -1.12265
-12.848 -14.7412 -1.00752
-13.5007 -13.9532 -1.27147
-14.0528 -14.5818 -1.05629
-12.8865 -14.8538 -1.78034
-12.1932 -14.2339 -1.31939
-13.9169 -12.4659 -0.320096
-12.2149 -14.9319 -1.2529
-13.7567 -13.3514 -1.10914
-13.5033 -14.1821 -0.927612
-13.1324 -13.4834 -1.04799
-14.0961 -13.9637 -0.70005
-15.4926 -13.4094 -1.44473
-14.942 -12.0661 -0.896343
-14.2628 -12.666 -0.0230454
-14.2754 -13.1182 -0.604658
-14.3967 -14.775 0.0904643
-15.1877 -13.1493 -0.599779
-14.7746 -11.5182 -0.20162
-14.9281 -12.4669 -0.390434
-11.5091 -15.7743 -0.923179
-14.3518 -12.9483 -0.191077
-15.0701 -12.8127 0.811088
-12.4958 -15.5615 -0.141867
-13.6934 -15.654 -0.658962
-13.0563 -15.6455 -0.568834
-14.1472 -13.6314 -0.015995
-14.1674 -13.7306 0.311401
-11.8539 -16.0804 -0.994587
-15.0865 -14.3766 0.644715
-11.4807 -15.7868 0.265525
-12.5975 -15.4003 -0.0659764
-11.9334 -15.61 -0.100584
-12.0563 -16.1654 -0.100119
-13.9632 -14.1375 0.944183
-14.5113 -13.8174 -0.0609576
-14.7092 -14.1606 0.400881
-12.6926 -15.5396 -0.496508
-11.3941 -15.4153 0.191457
-11.6002 -15.9196 -0.466048
-13.6864 -13.5147 0.0478441
-15.7254 -13.62 0.9148
-15.2211 -12.4689 0.46857
-13.3323 -13.8845 0.834903
-11.479 -15.8677 -0.213881
-14.8942 -13.3713 1.70943
-12.7483 -14.9499 0.697069
-12.1553 -16.3122 0.456805
-12.8424 -16.8392 0.69965
-12.2801 -16.4721 -0.114367
-14.572 -13.6711 0.842064
-12.8553 -13.7533 0.788499
-14.3348 -13.6074 0.944703
-12.8706 -13.8158 0.749226
-14.6926 -13.2386 1.06149
-11.0553 -16.3316 0.511282
-11.1484 -18.3337 -0.267431
-11.9648 -16.4834 0.500486
-13.5619 -14.9378 0.436813
-12.3414 -14.0327 1.51662
-12.5743 -15.769 0.484882
-11.9903 -16.2036 -0.0789547
-12.3672 -15.9003 0.921901
-11.5907 -16.4953 0.599643
-11.5911 -15.895 1.46821
-13.7644 -14.4483 1.99317
-12.3104 -15.2558 0.917993
-12.1319 -16.4432 0.354514
-12.7384 -15.4554 1.43855
-12.9103 -14.6447 1.43109
-13.0187 -15.1044 1.72296
-12.0454 -16.1168 1.25818
-11.5717 -16.3024 1.61745
-10.9849 -17.7664 0.32358
-12.6635 -15.032 1.90617
-10.6101 -16.2746 0.824794
-11.8188 -15.0109 2.77256
-11.4321 -17.1084 1.95297
-11.9825 -15.73 1.89379
-11.5993 -16.8017 1.42297
-11.3783 -15.1166 2.70738
-11.9883 -16.7636 1.73801
-11.9071 -17.3236 1.78064
-12.254 -13.0234 2.63572
-11.9545 -17.2743 1.86267
-12.071 -14.6528 3.00946
-12.9391 -15.0941 2.33816
-11.8236 -15.9927 2.02378
-12.652 -15.2975 2.44741
-11.5374 -15.1552 1.96598
-11.3564 -16.1888 2.50673
-11.1589 -16.9834 1.48116
-11.5741 -14.5832 -2.37275
-15.4993 -12.4992 -2.61665
-14.5685 -13.1458 -3.29798
-16.8368 -12.1949 -3.42848
-17.0611 -11.2894 -2.27868
-11.7191 -14.8981 -3.41336
-16.9389 -13.0955 -1.48841
-12.3114 -14.5133 -1.73051
-16.6225 -11.2713 -3.43318
-12.2075 -15.0444 -2.99235
-13.6353 -13.7073 -3.28639
-13.117 -13.4535 -2.19499
-13.3047 -14.2815 -2.13659
-13.3082 -14.6667 -2.03542
-13.7505 -12.6316 -1.40017
-13.6901 -14.4932 -2.0292
-14.2612 -13.8625 -2.34812
-12.603 -15.7937 -1.94979
-11.3575 -15.3795 -1.28047
-13.7507 -13.7424 -1.43049
-13.1469 -14.2913 -1.45007
-15.1324 -12.9049 -1.28057
-12.9387 -14.2074 -1.12497
-14.0636 -13.3502 -1.99344
-15.2153 -13.8004 -1.20163
-11.4092 -16.0078 -2.51226
-13.9508 -13.5464 -1.26689
-13.2032 -12.7208 -1.04212
-14.9335 -13.8626 -0.453551
-14.8889 -14.0103 0.396477
-13.4883 -13.9868 -1.32016
-12.7816 -13.0564 -0.888432
-13.0526 -14.8298 -0.518058
-14.7864 -12.7577 0.55535
-14.3696 -13.6843 -0.548798
-10.4497 -15.2779 -0.845457
-12.8317 -14.9719 -0.650085
-12.0719 -14.442 -0.728005
-11.9156 -16.3886 -0.977102
-11.7707 -15.2411 -0.458792
-14.7053 -13.4961 0.646039
-13.6629 -14.0196 -0.634874
-12.4563 -14.662 0.0384235
-15.0277 -13.3902 0.551515
-12.411 -15.8034 -1.0867
-12.7661 -15.2001 -1.20006
-13.2668 -15.3151 0.0186308
-14.2572 -13.8536 -0.382542
-15.6267 -13.8259 0.848472
-12.2602 -15.2893 -1.0472
-11.854 -15.871 -0.377153
-12.7243 -15.3149 -0.355737
-11.3136 -16.46 -1.66264
-13.6561 -15.2076 0.908892
-14.4138 -13.6552 1.67104
-13.3354 -14.754 0.872817
-12.7972 -15.5377 -0.37083
-13.8392 -14.6867 1.19712
-13.4789 -13.9481 1.88252
-13.6641 -15.2573 1.23805
-14.4217 -13.1811 1.55131
-14.3465 -13.5556 1.393
-12.5147 -15.6815 0.690513
-12.571 -15.3834 0.467755
-12.7047 -16.1531 0.540675
-12.7085 -14.8566 0.711883
-12.6124 -15.2235 0.839888
-12.2613 -15.2513 1.4501
-14.3375 -13.275 1.07686
-12.1264 -15.1445 1.45707
-12.4658 -15.6826 0.609618
-11.9061 -17.0474 0.925341
-12.9924 -16.3152 0.844521
-13.0086 -14.0339 2.30067
-12.7129 -15.0327 2.56162
-12.3582 -13.938 1.66103
-11.9823 -13.4706 2.35752
-12.7807 -13.4107 2.87392
-12.6271 -16.5311 1.14372
-10.7594 -17.2875 1.14429
-12.4749 -15.4778 1.96059
-12.0136 -16.3036 0.692073
-12.3479 -15.4541 1.74538
-12.6006 -14.8727 2.18733
-12.6704 -12.8275 2.27019
-11.535 -16.7322 0.928371
-13.2296 -14.3829 2.35748
-11.729 -15.4086 2.2795
-11.5489 -15.9579 1.81894
-11.4139 -16.9895 0.803782
-12.4181 -14.9377 2.43022
-11.8801 -16.6697 0.874118
-12.3303 -15.0593 2.87031
-12.8775 -14.5459 1.92288
-11.7826 -17.1345 0.974113
-10.6919 -17.0938 0.968802
-10.6606 -17.0172 1.47961
-10.8347 -17.2963 1.60179
-11.216 -16.6443 1.54047
-11.3692 -16.8453 2.23433
-12.4545 -13.7302 -2.90096
-13.8131 -14.1408 -2.89326
-11.8411 -14.2238 -2.79128
-12.5491 -14.0224 -2.59091
-17.4034 -11.4614 -2.02556
-13.2284 -14.5542 -1.4225
-12.2893 -14.0769 -1.19525
-13.1823 -12.229 -1.10695
-12.8499 -14.962 -1.84019
-13.8744 -12.8737 -0.758186
-12.1701 -16.0657 -2.73562
-14.7606 -12.4876 -0.971785
-14.3057 -13.2781 -0.644389
-15.4698 -12.1223 -1.50263
-13.4541 -14.2184 -1.4275
-15.9415 -12.8122 -0.190974
-13.7107 -12.9592 -1.06423
-12.6782 -14.1341 -0.176957
-12.6903 -15.5343 -1.04216
-14.4332 -14.8413 -0.815456
-13.2751 -14.8831 -1.25507
-13.4992 -12.346 -0.355612
-14.4946 -14.2314 -0.958401
-11.7908 -15.7797 -0.139641
-12.1373 -15.4095 -0.4964
-13.1989 -15.572 -0.37321
-11.8528 -15.4591 -0.202405
-13.6021 -14.123 0.487395
-12.5853 -15.0506 -1.07822
-16.022 -12.9138 1.62329
-13.0592 -14.9799 0.0401057
-12.5673 -14.1228 0.329885
-13.4601 -14.5596 0.200034
-12.5002 -16.3246 -0.503212
-11.8457 -15.4712 1.06676
-13.7277 -14.1528 1.51253
-13.6431 -13.6036 0.731646
-13.9583 -13.4113 1.72954
-12.1306 -16.6026 1.37385
-11.947 -15.3079 0.224519
-13.2015 -14.7192 2.31841
-13.5952 -14.5481 0.485027
-11.96 -15.0266 1.63523
-13.6971 -13.5301 2.82797
-12.8492 -15.1612 0.843708
-11.4942 -17.5083 1.19301
-11.62 -16.0967 1.20621
-13.0795 -15.9969 1.43634
-11.586 -15.6443 1.59131
-12.628 -15.6132 1.92347
-11.3601 -16.7429 1.17408
-11.2404 -15.2457 1.42695
-12.5709 -14.4195 2.7453
-12.7491 -13.6736 2.16299
-11.8104 -15.8279 1.9547
-10.7142 -17.5287 2.2882
-11.7118 -17.3216 1.96254
-13.8829 -13.4956 -2.50085
-14.6343 -12.2737 -1.18554
-12.5432 -14.922 -2.26665
-13.0635 -14.872 -2.05564
-12.8569 -13.6503 -1.61929
-13.1525 -13.8123 -1.30784
-13.1819 -14.1118 -1.19459
-13.006 -13.5716 0.611817
-14.4162 -13.8395 0.22073
-12.678 -16.3461 -0.351789
-12.5703 -15.0478 -0.38816
-13.709 -13.8019 0.0842696
-12.7411 -14.1693 -0.833025
-12.7211 -15.6997 0.310153
-12.5981 -16.3359 -0.350379
-12.4384 -16.1505 -0.127306
-16.2126 -13.0087 1.50276
-14.8797 -13.9473 0.972212
-12.7972 -15.4007 0.860423
-13.1416 -15.6033 0.219558
-13.3598 -14.5803 0.228875
-13.5988 -13.7306 2.14393
-12.5943 -14.8835 1.60982
-12.0856 -15.3521 0.943753
-12.7202 -14.8799 0.853826
-12.8145 -14.663 0.831207
-11.9289 -16.3 1.57935
-13.1295 -15.044 3.21955
-12.0855 -15.7106 1.67504
-11.1318 -16.9145 1.11645
-10.7329 -16.8207 1.01175
-12.6251 -15.3908 -2.01795
-13.2474 -13.8551 -0.940943
-13.5558 -13.8762 -1.06165
-14.4201 -14.3064 -0.448211
-14.3271 -13.3924 -0.412928
-14.2157 -12.6975 -0.125063
-13.6451 -13.5456 0.876768
-15.0941 -14.3556 0.800999
-12.136 -15.9929 -0.242255
-14.5459 -13.5312 0.493662
-12.7502 -14.7546 -0.524507
-14.4325 -14.2294 0.250012
-13.1845 -15.3848 -1.02725
-11.2917 -17.2025 -0.520027
-12.9773 -16.0502 -0.38124
-13.7406 -13.9914 1.43233
-12.0074 -16.2999 0.779475
-12.4776 -16.4637 2.10745
-12.653 -16.1185 2.00878
-10.4026 -16.8355 2.68412
-10.3973 -17.4547 1.41509
-11.1431 -17.4192 1.47368
-12.9163 -14.3172 -0.715346
-13.6595 -13.1897 -1.49861
-14.2487 -13.1283 -0.270904
-14.147 -14.2925 -0.670247
-13.2967 -13.29 -1.10273
-14.5282 -12.8464 -0.686353
-11.2752 -15.1123 0.887534
-11.389 -17.2353 0.0326666
-14.2403 -14.5519 0.516967
-12.417 -15.2224 2.98585
-14.2175 -13.314 -0.67679
-14.9275 -13.6074 0.265708
-15.0758 -13.5158 0.782629
-13.5604 -14.9146 1.76101
-11.1277 -15.5942 -0.722911
-12.503 -16.8692 1.70115
-14.3469 -12.7783 -1.14943
-14.5067 -13.8708 -1.30203
-14.3799 -13.2425 -0.286256
-13.3711 -14.2512 -1.09082
-13.219 -14.301 -0.439024
-14.3055 -13.7768 -0.212887
-12.7147 -15.8622 -0.379068
-12.6674 -15.2364 1.03828
-12.0068 -15.9026 1.11779
-13.8309 -14.7591 2.05287
-12.5586 -15.928 1.63302
-12.17 -15.8962 1.58293
-12.0427 -14.7998 2.42107
-12.7034 -15.5546 3.22261
-13.8913 -14.718 -1.03162
-14.2623 -12.4724 -0.137715
-13.3915 -14.5715 -0.430994
-17.3454 -11.2494 -2.32099
-17.4264 -11.7922 -2.30213
-17.4076 -12.2775 -2.44867
-17.3807 -12.0152 -2.76473
-16.8578 -11.349 -3.20589
-16.9168 -12.1661 -2.50442
-16.4057 -11.4721 -1.11893
-17.0969 -11.935 -1.86297
-15.6252 -13.0293 -1.77436
-15.9556 -11.3538 -1.24284
-16.346 -10.6192 -1.46668
-15.1132 -12.6592 -3.10586
-15.6357 -12.7257 -2.44828
-15.5324 -12.5308 -2.60154
-15.1857 -12.5285 -3.1879
-15.8612 -13.1236 -2.97679
-15.123 -12.6013 -2.16167
-15.0243 -12.4607 -3.84516
-14.9781 -11.7747 -1.09402
-14.1617 -13.7193 -2.28356
-15.9478 -12.6228 -2.14576
-13.591 -12.2227 -2.88655
-15.288 -13.379 -1.90602
-14.4322 -12.5042 -2.08744
-14.4934 -13.9633 -2.0609
-13.5266 -12.9033 -2.58089
-14.1669 -13.6967 -1.88494
-14.3944 -13.2306 -1.69065
-14.1221 -13.3977 -2.34301
-14.2044 -13.1543 -3.00389
-14.2394 -13.277 -1.18478
-15.7803 -12.6252 -0.494836
-13.9733 -13.6617 -3.23134
-13.376 -13.9313 -2.49439
-14.7292 -13.2563 -2.39349
-13.8731 -12.5123 -0.68173
-13.3486 -14.1551 -3.2794
-15.4022 -12.7974 -0.199887
-14.007 -13.37 -2.32989
-14.2503 -13.2583 -0.883546
-13.1056 -14.3213 -2.44083
-12.9846 -13.9679 -2.14661
-13.4837 -12.968 -1.37207
-13.569 -14.5715 -2.10393
-13.6306 -13.4952 -0.951741
-13.6677 -13.4617 -0.350009
-15.3255 -12.8677 0.859931
-12.9232 -13.8323 -2.2269
-14.6002 -13.9841 -0.552172
-13.7465 -13.1484 -1.84109
-13.7323 -13.966 -2.07324
-12.8724 -14.044 -2.01589
-13.7976 -13.4608 -2.63573
-12.0627 -13.9081 -2.91305
-13.2075 -14.1021 -3.20212
-13.0727 -13.9107 -2.6494
-14.7016 -13.5654 -0.0558767
-12.8062 -14.161 -1.73872
-13.3949 -14.3924 -2.52855
-12.9383 -15.1524 -1.99329
-13.2498 -14.7333 -1.9676
-13.8794 -14.0171 -0.119465
-13.837 -13.9197 -1.41436
-12.4696 -13.3739 -2.13133
-12.9687 -14.0042 -2.82942
-13.1556 -14.5986 -1.11272
-12.1916 -14.8882 -2.74605
-14.6297 -14.0934 -0.266694
-12.4688 -14.198 -2.22748
-11.9392 -14.1278 -2.48082
-13.1042 -13.6047 -1.9129
-12.693 -13.4014 -1.50386
-13.7614 -14.3645 -2.31383
-13.0323 -15.6529 -2.63631
-12.6234 -14.7014 -2.68754
-12.3862 -14.3833 -2.75268
-12.7903 -14.274 -2.04575
-13.1796 -14.7618 -2.5357
-14.262 -13.447 -0.0432892
-11.4037 -15.0555 -3.43896
-13.0649 -15.5511 -2.98736
-12.0695 -14.281 -3.15259
-13.2259 -14.666 -0.405734
-13.7829 -13.8726 -0.110394
-11.3441 -14.4194 -3.26952
-14.7154 -13.7894 1.74983
-12.583 -14.1936 -2.3161
-14.5583 -13.3784 -0.16527
-12.8858 -13.0442 3.18469
-13.0695 -14.3679 -0.881108
-13.2232 -14.0835 -2.85726
-12.3819 -14.8769 -2.09065
-14.5809 -13.9102 0.864975
-12.6863 -14.3106 -2.07472
-13.986 -14.1913 1.57911
-12.9098 -14.3809 -1.32257
-14.3492 -12.6713 0.754612
-14.458 -13.3213 1.49453
-14.451 -14.3464 1.33883
-14.4474 -13.691 -0.180699
-13.2441 -15.643 -2.19278
-12.8361 -13.295 0.465914
-12.7753 -14.9468 -2.39838
-12.4331 -12.9095 2.3741
-14.5233 -13.7013 1.42804
-14.015 -13.5852 1.55098
-14.6971 -13.0663 1.06351
-14.1232 -13.7414 0.871882
-14.4773 -15.2054 1.39079
-14.4737 -13.5438 1.54906
-14.589 -14.3136 0.185021
-14.1781 -13.8729 0.572065
-14.5661 -13.828 2.08233
-14.0035 -14.1348 0.993241
-14.3618 -14.6878 1.38053
-13.3877 -13.7537 0.759001
-13.0417 -14.5371 1.08026
-15.0321 -14.6495 0.885792
-11.5518 -14.7594 -1.85322
-14.0657 -14.5333 1.49743
-14.1475 -14.2152 0.575879
-13.5571 -14.3289 -0.0541775
-13.6572 -14.7182 -0.0569843
-13.2411 -14.7804 -1.33615
-11.6546 -15.1189 -2.64488
-13.7413 -13.8718 -0.230139
-14.5924 -13.9229 0.977406
-14.2821 -14.4737 1.68444
-14.2741 -13.9407 1.44703
-14.3152 -13.831 1.14834
-12.9773 -15.4829 -2.28274
-13.7411 -14.388 1.22704
-12.5771 -14.609 -1.1045
-14.5038 -14.3096 0.885894
-13.7072 -14.2306 2.70145
-14.4536 -13.8295 1.7423
-12.5926 -14.0849 -2.30929
-13.938 -14.547 -0.7193
-13.38 -14.4808 -0.736002
-14.4526 -14.6552 0.897328
-11.6058 -15.1303 -3.1176
-12.5221 -14.393 -1.53582
-12.7184 -15.1684 -2.60067
-12.8095 -13.8236 3.03117
-13.4581 -14.3487 2.26158
-12.3689 -15.103 -1.52428
-14.204 -14.2115 1.06948
-13.554 -14.5488 -0.983667
-13.3045 -15.4624 0.999335
-12.9022 -14.0852 0.323635
-14.1879 -14.2233 0.442574
-11.8502 -14.5234 -2.68472
-12.2158 -14.4497 2.43582
-12.3831 -14.2175 2.09553
-12.217 -15.4348 -2.55126
-12.1938 -13.9333 2.72944
-12.0039 -14.6559 -1.81665
-13.8175 -14.6421 0.640818
-12.3318 -14.1104 2.13302
-12.9928 -14.6195 -0.884579
-12.3811 -15.1848 -0.562044
-11.8678 -14.707 -2.37389
-13.5653 -14.8739 0.557803
-13.8998 -13.9709 1.52196
-11.7443 -13.4907 2.38813
-11.9765 -15.8037 -1.68028
-11.3484 -16.9906 -2.53993
-13.8412 -14.7451 1.15288
-13.115 -14.8351 0.282514
-12.3274 -15.1068 -0.665818
-12.4781 -15.6379 -1.15918
-11.9841 -15.0179 -1.08197
-11.3252 -15.0922 -2.01914
-13.1468 -15.2418 -0.726787
-12.406 -15.6332 -1.50023
-11.3855 -16.0934 -1.87324
-12.7279 -15.5236 -1.38628
-11.5131 -16.4298 -0.38889
-13.274 -15.2214 1.39019
-11.2858 -15.8529 -2.77705
-11.8977 -14.6706 -1.64851
-13.1871 -14.0726 0.298908
-11.7554 -15.3702 -0.0407712
-10.868 -16.1757 -1.1997
-12.3019 -13.3484 1.76035
-11.4347 -16.6241 -1.99434
-12.6454 -15.1684 -0.486024
-12.6899 -16.2004 0.589791
-12.4558 -14.5457 1.49727
-11.5961 -15.0154 -0.840198
-11.752 -15.1896 -0.679977
-12.8502 -15.1413 -0.389025
-12.605 -15.6925 0.235468
-12.0632 -15.8152 -1.06071
-12.7882 -14.9665 0.0165914
-13.7114 -15.5864 0.290078
-10.5385 -14.2675 -2.25191
-12.2169 -15.7019 2.05366
-12.8273 -14.9354 0.746184
-10.7784 -17.4115 -1.32592
-11.4646 -16.2185 -0.204839
-11.2632 -16.3166 -1.5923
-11.0565 -16.1565 -0.842095
-12.1279 -15.9929 0.184054
-12.5706 -15.7828 0.431232
-12.5769 -15.3559 -0.18067
-11.3652 -15.8084 -0.94797
-12.7237 -15.7828 0.538816
-12.2715 -16.326 0.650811
-11.0944 -15.4307 -0.723333
-12.2043 -14.9523 1.15606
-12.8029 -15.7239 0.342404
-11.5099 -16.9936 -3.09156
-12.4202 -15.6585 -0.315107
-11.9846 -16.067 -0.265668
-12.1285 -16.2083 0.828049
-11.948 -16.4459 0.754858
-11.85 -15.4142 1.00326
-13.0187 -16.505 0.182236
-12.2484 -16.0439 0.820233
-12.3656 -16.2828 1.21584
-12.087 -15.8801 0.202377
-11.9771 -15.9113 2.05549
-12.1489 -16.423 0.146636
-12.3266 -15.5214 0.91077
-12.9846 -16.2562 1.80048
-12.6167 -15.4101 1.23871
-11.4504 -16.8329 -0.679752
-12.039 -15.0466 0.988465
-12.7785 -15.6301 0.796317
-12.2804 -16.5939 1.35096
-12.0954 -16.0899 1.0897
-10.4936 -16.6356 0.0700054
-12.2772 -15.2116 1.41848
-11.3975 -15.9985 -0.183976
-11.1598 -15.8708 2.37393
-13.0431 -16.7781 1.3942
-11.6292 -16.7816 0.428573
-13.0179 -16.7208 0.0178509
-11.0885 -17.8934 0.748289
-18.4849 -11.2477 -2.1284
-17.2004 -11.0486 -2.64105
-16.4677 -11.955 -2.00099
-17.0655 -11.3638 -2.89491
-17.9248 -11.0294 -1.65328
-16.9 -10.586 -1.98014
-17.4514 -11.496 -3.58976
-16.1319 -12.349 -2.04709
-17.9192 -12.2269 -3.5743
-16.7996 -12.8121 -1.53545
-17.0815 -12.7405 -2.53803
-16.5473 -12.112 -1.62533
-15.6989 -11.9736 -1.93008
-15.699 -12.4975 -2.7491
-17.4397 -12.5823 -1.60046
-15.2 -12.7754 -2.43162
-17.5797 -12.5483 -1.84985
-15.0653 -11.149 -3.60588
-15.442 -11.6501 -2.20529
-15.7794 -11.5693 -3.54578
-15.9733 -12.5295 -2.66145
-15.6874 -11.8524 -3.2164
-15.4386 -12.6668 -3.17849
-14.526 -12.7771 -2.13698
-15.9977 -13.1551 -2.6717
-14.6515 -12.933 -2.80179
-14.7398 -12.9416 -1.98488
-14.8239 -13.2395 -3.4674
-14.682 -13.1997 -2.00766
-13.907 -13.1292 -2.29594
-14.6922 -13.5873 -2.58408
-13.891 -13.041 -3.9155
-14.5375 -13.0539 -3.06
-14.3455 -13.378 -2.58184
-14.773 -12.4806 -2.36367
-15.4101 -12.5533 -2.38744
-14.6976 -13.1077 -2.06633
-17.0351 -12.3265 -1.23889
-15.7516 -13.6134 -1.36829
-13.1632 -13.5703 -2.70023
-13.4222 -12.8376 -1.11116
-14.7443 -12.8001 -2.56647
-14.1428 -14.0433 -2.52722
-15.8782 -13.0035 -0.56485
-13.9327 -12.3307 -2.32709
-13.6318 -13.4506 -2.17685
-14.2036 -12.5856 -0.841217
-14.2113 -12.8975 -1.26569
-15.0293 -13.2572 -0.181549
-15.0966 -13.1437 -0.930844
-14.0007 -13.0603 -1.88541
-14.481 -12.6311 -0.728818
-13.8925 -13.0868 -1.45196
-14.1582 -13.3977 -0.00448594
-14.2726 -13.9802 -2.76203
-14.0994 -13.4543 -2.41043
-14.9715 -12.5752 -0.912271
-14.0029 -13.3987 -1.93867
-14.4533 -13.1896 -0.672597
-13.2066 -13.7059 -1.87861
-14.4067 -13.7725 -2.89041
-13.6835 -12.2421 -1.8353
-13.1664 -13.2582 -2.42889
-14.0829 -12.9872 -2.1367
-14.9347 -12.127 0.304912
-13.5946 -13.8029 -0.747439
-13.0076 -14.6357 -2.97742
-13.3323 -14.2286 -2.85547
-13.202 -15.0522 -2.01528
-13.9318 -13.9481 -1.26736
-14.8678 -13.8792 -3.12403
-13.4656 -13.271 -1.05317
-13.8825 -13.9813 -0.485132
-15.8775 -13.5896 0.314988
-13.3312 -13.7073 -3.52231
-13.8516 -13.608 0.117995
-13.3247 -13.4961 -1.77641
-13.5327 -13.306 -1.83419
-13.2401 -13.9695 -1.70877
-14.477 -13.6127 -0.340217
-14.4077 -13.4421 -0.147785
-16.9364 -12.2359 0.343718
-13.8868 -13.5399 -1.10581
-13.298 -13.2817 -1.85717
-14.3086 -14.1214 0.469312
-13.9171 -14.6257 -2.04834
-13.5799 -13.9333 -0.884906
-14.8849 -12.9266 -0.288065
-13.6309 -13.1499 -1.3856
-12.04 -14.3966 -2.15157
-12.8213 -14.9341 -2.29647
-12.6668 -13.3673 -2.16108
-12.5667 -14.6554 -2.74888
-13.9782 -13.379 -1.78842
-12.2091 -13.7942 -2.41673
-15.5783 -13.6459 0.612247
-13.7999 -14.5627 -1.05509
-13.0122 -14.1096 -2.37105
-12.5917 -13.9118 -2.16867
-13.0568 -14.8743 -0.954116
-13.507 -13.4945 -1.32034
-13.1945 -13.9008 -1.79481
-15.3256 -13.604 0.835803
-14.3577 -13.437 0.0960321
-14.9773 -13.1651 0.534013
-13.2289 -13.8253 -1.15937
-11.9415 -15.2135 -3.04989
-12.1161 -14.3477 -1.94264
-15.2995 -13.2749 0.498474
-11.7752 -15.1166 -2.48133
-15.1179 -12.7682 0.504055
-15.7949 -13.4009 0.851175
-14.3371 -13.4028 1.24476
-14.3764 -14.8793 -1.68226
-12.7148 -14.7058 -3.66992
-13.141 -14.3022 -2.08963
-12.8053 -14.6668 -1.75397
-14.9653 -14.0515 -0.256551
-11.7226 -14.3938 -2.212
-12.4297 -14.4439 -2.37453
-13.3057 -14.9483 -1.41669
-12.4213 -14.1256 -2.09161
-11.7742 -13.3023 2.64055
-12.7253 -14.9605 -2.95397
-14.0854 -13.8442 1.12747
-13.0287 -13.5759 -0.938809
-13.8977 -14.073 0.208342
-14.9761 -12.6418 0.968236
-14.2157 -14.5302 1.21709
-11.3112 -14.6908 -3.34266
-14.6193 -13.9266 0.572033
-13.3681 -13.7874 -0.809488
-14.581 -14.0757 0.998028
-13.606 -14.1395 -1.43747
-15.2265 -13.8702 1.22376
-13.9323 -14.1168 -1.28627
-13.9669 -13.978 0.776807
-13.2061 -14.8397 0.381898
-13.3397 -14.9262 -1.85971
-13.3468 -14.147 1.1978
-14.9458 -13.9249 1.5693
-14.5053 -14.236 -0.440668
-12.8869 -13.7851 0.262701
-14.946 -13.0664 1.91252
-14.4504 -13.8208 0.85302
-14.6603 -14.0222 0.728139
-13.6625 -14.0066 0.569089
-13.5947 -14.0817 1.26896
-12.1055 -15.0316 -2.5491
-13.883 -13.1534 0.2174
-13.0925 -15.551 -1.79356
-14.6729 -12.9893 2.23673
-14.1117 -14.3316 -0.894963
-13.4122 -14.1389 -1.89754
-14.8102 -14.5458 0.0685383
-12.2565 -14.1349 -0.722361
-12.2816 -16.1426 -2.225
-13.4707 -14.2043 -1.45098
-12.761 -14.7619 -1.49239
-11.6043 -14.8435 -1.6346
-12.6711 -14.2553 1.02112
-12.8097 -14.6745 -0.822302
-12.562 -15.2555 -1.70356
-12.885 -15.322 -1.08527
-14.2695 -13.613 1.73089
-13.4073 -14.4206 1.18401
-11.7022 -14.9689 -2.25715
-15.0168 -13.8137 2.54173
-14.5793 -13.6301 0.582467
-13.7583 -13.8042 1.84676
-14.1361 -13.8099 1.72931
-14.0495 -14.8057 -0.602945
-14.1016 -13.8088 2.19132
-12.9051 -12.3855 2.85994
-12.8024 -14.8852 -1.65887
-14.1523 -14.1731 0.565582
-13.6166 -14.6176 -0.209618
-10.7882 -14.8758 -2.9918
-14.3008 -13.2555 0.272804
-14.792 -13.7154 0.867788
-12.3349 -14.3895 -2.29235
-12.8004 -14.3393 -1.86846
-14.5255 -13.6976 1.65878
-11.5967 -14.6396 -3.16215
-12.8766 -15.334 -1.19866
-12.6532 -13.8972 -2.14714
-12.181 -14.4503 -2.06724
-14.3994 -14.1981 1.66466
-13.6785 -14.1509 -0.283894
-13.6931 -13.9786 0.0110451
-13.1637 -13.6452 0.140268
-12.4483 -13.5953 1.48513
-12.6074 -14.9021 -2.16219
-12.1368 -15.5985 -2.984
-12.1512 -15.5623 -0.908625
-12.5578 -13.6979 -1.90431
-13.0442 -14.5176 -1.17082
-12.733 -14.8015 -1.34688
-12.1885 -14.3689 -2.074
-13.8758 -13.5428 1.44219
-12.0804 -14.629 -2.77773
-13.9838 -13.698 2.09469
-13.4256 -14.3313 1.42949
-14.0813 -14.226 2.59209
-13.1155 -14.5979 -1.23872
-12.1191 -14.6538 -1.42651
-12.0384 -15.7147 -2.50932
-11.481 -14.3334 2.49494
-12.1759 -13.0443 2.52955
-11.2839 -14.9645 -1.78573
-13.5102 -13.901 1.8548
-13.0923 -14.913 0.827925
-12.1189 -13.1448 2.51905
-12.4999 -15.2148 -0.691815
-12.5799 -14.5459 3.32943
-11.529 -15.4478 -1.2148
-12.5158 -13.9915 -1.87035
-12.194 -14.5352 2.79615
-11.848 -12.8473 1.8655
-12.2543 -15.9693 -2.97819
-11.366 -14.738 -2.14101
-13.5758 -14.3868 0.989415
-12.2772 -14.9891 -2.74157
-11.065 -15.857 -2.30102
-14.2505 -14.1822 0.518425
-12.6823 -15.2202 -1.09575
-10.7959 -16.1875 -1.81596
-12.0524 -15.4372 -1.5413
-12.581 -15.9298 -1.41313
-13.1128 -13.3927 2.29269
-11.3383 -15.2611 -1.3076
-11.1923 -15.5849 -2.45054
-11.5289 -15.9455 -2.16787
-13.189 -15.1577 0.031743
-12.8997 -14.6752 -1.49039
-12.1888 -17.0127 -1.5986
-13.2878 -14.8204 1.89884
-11.7629 -14.8048 -1.60488
-11.4749 -14.764 -1.64689
-12.817 -14.0764 0.777903
-12.2373 -15.3552 -0.605404
-13.4768 -14.7773 1.81283
-12.8889 -15.4871 -0.819364
-12.107 -15.4957 2.09573
-12.1606 -15.0901 1.13504
-12.0763 -15.7253 -1.05664
-12.209 -15.0274 1.54899
-11.9652 -13.7898 2.44735
-12.7917 -15.8269 0.521247
-12.2841 -15.4204 0.853332
-10.7859 -14.0034 3.2671
-11.7573 -15.78 -3.08576
-11.5626 -15.7444 -1.82287
-12.1641 -16.0835 1.53696
-10.93 -15.4348 -1.18551
-12.5889 -14.7304 2.723
-12.471 -15.3409 -1.23206
-13.1023 -15.0289 -0.313547
-11.5672 -15.4659 -0.309253
-13.034 -15.7344 0.263789
-12.2887 -15.7803 -0.206969
-11.3281 -16.0573 -0.193751
-13.957 -14.9153 -0.273374
-11.9201 -15.2824 0.336141
-11.9442 -15.1587 1.21385
-12.0337 -16.1217 0.727067
-12.368 -14.6012 -0.968138
-12.8307 -15.6157 -0.716587
-12.354 -15.3693 0.706869
-11.7052 -15.9728 2.18944
-13.0922 -14.5858 1.4968
-12.107 -16.3302 -1.30606
-12.2548 -15.745 0.280261
-11.8387 -15.1629 -1.50364
-10.6669 -16.4356 -1.28754
-12.6658 -15.5509 0.297677
-12.6082 -15.1213 3.22218
-12.1504 -15.1913 0.388473
-10.8316 -15.9391 -0.692389
-12.3304 -16.7013 -2.47537
-11.2351 -15.1787 -0.543671
-12.4753 -15.5835 1.94292
-11.0671 -15.6879 0.876303
-11.9112 -17.0203 -1.88005
-12.6459 -15.8969 0.914806
-12.2603 -15.2879 1.90385
-12.2505 -15.7974 0.460398
-12.2622 -16.419 0.190444
-11.5226 -14.7773 0.681345
-12.363 -15.714 -0.638054
-11.4281 -15.3028 -0.310089
-11.9955 -15.5645 -0.700159
-12.8319 -15.4768 0.0847384
-12.6129 -16.1859 1.2436
-12.1363 -15.7342 0.427034
-12.0616 -15.9508 1.57285
-12.0233 -15.9768 0.637341
-11.7229 -16.1036 0.25411
-12.2258 -15.5805 0.187365
-12.9734 -16.095 2.28141
-12.1764 -15.2237 0.563024
-12.0652 -16.6188 -1.9633
-10.6508 -15.6463 -0.312428
-11.3919 -16.4659 -0.47708
-10.9996 -15.6771 -0.68605
-11.054 -15.2785 -0.476034
-12.6075 -15.9457 1.19903
-12.2189 -15.5445 0.438402
-11.9253 -16.9216 1.03129
-12.7202 -16.0685 0.514895
-10.8995 -16.7075 0.447389
-12.2099 -16.0044 1.28541
-11.472 -15.718 -0.0330554
-13.3551 -16.6178 1.66293
-11.2532 -15.9011 -0.544189
-13.6761 -14.7399 1.61648
-12.7018 -16.0797 0.654684
-10.9002 -16.3321 -1.23049
-12.6765 -16.0349 0.94543
-12.3234 -16.1119 2.35517
-12.2581 -15.4172 0.755359
-12.7224 -16.316 1.48087
-10.9798 -16.7879 0.363161
-11.064 -17.2133 0.786499
-10.2548 -17.4233 1.60672
-12.0098 -16.5095 1.1895
-12.0025 -16.1485 2.04509
-11.0738 -16.1571 1.93309
-11.8367 -17.0042 0.822644
-11.1042 -16.7533 1.64445
-11.377 -16.6977 0.427846
-10.8941 -16.6281 1.10062
-10.9278 -16.6838 1.14931
-11.1551 -16.9364 2.34434
-11.7363 -16.8292 -0.677305
-11.6831 -17.0878 1.62512
-10.8907 -17.6318 -0.0963885
-11.4171 -17.5779 0.914048
-17.1398 -10.9492 -2.88408
-17.1281 -11.7584 -2.08442
-16.5883 -12.1656 -2.03477
-15.8114 -12.3182 -1.28482
-16.7257 -11.4767 -1.69695
-16.1699 -11.5415 -1.99874
-15.9972 -10.8887 -2.70206
-16.041 -12.2124 -2.29177
-16.1917 -12.6695 -2.07286
-16.8587 -11.89 -2.83267
-15.2465 -12.1079 -3.03939
-15.5785 -12.9156 -1.88663
-14.2302 -13.8736 -3.26003
-15.0468 -12.663 -2.69228
-14.7056 -13.2811 -1.50094
-15.3017 -13.0251 -3.39256
-14.5979 -13.0298 -1.9059
-14.2976 -13.0298 -3.29159
-14.155 -13.1 -2.69298
-14.1721 -13.1324 -3.07818
-14.2009 -12.5778 -1.66247
-13.4922 -12.664 -2.86724
-14.4247 -13.7251 -1.84593
-12.9201 -13.4514 -3.48027
-14.172 -13.3876 -0.0408945
-15.1709 -12.5626 0.751542
-13.6604 -12.9514 -0.542274
-14.2619 -12.5687 0.262489
-13.9587 -13.3681 0.00114706
-15.1872 -12.398 -0.754376
-13.3709 -13.3135 -2.88031
-14.7486 -13.8758 -1.02814
-14.1513 -12.6115 -0.561781
-13.8398 -13.1259 -2.22496
-14.4168 -13.8476 -0.504378
-13.5076 -14.2549 -1.20978
-14.7125 -14.4059 -2.7028
-14.0769 -13.5785 -1.92183
-13.8193 -13.1665 0.0546035
-13.5542 -14.6944 -0.174144
-13.5452 -12.9283 -0.521552
-13.7453 -12.7753 -0.962388
-12.6796 -13.957 -1.98128
-13.7677 -13.1422 -0.645848
-15.0999 -13.3755 0.191546
-13.4229 -13.4607 -2.42126
-15.0302 -12.8802 1.4336
-13.3666 -14.2996 -2.0993
-14.4617 -14.4304 -1.51939
-14.0782 -13.9004 -1.12344
-13.2102 -13.3124 -1.69317
-14.5827 -13.3523 -0.2559
-13.4272 -13.4496 -1.334
-14.0689 -13.534 -0.997026
-13.5761 -13.072 -0.396273
-15.3603 -13.3584 0.838547
-12.0983 -14.4099 -2.7212
-12.8461 -14.0717 -2.92323
-12.5362 -13.4786 -1.52537
-12.5811 -14.1486 -2.76989
-13.9143 -13.6436 1.14632
-13.0055 -13.6414 -2.16578
-12.546 -13.985 -2.18129
-15.9883 -13.6721 1.56782
-15.1926 -13.4268 0.510186
-13.3307 -13.0341 -1.62211
-13.3432 -14.5462 -1.36757
-12.6873 -14.1021 -1.08709
-12.6833 -14.9111 -3.50095
-12.2109 -15.0046 -3.27354
-14.7263 -13.0241 -0.346458
-12.1766 -13.6823 -2.93524
-14.4484 -12.8317 0.851773
-11.8351 -15.0451 -3.21489
-14.6033 -13.9977 1.82581
-12.9429 -14.4291 -2.46982
-12.3816 -14.0296 -1.57653
-14.9622 -13.8702 0.0755911
-12.0106 -14.6356 -2.7448
-13.0634 -14.981 -2.22436
-14.6297 -13.2089 0.827609
-12.7829 -15.6019 -2.31363
-13.2853 -14.7422 -0.434698
-13.6024 -13.3228 0.358059
-14.6882 -13.747 1.42776
-14.0206 -14.0779 0.724822
-12.6311 -13.9906 -1.80858
-14.2381 -14.1962 0.131742
-15.5408 -13.8062 0.932444
-14.2006 -14.4296 0.523494
-13.0642 -13.5524 0.913781
-14.4191 -13.8167 1.09887
-13.46 -14.506 -2.22147
-13.8442 -14.6244 -0.207057
-15.1067 -13.3054 -0.327261
-13.5209 -13.6671 -0.704234
-13.1294 -14.5244 0.073281
-13.9969 -15.4031 -1.05815
-13.3172 -12.7674 1.11436
-12.5736 -15.2307 -1.67215
-13.1082 -15.3246 -1.86231
-14.5173 -13.9523 2.13192
-13.1987 -14.9343 0.280476
-12.4862 -14.9898 -2.19559
-14.4057 -14.4661 0.991582
-14.833 -14.33 1.09148
-12.6786 -14.9958 -2.79011
-14.7756 -13.5325 0.661427
-14.7795 -15.3865 -0.874109
-13.4546 -15.0956 0.922453
-13.1675 -15.0752 -2.46722
-13.3077 -14.1861 0.409184
-14.2261 -14.4571 0.542667
-11.9745 -14.2456 -1.76465
-11.448 -16.0386 -2.5447
-14.7169 -13.8333 2.85334
-12.3802 -15.032 -1.27434
-14.3153 -13.3931 1.24201
-12.8527 -15.5503 -1.5598
-11.6193 -15.2097 -1.86648
-14.1285 -13.1722 3.11004
-13.7446 -14.3355 1.67769
-12.4536 -14.6768 -1.59873
-14.2385 -15.1164 -1.20138
-13.1861 -14.1578 1.2599
-14.0937 -14.5184 1.96806
-12.8241 -15.3639 -1.67209
-13.9474 -14.0371 1.31991
-13.6885 -14.512 0.671137
-13.7567 -13.9401 1.04049
-12.0158 -15.772 -2.7288
-12.1847 -13.9295 2.17032
-13.4344 -14.545 0.68246
-13.6941 -14.617 -0.134496
-14.6197 -15.0312 1.18271
-13.9497 -14.8075 1.41435
-13.5234 -15.4849 -0.241324
-11.7932 -14.2968 -1.12048
-13.1739 -13.7189 0.433174
-11.7748 -15.4311 -2.31818
-11.9456 -15.3057 -1.94894
-13.2173 -14.4615 2.47087
-12.2391 -14.379 -1.87197
-13.7685 -14.6075 1.84882
-11.6183 -14.9931 -2.08152
-14.3459 -14.313 0.864598
-12.1938 -15.0959 -2.09483
-12.4899 -15.0463 -1.47188
-12.3112 -14.7293 2.99376
-14.4451 -15.5812 0.0946848
-12.6801 -15.4001 -1.81411
-13.3382 -14.6838 -0.190214
-11.8293 -13.9511 -1.70116
-13.7629 -14.1863 1.20699
-13.7216 -14.6383 0.381007
-11.8329 -14.5133 -1.31297
-13.0657 -14.0911 1.05592
-11.2371 -15.8255 -2.80427
-12.078 -15.4528 -0.0344834
-13.5046 -14.5828 1.09236
-13.6568 -15.0149 0.567586
-11.6411 -16.0642 -2.10092
-13.893 -13.6273 0.988726
-10.2497 -15.6213 -2.77506
-12.0217 -15.6147 -1.58525
-11.6008 -15.5879 -1.6381
-11.9374 -13.2462 2.23307
-11.0376 -16.4277 -2.45378
-12.7787 -15.4181 -0.204168
-13.8714 -15.1336 1.2281
-12.0279 -15.268 -0.449465
-12.3291 -15.5832 -0.895353
-11.9849 -16.0862 -1.64154
-12.0956 -16.6629 -0.641943
-12.8398 -14.284 0.891127
-12.6029 -15.1207 0.131133
-13.0922 -13.7361 1.46257
-11.5979 -15.9999 -1.44219
-13.2546 -16.0651 -0.0379963
-12.6443 -16.3458 -1.69266
-11.5635 -15.439 -0.806977
-12.3024 -16.0724 -1.238
-11.1887 -15.6843 -2.42623
-12.1771 -15.6874 -1.12011
-13.1468 -15.2705 1.90818
-11.6905 -15.8835 -2.23983
-12.2491 -16.2448 -0.562667
-11.8767 -14.1314 3.71354
-12.6777 -14.8541 1.55257
-11.3783 -16.2304 -0.383029
-12.6317 -15.0254 1.89848
-12.8541 -14.965 -0.716853
-12.8881 -15.0248 0.412888
-12.0961 -14.8947 -0.4388
-11.9893 -15.7634 -0.075673
-12.4592 -16.1479 1.6916
-10.8985 -15.327 -1.40978
-13.0913 -14.793 1.19907
-11.2753 -16.2598 -1.32322
-12.2158 -15.4674 0.321501
-13.2876 -16.5336 -0.803522
-12.1598 -15.2884 1.90831
-12.9981 -14.5308 2.26212
-12.3445 -16.2065 1.01559
-11.7071 -15.8656 -0.0525364
-12.939 -16.0203 1.94857
-11.727 -15.215 1.80737
-11.7182 -15.3609 -0.0303538
-12.1168 -15.2726 -0.898148
-12.1995 -14.7177 0.184333
-12.4932 -15.3261 0.816536
-11.5925 -16.5165 -0.168362
-11.7446 -15.9958 -0.409934
-11.0899 -14.9542 -0.147066
-11.7141 -16.0183 0.306487
-13.1009 -15.9313 0.982227
-11.9299 -15.273 0.421884
-12.1597 -16.8943 0.278965
-11.6258 -16.6483 1.74613
-11.9532 -16.149 1.28778
-11.8588 -15.9924 0.3312
-11.6224 -16.6987 -0.380596
-12.5199 -16.0262 0.982116
-11.2741 -16.6005 -0.568171
-11.9563 -18.466 -3.57231
-11.4486 -16.2473 0.430513
-10.7227 -16.3017 -1.92552
-11.7026 -15.2522 -0.236815
-12.9083 -15.9527 1.79144
-12.14 -16.7274 1.40396
-12.1531 -16.4792 1.11116
-12.4731 -16.8253 0.575911
-11.04 -16.4609 0.993736
-10.8358 -16.08 -0.197875
-11.4073 -16.0136 0.363418
-12.2594 -16.5539 1.06633
-12.4328 -16.8846 2.01766
-11.9657 -16.8996 1.01752
-10.7627 -16.2531 -0.0720831
-11.3322 -16.102 1.53995
-12.591 -16.2557 2.27991
-12.2694 -16.393 1.67354
-11.5321 -15.9548 0.715289
-11.6271 -16.7707 0.170984
-10.8762 -17.5174 0.549131
-11.058 -17.7611 -0.943852
-10.9424 -16.4979 0.079775
-11.2728 -16.6209 2.39233
-12.1273 -15.5528 0.926155
-11.4544 -17.6139 -0.380013
-10.768 -17.6506 -0.815324
-11.346 -16.9864 0.838678
-11.6232 -17.0216 1.81461
-11.2917 -16.7392 0.0971898
-11.4717 -15.9965 1.47417
-11.7454 -17.6244 1.65215
-11.5582 -16.6786 -0.85317
-11.079 -16.8301 -0.563439
-10.1371 -16.7621 1.58485
-11.58 -17.1571 1.164
-10.4938 -17.6522 1.92856
-16.2356 -11.3695 -2.17149
-16.4153 -11.9019 -2.5337
-17.0852 -11.7657 -2.37301
-16.7275 -12.0337 -2.69343
-16.1491 -11.5755 -2.80766
-16.1783 -12.0926 -2.54807
-15.182 -11.9592 -2.34223
-14.6725 -11.7511 -1.93804
-15.4825 -12.1509 -1.03582
-15.1172 -13.5139 -2.14708
-14.7652 -13.5929 -2.54191
-14.2929 -12.084 -2.87585
-13.9682 -13.3974 -2.49434
-14.0611 -12.9406 -1.96933
-14.026 -12.7827 -1.14078
-14.0894 -12.7438 -2.27367
-14.1119 -13.2821 -1.46022
-14.3384 -11.8868 -3.11786
-14.4 -12.6433 -3.35916
-14.597 -12.9146 -1.15202
-13.9257 -14.156 -2.77743
-15.0235 -12.9068 -2.87817
-13.6679 -13.9983 -2.69461
-14.371 -12.8934 -3.64184
-14.6662 -12.6436 -0.889696
-13.8865 -11.9902 -0.948971
-14.3406 -14.0325 -0.0647932
-13.6267 -13.811 -2.83324
-13.8187 -13.6861 -0.884425
-13.8014 -13.0399 -0.755902
-15.3929 -12.9023 -0.432125
-14.9164 -12.5999 -0.221193
-13.6431 -12.9325 -0.974912
-14.3898 -13.5031 -1.97386
-13.4242 -14.1513 -0.784467
-13.4889 -14.0189 -0.868114
-13.9221 -14.7573 -0.50529
-14.4477 -14.1169 -0.734221
-12.727 -13.924 -2.44298
-13.7421 -14.0324 -2.99799
-13.5999 -13.0791 -2.56878
-12.4147 -13.7761 -3.05784
-13.7568 -13.7708 -2.59232
-13.0219 -14.3627 -3.21641
-13.1922 -14.8112 -2.21991
-14.7143 -13.1146 0.62187
-14.8443 -13.8852 0.147674
-15.2051 -12.8661 0.891274
-14.814 -14.0966 -0.22718
-14.697 -14.5486 0.333199
-12.47 -14.3922 -0.178395
-13.4613 -14.2081 -1.92949
-13.76 -12.9199 -0.330195
-13.0362 -15.0446 -0.59391
-15.5579 -12.7576 1.08092
-13.5004 -14.5617 -1.84529
-14.8729 -13.8589 0.935232
-13.5016 -13.7281 -1.75191
-14.3828 -13.7248 0.273157
-13.8435 -13.8561 0.167741
-14.3949 -14.2232 1.19613
-12.3107 -14.1063 -3.22344
-15.1984 -13.862 1.73241
-14.0099 -14.2731 0.13163
-12.6858 -13.6932 -2.22046
-12.7459 -14.7791 -2.33737
-13.1554 -13.864 0.628077
-12.8174 -14.8176 -2.47955
-14.0148 -14.4242 0.489261
-12.1031 -15.1021 -1.72439
-12.8322 -12.6761 0.006589
-12.2461 -14.2807 -2.95917
-12.6038 -14.6241 -3.11426
-13.3808 -15.3516 -1.62721
-12.6848 -14.9136 -2.24675
-14.2087 -14.0534 1.55695
-13.3397 -14.5008 0.867694
-12.37 -15.7719 -2.07239
-13.6089 -14.2542 0.963575
-13.9286 -13.0748 0.306213
-12.9327 -14.8297 -1.79547
-12.2824 -13.5161 1.70736
-13.538 -14.9279 0.343294
-12.0382 -14.7079 -3.09906
-14.3079 -14.0869 0.536614
-13.5677 -15.1907 0.883029
-13.2038 -14.011 0.860279
-12.2436 -14.6931 -2.07779
-11.8068 -15.3602 -2.98505
-12.1485 -14.1301 1.87313
-12.358 -14.6856 -2.358
-14.5727 -13.6078 1.76869
-14.0774 -13.8017 0.624334
-14.0763 -14.1474 1.52984
-12.7153 -14.2831 -0.338566
-12.103 -15.4277 -0.794628
-12.2781 -15.3307 -2.64828
-13.339 -14.2723 -0.779171
-14.194 -13.7747 1.31506
-13.3774 -14.16 0.758648
-14.134 -13.7628 1.15862
-12.5746 -15.2982 -0.223506
-13.8724 -14.7914 -0.421356
-11.8255 -14.0708 2.24329
-12.9717 -15.8799 0.95469
-12.4926 -14.2634 -0.331705
-12.5764 -13.8074 0.162191
-11.9945 -14.4235 3.30978
-13.7856 -14.7733 0.596612
-13.6583 -14.4334 0.894452
-14.0248 -14.633 0.360701
-14.5357 -14.4468 1.38112
-14.5808 -15.5156 0.357106
-13.0923 -14.8686 0.740359
-11.8196 -15.7991 -2.39732
-13.7572 -14.556 1.61753
-12.8717 -15.0783 1.59117
-12.8231 -14.6798 0.794991
-12.2134 -15.3575 -2.73111
-12.821 -14.4176 1.31307
-11.551 -14.3034 -2.11483
-11.9527 -15.1242 -1.90188
-12.6986 -14.7122 -0.512569
-12.5707 -16.888 -0.415146
-13.6877 -14.1124 1.9311
-12.2854 -14.7608 0.434011
-12.9163 -15.4691 0.173544
-11.8573 -15.0181 -0.871754
-12.1502 -15.5634 1.24091
-11.2844 -15.1008 0.572815
-11.9545 -16.3944 0.0258674
-11.7212 -15.7754 -0.221898
-11.5829 -15.8167 -0.362085
-12.2537 -14.6544 -0.149644
-11.7721 -15.0957 -1.25518
-11.9906 -16.0487 -0.087753
-11.5118 -16.1848 -1.04899
-12.4382 -15.9888 1.66017
-12.4247 -15.227 1.23184
-12.9343 -15.0583 2.16936
-12.2595 -15.0576 2.87787
-13.1188 -14.6045 2.03883
-12.2831 -15.2696 1.64904
-13.0526 -14.8076 2.80216
-12.2362 -15.3022 -1.10037
-10.8188 -15.7428 -2.09639
-12.0591 -16.2432 -3.0485
-13.2186 -15.5336 2.19356
-12.0894 -17.0733 1.38055
-11.6704 -16.1212 0.302499
-11.819 -16.5073 0.053907
-12.3739 -16.1326 0.404007
-11.9174 -15.4835 -1.12868
-10.9934 -15.611 -0.979619
-12.4777 -16.3315 -2.57663
-11.8238 -16.1058 0.428479
-12.0588 -16.1967 -2.68093
-13.2625 -15.6826 1.0168
-13.0256 -15.7653 0.909586
-11.2007 -16.3503 1.06444
-10.9215 -15.0534 -0.678538
-11.0879 -15.7727 -0.165976
-11.8967 -15.6797 0.2617
-12.8592 -16.4941 1.13358
-12.8694 -14.7451 0.276183
-12.1501 -16.4093 1.40106
-12.2911 -16.1324 0.867428
-11.2287 -16.8335 -0.0843023
-12.5568 -16.3526 1.54174
-10.8883 -16.0641 -0.685902
-12.8019 -16.2737 1.94311
-11.2526 -15.1424 0.255418
-10.484 -16.349 -0.474195
-12.8531 -16.589 2.24912
-12.0922 -16.8192 2.02723
-12.1546 -16.4681 1.56378
-11.3732 -16.3041 1.07683
-10.6476 -16.6409 1.55198
-10.7834 -17.1745 2.03653
-9.86135 -17.4321 1.11525
-17.9088 -11.2168 -2.63461
-15.9731 -12.3352 -2.51116
-14.0988 -12.1995 -0.445027
-15.1184 -12.344 -2.51852
-14.463 -12.4863 -0.246402
-14.6844 -13.2989 -1.20621
-14.7398 -13.2296 -1.04669
-15.4905 -13.6429 -2.03159
-13.7198 -12.5042 -1.51993
-14.4286 -11.9453 -2.32911
-13.5983 -14.0084 -3.10894
-14.4925 -13.223 -2.05563
-13.8277 -13.707 -1.48731
-14.0903 -12.8476 -1.12938
-14.01 -13.7232 -1.95219
-12.3287 -14.3942 -1.74722
-14.2863 -13.6606 -2.98702
-14.6567 -14.542 -0.705316
-13.2602 -13.7555 -1.19491
-13.4664 -14.5976 -2.26021
-13.1387 -13.7668 -0.904233
-14.2467 -13.6668 -0.711556
-13.7832 -13.3913 -0.328578
-13.7396 -14.0132 -1.29882
-12.6756 -13.8831 -1.68982
-13.7062 -13.3547 -0.495584
-15.5907 -13.4786 -0.116612
-13.6878 -14.1613 -0.911352
-12.6678 -14.4502 -0.340083
-14.1722 -14.4876 -1.66953
-13.1914 -13.4266 -3.01144
-14.532 -14.127 -0.010583
-12.6216 -14.7744 -3.75292
-12.2373 -14.3546 -2.73687
-14.3081 -13.1522 0.0376812
-12.8319 -13.9232 -1.58855
-11.6762 -15.0718 -2.82977
-12.5444 -13.9844 -1.17003
-14.2051 -13.0538 0.158436
-13.2485 -12.6578 3.01993
-14.0985 -14.4271 -2.05384
-13.808 -13.3393 0.239113
-14.1764 -13.9438 -0.459418
-15.0775 -13.8782 0.809723
-13.1258 -14.1741 -2.09263
-13.8046 -14.1121 0.252444
-14.1495 -15.1165 1.00062
-13.9948 -14.1063 0.670711
-14.3463 -14.2658 1.64045
-14.9242 -13.6918 0.316659
-13.4387 -13.5666 0.629949
-13.0413 -15.0882 -2.53946
-12.1022 -15.0377 -2.62632
-13.4278 -13.7054 1.2017
-12.5932 -14.3602 1.24975
-13.0568 -14.0976 2.19958
-12.22 -14.7442 -1.37171
-13.5805 -14.5051 1.19241
-13.3029 -14.5143 1.63278
-13.1387 -14.4785 0.95409
-13.5134 -13.81 2.23083
-12.1963 -13.6337 2.48351
-13.1794 -14.9996 -0.334761
-12.6578 -14.6172 -0.251957
-12.2808 -13.7793 0.422224
-13.4044 -14.3475 -0.189642
-12.6921 -13.6294 2.18683
-11.8204 -13.5484 1.43174
-14.0077 -14.8862 1.07135
-12.1751 -15.6604 -1.64941
-12.5898 -14.3841 2.24244
-14.253 -14.8864 1.18954
-13.3726 -14.6557 1.10626
-12.9275 -15.568 -0.818348
-11.9195 -16.176 -0.644461
-12.7803 -14.4131 2.05944
-13.2705 -15.393 2.2282
-12.0308 -15.4317 1.44905
-12.9905 -15.2334 1.03909
-13.0441 -15.1082 -0.316124
-12.4906 -15.4631 -0.382957
-12.6878 -15.1116 2.46816
-12.6909 -16.0322 0.103662
-11.6106 -14.7049 -0.725267
-12.7711 -14.5503 0.141735
-12.4839 -16.0119 -0.277232
-12.6436 -15.8104 -1.20829
-12.4157 -15.8886 0.231398
-11.6658 -14.8955 -0.313548
-11.7743 -15.4517 -0.525852
-12.9192 -15.4685 2.45532
-11.7665 -14.6288 2.349
-11.9975 -15.1118 3.15923
-12.7951 -14.6139 2.95927
-11.7766 -15.454 3.15862
-12.1114 -16.511 1.03138
-12.5363 -15.6756 0.50302
-12.6638 -15.909 0.0626846
-12.4764 -16.3372 -0.529829
-11.2347 -16.6653 0.19373
-11.9261 -16.4552 0.722966
-12.2974 -15.7905 3.0799
-12.2623 -16.7144 0.200889
-11.3483 -15.4945 1.41194
-11.4481 -14.986 2.27419
-12.6067 -16.1911 0.740018
-11.9743 -16.8315 -0.0263249
-12.5635 -15.891 0.358669
-11.4451 -16.2092 0.769184
-12.4822 -15.8133 1.56985
-12.5856 -16.6092 2.14688
-12.2922 -15.598 1.68191
-11.2401 -16.8131 1.10725
-11.9186 -16.933 0.404892
-10.3508 -16.4427 0.444234
-12.411 -16.7312 1.15097
-12.1206 -16.2065 1.92997
-11.9314 -15.7448 1.64011
-11.781 -16.7781 0.650569
-11.5339 -15.5476 1.52894
-11.4419 -16.8458 1.65784
-11.2051 -16.7567 0.815844
-10.6943 -17.3116 2.13309
-10.675 -16.8386 1.72825
-10.7584 -16.9419 1.37619
-11.4069 -19.123 1.40284
-11.0881 -17.4353 -0.314793
-10.6603 -17.2037 1.834
-10.9692 -18.0993 1.33589
-18.4214 -12.3286 -3.18821
-16.8832 -12.1271 -1.76694
-14.4486 -13.4844 -3.02889
-14.0741 -13.6249 -1.89061
-13.7088 -13.2472 -2.12111
-14.3421 -13.1026 -1.28944
-14.4862 -12.4911 0.204127
-15.0964 -13.4726 1.4819
-14.662 -13.3344 0.612323
-13.824 -14.2682 -3.79829
-13.4525 -13.8289 -0.63681
-13.4916 -14.9972 0.313917
-13.7959 -12.6555 1.53378
-14.6665 -13.8201 1.29341
-13.2012 -15.1399 -1.01565
-13.8502 -14.6499 -0.204625
-13.1362 -14.3708 1.80565
-12.5867 -15.4646 -2.41687
-13.8785 -14.0408 1.12213
-13.8033 -14.0106 2.11375
-12.3215 -14.4533 -0.284189
-13.126 -14.4888 -0.601224
-13.9228 -14.3259 1.22883
-13.8078 -14.5562 0.999467
-12.7922 -13.7333 1.90637
-11.3582 -15.4232 -1.98179
-12.4516 -15.5564 -1.36309
-11.8906 -16.1811 -1.63042
-12.9868 -15.1377 0.0863158
-12.1495 -14.8541 -0.660263
-11.7541 -15.0091 -0.713966
-12.4908 -15.9429 1.50289
-12.664 -14.4385 1.801
-13.0603 -15.0309 0.8381
-12.2057 -15.7009 -0.229331
-13.4665 -14.8685 1.2983
-13.045 -14.3883 2.93478
-12.11 -14.8269 1.21649
-12.5872 -14.9329 1.58143
-12.0151 -17.0694 0.082323
-12.2659 -15.8406 0.547876
-11.7953 -16.0542 0.622156
-13.0057 -17.0344 1.49242
-10.8985 -16.7599 0.399173
-11.4547 -16.8612 0.347989
-12.8999 -16.3045 1.65443
-12.8372 -15.9807 1.17332
-12.2555 -16.6723 1.4635
-12.2951 -17.1889 0.213863
-11.38 -16.5042 0.501148
-11.1065 -17.0132 1.26238
-10.9339 -16.345 1.79634
-11.4222 -17.5081 2.08057
-11.1074 -17.0738 1.11249
-10.22 -16.8266 0.846519
-10.7586 -17.5426 1.92649
-10.3517 -17.4973 1.07853
-14.3211 -13.0951 -2.09314
-14.7683 -12.409 -1.74761
-14.0793 -12.7884 -1.24462
-15.2366 -12.7075 -0.126049
-14.4319 -13.9455 -0.847796
-14.072 -14.2426 -0.0383324
-12.2963 -14.1352 -2.37382
-13.5953 -13.874 -0.306584
-13.4795 -14.525 -1.45671
-14.8113 -13.9017 -0.0393783
-13.9356 -13.499 -0.188937
-14.7449 -13.3067 0.838065
-13.8221 -14.2901 0.173068
-13.5809 -13.1191 -0.137176
-14.7542 -14.8336 0.422579
-11.7371 -14.8901 -1.46834
-13.2879 -14.4708 1.10822
-11.7184 -14.4433 2.36164
-13.9056 -14.585 0.225385
-12.822 -14.2026 1.95733
-13.1696 -15.0099 1.25844
-13.5777 -14.4597 2.08213
-12.3775 -15.1319 -1.89947
-12.3768 -14.7417 0.0255724
-12.335 -14.9562 1.38549
-11.8778 -14.7335 2.84366
-11.9566 -14.8986 1.65331
-11.199 -15.9913 -1.87545
-12.1491 -15.7661 -0.194654
-12.1833 -16.3502 1.50671
-12.8503 -16.4369 0.1493
-11.8134 -16.7107 0.750605
-10.9269 -16.7311 0.933656
-10.4688 -16.3702 1.46103
-14.1489 -12.9252 -0.957194
-15.3005 -13.1658 -2.07991
-15.0059 -12.6668 -0.457697
-14.6354 -12.7804 -0.26345
-15.1992 -14.2277 -0.925634
-14.1247 -14.1029 0.888839
-13.48 -13.4666 -0.586567
-13.2496 -13.0816 -1.14585
-14.1624 -14.1107 -1.5459
-14.7337 -13.3771 -0.80103
-15.753 -13.6121 -0.696766
-12.2577 -13.8798 -1.15942
-14.1547 -14.2752 0.374985
-14.1655 -14.6263 1.37044
-12.5916 -15.4067 -2.52497
-13.2137 -13.0417 2.5942
-12.4188 -14.2201 2.80801
-14.4432 -15.2972 0.539077
-12.2617 -14.692 0.90882
-12.0731 -14.5317 2.67429
-12.9736 -13.6403 1.11574
-12.936 -15.1715 1.53963
-12.0675 -14.2262 2.59674
-11.7202 -15.4858 0.747269
-12.1954 -15.7722 -1.4994
-12.4474 -16.1963 0.614256
-12.7674 -16.3387 1.49963
-11.3444 -16.8611 0.797913
-11.19 -18.1319 2.28306
-10.728 -16.1412 2.2941
-10.6649 -17.2924 1.56382
-10.811 -17.2946 1.10138
-10.2895 -17.1169 1.95143
-12.9514 -14.5069 -0.340339
-13.3676 -13.606 -0.575095
-14.1771 -13.5611 -1.20885
-14.0993 -12.9464 -0.274037
-14.4782 -14.3479 -0.26448
-12.5156 -14.5425 0.411698
-12.4356 -16.1841 1.15039
-11.0153 -17.6763 1.59352
-10.9291 -16.6553 1.76971
-10.5574 -17.3317 1.76845
-16.6587 -12.9258 -1.15617
-14.5671 -13.1816 -0.972647
-14.0307 -13.3659 -1.26587
-14.3012 -13.9913 0.666095
-13.9341 -14.1374 0.590338
-12.7855 -15.4235 1.44922
-12.2905 -15.5048 0.222743
-14.7143 -12.0425 -0.200273
-14.2757 -13.2657 0.00617455
-13.1862 -13.9265 -1.06245
-14.6843 -13.9808 -0.670534
-14.5331 -13.4715 -0.642189
-14.2265 -13.1292 -0.440444
-14.8431 -13.3708 0.252602
-12.7791 -15.227 0.555879
-13.6042 -15.4383 3.55251
-12.4702 -16.3971 0.772251
-12.3603 -16.128 0.292986
-10.8123 -17.4907 1.86725
-10.9679 -17.1026 1.19409
-14.5861 -12.701 0.0117408
-12.6929 -15.2766 2.4512
-12.4783 -15.1067 2.20332
-12.8654 -16.0139 1.93377
-11.9279 -15.8497 1.53984
-15.3608 -12.5065 -0.687115
-14.0622 -13.4876 0.229992
-12.7655 -14.3225 -1.35306
-13.6996 -14.5896 -1.48992
-14.2879 -12.9427 -3.07967
-12.1485 -14.9688 2.26236
-12.7316 -12.8695 3.38411
-12.559 -13.2935 1.84561
-12.2236 -12.9047 2.37161
-11.4577 -13.5179 2.11397
-12.4134 -13.2896 2.53934
-11.0709 -13.8354 2.62157
-12.926 -13.7828 3.46402
-11.6229 -14.0051 2.86144
-17.7239 -10.6255 -2.902
-14.9766 -12.7349 0.75178
-16.1273 -12.4754 -0.464751
-14.3203 -13.0571 0.779018
-16.1149 -12.5787 1.36467
-14.7901 -13.6472 1.89208
-14.5208 -13.8079 1.23079
-17.5039 -11.505 -1.00434
-13.8842 -14.2039 2.18289
-17.5815 -10.9775 -2.4589
-14.7199 -13.8801 0.82258
-14.1804 -13.8214 1.49506
-13.6717 -14.4815 2.07211
-15.2472 -13.4385 1.44174
-16.1939 -11.8529 -0.298974
-14.9783 -13.0314 0.495228
-12.5973 -14.2944 1.69676
-12.3436 -15.0976 2.40236
-13.4619 -13.0663 0.858911
-16.9311 -11.551 -1.99651
-16.7418 -11.4355 -2.05107
-16.5238 -13.0599 -1.79684
-14.5383 -14.0992 -0.482341
-12.6997 -15.3776 2.27619
-14.1355 -14.1307 0.552431
-13.6579 -13.96 1.07368
-14.5154 -14.2252 1.18042
-13.5099 -14.4036 0.752981
-14.1673 -14.1078 0.83285
-12.6922 -14.9288 1.67993
-14.7911 -14.2262 0.144179
-13.9097 -12.9732 1.8544
-14.1869 -13.6396 0.136983
-13.8979 -14.6697 1.08931
-14.8294 -14.4535 0.769639
-14.2086 -14.4481 0.647309
-14.582 -14.1403 0.71304
-14.4993 -13.8709 -0.157239
-13.5 -13.6894 0.756653
-14.1959 -15.5383 0.0024619
-13.8407 -13.9835 0.905104
-14.1005 -14.5243 0.530056
-14.8944 -13.6012 0.919038
-14.5679 -14.1405 0.81253
-14.6309 -13.688 0.344658
-15.8043 -11.7607 -3.12448
-15.3228 -14.0548 1.10555
-11.667 -14.9692 2.20965
-16.0303 -12.6019 -1.73289
-12.5942 -14.3975 0.973799
-15.1736 -14.2744 2.03158
-15.3689 -12.1434 -2.86487
-14.2419 -13.6227 -0.90426
-13.2373 -13.5056 0.632318
-13.8175 -13.807 0.442827
-13.9615 -13.8073 -0.863466
-13.3207 -13.9839 0.634049
-12.5249 -14.7208 1.71944
-16.1574 -12.0674 -2.46326
-13.4984 -13.3155 0.379374
-12.888 -14.5594 2.2668
-14.4474 -14.0087 -1.0436
-12.7235 -15.3062 2.35367
-14.0876 -14.4399 0.167938
-15.5329 -12.6885 -2.47841
-15.1369 -13.2009 -1.8611
-14.2508 -11.6127 -2.91681
-14.2582 -12.3659 -2.65284
-14.8314 -12.3696 -2.86165
-15.3299 -13.4909 -2.18816
-15.7498 -12.7874 -1.46947
-14.4069 -14.0931 -3.82444
-14.6298 -12.4479 -2.83364
-13.242 -14.1302 -0.527282
-12.614 -15.3162 1.57501
-15.0311 -13.332 -2.67899
-14.5741 -12.1711 -2.84542
-12.5413 -15.8687 0.874257
-14.8339 -12.9483 -2.94531
-12.9251 -15.2983 1.52575
-14.5787 -13.547 -2.47347
-14.8376 -13.0534 -2.18676
-13.3504 -15.009 1.63542
