-13.1321 -14.9265 0.281274
-13.8349 -14.1346 0.41017
-13.8412 -14.4364 0.0113082
-15.6751 -13.38 0.372701
-15.9603 -12.9772 -0.0633324
-16.8522 -12.6289 0.0452451
-16.3526 -13.0826 -0.131737
-16.4411 -12.9827 0.908871
-16.485 -12.556 0.221439
-14.8321 -13.2602 0.784623
-13.8424 -14.9887 1.15069
-13.2132 -14.7887 0.828182
-14.9499 -13.4817 0.747716
-13.3403 -14.5801 1.47179
-16.7795 -12.9592 0.576685
-17.089 -12.6575 0.727891
-16.7738 -13.0071 0.841006
-16.8865 -12.1532 0.969989
-16.4424 -13.3924 1.08464
-13.3565 -12.6296 2.22599
-12.4485 -13.5038 2.40161
-14.2764 -13.3907 -2.26701
-14.7769 -13.4067 -2.19119
-13.9377 -13.315 -2.56652
-14.92 -13.4032 -2.37742
-15.5629 -12.0676 -2.26523
-13.2848 -13.6222 -1.66226
-13.3426 -13.757 -1.79647
-12.2762 -14.1824 -1.32672
-16.0643 -12.7165 -2.31574
-13.1175 -13.6852 -1.56501
-13.2175 -13.6699 -1.85637
-14.6537 -13.4152 -1.5376
-14.2634 -13.8832 -1.74194
-15.6675 -12.717 -1.67799
-15.6852 -11.8476 -1.68661
-14.7441 -13.4058 -1.58488
-14.5701 -13.4578 -0.682842
-13.3774 -14.0752 -0.664902
-16.5989 -11.8876 -0.501018
-15.9212 -12.7427 -0.876318
-15.7362 -12.4833 -0.501233
-13.9097 -14.0667 -0.0469095
-13.8855 -14.4101 -0.23787
-13.133 -14.9254 0.252055
-13.1849 -15.3047 0.693183
-13.8505 -14.0695 -0.0244307
-13.6658 -13.9858 0.0695911
-13.5273 -14.586 0.244697
-12.6052 -15.0689 0.271977
-15.1706 -13.3104 0.1154
-16.116 -13.5243 0.369749
-16.0735 -12.8512 0.172591
-16.8147 -12.4215 0.213746
-16.1991 -13.0898 -0.0191875
-14.5048 -13.8692 0.588479
-14.5887 -13.6139 0.818845
-14.2615 -13.2897 0.795608
-13.8572 -14.2385 0.911812
-13.8854 -14.7305 1.3017
-13.4635 -14.361 0.906361
-16.8302 -12.788 0.89631
-17.3572 -12.6893 0.855367
-13.5615 -13.0014 2.07015
-12.2455 -14.1407 -1.84742
-12.0646 -14.2158 -1.31913
-12.8703 -13.7525 -1.26527
-12.4173 -13.9091 -1.84705
-12.8095 -14.4529 -1.43931
-14.4957 -13.0601 -1.96571
-13.3659 -14.0579 -1.20378
-13.0456 -14.1235 -1.76199
-13.9658 -13.3413 -1.83756
-16.0258 -12.8372 -1.30022
-13.8319 -13.6994 -0.804139
-13.3348 -14.2286 -0.872399
-14.9736 -13.6486 -0.858561
-13.2541 -14.0692 -0.735928
-15.7464 -12.7292 -1.07739
-12.7779 -15.2378 0.0107307
-16.5378 -12.4873 -0.476798
-13.275 -14.6374 -0.451632
-15.6619 -13.5893 -0.578962
-12.7606 -14.6982 0.32188
-15.7021 -13.2898 -0.309154
-15.3528 -13.2071 -0.173198
-13.2547 -14.5286 0.4461
-16.2999 -12.9202 -0.311002
-13.3588 -14.6945 0.793038
-15.2308 -13.1207 0.0378017
-15.9326 -13.076 0.524508
-14.0441 -13.975 0.883416
-13.2099 -14.9162 1.00889
-12.6219 -13.2887 2.32192
-15.8945 -11.891 -2.26958
-12.7115 -14.0333 -1.28288
-13.001 -14.348 -1.09991
-15.2638 -13.2974 -1.71916
-15.9251 -12.6839 -1.73801
-13.825 -13.3898 -0.568477
-13.6637 -13.9855 -0.782468
-13.5425 -14.5914 0.119939
-13.8267 -14.3202 -0.087742
-15.258 -13.2054 -0.420035
-16.3967 -12.5793 -0.644309
-14.086 -14.3327 0.947699
-15.3466 -13.1621 0.892008
-14.6583 -12.9149 1.24022
-15.2421 -13.1582 0.479637
-16.3164 -13.1819 0.731042
-11.5812 -14.3664 -2.17337
-12.0222 -14.4615 -1.71883
-13.1012 -13.9485 -1.8853
-14.222 -13.7007 -2.52614
-11.9468 -15.3407 -1.53241
-12.5022 -14.8708 -0.75148
-13.0421 -14.8428 -0.163805
-13.9821 -13.8053 -0.121254
-15.1227 -13.4695 -0.0666503
-13.6932 -14.4714 -0.154336
-14.7341 -13.2985 0.0914823
-15.1027 -13.365 1.02959
-15.0569 -13.8969 0.552308
-14.3858 -14.0048 1.48341
-14.5226 -13.424 0.676369
-16.9154 -12.4528 0.899098
-14.9141 -13.4118 0.800686
-16.8932 -12.807 1.35571
-13.3531 -14.3932 -0.668199
-12.9844 -14.6508 -0.25387
-12.7372 -15.0838 -0.0295717
-14.0124 -14.4515 1.07227
-14.8338 -13.2475 0.756932
-12.5527 -13.2961 2.5567
-14.1567 -13.6042 -0.949305
-14.1918 -13.799 -0.742425
-16.0789 -13.1586 -0.180394
-16.1708 -12.5238 0.295022
-14.9753 -13.2792 1.03987
-13.5651 -14.1768 -0.700511
-13.2392 -14.4578 -0.0489949
-12.4182 -14.9218 -1.1515
-13.1113 -14.7801 -0.803351
-15.9766 -12.4341 -2.19004
-15.0987 -12.1762 -2.35739
-15.2887 -12.4556 -2.61866
-15.5835 -12.4333 -1.87899
-14.9393 -12.5208 -2.20543
-15.9318 -12.6133 -1.73469
-15.6172 -13.0685 -1.46799
-14.4638 -13.5214 -2.57641
-16.2497 -12.2424 -0.803189
-14.6188 -13.3565 -2.40097
-15.5902 -12.1246 -1.87801
-15.4816 -12.6543 -1.32842
-15.9028 -12.682 -1.51652
-15.4337 -13.2175 -1.79143
-14.2241 -13.157 -2.41892
-14.6594 -13.177 -1.66677
-14.0443 -13.7057 -2.26872
-14.8456 -12.7216 -1.54857
-14.2884 -13.5413 -2.57404
-13.9688 -13.2883 -2.24973
-15.4662 -13.2515 -0.869253
-14.316 -13.8571 -2.7069
-15.3542 -12.7271 -0.901987
-16.3662 -12.9661 -0.261742
-16.2636 -13.0252 -0.0906707
-16.1534 -12.9111 -0.69563
-16.6269 -12.4664 -0.640725
-16.4822 -12.5324 -0.1453
-16.7587 -12.9638 0.302951
-16.3164 -12.5816 0.273356
-16.3224 -12.9884 0.702807
-14.9516 -13.0687 -1.38196
-16.4435 -13.3833 -0.111857
-14.3966 -13.2702 -0.830593
-14.8743 -13.3998 -1.31924
-14.8528 -13.8881 -1.61589
-16.1687 -12.8633 -0.153478
-16.8802 -12.4431 1.23984
-15.841 -12.7294 0.116529
-12.7626 -13.5335 -2.16122
-15.9895 -13.1615 -0.129521
-16.4558 -12.7659 -0.2135
-16.423 -12.9296 0.572754
-14.0887 -13.5078 -1.58093
-13.9871 -13.4179 -1.12344
-15.3341 -13.3227 -0.370255
-12.7729 -13.9995 -1.86853
-13.3664 -13.7344 -1.60699
-14.2025 -13.9036 -0.630207
-14.539 -13.4611 -0.738269
-14.0857 -13.6887 -1.09129
-14.2647 -13.4631 -0.522243
-16.1873 -13.3972 0.175886
-16.4981 -13.0941 0.657726
-13.6451 -13.7855 -0.961154
-14.3098 -13.8144 -0.408615
-14.9561 -13.1033 -0.496414
-14.5775 -13.595 -0.0485338
-15.1916 -12.8568 -0.140165
-15.1896 -13.0691 0.960948
-16.4975 -13.4262 1.22694
-14.4237 -13.9824 -0.853925
-15.1711 -13.1406 0.563054
-16.8304 -13.3972 1.6386
-15.0158 -13.2377 1.11927
-14.6983 -13.418 0.196293
-14.4749 -13.9018 -0.514527
-14.7509 -13.2196 0.759932
-11.9236 -14.4368 -1.16065
-12.6487 -14.8967 -1.43365
-13.1452 -14.0894 -0.851987
-13.1606 -14.316 -0.794061
-13.4733 -14.0419 -0.322729
-13.3978 -14.2475 -0.208913
-14.7616 -13.6634 1.1103
-14.3312 -14.1214 0.332434
-13.1707 -14.4791 -0.161722
-11.8682 -15.9126 -2.51753
-11.6628 -15.7285 -2.2326
-14.3433 -13.6216 1.32852
-11.4559 -15.7754 -2.19457
-12.1182 -14.29 -0.831979
-14.111 -14.4752 0.500371
-12.081 -15.0321 -0.810542
-14.3067 -12.7903 2.65272
-13.7697 -14.2687 0.124769
-11.797 -15.7169 -2.36829
-11.2993 -15.1898 -1.92439
-13.2458 -14.5601 0.330957
-13.5474 -14.3128 0.280495
-13.4133 -14.8135 -0.18839
-13.0226 -14.1843 0.724508
-13.3781 -14.3025 0.417158
-12.3895 -15.3765 -0.904746
-12.4675 -15.175 -0.8605
-13.1999 -14.9132 0.313376
-13.5364 -15.09 0.221321
-13.5535 -14.2934 1.05822
-13.1001 -15.1473 0.241467
-13.5748 -14.8642 1.08295
-12.596 -13.572 2.42216
-12.7215 -13.2695 1.90599
-12.866 -14.9488 0.204233
-12.8565 -15.2888 0.678182
-12.1121 -13.4004 2.23172
-13.351 -15.0299 1.03874
-12.9015 -15.1176 0.644701
-15.8998 -11.7766 -2.49974
-16.0237 -12.0472 -2.1945
-16.1574 -11.7718 -1.96575
-15.6908 -11.98 -1.92119
-16.472 -12.568 -1.58185
-15.8815 -12.2081 -1.33271
-16.7275 -12.0628 -0.947703
-14.4844 -12.8946 -2.8988
-15.6674 -12.1833 -0.873679
-15.0703 -12.8636 -1.96553
-15.8656 -12.0224 -0.74309
-15.997 -12.6581 -1.34359
-15.5496 -12.9717 -1.39645
-14.8592 -13.0448 -1.50123
-14.4765 -13.2899 -1.96343
-15.2503 -12.7746 -1.49517
-14.4562 -13.6463 -2.43655
-14.5151 -13.0912 -1.51049
-13.3977 -13.1442 -2.20844
-16.2276 -12.8858 -1.36312
-14.8075 -13.1874 -2.0119
-15.6672 -12.6511 -0.358586
-13.8237 -13.5845 -2.5949
-15.3002 -13.1327 -1.44315
-17.0806 -12.1925 0.128516
-16.458 -12.6809 -0.197585
-16.0196 -12.8883 -0.183697
-17.2175 -12.5102 0.71898
-15.1516 -13.6076 -1.3384
-12.8159 -13.537 -2.55811
-14.9382 -13.4617 -1.18743
-13.0651 -13.719 -1.38367
-17.1079 -12.8322 0.731647
-16.3684 -13.0681 0.39159
-15.6917 -13.4565 -0.279161
-17.0925 -12.3749 0.662696
-13.3425 -13.6311 -1.71318
-15.322 -13.4617 -0.149533
-15.5221 -13.5083 -0.455209
-15.4843 -13.3824 -0.201361
-12.4612 -14.384 -2.36136
-13.229 -13.9606 -1.22348
-16.8967 -12.8119 1.28997
-14.7105 -13.2257 -1.21539
-16.3134 -12.9079 1.16525
-16.8067 -12.5 1.32402
-16.0555 -13.5261 0.111782
-16.7396 -12.8943 1.03622
-15.8462 -13.248 0.0526773
-16.2971 -13.235 0.820555
-16.0907 -12.6392 1.03217
-16.2891 -13.1045 0.803272
-14.8381 -13.5817 0.022338
-14.508 -13.1641 -0.383201
-14.922 -13.2161 0.826976
-16.2967 -13.7244 0.730371
-14.994 -13.2335 0.323974
-15.2184 -12.6716 0.828203
-12.2783 -14.1323 -1.63746
-14.2609 -13.4211 0.555146
-15.1961 -13.3551 1.06691
-12.4861 -14.4931 -1.49557
-12.4409 -14.5745 -1.57977
-11.8762 -14.3606 -1.56271
-13.7282 -14.0134 0.00262191
-14.3406 -13.9684 -0.85208
-12.6943 -14.5101 -1.16146
-12.5339 -14.5242 -1.69678
-13.6494 -14.4995 -0.586728
-14.8567 -14.2148 0.336727
-13.0594 -14.0887 -0.595501
-14.3629 -13.9566 -0.028097
-13.4686 -14.2347 -1.17498
-14.3959 -13.8796 0.745879
-14.0334 -12.7951 1.83168
-14.4863 -13.8695 0.792127
-13.195 -14.4026 -0.660601
-13.2838 -14.4799 -0.562718
-14.3516 -13.9699 0.995611
-11.0792 -15.568 -2.59086
-14.0529 -14.7297 -0.266949
-11.6833 -15.0607 -2.55558
-13.7119 -14.623 -0.234587
-13.97 -14.0737 0.293546
-11.4675 -15.4887 -2.25401
-11.3917 -15.185 -2.76155
-11.5465 -15.976 -2.3476
-11.6451 -15.5086 -2.00352
-11.7216 -15.3943 -2.65349
-12.2695 -15.3181 -2.37798
-11.5247 -15.3884 -2.12742
-12.2186 -15.0339 -2.11415
-11.2206 -15.2398 -2.54003
-12.2439 -14.9408 -1.2385
-13.4644 -12.7922 1.67816
-13.1618 -12.959 2.46863
-12.6321 -14.8768 -0.515741
-12.1983 -14.5784 -1.29445
-11.5361 -14.981 -2.58336
-13.0907 -13.4425 2.21785
-13.021 -13.2238 2.98321
-11.2018 -15.8046 -2.36761
-11.3847 -15.6709 -2.23443
-13.5592 -14.7312 1.17372
-13.1299 -13.2903 2.10447
-13.0596 -14.4573 -0.208068
-12.9081 -14.3666 -0.100039
-13.0813 -13.1325 2.1834
-12.8319 -15.0086 -0.676873
-12.8811 -14.7536 0.152829
-13.2619 -14.8125 0.191095
-12.0061 -15.3432 -0.825654
-12.9431 -13.4732 2.74995
-11.6556 -15.8412 -2.15777
-13.9849 -14.4959 0.970805
-12.4918 -15.1602 -0.0546815
-12.9284 -13.182 2.04287
-12.8675 -14.4056 0.31439
-13.7931 -14.5541 -0.0148758
-12.0396 -15.2607 -0.224412
-12.161 -15.7741 -0.748955
-13.3707 -15.0372 0.698791
-12.8232 -15.0544 -0.00518439
-12.9227 -15.3885 0.219922
-13.2373 -15.0294 0.241052
-13.5091 -14.7633 1.07166
-13.1506 -15.6269 0.322872
-12.8333 -15.3427 0.539272
-12.1355 -13.2154 2.09329
-13.3396 -14.6827 0.739579
-12.7543 -15.08 0.924922
-13.3417 -15.0482 1.07316
-16.1144 -12.0891 -1.98624
-15.8812 -12.4602 -2.52843
-16.6881 -12.0175 -1.13528
-16.2446 -12.3853 -1.30688
-14.0384 -13.2225 -2.31141
-14.5433 -13.1092 -2.34668
-14.5075 -13.1101 -2.23119
-14.318 -13.4057 -2.43617
-15.0709 -12.7182 -1.83878
-15.6491 -12.877 -1.98101
-15.3462 -12.7765 -0.750806
-16.1554 -12.5829 -0.388988
-15.9381 -13.1083 -0.463021
-16.9674 -12.4939 0.187232
-17.2799 -12.5444 0.223663
-14.8982 -13.1757 -1.96637
-16.3531 -13.0442 0.103747
-16.5949 -12.8347 0.120764
-15.671 -13.5605 -0.834921
-17.3178 -12.8288 0.702745
-15.0142 -13.1324 -0.776162
-15.0829 -12.8233 -1.16468
-13.6416 -13.1178 -1.78166
-14.998 -13.2607 -1.15486
-16.8133 -12.9286 0.130835
-15.7346 -13.4012 -0.280356
-15.5169 -13.1676 -0.236699
-16.8102 -12.7481 1.02497
-13.399 -13.6243 -1.57843
-13.054 -13.7755 -1.74638
-15.5021 -13.0734 0.14843
-15.5842 -13.1085 0.0412484
-15.876 -13.2487 0.515766
-14.5647 -13.6363 -0.430274
-15.2992 -13.2093 0.769081
-15.132 -13.4033 -0.160006
-16.1288 -12.9726 1.30001
-14.5061 -13.4368 -0.845756
-14.5908 -13.38 0.275511
-14.5614 -13.9837 -0.534476
-16.4081 -13.1 0.808464
-13.1015 -14.1995 -1.29106
-16.1556 -13.3684 0.784156
-14.7147 -13.5008 -0.0243031
-15.0523 -12.959 1.34285
-12.39 -14.451 -1.62938
-14.0774 -13.8163 -0.51287
-13.5429 -14.3133 -0.592396
-12.2409 -14.4761 -2.05776
-12.6645 -14.3046 -1.06237
-14.4678 -13.9965 -0.107742
-14.2176 -14.5847 -0.275034
-14.6261 -13.5269 0.562316
-13.3383 -14.0233 -0.423722
-13.5036 -14.1402 -0.0344339
-14.3307 -14.071 0.415093
-14.2737 -13.7689 1.20213
-13.4592 -12.6845 1.86786
-13.2021 -14.1747 -0.53319
-11.8262 -14.8471 -2.21746
-13.3788 -14.2289 -0.434835
-10.819 -15.9674 -2.2946
-13.7938 -14.054 1.00064
-11.2791 -16.006 -2.43444
-13.0344 -14.8647 -0.864312
-12.651 -14.6246 -0.726367
-12.6595 -15.2224 -0.401241
-12.6222 -15.1431 -0.733509
-11.3124 -15.6848 -1.69824
-12.8896 -14.6951 0.20852
-13.6437 -14.3903 0.834991
-12.7332 -15.0412 -0.0161857
-13.3431 -14.9967 0.426222
-13.7441 -14.7714 1.21102
-12.712 -14.8081 0.224495
-13.302 -13.1749 2.5045
-12.9271 -15.507 -0.367626
-12.3261 -15.6497 -0.270407
-13.4344 -14.6417 1.41745
-15.3149 -12.4481 -2.50862
-15.0568 -12.6725 -2.66794
-16.4172 -11.9211 -1.30891
-16.4278 -12.4226 -1.21318
-15.2511 -12.7257 -1.39536
-14.3133 -13.0967 -2.1962
-15.57 -12.8125 -0.763931
-14.083 -13.3721 -2.02629
-14.1433 -13.1457 -2.17381
-15.275 -13.5053 -1.23859
-17.1223 -12.443 0.428063
-14.658 -13.252 -1.3014
-14.8045 -13.6588 -0.892045
-12.9534 -13.3271 -1.77677
-14.8543 -13.0707 -0.917424
-15.662 -13.4585 -0.164733
-15.7544 -12.789 -0.0514283
-16.1425 -12.9021 0.489287
-16.9913 -12.7737 1.17574
-17.181 -13.2729 0.69974
-16.3265 -13.3702 0.971939
-12.6188 -13.805 -2.13868
-15.9157 -13.4831 -0.286345
-15.7978 -13.209 0.486322
-15.8379 -13.6147 0.388628
-14.8394 -13.9126 -0.168869
-13.9624 -13.3362 -0.347451
-14.1284 -13.8183 -0.411304
-14.0011 -13.9156 -0.587932
-15.7478 -13.0421 1.35927
-13.7342 -14.3199 -0.816824
-15.1527 -12.7972 1.76622
-12.794 -14.3381 -1.33724
-14.5011 -13.5933 0.375407
-12.7836 -15.2585 -1.09891
-14.1252 -14.3734 0.377011
-12.7143 -12.9433 1.94596
-14.1606 -14.1563 1.20831
-13.4266 -14.3583 0.914369
-12.6196 -15.6824 -0.592274
-12.5422 -15.2534 -0.613716
-12.9326 -15.3521 -0.137746
-16.0621 -12.2637 -2.20172
-16.3024 -12.2582 -1.82549
-13.8485 -13.1137 -2.83328
-15.3532 -12.9078 -1.05608
-15.3751 -13.5598 -1.24495
-15.9184 -13.5249 -0.634495
-14.569 -13.1738 -0.61438
-15.2126 -13.5033 -0.587428
-16.5464 -12.9323 0.389687
-13.2309 -13.9355 -1.29557
-15.2236 -13.3336 -0.549638
-12.6902 -14.2336 -1.10975
-15.8525 -13.1415 0.466126
-13.8112 -13.7474 -0.693132
-13.3605 -14.1056 -0.95285
-16.923 -13.1349 1.5756
-13.4009 -14.0497 -0.739936
-16.0805 -13.6721 1.24813
-13.0843 -14.443 -0.390334
-14.2975 -14.2954 0.267717
-12.779 -14.3853 -0.555056
-12.8572 -14.6802 -0.522236
-13.8481 -14.0958 0.182882
-12.4338 -14.6366 -0.21053
-11.6333 -15.5915 -2.36895
-13.4845 -12.9984 2.31539
-13.1409 -14.8251 0.144176
-13.5592 -14.1705 0.507781
-11.9074 -14.9074 -1.35606
-13.9262 -14.4898 1.15383
-13.3378 -14.4288 0.190727
-12.9135 -15.0619 0.35688
-12.7394 -15.2597 0.427924
-14.2275 -12.7947 -2.99981
-14.3114 -12.9872 -2.27995
-16.9703 -12.614 -0.0388594
-16.6859 -12.4171 0.689434
-13.5377 -13.9453 -1.41126
-16.9661 -12.9732 1.31438
-15.6645 -13.287 1.03797
-14.6728 -13.2828 1.2324
-15.5181 -13.3706 0.848929
-14.7468 -14.2452 0.371636
-13.4836 -14.2072 0.404523
-14.5871 -14.1041 1.00533
-13.9174 -14.1539 0.491009
-13.0034 -14.0664 0.208182
-12.4192 -15.1563 -0.669819
-12.9952 -15.1276 0.417651
-15.0366 -12.0093 -2.86232
-15.9687 -12.3209 -1.70346
-13.4011 -13.1108 -2.17603
-16.4979 -12.3637 -0.299505
-15.6617 -13.0202 -0.604631
-17.0936 -12.2579 0.892768
-15.4159 -13.147 0.707426
-12.6613 -13.8884 -1.06914
-11.3453 -14.538 -1.92073
-13.6637 -14.2194 0.415822
-12.9606 -14.3531 1.25296
-15.6016 -11.6774 -2.28436
-13.5097 -13.1692 -2.18506
-14.2064 -13.2044 -1.52028
-13.9642 -13.64 -1.56091
-13.4935 -14.1345 -1.11868
-12.1939 -14.2593 -1.45454
-12.1221 -14.4487 -1.07439
-13.5383 -14.0342 -0.0348838
-13.2882 -13.98 -1.02832
-10.7088 -16.044 -2.53452
-13.6155 -14.1565 -0.729333
-12.6613 -14.6472 -0.210808
-11.5021 -15.6636 -1.13866
-14.358 -13.8006 -0.381447
-13.1634 -14.664 -0.272546
-12.5079 -15.2264 -0.474196
-12.8061 -15.5517 0.007402
-12.8617 -15.3677 0.0767446
-13.5319 -14.096 -1.17458
-13.3044 -14.4371 -1.12294
-12.7787 -14.3812 -0.0273785
-16.9588 -12.6048 0.83074
-17.2007 -12.1763 0.0058299
-16.6925 -12.4449 0.523213
-16.6291 -12.7838 -0.131529
-16.4875 -12.883 -0.217667
-16.6538 -12.9016 0.288009
-16.3195 -13.1217 0.302723
-16.6402 -13.1616 1.06718
-16.4434 -13.5095 1.12783
-16.4687 -13.1904 1.17407
-15.3654 -12.38 -0.974496
-16.1595 -12.4638 -1.09749
-16.2348 -13.0903 0.324838
-16.0267 -12.3233 -2.63
-16.1851 -12.7876 0.082991
-16.0462 -12.9498 -0.398055
-15.8791 -12.0784 -1.98252
-15.615 -11.9047 -1.94143
-16.2321 -13.1447 0.181191
-15.8164 -12.8059 -0.529262
-14.8613 -12.8019 0.597352
-16.0292 -12.6561 -1.73672
-15.7843 -13.2284 -1.35714
-15.6218 -13.1845 -0.30145
-14.4602 -12.9373 0.585691
-15.5899 -13.1082 -2.24328
-15.4363 -12.9032 -1.73143
-15.0547 -12.4962 -2.13916
-15.4395 -12.5283 -2.3861
-15.0992 -13.155 0.920695
-14.6844 -13.1977 0.109288
-15.406 -13.0068 -2.25128
-14.7081 -13.4616 -0.631201
-15.2754 -13.2957 -1.44239
-14.7153 -13.3652 -1.45476
-15.3265 -13.3168 -1.88874
-14.7481 -13.5149 -0.368818
-14.9318 -13.9983 -0.00129744
-14.1906 -14.072 0.631932
-14.9411 -13.2479 -1.05269
-14.7256 -13.3319 -1.68613
-14.5352 -13.1959 -1.93039
-15.0223 -13.0782 -1.74433
-14.5758 -13.0251 -2.13637
-14.7279 -13.8498 -0.0218387
-14.6588 -13.1889 -1.94373
-14.677 -13.8782 -2.57725
-14.785 -13.4916 -0.49099
-14.025 -13.6954 -0.223136
-14.8423 -13.5201 -0.433967
-14.0919 -13.717 0.00765849
-14.6897 -14.3347 0.101261
-14.1917 -13.7108 -0.330821
-14.211 -14.2439 1.55199
-14.4378 -13.9873 -0.0256566
-14.6905 -12.935 -2.21582
-14.7095 -13.5099 -0.782494
-12.5593 -13.2547 2.19634
-14.3855 -13.625 -0.974479
-13.7358 -13.724 -0.416525
-14.5901 -13.3177 -2.325
-14.1967 -13.0956 -2.50544
-13.7297 -13.7689 -0.745552
-13.8908 -13.2143 -2.66943
-14.3148 -13.788 -0.689249
-13.9436 -13.6132 -1.12163
-14.0769 -13.3418 -1.46111
-14.2747 -13.515 -2.68627
-13.7202 -13.6232 -1.1699
-14.3646 -14.152 0.941535
-13.8965 -14.164 -1.40321
-14.2543 -13.475 -1.42802
-13.6303 -14.4028 0.769777
-13.1892 -13.6944 -0.189405
-14.199 -14.2081 -0.516114
-13.3631 -14.5171 -0.360874
-13.7234 -13.9404 0.22045
-13.6717 -14.7742 0.850818
-13.4569 -14.3698 0.8117
-13.3464 -14.3513 -0.262855
-13.3663 -14.6481 0.064989
-13.5408 -14.5895 0.218861
-12.6631 -14.0093 -0.242087
-13.2677 -14.0529 -0.0695652
-12.9783 -14.2032 0.134651
-13.0932 -14.3749 -0.931555
-13.4974 -14.3086 -0.44139
-13.0677 -14.3346 0.280562
-13.2548 -14.6183 -1.17305
-13.0252 -14.1903 0.0320139
-13.1629 -14.5143 0.299696
-12.908 -14.9033 0.685085
-12.9053 -14.5154 0.766772
-12.9568 -13.9339 -0.981254
-12.5773 -15.0863 0.721154
-13.1891 -14.8576 -0.303275
-12.4761 -14.1412 -2.90607
-12.4392 -14.5164 -1.73993
-12.1655 -14.1045 -2.05121
-12.1303 -15.1729 -1.52237
-12.4052 -15.3657 -1.49063
-12.279 -14.9412 -0.351579
-12.018 -15.4 -1.093
-12.67 -15.2183 -1.07976
-12.2203 -15.3204 -0.879263
-12.2151 -15.0418 -0.806081
-11.583 -15.3515 -2.52574
-12.29 -14.847 -1.94914
-11.8943 -15.4796 -2.09623
-11.8371 -14.8716 -2.49061
-11.8068 -15.5251 -2.83533
-11.5469 -15.9857 -2.28466
-11.712 -15.7071 -1.72274
-11.4633 -15.6465 -2.46584
-11.5538 -15.5723 -2.37676
-11.5032 -16.28 -1.96067
-11.9902 -15.6687 -2.43379
-11.124 -15.9667 -2.70001
-17.6816 -12.22 0.601892
-17.1954 -12.6277 0.118094
-16.9368 -13.2959 1.10841
-16.7556 -12.7684 0.800549
-16.4654 -13.0967 0.375236
-16.1239 -12.6684 0.114385
-15.9233 -12.3115 -1.76723
-16.6718 -12.7527 0.0307441
-16.0578 -13.1275 0.837238
-16.2102 -12.3233 -2.05266
-16.025 -11.7581 -2.2011
-16.04 -12.3266 -2.05689
-15.8299 -12.916 -0.647487
-16.107 -13.1354 0.0335859
-15.2305 -12.806 1.20416
-14.8417 -13.0741 0.616402
-14.7639 -13.2889 0.598033
-16.0341 -12.7702 -1.37804
-15.6451 -13.4924 -0.263816
-14.8885 -12.854 0.657493
-15.2961 -12.8585 0.84414
-15.9403 -13.2705 -0.0427446
-15.6333 -12.8241 -0.349472
-15.4193 -12.9047 -0.114702
-13.196 -12.457 2.38688
-15.6167 -13.449 -0.470988
-15.2214 -13.5525 1.01458
-15.397 -12.6406 -2.30819
-13.1227 -12.4843 2.14311
-13.1802 -12.8964 2.73356
-13.3618 -12.6335 2.46036
-13.4801 -12.9226 2.19354
-14.3878 -13.4588 -0.679428
-15.1216 -13.293 0.151939
-14.9832 -12.9021 -2.3579
-14.9143 -13.738 0.145664
-14.6032 -13.2156 0.0650277
-13.5718 -12.8264 2.26161
-15.067 -13.023 -1.95145
-12.773 -13.2459 2.37096
-12.7653 -13.0752 1.77562
-12.9123 -12.9535 2.51187
-14.5119 -13.4301 0.660576
-14.5405 -13.4709 -0.325845
-14.6991 -13.4546 0.624096
-14.1745 -13.3129 1.08575
-14.8403 -13.2066 -1.15631
-12.703 -13.1775 1.90105
-14.3342 -13.2009 -1.95773
-14.3846 -12.9829 -2.44993
-14.755 -13.5029 -2.24989
-14.5076 -13.538 -1.24844
-14.939 -13.5091 0.397892
-13.3534 -12.8667 -1.36235
-12.9443 -13.5479 2.56162
-12.3201 -13.715 2.25782
-13.6808 -13.5069 -0.953798
-14.3569 -13.9247 -2.24041
-14.4604 -13.4808 -2.86201
-13.9815 -14.1026 -0.456867
-13.9911 -13.1192 -1.41099
-13.4282 -13.6556 -2.07224
-12.3457 -13.5078 2.50918
-12.5398 -13.5709 2.36319
-13.0179 -13.7598 -1.98518
-13.4787 -14.5575 1.44742
-13.1121 -14.8133 0.738373
-13.234 -14.9123 1.02445
-13.4619 -14.4194 0.444872
-13.3685 -14.41 0.10474
-13.6975 -14.5029 -0.117708
-13.2008 -14.037 0.456511
-13.1428 -14.4282 -0.500616
-13.584 -14.8183 -0.127121
-13.2905 -14.4425 -0.519981
-13.2064 -14.5804 -0.675488
-13.2721 -14.2813 1.4906
-12.6987 -14.8759 0.467714
-13.083 -15.069 1.24801
-12.8566 -14.9873 -0.00330596
-12.4883 -14.8629 -0.440225
-12.8167 -13.9437 -1.42499
-12.428 -14.6187 -1.7267
-12.6508 -15.1594 -0.118217
-12.3342 -15.5037 0.105831
-12.4476 -15.0005 -1.21937
-12.2295 -15.0168 -1.11343
-12.3857 -14.7967 -0.995542
-12.1266 -15.1134 -0.983338
-12.1407 -15.2909 -0.871969
-12.1817 -15.8467 -0.435578
-12.2557 -15.4986 -0.419435
-11.8947 -14.9405 -1.13419
-11.8073 -15.7085 -2.46383
-11.8627 -15.3339 -2.53952
-11.926 -15.6597 -2.33568
-11.8519 -15.3535 -2.21475
-11.5145 -15.1999 -2.42909
-11.5855 -15.6379 -2.69725
-11.3191 -15.3635 -2.6541
-11.8003 -15.5393 -1.51309
-11.8087 -15.1972 -1.92671
-11.6006 -15.8266 -1.9499
-11.2291 -15.3925 -2.43027
-11.493 -16.0193 -1.79898
-11.0991 -15.1578 -2.40902
-17.6527 -12.1712 1.28734
-16.3209 -13.0192 0.798562
-16.8629 -12.8392 0.43624
-16.7036 -12.514 0.324981
-16.3019 -11.9005 -1.99081
-16.1993 -13.0392 0.75143
-16.311 -12.8056 -0.00374967
-16.2245 -12.5517 -0.591225
-16.4736 -12.5908 0.133651
-16.2435 -11.74 -3.10303
-16.1432 -12.3497 -1.59326
-16.6076 -12.129 -1.66454
-15.9267 -12.5811 -1.59906
-16.1293 -12.4649 -2.43479
-15.3601 -13.2785 1.71453
-16.2378 -13.0474 0.592077
-15.9974 -11.7906 -2.25687
-15.8506 -12.8912 -0.175267
-15.5941 -12.8875 -0.704597
-16.056 -12.4387 -2.00267
-15.675 -13.642 0.39588
-13.6142 -13.3294 1.73622
-16.0237 -12.3828 -1.50395
-15.6675 -13.3103 0.404119
-15.9144 -11.997 -2.24059
-15.7965 -13.0159 -0.530655
-14.9895 -13.2829 0.869698
-15.6541 -12.9032 -0.663441
-15.4532 -12.4613 -1.57979
-15.4814 -13.0336 -1.68892
-15.3621 -13.032 -0.548228
-15.3356 -12.6274 -1.91139
-15.08 -12.6153 -2.95871
-15.2593 -13.3191 0.26749
-15.1772 -12.8766 0.562227
-13.6086 -13.1597 3.06096
-14.4453 -13.4497 0.853662
-15.0833 -13.0316 -1.45721
-12.873 -12.8297 1.6895
-14.8663 -12.5366 -2.78532
-13.175 -13.1046 2.48236
-12.6429 -12.6114 1.88704
-15.24 -13.437 -0.862909
-14.8265 -13.2894 -1.08387
-13.0112 -13.2998 2.05056
-14.8503 -13.2341 -1.02546
-14.7854 -13.3926 -0.962789
-13.9917 -13.3967 0.0255132
-12.5231 -13.3606 1.97839
-12.3523 -13.2296 3.01355
-12.9496 -14.0133 2.99524
-14.6488 -14.0638 -0.22531
-14.0619 -13.0832 -2.41442
-12.9076 -13.3578 2.31632
-12.94 -13.6202 2.14455
-12.6322 -13.1058 1.86724
-14.7121 -14.0878 -0.399131
-14.4673 -14.2054 -0.367271
-14.3082 -13.9512 -0.405819
-13.9614 -14.5145 0.959284
-14.366 -13.9669 -0.184476
-13.8589 -14.5203 -0.368643
-13.5863 -14.0781 -0.223346
-13.2551 -14.36 0.563847
-13.2933 -13.6693 -1.38963
-13.6398 -14.6804 0.491078
-13.0337 -14.2541 -0.27656
-13.5203 -15.0598 1.24104
-13.495 -14.4818 -0.0791949
-13.3321 -14.2614 -0.205939
-13.4603 -14.0814 -1.5672
-13.1907 -14.989 -0.328566
-13.1697 -14.6622 0.16915
-13.2889 -15.2162 0.0524495
-13.2486 -14.8085 -0.182877
-12.5245 -14.4491 -0.709977
-13.078 -14.9008 0.197845
-12.4053 -14.9753 -0.558333
-12.2276 -14.2967 -2.07476
-12.8838 -14.3439 -0.754492
-13.3515 -14.7126 -0.0419114
-12.678 -15.2396 -0.275611
-12.1179 -14.6434 -1.96264
-12.4154 -14.3702 -0.984231
-12.7832 -15.3033 -0.203831
-12.2671 -15.1131 -0.213996
-12.5281 -15.1056 -1.24271
-11.9955 -14.7058 -1.77221
-11.7762 -14.6721 -1.00282
-12.5151 -14.6734 -1.58093
-11.5402 -15.5061 -2.74655
-11.3707 -15.8398 -1.98929
-10.9126 -15.7704 -2.34046
-16.6392 -12.6159 0.413719
-16.7563 -12.9171 0.512433
-16.5541 -12.5112 -0.841913
-16.1675 -12.1606 -1.59167
-16.4535 -12.9579 0.0845765
-16.0094 -12.6954 -0.299318
-16.0872 -12.9024 -1.01501
-15.9616 -12.5728 -0.343588
-14.9963 -12.9556 1.37999
-15.8384 -13.7071 0.0846117
-15.6896 -13.2188 0.385745
-15.0595 -12.934 0.87988
-12.9797 -12.6216 2.3989
-15.5754 -13.4676 -0.243673
-15.7085 -13.4335 -0.391545
-14.8372 -13.4344 -0.234047
-15.0509 -12.9564 -2.37832
-14.3729 -12.4437 -2.63709
-15.0041 -13.4318 -1.41698
-14.966 -13.6584 -1.37153
-14.9486 -13.6464 -0.931704
-15.1368 -13.4255 -1.28241
-14.8411 -13.372 -1.27935
-13.8818 -14.0495 0.618317
-14.8033 -13.9392 -0.407377
-14.4789 -14.3472 -0.24643
-14.7378 -13.6378 -2.42033
-14.4477 -14.2396 -0.119871
-14.7352 -13.4961 -0.506122
-14.497 -13.5151 -0.149622
-14.1682 -13.7389 0.114456
-14.5078 -13.8675 -0.200512
-14.2144 -14.2008 -0.287058
-14.1448 -13.4173 -2.75363
-13.9085 -14.1681 -0.705956
-13.7972 -14.525 0.539472
-13.875 -13.387 -2.32685
-14.303 -14.0633 -0.495566
-13.5076 -14.4417 -0.0333727
-14.0426 -14.1731 -0.999364
-13.4148 -14.1736 -0.973103
-12.9945 -14.4074 0.707751
-11.838 -14.2938 -1.30785
-12.1893 -14.7326 -2.00172
-12.9804 -15.076 -0.447227
-12.741 -15.5822 0.135102
-12.3903 -15.7165 0.0267036
-11.5997 -15.0287 -1.13651
-12.3665 -15.7997 -1.81505
-15.7376 -12.5754 2.2151
-16.1327 -12.0093 -0.72303
-15.7042 -12.6982 -1.87738
-15.3902 -13.2244 1.82239
-16.101 -12.5906 -1.64285
-15.7087 -12.5953 -0.28592
-15.6068 -13.2904 -0.693498
-14.8516 -12.7128 -0.459551
-15.3822 -12.4031 -2.92135
-15.381 -13.5282 -1.08504
-14.7037 -12.8003 -1.64949
-14.2933 -13.2763 -0.488691
-14.6322 -13.0196 -2.03628
-14.5343 -12.8788 -2.78621
-14.7524 -13.3146 -1.85163
-14.5926 -13.0714 -2.03133
-14.7193 -14.4287 -0.102484
-14.5091 -13.4569 -2.81054
-13.9318 -13.9846 0.294217
-13.8087 -14.4719 0.598641
-13.5914 -13.7603 0.0222484
-13.3652 -14.0239 -0.3922
-13.789 -14.1359 0.527465
-13.294 -14.5087 0.367269
-13.6055 -14.8252 0.25984
-13.3696 -14.8572 0.215081
-13.0638 -14.868 -0.436907
-13.0525 -14.9201 -0.0592855
-12.9385 -15.3573 0.768339
-12.379 -15.501 0.0344638
-12.2388 -15.3233 -0.306497
-11.9284 -15.523 -0.94016
-11.4925 -15.6964 -1.84195
-17.1451 -12.5037 0.238332
-16.9967 -12.3487 0.888045
-15.9451 -12.1052 -2.07243
-15.4954 -13.0881 0.724443
-14.8134 -13.4914 -0.739611
-14.4826 -13.445 -1.13583
-13.8092 -13.5358 -0.803737
-14.1578 -13.1224 -1.60937
-13.9074 -13.1978 -2.32086
-13.9872 -13.2833 -2.78591
-14.197 -14.1462 0.165223
-13.5913 -15.1687 1.27284
-13.389 -15.3575 0.0654078
-15.1067 -12.7623 0.845467
-15.5757 -12.3736 -1.90465
-14.7385 -13.1551 0.297643
-13.1071 -12.8958 2.46778
-13.396 -13.8088 -1.25955
-13.6963 -14.1821 0.154321
-13.2926 -14.4481 1.05285
-12.8136 -14.4581 -0.492827
-12.874 -14.7907 0.521248
-12.048 -14.1699 -1.9212
-11.8264 -15.4106 -2.17848
-15.1042 -13.2689 0.720967
-14.407 -13.6057 -0.236783
-14.1829 -14.1517 -0.151891
-13.7847 -13.2936 -1.59827
-13.845 -13.7805 -0.783306
-13.4249 -13.2654 -1.56887
-13.4446 -13.8342 -1.24402
-13.4386 -13.9819 -0.568033
-13.2657 -14.4695 -0.876266
-12.3765 -14.4652 -1.23181
-13.0908 -14.751 -0.149707
-12.3902 -14.4701 -1.4381
-12.299 -14.6104 -1.00913
-15.3782 -13.0286 0.975609
-15.229 -13.067 -0.55923
-13.4452 -14.0251 -1.28687
-12.3365 -14.4403 -0.197838
-12.2446 -15.2257 -0.116581
-15.8738 -12.7952 -0.435927
-12.4794 -14.6734 -0.530442
-12.484 -14.5082 -1.15453
-12.0473 -15.1308 -2.17931
-11.7542 -14.4181 -1.50884
-14.1911 -11.8273 2.586
-13.8998 -12.8259 2.6656
-17.0542 -13.0238 1.49404
-16.4386 -12.5359 0.833141
-16.5928 -13.3777 1.11654
-16.942 -13.0073 1.52049
-16.757 -13.1282 0.726581
-13.3699 -12.2967 1.85404
-16.7484 -12.1901 0.621307
-16.8093 -12.5662 0.274926
-16.17 -12.932 0.982213
-16.3878 -13.49 0.945819
-16.317 -13.3772 0.914147
-16.4031 -13.5518 1.05207
-16.6954 -12.2986 0.122276
-17.2514 -12.2368 0.372115
-16.4657 -13.3763 0.645493
-12.9942 -13.4097 2.23819
-16.7703 -12.5211 0.252316
-16.0387 -13.1725 0.493148
-16.6073 -12.8009 0.589449
-17.1115 -12.7582 0.285986
-16.5838 -13.081 0.573599
-16.5234 -12.8445 0.109474
-14.6849 -13.3018 0.819474
-16.3791 -13.2952 0.431948
-14.9438 -13.5398 1.04554
-14.83 -13.3279 0.565533
-15.35 -13.0016 0.167432
-16.7603 -12.8084 0.0163562
-14.6061 -13.8724 0.774797
-16.1926 -13.0019 -0.457328
-16.8352 -12.4864 -0.367712
-14.1794 -14.0563 1.13144
-16.1209 -12.4174 -0.424626
-15.8905 -12.7092 -0.278913
-15.9513 -12.2244 -0.203363
-16.1208 -12.3764 -0.781462
-16.1051 -12.5359 -0.553625
-15.4961 -12.8616 -0.651991
-15.8522 -12.3622 -0.903472
-14.038 -14.3515 0.946479
-15.1499 -13.2897 -0.162389
-15.1392 -13.6641 -0.276567
-15.2448 -13.4101 -0.189796
-16.3026 -12.4375 -0.938578
-14.3252 -13.8461 0.0986228
-16.756 -11.8169 -1.74045
-15.8312 -13.0404 -0.739592
-16.1781 -12.0648 -1.35156
-16.073 -13.2146 -0.998741
-15.5206 -12.9619 -0.791099
-13.6545 -14.1784 0.139198
-14.0341 -13.9294 -0.0459934
-13.0934 -13.8288 -0.0533453
-13.2246 -15.057 0.739164
-15.0853 -13.109 -1.22066
-14.0074 -14.0182 -0.244817
-16.1285 -12.3992 -1.84505
-14.3288 -13.7659 -0.112975
-16.179 -12.32 -1.67581
-15.0408 -12.8332 -1.0905
-14.1558 -13.6692 0.103301
-15.9075 -12.2434 -1.50312
-15.5372 -13.2034 -0.7969
-14.4707 -13.6291 -0.753615
-15.519 -12.5544 -1.0549
-15.5007 -13.1842 -1.61168
-15.1923 -13.4112 -1.25759
-14.5394 -13.8278 -0.857154
-15.5905 -12.4837 -1.40411
-15.1932 -13.2977 -1.06342
-14.1403 -14.0501 -0.827171
-14.547 -13.746 -0.428894
-15.7404 -12.3103 -1.70015
-14.2977 -13.6968 -0.583655
-15.9953 -12.1619 -2.61133
-16.4817 -12.0359 -2.30993
-14.1112 -13.2353 -0.633626
-13.2182 -14.7312 0.014997
-13.3292 -14.2879 0.861395
-12.6447 -15.0303 0.267114
-13.3236 -14.4281 0.120334
-14.9049 -13.1761 -1.06812
-13.0664 -14.2656 -0.161835
-15.2278 -12.8417 -1.59466
-14.2251 -13.4702 -1.01742
-14.6329 -13.7204 -1.07012
-14.3657 -13.3382 -1.40272
-15.8056 -12.0653 -2.28349
-13.6097 -14.5358 -0.517317
-14.8135 -13.1666 -1.45152
-15.337 -12.9716 -1.64355
-14.5097 -13.9795 -1.22255
-15.0588 -12.7993 -1.45163
-13.6892 -13.9371 -1.01691
-14.4534 -13.924 -0.970562
-16.1472 -12.0577 -2.18205
-16.2425 -12.0329 -2.6924
-15.7251 -12.1328 -2.8381
-15.7942 -11.5802 -2.43179
-15.11 -12.7901 -2.31028
-14.7 -13.255 -1.87664
-14.73 -12.9335 -2.23825
-14.125 -13.8183 -1.37212
-13.9365 -13.5092 -1.43038
-14.3938 -13.0719 -1.65098
-14.9886 -13.0964 -1.57101
-15.0285 -12.8631 -2.16287
-15.2773 -12.5692 -2.15007
-15.2049 -12.3668 -2.62087
-13.787 -13.6853 -1.48109
-14.0516 -13.4005 -1.35
-12.7838 -14.4906 -0.693466
-15.0497 -12.6899 -2.34409
-13.3713 -13.9625 -0.650879
-15.2276 -12.675 -2.08901
-14.7671 -12.9497 -2.77556
-14.0428 -13.6897 -1.78218
-14.2778 -12.7204 -2.21515
-15.0106 -12.7576 -2.85306
-14.344 -12.9975 -2.39133
-14.5072 -13.2173 -2.36557
-14.1264 -12.7777 -2.42721
-14.3341 -12.7424 -3.32862
-14.1914 -13.3782 -2.24
-14.0669 -13.8663 -2.47762
-14.4436 -13.7621 -2.85237
-12.3118 -15.2168 -0.674598
-12.3661 -14.7447 -0.750829
-14.0187 -13.5764 -2.37419
-14.0834 -13.7 -2.6531
-12.1403 -15.4422 -1.09722
-12.5147 -14.9748 -0.65063
-13.9417 -13.7453 -2.23477
-12.6833 -13.9053 -1.10333
-12.2085 -15.2621 -1.26877
-12.0219 -14.7547 -1.48237
-12.4329 -14.9862 -1.39817
-12.088 -14.6527 -1.36193
-11.984 -14.538 -1.54522
-12.617 -13.7214 -2.66793
-12.3795 -14.2093 -2.34846
-12.4679 -13.9877 -2.40494
-12.6845 -13.7123 -2.19953
-12.4038 -13.9147 -2.00989
-11.9909 -14.3102 -1.79597
-11.5408 -15.9171 -2.26831
-11.0328 -15.9554 -2.16949
-11.3012 -15.7092 -1.83379
-11.2575 -15.3712 -2.3767
-11.6973 -15.4254 -2.40759
-11.4293 -15.4778 -2.39079
-13.6118 -12.8143 2.4136
-16.4341 -13.2256 0.945556
-16.6368 -13.0006 1.18037
-17.0488 -13.0174 0.951061
-16.581 -13.0822 1.14803
-16.676 -13.0544 1.03962
-16.4678 -13.0164 1.25427
-13.4027 -13.1226 1.9782
-12.9199 -12.9668 2.48666
-13.4298 -13.0552 2.13471
-12.5792 -12.8326 2.08008
-17.0124 -12.5398 0.385653
-13.2554 -12.9586 2.35792
-16.5571 -13.2944 1.23896
-17.032 -12.4662 0.146988
-16.6212 -12.11 0.440971
-16.9013 -12.5199 1.06861
-12.8441 -13.1252 2.18597
-13.0048 -13.2271 1.96379
-16.842 -12.476 0.261052
-12.8815 -13.5222 2.61157
-16.3478 -12.9938 0.519933
-12.8009 -13.2968 2.20841
-16.6917 -12.6295 0.47325
-13.0407 -12.9348 1.87073
-12.439 -13.381 2.30153
-13.1266 -13.1594 2.32616
-15.3919 -12.9296 0.796193
-16.294 -13.1359 0.480524
-15.355 -12.9942 0.834499
-16.2438 -13.0704 0.0740354
-16.4173 -12.7107 0.115682
-15.1684 -13.8544 1.15748
-12.5466 -13.7408 1.78501
-15.0316 -13.0825 1.05173
-16.1867 -13.4287 -0.111082
-14.9025 -12.8807 0.272531
-14.873 -13.1724 0.553877
-14.8899 -13.3916 0.457662
-14.5675 -13.764 0.890504
-13.9675 -13.8417 0.798798
-14.2945 -14.148 1.37893
-14.6812 -13.9015 0.750555
-14.5043 -13.7938 0.958523
-13.8717 -14.3776 1.05843
-14.3022 -13.1768 0.487218
-15.5359 -13.4687 -0.261314
-16.0647 -13.4623 0.0256804
-16.636 -12.4313 -0.872995
-16.06 -13.1484 -0.164026
-15.7435 -12.0526 -1.0408
-16.4975 -11.9688 -0.560239
-13.5124 -14.176 1.37359
-13.8946 -14.625 0.548757
-16.4349 -12.0476 -0.874498
-16.3189 -12.148 -1.2987
-14.7422 -13.8813 0.701761
-14.9079 -13.6482 0.0421828
-15.1553 -13.5499 0.439559
-15.813 -12.7787 -0.572559
-13.5082 -14.7982 1.44341
-16.3426 -12.6529 -0.748628
-15.1115 -13.1837 -0.215391
-14.724 -13.5165 -0.447162
-16.0203 -12.3046 -0.92142
-13.0002 -14.2713 1.06375
-13.1117 -14.8668 0.761523
-16.222 -11.9347 -1.20703
-16.181 -12.0485 -1.17642
-14.5685 -13.901 0.223096
-14.7472 -13.5903 0.151231
-14.6225 -13.6952 -0.308008
-15.032 -13.9234 -0.017218
-14.6683 -13.8068 0.00335056
-16.1428 -12.5988 -1.87903
-13.979 -14.2564 0.0330108
-16.3278 -12.4388 -2.39781
-15.8224 -12.2332 -1.49838
-15.3013 -11.9702 -1.74057
-14.9515 -13.0235 -0.834729
-15.4491 -12.8691 -1.03571
-15.7395 -12.917 -1.09513
-15.5956 -12.5956 -1.87643
-14.9961 -13.8575 -1.37852
-15.7588 -13.1429 -1.2712
-13.4971 -14.143 0.650336
-14.7998 -13.5578 -0.354498
-14.626 -13.2098 -1.45612
-14.7513 -13.4444 -0.961225
-15.7337 -11.9689 -2.1694
-15.7469 -12.1318 -1.89346
-14.8647 -13.2427 -1.07547
-16.0604 -12.6885 -1.94532
-16.1631 -12.2467 -2.29467
-16.1827 -12.1529 -1.88243
-15.86 -12.5763 -1.98641
-16.6368 -12.1529 -1.76901
-15.4012 -13.0989 -2.11312
-16.0268 -12.48 -2.10305
-16.3628 -12.5258 -2.20474
-13.8428 -14.1163 -0.330708
-14.7327 -13.4131 -0.438456
-13.6981 -14.2478 -0.128574
-15.9899 -11.7263 -2.50627
-14.4073 -12.3197 -1.35408
-15.2308 -12.8654 -1.71358
-15.7163 -11.6453 -2.84392
-15.4049 -12.5974 -2.3674
-15.3173 -12.7673 -2.28217
-15.0375 -12.2312 -2.30397
-13.1046 -14.6221 -0.226692
-14.9904 -13.2297 -2.21772
-13.0056 -14.4609 -0.561642
-14.9785 -12.147 -3.02659
-15.489 -13.4294 -2.04752
-15.1488 -12.8638 -1.9175
-13.5844 -13.7773 -1.40348
-14.2451 -13.0471 -2.20889
-14.7463 -12.8484 -2.31576
-14.704 -13.1773 -2.48179
-14.3298 -13.1637 -2.1837
-13.2356 -13.3434 -1.49575
-13.4945 -13.9297 -1.35133
-12.9659 -13.8474 -1.88635
-14.4675 -13.4358 -2.57704
-14.6025 -13.0528 -2.67172
-12.2373 -15.1829 -0.067042
-12.6684 -15.2146 -0.714704
-11.9288 -15.2207 -0.604945
-11.7029 -15.5148 -0.578416
-12.8999 -13.2593 -1.45531
-13.4465 -13.4168 -2.13935
-12.8058 -13.8525 -1.46238
-12.3791 -15.0467 -1.28372
-12.3421 -15.4155 -1.33377
-12.5551 -14.8491 -1.62849
-12.2717 -14.2957 -1.56146
-12.0987 -14.475 -1.55706
-11.8631 -15.1522 -1.21433
-12.2812 -14.7156 -1.54176
-12.2774 -14.1789 -1.64404
-11.3891 -15.6794 -1.63729
-12.579 -14.0418 -1.85856
-11.7925 -14.9034 -2.23792
-11.7084 -15.722 -2.53434
-11.4396 -15.5194 -1.84511
-12.2823 -15.0827 -2.8417
-10.9898 -15.8329 -2.65748
-11.4808 -15.8824 -2.15585
-11.9101 -15.5465 -2.6122
-11.8694 -16.0572 -2.51229
-11.5002 -15.8401 -2.44071
-11.1877 -15.6289 -2.5073
-11.4532 -15.5755 -3.03289
-15.3999 -12.8474 1.80973
-17.0248 -12.7085 0.779904
-13.3583 -12.5038 2.67248
-17.1451 -12.4458 1.03104
-12.7097 -13.0664 1.85895
-16.2876 -13.034 0.892184
-12.7696 -12.6602 2.82858
-16.3846 -13.3442 0.824817
-16.9904 -12.4254 0.736843
-16.7716 -12.8391 0.560649
-13.2224 -13.4248 2.24643
-16.5619 -12.6957 0.129457
-12.4498 -13.3534 2.56477
-12.9339 -13.2948 2.30133
-12.4418 -13.2103 2.39351
-16.9385 -12.3717 0.167202
-16.7613 -12.7606 0.122174
-16.6907 -12.7973 0.496762
-12.8375 -13.3069 2.45518
-17.151 -12.3301 -0.162882
-16.8696 -13.3534 0.242183
-12.9874 -13.7884 2.23793
-16.0802 -12.8709 -0.319378
-15.2863 -12.637 0.421744
-15.1709 -13.6698 0.414448
-16.2041 -12.7404 -0.064136
-16.3694 -12.8372 0.340321
-16.5132 -12.3853 -1.13687
-14.1183 -13.5352 1.26738
-14.0543 -13.4719 0.91456
-14.9208 -13.8867 1.05187
-15.1212 -13.6422 0.157591
-15.8629 -12.4379 -0.534845
-13.7264 -14.5634 1.13899
-16.912 -12.1974 -1.29896
-13.9022 -14.2515 1.16743
-16.5891 -12.0065 -1.4302
-15.5991 -13.3525 -0.794336
-16.0692 -12.2156 -0.849371
-15.319 -12.5395 -0.537358
-12.9332 -14.528 1.10713
-16.3073 -12.0624 -1.33712
-16.2872 -12.487 -1.16357
-14.6051 -13.8312 0.148568
-16.1639 -11.815 -1.85275
-14.1026 -13.7608 -0.0030967
-13.9576 -13.7828 -0.21094
-15.69 -12.5362 -1.49538
-15.642 -12.7197 -1.63563
-13.3103 -14.1914 0.139395
-15.1712 -13.4492 -1.7112
-15.2738 -13.2604 -1.29766
-16.0908 -12.0941 -1.7386
-13.9779 -14.1795 -0.798201
-14.1566 -13.7377 -0.545444
-15.8537 -12.8471 -1.82333
-14.2946 -14.0086 -0.713876
-12.9597 -15.1822 0.333708
-12.8516 -15.0381 0.369029
-13.6583 -14.8355 -0.213136
-16.1177 -12.4497 -2.32827
-16.2151 -12.5245 -2.08368
-15.6098 -10.9787 -2.9674
-15.5864 -12.6907 -2.12362
-15.4574 -13.1353 -2.15371
-15.2241 -12.8341 -2.37251
-13.9658 -13.722 -1.13336
-14.4747 -12.9171 -2.56455
-14.4641 -12.7621 -2.07263
-12.36 -14.5414 -0.150025
-14.7955 -12.6527 -2.02645
-15.0721 -13.5203 -2.06911
-11.9758 -15.3006 -0.501733
-14.3553 -13.3615 -1.89203
-12.9098 -13.5245 -1.59675
-13.1897 -14.1025 -1.31209
-12.672 -14.5856 -1.02063
-13.891 -13.3028 -2.84939
-13.2745 -13.193 -1.88376
-13.2771 -13.3316 -1.60217
-13.3384 -13.6676 -1.2188
-14.7493 -13.3372 -2.43392
-12.6274 -14.0989 -1.39325
-12.6839 -14.3971 -1.60435
-12.3902 -14.7473 -2.02393
-12.466 -14.6621 -1.25415
-13.3348 -13.9183 -2.27059
-11.5138 -15.5359 -1.96197
-12.1953 -15.4186 -2.29348
-11.7091 -15.6662 -2.5376
-11.2509 -15.1857 -2.28827
-12.4884 -13.4707 2.85248
-15.6158 -13.553 1.80527
-17.1225 -12.9773 0.219409
-16.4852 -13.3441 1.14223
-16.7576 -12.8466 0.831574
-17.2591 -12.4989 0.750437
-15.3015 -13.2253 1.4412
-13.0544 -12.9156 2.08669
-16.0716 -12.9061 0.893851
-16.2494 -12.1518 0.218048
-15.2403 -13.0017 0.448415
-16.2066 -13.1915 0.0239547
-15.7823 -13.4316 0.264045
-14.651 -13.6656 1.00605
-15.8575 -13.6892 0.550871
-16.1394 -13.5995 -0.298167
-16.2488 -12.5923 -0.488163
-14.2357 -13.4544 1.08518
-15.0125 -13.2791 0.257129
-16.7371 -12.2162 -0.710649
-14.3893 -13.8052 0.64551
-16.1196 -12.6466 -0.499411
-13.7763 -14.5358 0.627746
-14.5689 -12.624 -0.253791
-13.265 -14.5564 0.913321
-15.5904 -13.0283 -1.13399
-14.5221 -13.8826 -0.890056
-13.2872 -14.4227 0.445693
-16.0797 -11.8994 -2.2477
-14.2134 -13.7956 -0.239354
-14.7393 -13.5873 -1.32228
-15.2167 -12.9212 -1.1563
-14.4739 -13.7696 -0.983408
-12.9702 -14.5835 0.410145
-15.3605 -12.5523 -2.47674
-13.5017 -14.0675 -0.852647
-15.965 -11.9873 -2.43043
-12.8238 -14.564 -0.168761
-14.733 -13.9202 -1.7201
-12.4488 -15.1111 0.2684
-12.4093 -15.1081 0.112478
-15.072 -12.5484 -2.83147
-13.3125 -13.9333 -1.0472
-12.8634 -14.7644 -0.933782
-12.9241 -14.6375 -1.01566
-13.0781 -13.872 -1.40332
-14.2293 -13.5159 -2.77877
-13.896 -13.1431 -2.87828
-12.5143 -14.5575 -1.468
-12.554 -13.7417 -1.8325
-11.7389 -15.7165 -1.90351
-11.8597 -15.0985 -2.35268
-11.7345 -15.2119 -2.71237
-11.3368 -15.6044 -2.66345
-16.1393 -12.1258 1.74204
-17.2909 -12.2554 1.4267
-16.3588 -13.121 1.22684
-15.1318 -12.7783 1.55624
-16.4699 -13.2846 0.891857
-16.5683 -13.2358 0.829516
-15.385 -13.1112 1.32225
-16.257 -12.3856 -0.82215
-15.9815 -13.5103 -0.121541
-13.5538 -14.4579 1.07201
-16.3736 -11.9266 -1.03849
-13.7888 -14.4099 1.05402
-13.8447 -14.3027 0.716743
-13.55 -13.9205 0.628006
-13.5697 -14.7265 1.06358
-14.3485 -13.9394 0.538372
-15.7833 -12.401 -0.96685
-15.3926 -13.0483 -0.957469
-13.9929 -14.212 -0.110315
-14.0176 -14.0724 -0.00131673
-15.0745 -12.6428 -1.30477
-15.5622 -12.6279 -1.13736
-12.8554 -14.2299 0.293366
-13.495 -14.8983 -0.00739729
-16.1355 -11.8482 -2.34835
-14.3562 -13.4954 -1.58835
-13.3659 -14.3496 -0.473997
-14.6642 -13.331 -1.89274
-14.7394 -13.4044 -1.4125
-14.6232 -12.9397 -1.91083
-14.616 -13.0793 -1.65972
-14.7364 -12.8883 -2.00532
-13.8668 -13.5608 -0.814037
-15.3153 -12.2546 -2.50712
-14.8353 -12.3538 -2.88637
-12.9552 -15.1327 -0.183557
-15.3522 -12.9207 -2.25093
-13.7111 -13.2986 -1.45472
-13.1166 -14.1514 -0.757936
-13.2127 -14.1914 -1.30353
-13.3301 -13.8947 -1.36756
-13.3982 -13.3797 -1.09501
-13.0257 -13.6589 -1.69904
-13.4146 -13.7088 -1.42098
-14.1898 -13.4917 -2.84414
-13.3324 -13.7405 -1.61452
-12.8645 -14.0981 -1.69773
-14.4426 -13.1957 -3.1063
-14.6653 -13.4537 -2.61235
-12.8382 -14.6159 -1.38026
-13.1171 -13.503 -2.07431
-12.7671 -13.9906 -1.57314
-11.9529 -14.6861 -1.83188
-12.4063 -14.7742 -1.90671
-11.7322 -16.0546 -1.90457
-11.8057 -15.4128 -2.55214
-12.765 -13.4158 3.15103
-15.3484 -13.259 1.67395
-17.029 -12.6168 0.730128
-16.5566 -12.6622 0.0785516
-13.9288 -14.3345 0.763079
-15.3749 -13.5584 0.322381
-13.9826 -13.9667 0.879725
-16.3188 -12.525 -1.12269
-15.9483 -12.7639 -0.362167
-14.7221 -13.3219 -0.394319
-15.9549 -13.4266 -0.617878
-16.2581 -12.7688 -1.56422
-15.1494 -13.459 -0.355727
-13.2985 -14.8869 1.10408
-13.6869 -14.2618 -0.133299
-13.2737 -15.0196 0.421094
-13.0036 -14.6642 0.431023
-13.0878 -14.8604 0.194775
-13.2516 -15.5411 0.0971336
-15.0988 -13.8014 -1.89121
-14.15 -13.6642 -0.970163
-13.9141 -13.425 -1.33063
-12.8406 -15.318 -0.454051
-13.271 -13.9435 -1.27209
-13.3626 -13.8369 -1.73986
-14.086 -13.0386 -2.56916
-13.4083 -13.8606 -1.70872
-12.1242 -14.8141 -1.57748
-13.073 -13.1761 -2.43833
-11.8473 -14.2096 -2.01158
-11.9384 -15.6458 -1.89641
-16.9217 -12.8378 0.915612
-15.6661 -13.1431 -0.0429191
-14.5118 -14.2038 0.402028
-16.2789 -12.4013 -0.747194
-13.2315 -14.3909 0.597351
-13.9207 -13.3842 -0.949324
-13.7349 -13.7131 -0.70413
-15.195 -12.5873 -2.35472
-12.5441 -15.5653 -0.169747
-12.1519 -15.1909 -0.414873
-12.9558 -14.0042 -1.94942
-11.6551 -15.1731 -1.83715
-12.5447 -13.6494 -1.90541
-12.7417 -13.5393 2.22412
-16.0613 -12.5851 0.466314
-13.8771 -13.3231 -0.570599
-13.9333 -14.2181 0.0662094
-13.1861 -14.5954 -0.336793
-14.4884 -13.0593 -2.05535
-12.3189 -15.0969 -1.02744
-13.0882 -14.2711 -1.49059
-12.0249 -14.616 -1.85978
-12.8811 -14.6965 1.06653
-13.193 -14.667 0.952109
-15.4918 -12.7887 -0.58447
-14.2141 -13.5146 -1.03619
-14.2748 -13.2625 -1.80774
-13.2227 -14.1039 -0.962276
-16.2001 -13.1949 0.676539
-16.0808 -13.6184 -0.579902
-14.879 -13.1644 -0.408139
-12.3813 -14.3252 -1.36245
-13.0383 -13.5736 -1.54815
-15.1527 -13.3657 -0.260461
-13.8828 -13.7446 -0.791854
-13.6789 -14.3641 0.257423
-13.0648 -14.8315 0.318756
-12.1499 -14.4083 0.0909715
-11.9462 -15.1908 -0.734101
-12.9137 -14.5178 -0.758744
-11.3915 -15.9481 -2.46838
-12.9173 -14.3842 -1.58045
-11.6709 -15.8588 -1.96688
-13.006 -13.3237 -2.33549
-14.2001 -13.7383 -2.33947
-15.4703 -12.1116 -2.64972
-15.1445 -12.463 -2.83451
-14.4481 -13.5244 -2.55264
-11.5094 -15.6993 -2.03425
-11.8117 -15.3936 -2.17552
-15.0485 -12.6157 -2.59204
-13.7609 -13.431 -2.06639
-14.4592 -13.3826 -2.23446
-14.9793 -13.3209 -2.19163
-14.3106 -12.9962 -2.25748
-14.5894 -13.0843 -2.37533
-14.6708 -12.4288 -2.44621
-12.6496 -14.252 -1.1679
-15.0957 -12.5241 -2.34565
-15.6377 -12.4352 -2.16494
-15.8789 -12.2683 -2.08072
-15.9418 -12.6529 -2.45456
-15.5343 -12.7921 -2.20922
-12.0435 -14.5746 -1.1055
-15.8392 -12.2155 -2.10791
-15.156 -13.2457 -1.95775
-11.9717 -15.2371 -1.42729
-14.8247 -12.831 -1.60237
-15.261 -13.0146 -1.51774
-14.6509 -13.1673 -1.60707
-15.1893 -12.7563 -1.66242
-16.0786 -11.9901 -1.62763
-14.8944 -12.3096 -2.03964
-15.425 -12.7179 -2.03693
-15.6086 -12.2525 -1.53014
-15.7071 -12.1223 -2.19446
-12.201 -14.8966 -0.89679
-16.0868 -12.2635 -1.18632
-15.7059 -13.1176 -1.60407
-15.6402 -12.0449 -1.72103
-14.9574 -12.9749 -1.34974
-14.8338 -12.9789 -1.6482
-12.5484 -15.8044 -0.602637
-14.1296 -13.7762 -1.23771
-16.5343 -12.1724 -1.64591
-13.7967 -13.7649 -0.692354
-15.0468 -13.1042 -1.33994
-14.394 -13.568 -1.04575
-15.7188 -13.2955 -0.849381
-15.9344 -12.8156 -1.05274
-15.8353 -12.4478 -1.03743
-16.3853 -12.3152 -1.01208
-15.5844 -13.1481 -1.29564
-15.3893 -12.7324 -0.8498
-15.3837 -12.5577 -1.11658
-12.6187 -15.3715 -0.451687
-14.6418 -13.6727 -0.500717
-12.9363 -14.609 -0.669884
-12.496 -15.335 0.148629
-12.401 -14.5597 -0.110487
-13.0053 -14.7185 -0.0473552
-13.4309 -13.8259 -0.219891
-13.5428 -14.8579 0.200337
-16.3802 -12.7892 -0.405072
-16.282 -12.5086 -0.976699
-16.3262 -12.6654 -0.402333
-13.4245 -14.9217 -0.250786
-14.4341 -13.9077 -0.0925326
-12.7951 -15.2872 0.029397
-14.5656 -14.6455 -0.602354
-14.0005 -13.6451 -0.166064
-12.597 -15.5724 0.246254
-15.3645 -13.6054 -0.108331
-15.4847 -13.1976 0.0677332
-13.0841 -14.9068 0.355483
-13.9946 -14.498 0.128354
-13.7573 -14.4726 0.0341281
-13.5678 -14.6622 0.606367
-13.8726 -14.1575 0.0996532
-16.1037 -13.255 -0.238543
-16.2268 -13.1962 0.0521027
-17.2149 -12.1642 -0.224819
-16.0107 -13.1717 0.0277535
-17.3924 -12.5884 -0.288593
-16.0699 -13.1357 -0.0210773
-16.7546 -12.3555 -0.0250446
-16.225 -12.6454 -0.0679761
-16.4237 -12.8689 0.118117
-16.0525 -13.0144 0.312378
-15.9413 -13.3563 0.969246
-15.1906 -12.956 0.508602
-14.947 -12.8443 0.966851
-12.4126 -14.699 1.14236
-14.0546 -13.1105 0.664153
-12.8008 -14.6396 0.906391
-16.3335 -13.0355 0.824527
-16.2169 -13.2949 0.335586
-16.6875 -12.9446 0.57273
-16.2583 -12.7325 0.148779
-14.9767 -12.7244 0.756308
-15.2334 -13.1009 0.814548
-14.1326 -14.0277 0.912637
-14.7478 -13.1971 0.834213
-13.0478 -14.8851 0.911092
-16.1832 -12.649 0.909613
-14.1578 -14.0251 1.25187
-13.8866 -14.4932 1.54155
-14.978 -13.1588 0.961095
-16.7529 -12.988 0.749043
-17.1612 -12.818 1.27193
-16.5352 -13.1544 1.8857
-16.3513 -13.2992 1.25094
-17.3802 -12.3922 1.36642
-16.1695 -13.2554 1.34717
-16.2456 -13.2899 0.862662
-12.8368 -13.0815 2.28609
-13.5095 -12.7948 2.47073
-16.4347 -11.7329 1.81609
-11.9398 -15.2411 -2.58659
-11.8286 -15.3933 -2.51647
-12.6662 -14.1906 -2.57717
-12.124 -14.0696 -2.55726
-11.098 -15.4382 -1.9791
-11.6125 -15.2014 -2.28441
-14.3138 -13.5972 -2.84888
-14.4028 -12.7781 -2.58395
-12.6361 -13.9813 -1.79469
-14.6534 -13.4894 -2.0196
-15.3903 -12.3118 -2.47965
-14.8476 -12.8092 -2.51436
-14.64 -13.102 -2.62704
-15.795 -11.9611 -2.69106
-15.4821 -12.8025 -2.08415
-15.024 -12.8507 -1.95045
-14.5215 -13.1691 -2.13335
-14.3641 -13.1194 -1.7309
-12.2641 -14.995 -1.36868
-15.7934 -12.7874 -1.62383
-15.8548 -12.1752 -1.42551
-15.6609 -12.9396 -1.86824
-14.5956 -13.19 -1.16517
-14.4126 -13.3392 -0.885143
-15.8883 -12.1992 -0.394058
-15.004 -13.2686 -1.28871
-14.9663 -13.2399 -1.09347
-15.2235 -13.5875 -1.34391
-13.3064 -14.9281 -0.564424
-15.7312 -12.954 -0.887544
-16.4247 -12.4354 -1.12861
-16.0933 -13.3093 -0.799153
-14.9307 -13.2918 -0.121282
-14.3862 -13.5167 -0.162986
-13.33 -14.8108 -0.0405188
-13.422 -14.7013 0.327601
-14.2421 -13.687 0.394576
-14.4052 -14.2912 -0.0603336
-12.9892 -15.062 0.448808
-14.4357 -13.8713 0.251669
-16.3204 -13.0508 -0.247878
-14.2809 -14.4769 0.313487
-15.9765 -13.029 -0.14622
-15.6319 -13.1407 0.0504873
-16.6299 -13.2853 0.769718
-16.4482 -12.8796 0.414834
-14.7517 -13.8855 0.690811
-14.0545 -14.5335 1.19836
-13.6889 -13.7502 1.45741
-14.5851 -13.2729 0.582245
-15.1473 -13.3952 0.741834
-13.5192 -14.3482 1.24773
-15.2152 -13.7861 0.595876
-13.3677 -14.2164 1.4516
-14.4977 -14.4125 0.913511
-13.6078 -14.6089 1.13531
-16.3747 -12.987 0.708853
-16.4666 -12.2315 0.932088
-16.8441 -12.2956 0.864667
-16.8239 -12.7379 0.991875
-16.8757 -13.0879 0.398135
