-13.659 -14.7593 1.13938
-14.1315 -13.6255 1.06688
-13.7721 -14.3199 1.25029
-13.7104 -14.1598 1.69411
-13.744 -13.8976 1.28695
-16.2836 -12.669 0.426372
-13.227 -13.9564 1.41979
-13.0663 -15.1355 1.58018
-16.3845 -12.4598 0.622491
-16.4168 -12.6907 0.922802
-16.4068 -13.0937 0.472785
-13.45 -13.4869 1.08893
-15.701 -12.7599 0.709249
-14.3519 -13.929 1.0904
-16.7699 -13.1439 0.95407
-13.8919 -13.1969 0.958613
-16.1022 -12.9551 0.256039
-14.5412 -13.4891 0.593873
-16.3627 -12.5674 0.372444
-16.5567 -12.5617 0.0164266
-15.7505 -13.3995 -0.0015161
-15.5994 -13.3006 0.53038
-16.4967 -12.806 0.1966
-16.2394 -12.4909 0.320868
-16.5277 -12.5645 0.134527
-14.6024 -13.0798 0.267099
-14.6403 -13.4338 0.201185
-14.9936 -12.9279 -0.441555
-13.2317 -14.1196 0.577217
-14.9084 -13.572 0.959037
-12.7326 -15.3566 1.11685
-14.821 -13.6728 0.680826
-15.5916 -13.3102 -0.203186
-16.0766 -13.0692 0.387154
-13.2044 -14.1538 -0.00148091
-15.892 -13.4428 -0.412754
-13.175 -14.3452 0.436646
-13.6984 -14.1169 0.886159
-15.2613 -13.443 0.277055
-13.975 -14.5875 0.809187
-13.5724 -14.2115 0.757452
-13.779 -14.6969 1.11584
-13.3894 -14.9337 0.501131
-12.9238 -14.9506 0.468524
-12.606 -14.9268 0.452466
-12.643 -14.8239 0.454144
-13.0133 -14.8161 0.415675
-12.9567 -15.0511 0.156411
-14.4267 -13.7927 -0.149249
-12.5366 -14.7713 0.0705705
-12.8733 -14.6632 0.229124
-13.7101 -14.4142 0.570932
-13.4306 -14.3227 0.138496
-15.3812 -13.1034 0.150795
-14.4064 -13.6325 -0.0657139
-13.4763 -14.5511 -0.0616224
-15.8194 -13.1336 -0.599277
-13.164 -14.2463 -0.880824
-15.9695 -13.0299 -0.343726
-15.8861 -12.5171 -0.505911
-16.0729 -12.6756 -0.868483
-15.8288 -12.6533 -0.824281
-15.9705 -12.9289 -0.250967
-16.2854 -12.763 -0.968569
-14.0777 -14.4315 -0.074102
-15.7961 -12.6024 -1.18302
-15.8615 -12.635 -1.12484
-16.3183 -12.467 -1.73873
-16.4218 -12.242 -1.50223
-15.9364 -12.3259 -1.3343
-15.6271 -13.2669 -1.36982
-13.49 -13.8323 -0.820635
-15.6606 -12.632 -1.45301
-13.8181 -13.5897 -0.915812
-12.3551 -15.5419 -0.563254
-15.4363 -12.5117 -1.53531
-15.122 -12.7037 -1.84032
-13.5597 -14.4017 -1.34672
-14.8963 -13.7095 -1.89808
-14.379 -13.7941 -0.845027
-14.3379 -13.8718 -0.94274
-16.0135 -12.5253 -2.23606
-14.9219 -13.1313 -1.70492
-15.8355 -12.3993 -2.01321
-15.2192 -12.5115 -1.75858
-14.3698 -13.2341 -1.71248
-14.5713 -13.5329 -1.97017
-15.595 -12.1224 -2.30237
-15.7924 -11.707 -2.01893
-15.6144 -12.7247 -2.40183
-14.4569 -13.6745 -1.80526
-15.4762 -12.7739 -2.49288
-15.3185 -12.6003 -2.28291
-14.334 -12.9249 -2.17983
-14.4795 -13.035 -2.00892
-15.5199 -12.3606 -2.2587
-15.2831 -12.3532 -2.50423
-15.0506 -12.5164 -2.36788
-14.5353 -13.6065 -2.11797
-12.6005 -14.059 -1.30724
-14.0474 -13.6094 -1.95321
-12.6506 -13.7213 -1.76127
-15.2118 -12.048 -2.58187
-13.9933 -14.0735 -1.96603
-15.4773 -12.7148 -2.6107
-11.5527 -16.0842 -1.30924
-14.8734 -12.1666 -2.45563
-15.2618 -12.0001 -2.36991
-15.1577 -12.5488 -2.37787
-15.048 -12.5404 -2.43012
-15.1678 -12.8839 -2.60237
-15.3402 -12.6467 -2.42437
-15.2369 -12.8104 -2.46052
-14.6832 -13.9689 -2.11745
-15.1633 -12.494 -2.73463
-15.1644 -12.4871 -2.96505
-13.8605 -13.7702 -2.45102
-13.0436 -14.0622 -1.61918
-14.1569 -13.6816 -2.32964
-15.5729 -12.4638 -2.9023
-14.8829 -12.99 -2.95102
-14.7123 -12.5287 -2.76838
-14.4583 -12.8919 -3.18269
-15.1398 -12.6073 -2.47309
-14.2496 -12.9276 -2.29884
-13.467 -13.8102 -2.44025
-11.6891 -16.0811 -2.06224
-14.2645 -13.7355 -2.76317
-11.2503 -15.9035 -2.21693
-11.244 -16.2408 -1.57355
-11.3699 -15.8763 -2.32024
-11.8914 -15.4564 -2.74664
-10.9149 -16.483 -2.3962
-11.9032 -13.084 2.61028
-12.0412 -13.2313 2.75654
-15.6793 -12.1404 2.16205
-16.3403 -13.0023 1.69143
-12.0363 -13.1914 2.19321
-15.9619 -13.0619 1.5272
-11.8794 -13.561 2.09624
-16.173 -12.5912 1.82284
-16.7559 -12.3061 0.582503
-16.5211 -12.5644 0.512979
-16.242 -12.6112 1.04052
-16.9563 -12.8312 1.32186
-16.305 -13.1734 1.0604
-16.195 -12.6467 0.728063
-13.8197 -14.2781 1.51147
-13.4049 -14.8421 1.10541
-16.7371 -12.2342 0.417102
-15.9669 -13.1447 0.768828
-15.9376 -13.0697 0.491439
-15.6578 -13.1134 0.918413
-13.4743 -14.3718 0.947722
-16.1754 -13.2034 0.764257
-16.5088 -12.7153 0.24424
-14.8232 -13.4769 0.238071
-12.908 -15.1346 0.170236
-12.6541 -15.1806 0.803041
-15.293 -13.4289 -0.0598661
-14.2853 -13.8292 0.269174
-13.0546 -14.6764 0.00860285
-13.3309 -14.3829 0.0972272
-16.037 -12.9253 -0.276623
-13.375 -14.6255 0.112207
-12.879 -14.265 0.39699
-15.5026 -12.9957 -0.651098
-15.257 -13.6028 -0.567355
-12.7036 -14.4768 0.150411
-14.2986 -12.9504 -0.328496
-13.1674 -14.9193 0.0106376
-12.2221 -15.6146 0.0957008
-13.6966 -14.383 -0.251307
-12.4829 -15.3458 0.268532
-14.0313 -13.7306 -0.256036
-14.1128 -13.5059 -0.136802
-14.8224 -13.9284 -0.616439
-13.6602 -14.2047 -0.223555
-14.6213 -13.6653 -1.04883
-13.2956 -14.4629 -0.292427
-14.6107 -13.647 -0.750936
-15.0287 -13.4504 -1.02794
-14.728 -13.9417 -1.18114
-13.4425 -13.9069 -0.916882
-15.5415 -13.0991 -1.10031
-15.8357 -12.3963 -1.16084
-16.3368 -12.2881 -2.00667
-14.047 -13.8217 -1.43591
-12.5754 -14.4321 -1.11946
-12.55 -14.8905 -0.83627
-12.9431 -14.8184 -0.73264
-14.8813 -13.5394 -2.14297
-14.812 -13.2519 -1.80828
-12.7507 -14.0611 -1.30288
-13.0855 -13.9549 -1.36959
-13.9234 -13.9946 -1.61784
-11.6232 -15.3191 -0.850598
-11.4997 -15.2385 -1.22026
-11.7681 -14.5806 -1.05183
-14.2106 -13.2293 -2.10796
-14.0504 -13.474 -2.52647
-13.6189 -13.3732 -2.37301
-14.2071 -14.0499 -2.38591
-14.9655 -12.1026 -2.73516
-15.0703 -12.6084 -2.51788
-13.8578 -13.5287 -2.52939
-11.348 -16.2501 -2.09603
-12.4278 -14.1651 -1.93162
-11.4715 -15.7705 -2.11861
-11.2521 -16.7189 -2.38336
-11.6918 -14.4923 -1.98081
-11.2463 -15.7611 -1.86162
-10.9103 -16.623 -2.30233
-12.2538 -13.6958 2.38141
-12.9989 -12.6621 2.39878
-12.7481 -13.3736 2.90899
-16.0357 -13.6044 1.1126
-15.2939 -13.4394 1.10508
-13.2161 -14.9611 1.18418
-14.5718 -13.043 0.574688
-14.2322 -13.7999 0.468844
-15.0733 -13.112 0.360087
-13.6018 -15.2806 0.640736
-12.6713 -14.9562 -0.0389326
-14.1303 -13.6544 -0.265619
-14.2068 -13.8682 0.0161533
-13.9642 -12.9658 0.0462228
-13.9262 -14.1889 -0.383123
-14.1001 -14.2303 -0.258889
-13.2525 -13.8544 0.0490889
-14.921 -13.9445 -0.929481
-13.8178 -14.0627 -0.701802
-13.7655 -14.0266 -0.894777
-14.6198 -13.5272 -0.720998
-13.0283 -14.8683 -0.656177
-15.5551 -12.9754 -1.59624
-14.0305 -13.8706 -1.38693
-13.137 -14.2153 -0.797566
-14.4681 -13.1755 -1.28146
-12.9877 -14.6472 -1.45831
-13.5009 -14.074 -1.64964
-13.2913 -13.7172 -1.32175
-14.5485 -12.9721 -2.32466
-14.5336 -13.316 -2.24965
-13.8323 -13.3932 -2.38367
-14.3374 -13.7431 -2.19952
-15.0576 -12.1554 -2.65935
-11.8235 -14.4458 -1.29407
-12.0885 -14.9644 -1.36997
-12.3775 -15.0068 -1.57762
-13.5222 -13.4888 -2.98369
-11.6608 -15.9821 -1.87075
-12.5007 -14.6446 -2.19432
-11.4722 -16.1162 -2.28579
-15.918 -12.3945 1.70181
-16.4422 -12.7609 0.986044
-14.6795 -12.9464 1.03924
-14.5961 -13.8566 1.27332
-14.5444 -13.3617 1.095
-12.5394 -14.9093 1.6734
-12.6104 -14.843 1.08727
-14.7999 -13.1779 0.616961
-14.7814 -13.4158 0.123251
-15.7399 -13.4238 -0.0703313
-15.9942 -13.0132 -0.470503
-13.3211 -15.0156 0.242071
-13.539 -14.6837 0.509618
-12.3431 -14.8727 0.661577
-14.9059 -13.3119 -0.233853
-13.7673 -14.3167 0.117291
-15.2635 -13.1056 -0.665752
-12.2605 -15.5425 -0.112728
-13.7307 -14.2834 -0.767584
-12.0598 -15.8748 -0.0649069
-14.0343 -14.1617 -0.974975
-12.8816 -14.6634 -1.30047
-14.7255 -12.728 -1.9376
-12.8968 -14.1839 -1.25037
-13.7918 -13.6753 -2.00773
-12.7344 -14.2621 -1.44863
-11.6001 -14.7931 -1.1588
-11.437 -15.1278 -1.46148
-13.9321 -13.7639 -2.35456
-13.5719 -13.8509 -2.69277
-11.4733 -14.5214 -1.47153
-12.6517 -13.7774 -1.86295
-12.9398 -13.8067 -2.4307
-11.3418 -15.0568 -2.26631
-11.4509 -15.9969 -1.60649
-16.6762 -13.767 1.54628
-13.7591 -13.9283 1.23458
-14.0599 -13.8904 0.95543
-15.738 -12.8551 0.0126117
-12.4093 -14.6678 0.555215
-15.52 -13.3687 -0.313284
-14.8523 -13.084 0.00695094
-12.3189 -14.4571 0.470795
-13.4097 -14.3236 0.109631
-15.0761 -13.6224 -0.341834
-13.6948 -13.7116 -0.878153
-11.8309 -14.8717 -0.973282
-14.1955 -13.1745 -2.23573
-13.1877 -14.5312 -1.3698
-11.7787 -14.748 -1.36169
-13.1657 -13.3592 -1.82716
-11.2477 -14.4428 -1.75576
-11.1557 -15.0892 -1.38731
-16.2765 -13.6664 1.85761
-16.0468 -13.2135 0.889764
-15.8865 -12.8895 0.159547
-13.5046 -14.393 0.804069
-15.8281 -12.5532 0.112568
-12.861 -14.7625 0.277826
-16.1623 -13.1331 -0.155676
-12.4422 -15.321 0.0649663
-12.7114 -15.3265 -0.00345727
-13.4118 -14.0225 -0.962805
-11.8195 -15.7831 -0.791064
-13.0363 -13.993 -1.10173
-11.9317 -14.1913 -1.91314
-11.6034 -14.6115 -1.55894
-16.3957 -12.8659 1.25319
-15.7546 -12.9668 -0.207894
-13.9769 -13.2331 -0.243883
-14.5997 -13.5317 -0.349581
-11.7148 -15.3213 -0.686942
-13.4655 -13.3347 -1.18826
-12.1466 -14.9449 -1.56107
-11.303 -14.9501 -1.24802
-14.3117 -13.5442 -2.04596
-15.2171 -12.8775 -0.0783869
-15.1787 -12.9937 0.339627
-13.0633 -14.1949 -1.11015
-12.1696 -14.0766 -1.83633
-13.3964 -14.6632 -0.786353
-13.2457 -14.4272 -0.722671
-12.919 -13.0859 2.90336
-12.7702 -14.8788 -0.653247
-12.3075 -14.7359 -0.55768
-12.9769 -14.2452 -0.653918
-12.2443 -14.9738 -0.967189
-11.9555 -15.73 -1.0942
-12.4458 -14.4823 -1.15945
-13.6063 -14.8865 1.11214
-14.009 -13.8488 -0.667895
-11.7331 -15.5909 -2.48338
-11.5428 -14.9453 -1.85548
-11.5671 -16.0732 -2.30041
-11.1752 -16.2888 -1.40624
-11.4675 -15.8315 -2.0154
-14.4012 -12.9056 -2.74977
-14.6593 -12.373 -2.94438
-11.7832 -14.3955 -1.36823
-15.5758 -12.0031 -3.29991
-12.3037 -14.6259 -1.77871
-14.4765 -13.4185 -2.58924
-14.1574 -13.4883 -2.31239
-14.2817 -13.8256 -1.77276
-14.6114 -13.3219 -2.11495
-14.0588 -13.618 -2.4694
-12.6278 -13.8233 -1.75182
-14.4953 -13.3976 -2.47172
-11.5039 -14.6772 -1.27902
-13.7687 -13.4692 -2.34455
-13.8106 -14.2595 -1.70696
-15.1844 -12.4219 -2.28061
-13.9609 -14.0163 -2.21187
-12.7961 -13.7167 -1.14949
-13.7326 -13.4128 -1.78548
-15.4988 -12.3916 -1.38404
-12.5207 -13.9485 -1.12127
-15.3563 -12.0722 -2.32613
-16.1953 -12.3244 -2.18028
-15.3996 -12.6908 -2.19082
-11.7704 -14.5825 -1.23235
-14.4066 -13.1392 -1.6864
-14.9302 -13.002 -1.73169
-12.8134 -14.4698 -1.12981
-13.7881 -13.8928 -0.806334
-14.8372 -13.6792 -0.986687
-12.5441 -14.5319 -0.279564
-15.4793 -13.0395 -1.219
-12.7313 -14.9165 -0.249893
-16.099 -12.2991 -1.05955
-15.6144 -12.8528 -0.985559
-14.4336 -13.9805 -0.334384
-16.4078 -12.5369 -0.714227
-15.833 -12.4218 -0.416998
-16.1454 -12.3674 -0.27938
-13.9858 -14.1002 -0.598075
-15.5639 -13.0466 -0.237289
-15.7865 -12.866 0.0424062
-13.0312 -15.0137 0.408292
-15.6858 -13.3282 -0.0992848
-15.7405 -13.0624 0.196244
-16.1721 -12.7497 0.413057
-13.9952 -13.87 1.18789
-13.952 -13.9599 1.4592
-13.912 -13.4678 1.11487
-15.9766 -12.9996 0.416563
-13.9149 -14.3499 1.0447
-13.7577 -13.6665 0.873537
-13.0297 -14.6213 1.53207
-15.908 -13.0666 0.851596
-16.6013 -13.0159 1.18528
-16.618 -13.0922 1.49074
-16.4704 -12.7887 1.28479
-12.6972 -13.696 2.49222
-10.8744 -15.7863 -1.76392
-10.9083 -16.0813 -2.26267
-11.4628 -16.2355 -2.18292
-12.7592 -13.8022 -1.80095
-11.9219 -14.6053 -1.10682
-15.4078 -12.2564 -2.02043
-15.0748 -12.8823 -1.19349
-13.651 -14.669 -0.192694
-12.8262 -15.2897 0.118803
-15.3797 -13.5187 -0.26789
-13.5796 -15.02 0.695369
-12.9242 -15.0055 1.08539
-13.5522 -14.2883 0.866786
-16.1272 -12.8849 0.682629
-12.4112 -12.9845 2.1625
-11.5782 -15.7477 -2.64293
-10.9875 -16.6191 -1.883
-14.7827 -13.3882 -3.06292
-13.8395 -13.8452 -2.20604
-13.0664 -14.1897 -1.1089
-11.8745 -15.4316 -1.13568
-12.2374 -15.6269 -0.0489115
-12.2741 -15.4892 -0.345645
-15.1275 -12.8024 -0.548603
-12.3887 -15.8276 0.24806
-14.487 -13.4483 0.966076
-14.7669 -13.277 -0.197234
-13.4208 -14.4184 1.04608
-14.3012 -13.9633 1.20566
-12.6949 -12.7443 2.5157
-11.5705 -14.4105 -1.59477
-12.3205 -13.7172 -2.27471
-13.2476 -13.915 -1.03165
-14.5425 -12.7341 -2.36798
-14.8965 -12.9618 0.0494458
-12.1909 -15.3702 0.764766
-12.9224 -15.0791 0.823825
-13.1399 -15.2011 0.701177
-14.7341 -13.5708 1.32626
-13.1821 -14.8857 0.569381
-16.6831 -13.2633 1.21977
-11.9971 -13.3326 2.87647
-12.009 -14.2413 -1.82632
-12.8212 -14.2815 -1.20404
-12.8546 -14.2164 -0.891895
-13.1099 -14.1401 -0.888101
-12.8485 -14.6166 -0.830301
-15.5544 -13.4602 -0.557168
-14.4789 -13.1473 0.237237
-15.4188 -13.2681 0.255284
-14.0158 -14.2946 0.534086
-12.3065 -14.9142 0.995303
-11.6594 -15.0097 -1.22901
-12.099 -14.3172 -0.564764
-13.0896 -14.5452 0.58448
-15.3702 -13.3824 0.0791399
-16.0221 -13.511 0.0997295
-12.9047 -14.4464 -0.334604
-13.1241 -14.6007 0.240204
-12.6817 -15.0756 -0.167164
-13.0077 -14.7384 -0.28318
-14.6098 -13.7794 -0.227018
-12.9497 -14.7583 0.728252
-12.8102 -14.7243 -1.07989
-13.1384 -14.7445 0.176867
-12.4751 -15.1584 -0.228661
-12.3224 -15.4679 -0.0405967
-12.5081 -15.4899 -0.243403
-12.8039 -14.9431 0.802269
-15.6615 -12.7668 -3.06029
-14.8739 -12.8186 -2.61301
-12.3191 -14.8648 -1.91663
-13.9371 -13.9277 -2.69438
-13.8392 -13.8743 -2.37931
-14.3152 -13.0901 -2.13338
-11.7344 -15.796 -2.15328
-12.0852 -14.5592 -1.58113
-13.3991 -13.5117 -1.30115
-11.3316 -16.0992 -2.30913
-11.6048 -15.3678 -2.57807
-11.2611 -16.2472 -1.74944
-11.6677 -14.6117 -1.68522
-12.0233 -14.7172 -1.54114
-12.9201 -14.6554 -0.851486
-15.0054 -13.2291 -0.633036
-13.5616 -14.6418 -0.700726
-12.8344 -14.8062 -0.68018
-13.1238 -14.201 -0.300155
-15.5833 -12.6085 0.0359875
-12.5263 -15.1549 -0.369299
-16.3446 -12.6111 0.328984
-15.7849 -13.4651 0.842784
-14.3845 -13.3879 -0.0935516
-12.3646 -14.9289 -0.240637
-13.096 -14.8902 0.211084
-14.649 -14.2313 0.629678
-16.0745 -13.0464 0.746944
-15.8972 -13.1277 1.01292
-16.5466 -12.9307 0.742337
-16.8235 -12.6156 1.39948
-16.6604 -12.418 1.10926
-16.7165 -12.62 0.851199
-12.5986 -15.1006 0.704817
-16.3181 -12.9658 0.853086
-16.2802 -12.8967 1.12504
-16.1197 -12.6841 1.20113
-13.6963 -14.242 1.31884
-12.9512 -14.1384 1.2404
-12.9772 -12.8953 1.95236
-12.4955 -13.2636 1.90672
-12.1096 -12.9729 2.11206
-12.3833 -13.4721 2.07068
-13.5976 -13.7404 -2.64628
-15.4768 -12.4493 -2.08104
-14.7889 -13.0023 -2.51902
-14.6068 -13.8171 -2.27257
-13.0322 -13.9123 -1.85156
-14.4317 -13.6748 -1.89913
-14.2039 -13.2851 -1.99452
-11.4246 -16.3528 -1.76263
-11.6663 -16.337 -2.06845
-12.5973 -14.5011 -0.966263
-15.4174 -13.2293 -0.765071
-11.7123 -15.3815 -0.251832
-13.938 -13.8011 0.0107053
-13.5317 -14.7861 0.208815
-12.3322 -15.2917 -0.120189
-13.1471 -15.1108 0.718235
-15.7609 -13.0469 0.530998
-15.6509 -13.1283 0.717906
-14.442 -13.3259 0.760754
-13.5777 -14.169 0.423346
-12.6301 -14.7602 1.33282
-12.5844 -14.9502 1.79082
-13.8034 -13.8527 -3.06816
-12.3644 -14.1262 -1.64602
-11.6384 -14.6322 -1.67939
-14.6849 -13.6202 -1.9238
-11.3207 -16.2043 -2.09186
-14.2967 -13.6714 -1.1894
-13.7592 -13.9001 0.0999918
-11.4909 -15.4456 -0.198741
-16.1286 -13.0209 0.435131
-16.1683 -13.535 0.509185
-15.9036 -13.1781 0.35165
-15.9065 -13.297 0.318963
-13.3376 -14.1836 0.707636
-14.0505 -13.7328 0.887304
-14.7503 -13.031 -2.27359
-12.4734 -14.8082 -0.65432
-15.3889 -13.7168 0.0662109
-15.947 -12.8141 0.215122
-13.049 -14.6279 0.459091
-12.9956 -14.627 0.817981
-12.8788 -14.7815 1.19801
-12.8348 -13.8208 -1.43045
-14.7976 -13.4767 0.640559
-13.0414 -14.6106 1.40438
-13.0377 -14.1324 -1.69871
-14.065 -14.34 0.0832828
-14.0588 -13.9795 -0.128348
-12.1954 -13.125 2.75893
-12.4729 -14.5866 -1.21084
-12.6677 -14.4453 -0.60222
-13.0977 -14.3842 -1.32906
-12.6315 -14.5363 -0.747232
-12.9895 -14.7785 0.464962
-12.1868 -14.8794 -1.33489
-15.0765 -12.9251 -1.73933
-15.1142 -13.0421 -2.5019
-15.8407 -12.4513 -2.01511
-15.1187 -13.2615 -1.27171
-11.7475 -14.5027 -1.77654
-15.0611 -13.0165 -1.51185
-11.7764 -14.4474 -1.32021
-15.2863 -13.7946 -0.644457
-14.8787 -13.4043 -1.35756
-12.571 -13.6874 -1.19481
-12.7589 -14.1534 -0.995853
-11.5316 -15.9276 -2.27237
-12.7112 -14.6279 -0.918505
-12.061 -14.6912 -1.26731
-12.0026 -14.9141 -1.11984
-15.6755 -12.5317 0.449253
-12.3936 -14.6795 -0.85977
-12.6498 -14.2751 -0.997667
-13.1448 -14.8468 -0.936875
-12.8199 -14.23 -0.439
-11.4327 -15.9843 -1.95556
-15.4762 -13.9076 0.450852
-11.2052 -16.0783 -1.93286
-12.8428 -14.6599 -0.599336
-13.2718 -14.5752 0.183587
-11.3638 -16.3086 -1.62641
-13.5767 -14.4832 0.00429899
-13.3746 -14.722 0.262905
-14.1322 -14.4748 0.0881309
-12.4718 -14.854 -0.397212
-13.3971 -13.9354 0.605704
-12.6384 -15.3724 0.118682
-14.043 -14.0647 0.951968
-12.8289 -15.4477 0.521703
-13.1126 -14.6236 1.48043
-13.0836 -15.0641 0.339118
-13.0552 -15.2857 1.13204
-11.7891 -15.9915 0.585439
-12.3792 -13.7569 2.20428
-12.2903 -14.9489 -1.61428
-13.114 -14.0689 -1.38812
-12.6396 -14.0192 -1.21268
-12.8748 -13.9929 -1.09928
-12.6932 -14.7781 -1.51791
-16.3121 -12.7086 0.319615
-16.5046 -13.1678 0.151842
-11.6499 -15.6225 -2.01048
-13.1808 -14.2377 -0.0128242
-15.7117 -13.1278 1.11701
-14.8406 -13.1628 0.991561
-11.3448 -15.8633 -1.81498
-11.3985 -16.1285 -1.54685
-13.9045 -14.1754 1.10107
-13.2783 -14.4827 0.193177
-13.8608 -14.1303 1.15912
-12.7213 -14.8851 0.125839
-12.2652 -15.5892 -0.0842078
-12.0599 -15.5842 -0.284421
-12.6941 -15.4055 0.715539
-12.7057 -15.7558 0.547969
-12.2984 -15.3324 0.237177
-11.7054 -14.1101 -2.0005
-13.2031 -13.8901 -1.27178
-12.9251 -13.4919 -1.41305
-15.34 -13.1555 0.024433
-16.0713 -12.5612 0.243082
-11.3283 -15.9512 -1.96883
-16.2068 -13.0813 0.235684
-15.6274 -13.5106 0.884355
-16.5661 -12.8971 0.644757
-14.2187 -13.7647 0.366404
-14.6023 -13.3279 1.25623
-13.3551 -14.4936 -0.276201
-13.3521 -14.5411 0.337933
-13.442 -14.191 0.0228204
-14.0136 -13.4138 1.60889
-11.8198 -15.6028 -1.06364
-12.8117 -15.4491 -0.237215
-13.3559 -14.2875 1.33796
-12.6591 -13.8645 -1.92096
-13.6006 -13.8573 -1.22162
-12.851 -14.5406 -0.376583
-13.2355 -14.3652 0.797304
-13.9021 -15.033 0.619693
-13.4267 -14.2315 0.761879
-12.7055 -15.0914 0.296633
-12.957 -15.1764 0.623232
-12.9283 -15.7537 1.10423
-12.4685 -14.2104 -2.20867
-13.1499 -13.9588 -0.55014
-12.6397 -14.4919 -1.14998
-15.5755 -13.0933 0.198892
-12.2156 -15.3174 -1.02672
-14.3164 -13.8273 0.278192
-12.1777 -15.4982 -0.168008
-12.6142 -14.909 1.34503
-11.9948 -14.4846 -1.38133
-12.6424 -14.7593 -0.751266
-14.4288 -13.6574 0.0123236
-12.8486 -14.9281 0.268726
-12.899 -14.7555 -0.762574
-14.1021 -13.9627 -0.258404
-15.8668 -12.4389 -1.19943
-16.071 -12.9231 0.657392
-12.6102 -13.9086 -2.0361
-17.0128 -12.7823 1.18802
-14.2715 -13.1532 1.12419
-13.1652 -14.9141 -1.15365
-13.9774 -13.9434 -0.063926
-12.3836 -14.8844 -0.775833
-12.3228 -14.5997 -1.36984
-13.3118 -14.1293 0.145413
-12.7546 -14.8467 -0.431951
-12.7084 -14.8351 -0.162868
-14.0237 -14.882 0.229039
-13.8009 -14.0584 0.377749
-13.4338 -14.8021 -0.0566645
-12.354 -15.0162 -0.379155
-11.791 -16.099 -1.58773
-12.5266 -15.2894 1.66726
-15.3615 -12.0751 -2.06412
-14.7782 -13.199 -1.84732
-15.5698 -13.198 -0.730487
-16.356 -13.0168 0.448622
-12.8506 -13.9485 -1.42073
-11.9864 -14.6392 -1.78961
-14.7902 -13.4799 0.497547
-12.8589 -14.1639 -0.362117
-11.5274 -14.7712 -1.54242
-12.3156 -13.6714 2.81427
-12.9392 -14.7253 0.491197
-10.8299 -16.2846 -1.81751
-13.2343 -14.6761 1.44389
-12.5436 -15.5216 0.622028
-12.9829 -14.8593 0.773065
-11.9123 -15.6457 0.133175
-16.2857 -12.8682 0.095474
-13.7208 -13.7741 -0.719034
-13.8781 -13.534 0.953455
-13.9234 -14.7551 0.765335
-13.5611 -14.87 0.775176
-13.5332 -14.9048 0.705046
-11.8479 -15.7923 -2.31939
-12.8509 -14.4849 -0.0678436
-11.4853 -16.1749 -1.37384
-12.6645 -14.829 0.00570791
-13.0373 -14.9769 1.85393
-12.6367 -15.3468 0.762226
-12.4448 -15.5315 0.297473
-15.157 -12.9232 -1.12613
-15.4691 -13.1799 0.0759397
-12.2073 -15.3333 -0.952602
-13.0158 -14.8259 0.721718
-12.6265 -15.3057 0.649516
-12.0995 -15.9304 -0.0403931
-13.7822 -13.6198 -0.915142
-11.5903 -16.0596 -1.15702
-12.7552 -14.6652 0.161759
-12.774 -14.2873 -0.0983292
-15.6843 -12.0482 -2.13764
-15.1889 -12.7322 -1.34922
-16.2212 -12.8551 0.180572
-16.0342 -12.7846 0.622884
-14.13 -13.2733 -2.85249
-14.4424 -13.7577 0.216378
-12.4646 -13.9196 -2.49116
-13.8429 -14.4233 -0.206789
-13.236 -14.0756 -0.525656
-13.7424 -14.3416 -0.034536
-13.3369 -14.2042 0.592417
-12.7758 -14.921 -0.0736008
-12.1525 -14.5962 -1.5025
-11.8538 -15.021 0.276597
-12.4924 -15.5092 0.486955
-11.4006 -16.0753 -1.93007
-11.1109 -15.6233 -1.90279
-15.258 -13.2369 -0.767552
-15.0166 -13.3675 -0.748329
-15.4146 -14.102 -0.104491
-14.0517 -14.2283 -1.16987
-14.0011 -14.1406 -0.651477
-12.8248 -15.1606 0.0465686
-12.2136 -15.3317 0.122184
-15.5996 -13.2877 -1.03853
-15.5718 -13.6139 -0.105677
-13.5654 -13.9717 -1.24005
-13.4968 -14.0697 -1.65566
-14.141 -14.1288 -0.725643
-13.6333 -14.3949 -0.105086
-13.2439 -14.4434 -0.0249214
-12.9572 -14.2236 -0.475028
-12.8212 -14.4556 -0.631225
-12.8052 -14.7669 0.482061
-13.2031 -14.6552 1.23449
-12.6756 -15.1426 -0.0231007
-16.3608 -12.9193 0.274336
-14.8148 -13.0064 1.64274
-13.1232 -13.8696 -1.45316
-13.3903 -14.6644 0.658134
-13.4816 -14.848 -0.843468
-14.5403 -13.468 -1.71668
-13.35 -13.8562 -0.643417
-12.5541 -15.6241 0.104961
-12.9707 -14.7021 0.440051
-15.9307 -12.3507 -2.21889
-16.2058 -12.8284 0.631723
-15.2469 -12.1983 -3.06572
-15.849 -12.6522 -0.724152
-14.1865 -13.2334 -1.05654
-14.348 -13.5437 -1.92916
-13.1571 -14.2188 -1.27053
-14.3307 -14.1928 -0.093008
-13.7928 -14.2586 0.810138
-13.288 -14.685 0.105544
-13.5786 -15.1363 0.46893
-12.6926 -14.3849 -2.09874
-12.8569 -14.4944 0.683753
-12.4237 -15.2357 -1.03017
-12.2499 -14.7542 -1.37666
-12.203 -14.8987 -1.18418
-16.1967 -12.4944 0.422598
-15.0223 -12.2966 -2.64842
-15.8827 -13.3852 -0.27691
-13.1055 -13.434 -1.25149
-12.1628 -15.6365 0.26855
-11.4854 -16.3358 -1.35543
-16.2651 -13.0114 0.313553
-13.9337 -13.3864 1.80217
-12.8674 -13.8169 -2.35118
-12.6067 -14.9084 -0.0941979
-16.1436 -12.4668 -0.914103
-16.074 -13.214 1.22935
-15.3565 -13.3556 -0.922701
-15.0315 -13.2955 -0.259147
-14.3796 -13.0923 -0.426564
-13.1724 -14.8012 -0.0861197
-12.7114 -15.0043 0.0167802
-13.4986 -13.7199 -2.51187
-13.0556 -14.29 -0.321876
-15.9949 -12.3921 -0.438147
-15.1892 -13.1854 -1.44616
-14.1338 -13.5798 -0.432557
-13.8074 -14.5762 -0.403624
-13.573 -14.4834 0.06835
-13.9991 -13.1762 -2.35075
-13.084 -14.5151 0.684
-13.8549 -14.8695 0.464583
-13.4412 -14.2523 0.0838728
-13.6905 -14.4623 0.203256
-14.2155 -13.6134 -2.72534
-13.4079 -14.6233 -0.257607
-12.7081 -14.9625 1.17385
-12.9957 -14.1534 -1.22461
-12.5097 -15.0281 0.698518
-12.5764 -14.5369 -0.778599
-12.4971 -15.5837 0.383034
-11.777 -15.1313 -0.936281
-14.6405 -13.2278 1.01939
-13.5949 -14.3834 0.066792
-13.8901 -14.2503 0.217082
-12.9809 -14.5752 -0.399164
-12.7172 -13.8275 -1.42457
-12.7309 -15.0328 0.547598
-12.6594 -15.3856 0.447927
-12.5975 -15.2694 0.436371
-12.698 -14.9306 0.535972
-12.5786 -14.848 -0.649288
-12.6391 -15.2238 0.581931
-12.4766 -15.4352 0.754788
-14.6454 -12.8658 -1.87116
-13.8681 -13.4549 -2.37876
-14.1961 -14.74 0.908395
-13.517 -14.5137 -0.0270603
-13.3513 -14.3327 0.24823
-12.6338 -14.652 0.356103
-12.7836 -15.0648 0.0654612
-12.6501 -15.112 -0.196536
-11.4388 -16.3614 -0.930957
-12.9115 -14.7617 0.420081
-13.4459 -14.3786 -0.809953
-12.4987 -15.1864 0.28879
-12.338 -14.7842 -1.0986
-12.6254 -14.2474 -1.28586
-12.9182 -14.797 0.255089
-11.7495 -15.5163 0.293998
-12.5604 -15.2364 -0.11968
-12.7763 -14.7634 -0.187854
-12.0991 -13.0836 2.90604
-15.7463 -12.2253 -1.17951
-15.5398 -12.4009 -2.73312
-13.2124 -13.8783 -1.02496
-12.8866 -14.7267 -0.955973
-12.0872 -14.8898 -0.672
-11.6615 -15.7777 -2.60632
-16.2177 -12.4583 0.106081
-14.8211 -13.3377 -1.48184
-13.8719 -14.1547 -0.157904
-13.7003 -15.3194 0.146058
-13.8675 -14.0989 -0.173587
-13.3901 -13.9553 -0.166435
-12.6974 -15.2514 0.60374
-14.5341 -13.1732 -2.33095
-13.0457 -14.9393 0.655972
-12.3975 -14.9772 0.210451
-13.081 -15.3842 0.6122
-12.5413 -15.4908 0.556622
-13.333 -14.6832 -0.598196
-12.4666 -15.2121 0.169806
-12.5439 -15.2508 -0.164361
-12.1399 -14.9734 0.349316
-11.9183 -15.2388 0.67025
-12.236 -14.1645 -2.00971
-11.9049 -15.0202 -1.35618
-11.1072 -15.6882 -2.23812
-16.4883 -12.3384 1.07865
-16.0476 -12.2644 -0.735146
-13.9879 -13.2644 1.1753
-14.4332 -13.589 0.814573
-14.4529 -13.7662 0.76065
-13.944 -13.7972 1.18483
-14.6117 -13.5356 -0.252368
-14.2973 -13.9977 0.0467307
-13.4703 -14.5564 0.361995
-13.0165 -14.0695 0.0934268
-12.5916 -15.2571 0.702981
-14.1261 -13.7539 -2.55604
-12.7145 -15.4575 0.0383684
-11.9356 -14.7708 -1.55192
-14.1928 -13.479 0.530634
-15.0815 -13.3436 -1.83631
-13.5149 -14.501 0.840075
-12.9882 -15.3868 0.61907
-12.9354 -14.4228 -1.46373
-14.1679 -13.8754 1.28479
-14.4576 -13.6445 0.245711
-12.9806 -14.731 0.278429
-13.2822 -14.6393 -0.347728
-13.0604 -14.8614 -0.605906
-12.1759 -15.407 -0.0292807
-11.9603 -14.7405 -1.67887
-12.5917 -14.8971 -1.11001
-16.8404 -12.6166 1.1981
-12.1216 -13.3484 2.63058
-12.7572 -13.2693 2.49444
-14.4377 -13.6418 1.06797
-15.6283 -13.1556 -0.756537
-16.0634 -12.6435 -0.937358
-16.123 -12.5664 -1.18107
-16.208 -12.7588 -1.19706
-15.6271 -12.4406 -1.30745
-13.7779 -14.5286 0.190408
-14.0476 -14.2511 -0.0407557
-13.0976 -14.3657 -0.0247532
-14.0939 -13.6671 0.116143
-12.8838 -14.9273 0.912366
-13.4203 -14.7751 0.188125
-13.4554 -14.8747 0.419489
-13.5818 -14.6014 0.123758
-12.5428 -15.1203 0.795021
-14.6315 -13.138 -1.70322
-12.7549 -14.9872 0.174659
-12.7157 -15.237 0.394994
-14.4993 -13.2561 -2.71049
-15.0401 -13.1416 -2.79641
-12.6003 -15.1608 0.0627605
-12.5701 -15.2377 0.0175965
-12.5894 -15.4726 0.38971
-14.5586 -12.8578 -3.24817
-13.0478 -14.5062 -1.06457
-14.0782 -13.4427 -2.59139
-12.7289 -14.027 -1.51217
-13.2955 -14.2092 -1.16841
-12.7254 -14.216 -0.730835
-12.7247 -14.1397 -1.17849
-12.7221 -14.891 -0.787514
-12.7742 -13.7825 -1.61412
-13.1347 -13.4466 -2.3374
-12.617 -14.8684 -1.16854
-11.8999 -15.3464 -1.4561
-15.8528 -13.0813 0.595339
-12.8389 -14.9348 1.04429
-13.007 -14.6059 0.421011
-13.1994 -14.9951 1.20846
-13.3088 -14.548 -0.288863
-12.6675 -15.1352 0.616658
-14.7579 -13.3413 -1.95325
-12.2512 -14.4182 0.00505847
-12.3208 -15.3582 -0.262776
-13.9511 -13.5003 -2.5099
-12.4918 -15.3821 -0.999135
-12.2946 -14.8566 -1.15069
-12.0439 -15.8354 -1.7042
-11.2888 -15.9954 -1.94051
-11.518 -16.0334 -2.5078
-16.1252 -12.8699 1.10234
-16.0495 -13.0536 0.28677
-14.7766 -13.4185 1.22426
-14.4232 -12.9124 0.0311909
-16.1611 -12.3979 -1.66256
-13.7523 -14.7252 0.96407
-12.7291 -15.5138 0.536894
-12.2656 -15.4535 0.189712
-13.1083 -15.2244 0.650976
-12.526 -15.4732 -0.328037
-12.4339 -14.907 -0.130712
-12.9868 -15.4604 -0.210925
-12.8065 -14.8159 -1.19661
-13.5176 -13.5013 -2.74365
-14.0861 -13.9792 -2.22485
-13.7803 -13.3884 -2.56018
-12.1518 -14.9681 -1.44975
-14.2216 -13.894 0.794844
-12.4761 -15.091 1.23918
-12.6793 -15.2708 0.30979
-12.2459 -16.2637 0.605723
-12.33 -14.9885 -1.67756
-14.3061 -13.2561 0.698227
-14.0011 -14.0101 1.09019
-14.3547 -14.3607 0.388015
-13.9673 -14.2359 0.0166662
-12.7961 -13.2836 2.42967
-14.1901 -13.5375 0.586508
-13.604 -15.0442 1.37103
-12.56 -14.9323 -0.968011
-12.5564 -15.5185 -0.118591
-12.3772 -15.5292 0.644356
-13.0629 -14.6423 -1.15913
-11.6753 -15.8812 -0.549442
-12.7341 -14.6294 0.598736
-12.3239 -14.8338 0.39793
-12.0107 -15.6813 -1.00778
-12.3773 -15.8467 -0.0323523
-13.0984 -13.2496 2.03419
-12.0093 -13.7266 2.28224
-16.0983 -12.9998 0.924652
-15.6421 -13.039 0.505596
-13.923 -14.1121 1.59093
-16.1728 -13.2363 -0.14967
-13.0314 -14.8877 1.38178
-12.5035 -14.685 1.28335
-15.4226 -12.766 -0.343701
-16.0372 -12.2882 -1.52002
-15.4691 -12.5784 -0.523485
-15.4301 -12.7839 -0.843896
-12.6155 -15.1654 0.274192
-12.4145 -14.3149 0.184991
-13.4306 -14.3129 0.570895
-15.8099 -12.5193 -1.86578
-12.9792 -15.2463 0.236401
-15.1858 -12.8337 -1.71858
-14.0282 -13.4399 -0.771639
-15.5448 -12.2621 -1.50672
-14.8052 -13.7948 -1.44816
-15.354 -12.6359 -2.1618
-12.5593 -14.7776 0.143973
-15.3002 -13.3535 -1.77183
-13.1117 -15.1174 -0.922223
-14.4872 -13.9481 -1.40365
-14.1134 -13.4738 -1.9754
-14.5029 -13.2222 -2.47684
-14.1329 -13.1987 -1.97949
-14.9003 -12.7089 -2.66995
-13.4313 -13.3684 -1.41039
-11.9742 -16.1357 0.02276
-14.4623 -12.893 -2.51536
-13.2245 -14.562 -1.3431
-12.7831 -14.2031 -1.34981
-14.3915 -13.7033 -2.72901
-12.5614 -14.8928 -0.757931
-14.4737 -13.6038 -2.71164
-13.9378 -13.0733 -2.41932
-13.7646 -13.2535 -2.33613
-13.601 -13.2412 -2.41527
-14.5366 -13.2078 -2.80031
-14.2612 -13.9181 -2.31135
-12.0672 -14.6414 -1.1665
-12.2845 -14.8315 -1.25479
-11.8674 -14.4939 -1.31953
-13.7502 -13.234 -2.30517
-12.3662 -14.8301 -1.26728
-11.8592 -14.7871 -1.87325
-11.0262 -15.8453 -1.29237
-11.8123 -15.6505 -1.89152
-16.6108 -13.2008 1.19922
-16.2511 -12.62 1.03537
-16.541 -12.7216 1.22728
-15.5487 -13.3634 0.427455
-15.3749 -13.1491 -0.256757
-16.0674 -12.9023 -1.18176
-13.5763 -14.9588 1.15434
-13.1638 -14.5731 0.448209
-12.9005 -14.676 0.122337
-12.8507 -14.8138 0.503352
-12.4639 -15.0359 0.414433
-15.8932 -12.6564 -2.19811
-15.3662 -12.2206 -2.18365
-15.6951 -12.2807 -2.37341
-13.0891 -14.426 -0.735858
-14.8167 -13.4222 -3.03239
-13.8639 -13.7677 -2.36578
-12.3389 -14.9288 -0.995609
-11.78 -15.0983 -1.11995
-11.6153 -16.1241 -1.03735
-11.5433 -15.851 -1.76068
-11.2869 -16.2256 -2.47879
-13.1469 -12.6851 2.20117
-15.4253 -13.3788 0.455282
-12.7497 -15.1911 1.22942
-14.5039 -13.293 -0.56191
-12.2953 -15.0365 0.631821
-12.9653 -14.9847 0.287062
-12.7727 -15.3331 0.235739
-11.7073 -15.6356 -0.269141
-12.8339 -14.2233 -1.59716
-12.3453 -14.2157 -1.41516
-12.902 -14.2111 -1.64441
-12.5862 -14.3055 -1.22483
-12.0402 -14.4625 -1.33615
-11.7497 -14.3648 -2.22409
-12.1283 -13.346 3.51741
-12.9171 -14.7476 0.0705472
-13.2571 -14.5197 -0.537908
-11.6223 -15.7755 -0.194429
-12.7661 -14.2399 -2.11196
-12.7583 -14.1317 -1.53393
-13.2142 -14.5509 -1.27095
-12.6371 -14.4018 -1.58083
-14.1463 -13.669 -2.24887
-12.005 -14.9051 -0.987147
-11.8196 -14.3553 -2.05247
-15.5212 -13.7485 0.061999
-12.782 -14.7862 -0.354935
-12.2748 -14.7259 -1.57335
-11.883 -14.7031 -1.42991
-12.103 -14.9848 -1.47198
-11.5101 -15.8766 -1.87564
-11.2117 -16.1444 -1.96843
-15.7291 -13.3133 0.107327
-12.6034 -15.2658 0.184687
-13.7359 -14.1369 -0.766889
-12.6542 -14.901 0.421306
-12.4291 -14.8105 -1.22531
-11.5028 -15.5028 -2.44742
-12.8039 -14.6935 0.0129781
-12.4143 -14.7799 0.186615
-12.6863 -15.0016 -0.721512
-12.8886 -14.971 -1.27075
-12.9619 -13.9424 -0.854531
-10.849 -16.1701 -2.11993
-15.0438 -13.1292 -2.85308
-15.1988 -11.8377 -2.71079
-11.0842 -16.2023 -1.7689
-14.3658 -13.5226 -2.64503
-15.3603 -12.9315 -2.22539
-11.644 -14.679 -1.4079
-15.4462 -12.7759 -2.10053
-12.053 -14.819 -0.998382
-15.7682 -12.1887 -2.21774
-14.8624 -12.7277 -2.0065
-12.5988 -14.7476 -1.67693
-12.4843 -14.665 -1.5071
-13.3821 -14.0306 -0.864229
-14.3468 -13.4454 -0.879258
-12.7012 -14.552 -0.571298
-15.6107 -13.0883 -1.36744
-13.1829 -14.5918 -0.71763
-13.6357 -14.1065 -0.580008
-15.2246 -13.0741 -0.902425
-14.71 -13.2946 -1.03669
-14.9121 -13.7887 -1.26033
-15.0426 -13.2084 -1.00934
-12.5575 -15.3621 0.219697
-12.2343 -15.2417 -0.0134741
-13.1385 -14.1775 -0.415044
-12.9709 -13.8979 -0.658399
-14.2343 -13.7125 0.0459253
-13.7186 -14.4628 -0.31476
-15.953 -13.032 -0.684193
-13.9753 -13.8057 -0.0171645
-15.6915 -12.639 -0.30378
-15.9859 -12.8644 -0.725426
-14.6743 -13.9808 -0.151949
-14.2924 -14.3677 -0.321471
-16.3693 -12.3045 0.101175
-15.7947 -13.1719 0.134483
-15.733 -13.4244 0.0451586
-14.1387 -13.5999 0.203801
-14.5625 -13.5851 0.361187
-16.3024 -13.5471 0.00760126
-16.2499 -12.5773 0.787556
-14.1438 -13.8196 0.996941
-13.05 -15.3619 1.33105
-12.8901 -14.9525 1.5695
-14.5806 -13.9488 1.26079
-12.1577 -14.2241 -1.87699
-14.2639 -13.7758 -2.75993
-13.9227 -13.9262 -2.31684
-13.0017 -13.9488 -1.48453
-13.1696 -13.9138 -1.48065
-13.1048 -14.3119 -0.945697
-15.5578 -12.5216 -2.0458
-13.1397 -13.9758 -0.661183
-15.7579 -13.0577 -1.22496
-12.6377 -14.5915 -0.0262016
-11.6656 -15.9092 -0.148769
-12.5296 -15.0708 0.0967637
-16.2084 -12.7964 -0.40726
-14.4059 -13.4636 -0.350246
-13.9932 -14.8265 0.344332
-12.7882 -14.4281 0.570583
-12.8855 -14.9933 0.600014
-15.5744 -13.6658 0.212958
-13.8773 -14.7575 0.5335
-15.9111 -12.8233 0.407993
-14.5752 -13.7182 0.763896
-16.4889 -12.7605 0.680404
-11.4294 -14.5716 -1.75695
-13.6683 -13.9013 -0.50941
-11.9786 -15.1047 0.00401364
-12.7893 -14.6934 0.720482
-15.3924 -12.869 0.540561
-13.3215 -14.3953 0.982766
-10.8907 -16.1736 -1.59354
-15.1525 -13.1464 -0.40721
-13.0723 -14.0114 -0.458398
-13.7264 -14.355 0.192088
-15.5044 -13.2503 -0.0104184
-14.2707 -13.8228 1.2194
-14.1013 -14.1142 1.3712
-13.3087 -14.1721 1.44947
-16.2768 -13.0948 1.36715
-12.4325 -13.0533 1.78735
-12.0343 -14.9897 -0.798032
-13.0309 -14.179 -1.42909
-12.4092 -15.384 -1.23043
-14.6672 -13.2614 -1.22962
-14.4445 -13.2223 -0.43759
-15.6489 -13.0949 -0.0399028
-13.9601 -14.3877 0.152711
-15.7894 -12.8111 0.0187285
-14.2527 -13.1611 1.07572
-12.815 -14.4296 1.08001
-16.2581 -12.7678 1.29679
-12.5511 -12.9152 2.75218
-12.0184 -14.8928 -1.00586
-13.1204 -14.2972 -0.409055
-12.7771 -14.7503 0.626447
-13.0689 -14.8136 0.619301
-12.5991 -14.7506 0.7405
-12.5093 -15.2503 0.783616
-12.5382 -15.0003 -0.860692
-12.564 -12.8042 2.64032
-12.8509 -15.0224 -0.850261
-11.2458 -15.7615 -2.3986
-15.09 -12.3331 -1.99921
-11.8357 -14.8768 -1.91725
-11.3627 -15.7681 -1.76281
-11.3965 -16.0128 -2.17481
-11.5149 -16.4031 -1.43263
-12.4699 -14.4267 -0.657661
-13.952 -14.1779 -0.466872
-12.9784 -15.0548 -0.629842
-13.8332 -14.0859 -0.283545
-13.8727 -14.1966 -0.347343
-13.5213 -14.6024 -0.43795
-15.3393 -13.1699 -0.675707
-15.568 -13.1874 0.16369
-12.765 -14.7598 0.380614
-13.8184 -14.0814 0.602437
-16.033 -12.7242 0.84606
-15.9433 -12.9071 0.829701
-13.9472 -14.1493 1.03719
-16.3913 -13.3945 0.866316
-11.9368 -13.5185 2.42726
-12.56 -13.6321 2.95107
-10.9478 -16.2506 -2.28054
-11.6871 -15.1394 -0.794897
-12.9327 -14.0658 -1.06582
-13.1267 -14.8716 -0.757995
-16.1074 -12.2184 -0.815916
-14.9011 -12.9695 -0.336005
-12.1055 -16.2773 -0.444822
-14.9507 -13.2519 0.364442
-13.1589 -14.7331 0.00754642
-16.7864 -12.445 0.881114
-13.6435 -14.2203 -1.64395
-13.6462 -14.3361 -0.442879
-15.5246 -12.8855 -0.684929
-15.3965 -12.6538 -0.462052
-16.694 -12.5639 1.07531
-12.7813 -15.1985 1.53747
-10.9803 -15.9879 -1.7393
-12.8367 -14.1226 -1.43752
-12.0498 -15.4516 -1.11941
-12.9732 -14.5724 -0.496428
-15.0746 -13.5296 -0.252626
-15.613 -12.7471 -0.250021
-14.667 -13.3094 0.598377
-13.5818 -13.9261 -0.694799
-14.3684 -13.9354 1.09171
-13.4053 -14.1568 0.875781
-13.4048 -14.9412 0.984427
-11.754 -15.1882 -0.958954
-13.8211 -13.4144 -0.823648
-14.8916 -13.3185 -0.245302
-12.5934 -14.6394 -0.0494104
-12.7882 -13.9466 -1.40003
-12.4328 -15.1473 0.172802
-15.0421 -12.7194 -1.36813
-11.3263 -15.9563 -2.1402
-12.1034 -15.076 -1.29771
-14.7346 -13.4865 -1.11426
-11.2946 -16.0849 -1.75323
-15.8401 -12.9831 0.437765
-12.8321 -14.293 -0.627921
-13.6663 -13.995 0.441279
-14.55 -13.8616 0.872034
-12.9851 -15.051 1.40491
-12.8472 -14.5537 -1.71572
-12.4271 -14.1643 -1.58737
-11.3475 -15.881 -1.78163
-11.8253 -15.1046 -1.36033
-12.1925 -14.3373 -1.27763
-12.9577 -14.6742 -0.845051
-12.3343 -15.0392 -1.02874
-14.2458 -13.2954 -0.339505
-13.6318 -14.2781 -0.00996775
-13.7987 -13.7826 0.0954055
-12.0697 -15.8292 -0.610147
-11.9369 -15.2314 -0.529091
-13.9041 -14.3907 0.470025
-12.6077 -15.7438 0.0899283
-12.4418 -16.0174 0.245653
-13.1675 -14.573 1.21164
-13.0778 -13.3225 2.43486
-13.0611 -14.0951 -1.04335
-14.3009 -13.625 0.115543
-11.5575 -15.2565 -0.990868
-12.8062 -15.1911 0.710622
-14.1728 -13.7649 0.683742
-11.9771 -15.8502 0.233464
-12.5344 -14.4232 -0.443443
-14.1955 -14.2554 -0.221636
-12.6881 -14.7801 1.21528
-13.0923 -15.1565 -1.37095
-14.6267 -12.9336 -0.306454
-14.508 -14.3987 0.0139027
-13.203 -13.3177 -0.936837
-13.4572 -13.6281 -1.25678
-13.9276 -13.3305 0.510556
-15.7806 -12.8948 0.657499
-13.7831 -13.9201 -0.90329
-16.414 -12.9639 1.43636
-16.494 -13.34 0.736073
-14.422 -12.9911 0.805106
-14.6767 -13.3068 1.1386
-13.1475 -14.5378 -0.104568
-13.1336 -14.0096 0.355994
-13.6028 -14.4987 1.19813
-12.6871 -14.7157 0.930412
-13.0947 -15.1375 1.09897
-11.65 -13.4455 2.70325
-12.1786 -14.7104 -2.31062
-14.0572 -13.5543 -0.553251
-12.2781 -15.1357 -1.56231
-12.5777 -14.5631 -0.636765
-11.1611 -15.6263 -1.88112
-13.3242 -14.35 -0.498621
-13.1977 -14.4278 0.0069539
-12.1443 -15.2564 0.425775
-11.7789 -15.7631 -0.102943
-12.3683 -15.7039 0.491809
-14.3994 -13.5193 -0.657135
-12.9859 -14.047 -0.0884017
-13.2324 -14.284 0.146861
-14.1697 -14.8172 0.416565
-13.3245 -14.9781 0.658843
-13.011 -14.274 0.789679
-12.3259 -15.2796 0.100558
-12.7364 -14.9328 0.278736
-12.4194 -15.4424 1.13605
-12.7497 -15.0946 0.566496
-12.8232 -14.8463 1.52918
-12.8404 -15.3329 1.31865
-14.8017 -12.9127 0.688411
-12.7429 -14.8105 1.63839
-12.5407 -13.6356 -1.79467
-13.6676 -13.7 -0.989472
-12.0475 -14.6318 -0.488563
-14.7519 -13.099 1.03989
-14.3728 -13.4419 0.138965
-13.9409 -14.2987 0.287262
-12.6111 -15.5519 -0.0850823
-15.8381 -12.7664 0.303348
-16.4569 -12.8795 0.269406
-13.5939 -13.7578 -0.766149
-14.7877 -13.0955 0.885346
-12.0894 -14.4352 -0.945944
-13.4941 -13.7962 1.54769
-13.5641 -14.3217 0.801589
-12.7847 -14.7495 0.157856
-12.7808 -14.8697 0.87753
-15.9199 -12.7632 0.423556
-11.5328 -16.0332 -1.60778
-13.8888 -14.2124 0.585237
-12.6679 -15.2536 0.681272
-14.0075 -13.1034 -0.128785
-13.7024 -13.7643 -0.919786
-13.0074 -13.8794 -1.52227
-16.1139 -13.1904 0.76933
-12.7157 -14.8555 -0.138955
-14.0811 -13.9243 -0.62417
-12.5961 -15.3256 -0.579426
-12.984 -14.7929 -0.803198
-11.8073 -15.5883 -0.958173
-13.6667 -13.6107 -3.17486
-16.2617 -12.7374 -0.19945
-14.9565 -13.2707 -0.935572
-12.9681 -14.3013 -1.32852
-12.4182 -16.1369 -0.51175
-12.6632 -15.4832 0.62476
-13.7898 -14.0556 -1.19277
-15.0053 -12.925 -0.526766
-16.3642 -12.7135 0.601794
-13.6625 -14.2066 -0.317195
-12.1669 -15.6919 0.219616
-13.6037 -13.7814 -1.8746
-13.937 -14.2891 -0.423862
-14.0861 -13.9645 -0.766769
-12.2041 -15.5019 0.0255542
-12.46 -13.3196 -1.18241
-12.8007 -14.2137 -0.262833
-12.585 -15.0628 -0.742928
-15.9516 -12.6721 0.468771
-16.0353 -12.7991 0.499133
-15.9718 -13.0499 0.731415
-13.9705 -14.834 0.414145
-12.5985 -15.4284 0.204295
-16.0003 -12.8312 0.245053
-15.3928 -13.0963 -0.835994
-12.3092 -14.8861 0.579137
-16.5353 -12.9061 0.283298
-14.633 -13.4326 -1.53317
-14.4673 -13.6017 1.29392
-13.9751 -13.7779 -0.517465
-12.9363 -14.6269 -0.939595
-13.068 -14.8098 -0.37911
-13.4557 -14.4908 0.844836
-13.1122 -14.9708 -0.100216
-11.8961 -14.7143 -1.24875
-12.5096 -15.2268 -0.877619
-12.7294 -15.1054 0.47762
-13.4799 -13.6668 -1.25536
-13.6718 -13.9449 -0.480552
-16.2022 -12.7075 0.757474
-13.0207 -15.0561 0.00418661
-16.3165 -12.5722 0.688319
-13.112 -14.6903 -0.476815
-12.1174 -15.6517 0.0973696
-12.8922 -12.8715 2.19689
-16.0102 -13.1458 0.810618
-12.7782 -15.3966 0.698017
-11.0449 -15.9731 -2.31763
-15.5257 -12.6567 -1.90178
-13.9822 -13.9827 0.394245
-14.0772 -14.6966 0.587181
-13.7092 -14.6215 0.211347
-12.4387 -14.6143 -0.894359
-12.4184 -15.3571 0.101847
-11.275 -15.9072 -1.7049
-16.1568 -13.0123 1.14973
-15.4943 -12.8343 -1.75801
-13.427 -14.4221 1.62297
-12.6939 -15.0889 -1.37653
-11.9452 -14.8915 -1.3303
-12.3183 -15.352 0.226691
-12.9641 -14.7341 -0.0338666
-12.4677 -15.0896 -0.432967
-14.4193 -13.499 -1.90976
-12.442 -14.8695 0.250683
-12.0395 -14.7908 -0.783913
-15.2152 -13.2947 -1.16126
-11.5394 -16.0736 -2.00691
-11.258 -16.1247 -2.39921
-12.815 -14.8454 -0.459632
-12.4743 -15.0978 -1.50596
-12.4093 -15.7938 0.583984
-11.9896 -14.6886 -1.35879
-13.2335 -14.3476 -0.261506
-12.7704 -14.3896 -0.590891
-11.9926 -13.2781 2.43094
-13.1485 -14.5434 0.40288
-13.2789 -13.3919 -1.21714
-13.0461 -13.9343 -1.45115
-12.4273 -15.6202 0.597719
-12.866 -14.9898 0.59511
-12.4434 -15.496 0.28635
-12.763 -14.656 -0.562821
-12.3584 -16.036 -0.487737
-12.6088 -13.5266 2.22098
-13.1018 -15.0763 0.316897
-12.9172 -14.991 0.705185
-12.0896 -16.1087 -0.295998
-16.0083 -13.3028 0.179784
-12.804 -13.8136 -1.52805
-11.7524 -15.8659 -0.165521
-11.9826 -14.6768 -1.2687
-12.698 -14.5431 0.312084
-13.1002 -13.333 -0.815108
-12.7721 -14.8977 0.365838
-12.7201 -14.628 -0.132734
-16.4443 -12.4078 0.0653962
-16.1202 -12.865 0.857815
-15.9073 -12.6988 -0.0162066
-14.0835 -13.4107 -0.25855
-14.8086 -12.9895 -1.38173
-15.2729 -12.5655 -3.01876
-13.3609 -14.4264 0.71462
-13.5507 -14.792 1.34417
-13.7142 -14.1793 -0.824928
-12.3536 -14.6673 0.17509
-12.5156 -15.4079 0.430892
-16.6994 -12.9491 0.54383
-16.4787 -12.6383 0.331443
-13.7971 -14.0901 1.07067
-12.384 -14.9978 0.630967
-13.767 -13.4956 -2.7176
-12.5917 -14.9153 -0.0109455
-11.5699 -15.896 -1.78974
-15.4568 -12.7264 -2.07806
-13.2859 -14.5623 0.256361
-12.7904 -15.3195 0.594257
-13.0168 -15.267 0.951806
-12.7958 -15.1316 -0.362014
-11.985 -15.2511 -0.224787
-14.1336 -13.7128 0.106318
-12.3387 -15.7445 -0.0974772
-12.5868 -14.926 -0.12968
-15.7193 -13.2025 0.158487
-15.3944 -13.0088 -0.743914
-15.5155 -12.8617 -1.33319
-13.4926 -14.4756 0.830246
-15.1798 -13.2743 -1.79157
-15.491 -12.9603 -2.10794
-14.9924 -12.9307 -1.70506
-12.9179 -14.7776 0.483822
-13.7912 -14.2998 -0.418033
-12.7451 -15.0703 0.442943
-14.7254 -13.075 -2.10346
-13.0966 -14.3132 -0.540506
-13.0405 -15.1809 0.343995
-12.4347 -15.4341 0.9102
-16.3965 -12.4296 -1.32619
-13.3327 -14.1759 0.589524
-13.6771 -14.8852 0.840707
-14.2458 -13.5989 -0.493948
-13.1797 -14.1896 -0.189626
-12.8784 -14.612 0.187994
-12.21 -15.6165 0.397253
-12.7881 -15.0608 0.376116
-12.3073 -15.5731 0.111811
-12.3162 -15.5941 -0.653737
-10.677 -16.4975 -2.16002
-16.5798 -12.0574 0.597085
-14.5299 -13.8762 0.14858
-12.4556 -15.0541 1.14057
-13.1159 -15.6485 0.664828
-12.3557 -15.1814 0.409941
-12.9168 -14.66 0.138402
-12.3758 -14.8615 0.394585
-11.9135 -14.7787 -0.139426
-13.9949 -13.7369 -0.207912
-12.8586 -13.6412 -1.27505
-12.3412 -15.7935 -0.249219
-12.7429 -14.6859 -1.06086
-12.0268 -15.1623 -0.495387
-12.0154 -15.2514 -0.838907
-13.0896 -15.5019 0.831393
-11.8252 -15.584 -0.855076
-13.4805 -14.3611 0.69374
-13.6045 -14.14 0.454355
-15.6734 -12.4873 -1.567
-12.7608 -14.5278 0.476965
-15.3286 -12.8766 -1.41427
-14.8685 -12.4853 -2.57383
-12.2129 -15.8072 -0.576591
-12.4042 -14.8625 -1.21409
-12.6373 -13.9937 -1.508
-12.9034 -13.9027 -1.58621
-11.9722 -14.804 -1.24706
-14.2205 -14.0657 1.043
-12.8732 -14.8677 1.6609
-12.5277 -14.5384 0.813828
-12.733 -15.4066 0.568683
-12.9678 -14.2985 0.513726
-12.7329 -15.6104 -0.263986
-12.9582 -15.271 -0.0367427
-12.522 -15.573 0.603904
-13.5109 -13.851 -1.45111
-12.8238 -15.2476 0.293283
-12.6682 -14.394 -0.951368
-11.8001 -14.7753 -0.148289
-11.2876 -16.4532 -2.1101
-11.6102 -16.1468 -2.08513
-13.9895 -13.6436 -1.02958
-12.2769 -15.2824 0.39889
-12.0168 -15.5681 0.119495
-12.0799 -14.5479 -1.69387
-11.5935 -16.1319 -2.36948
-12.7892 -15.0193 0.990311
-13.3975 -14.788 -0.398847
-13.4842 -14.4907 -0.804121
-13.0695 -14.1574 -1.53186
-11.6169 -14.7548 -1.81108
-12.9723 -14.8263 -1.4248
-11.9808 -16.0944 -0.66413
-13.4079 -14.4062 -0.734897
-11.3375 -15.8932 -0.388941
-13.6652 -13.9692 -0.635763
-12.6327 -14.9301 -0.45766
-12.6369 -14.7243 -0.957752
-13.0725 -15.2208 0.610718
-12.6986 -14.7442 0.67831
-17.0418 -12.6117 0.990258
-12.5512 -15.4653 1.26918
-12.4135 -15.0143 1.34015
-12.4703 -15.4543 0.412744
-12.7055 -15.5416 0.791269
-12.7902 -14.5125 0.17602
-12.6006 -15.1432 0.409437
-12.8974 -14.7785 0.230155
-15.0083 -13.0445 -0.742368
-16.3569 -12.611 -2.16039
-14.8447 -12.9337 -1.74647
-12.5548 -14.9275 -0.219862
-14.5769 -13.3349 -1.09767
-15.5596 -12.2553 -2.31406
-15.5499 -12.0042 -2.62991
-15.3579 -12.6982 -2.22859
-15.4729 -13.0123 -1.79428
-14.7102 -12.9638 -2.01887
-14.7853 -13.315 -2.04687
-13.0452 -14.5629 -0.913946
-13.2313 -13.3982 -1.47566
-14.7695 -12.8155 -2.56697
-11.5113 -16.0708 -0.832164
-14.4509 -13.4418 -2.44059
-11.6951 -14.1833 -1.77462
-10.9238 -16.3097 -1.45305
-11.1758 -16.407 -2.16792
-11.9033 -13.5139 1.58255
-16.012 -12.9992 0.896841
-15.4078 -12.637 -0.43914
-15.0138 -13.4476 -0.564945
-12.7647 -14.7356 0.151973
-14.2881 -13.9118 -0.213089
-15.4291 -12.2391 -2.13725
-14.4066 -13.2734 -1.52524
-12.1693 -15.7612 -0.310706
-13.0545 -13.7446 -1.30856
-12.5788 -14.2753 -1.32709
-12.2062 -14.6667 -1.10032
-11.0632 -16.0532 -1.53133
-12.9661 -15.082 0.841432
-11.6987 -15.6206 -0.423567
-11.2139 -15.6127 -1.91372
-12.6074 -14.7108 0.388444
-15.2405 -12.6981 -0.820026
-13.5073 -14.0255 -1.20104
-11.0719 -15.3648 -1.54656
-14.267 -14.2516 0.0224053
-12.9088 -14.5282 -0.235521
-11.7927 -15.2408 -1.19362
-14.4387 -13.3694 1.32245
-14.5115 -13.7942 0.133523
-12.2902 -15.2909 -1.52794
-16.32 -12.9968 1.08777
-12.7615 -15.2291 1.30706
-12.7842 -14.9783 1.40356
-13.9009 -13.69 0.930702
-16.2251 -12.8128 0.473756
-16.8169 -12.2739 0.304412
-14.7602 -13.3017 0.205718
-15.6011 -13.4037 0.349625
-13.1851 -14.7556 0.806456
-12.9176 -14.5674 0.627456
-15.67 -12.4149 -0.147202
-14.3373 -13.7743 -0.292975
-15.8507 -12.8196 -0.633802
-13.0984 -14.9249 -0.453501
-12.1412 -15.806 0.213135
-13.7483 -14.3874 -0.444477
-13.5593 -14.4519 -0.0741591
-13.3401 -14.5453 -0.531946
-12.1016 -15.0268 -0.301472
-13.8154 -14.2217 -0.62397
-14.0325 -14.0022 -0.632821
-12.9239 -14.7514 -0.543386
-15.8549 -12.2648 -1.2131
-15.6473 -12.522 -1.91675
-15.5326 -12.1683 -2.21675
-15.2498 -12.7088 -2.40471
-13.5088 -14.4969 -1.55242
-14.5978 -13.5123 -2.20767
-11.9961 -15.1244 -1.33305
-13.492 -13.5756 -1.9424
-12.111 -14.5568 -1.39918
-12.8859 -14.0025 -1.53095
-15.3863 -12.3477 -2.87675
-14.432 -13.6072 -2.37479
-14.7709 -12.755 -2.73185
-14.1052 -12.7804 -2.5793
-11.6506 -15.6439 -2.12115
-11.3959 -16.4117 -1.7242
-11.434 -15.8885 -1.53526
-12.692 -13.5498 -1.98742
-11.5624 -15.7781 -2.36728
-11.6384 -14.877 -1.72854
-11.8414 -16.1978 -2.15165
-11.8249 -15.6637 -2.33227
-11.5228 -16.0594 -2.31554
-11.2779 -15.7769 -2.39114
-15.3708 -12.655 1.57865
-16.658 -12.9291 1.15564
-15.929 -13.5196 0.814796
-16.6302 -12.8492 0.350088
-13.9563 -13.5332 0.872861
-14.0417 -14.1833 0.9475
-16.2598 -13.0765 0.686353
-16.157 -12.9177 0.258001
-15.8205 -13.0852 0.38131
-13.7466 -15.0516 0.679926
-15.0291 -13.0841 -0.247206
-12.8978 -15.2461 0.744395
-12.916 -15.5199 0.692702
-12.9908 -14.2959 0.695698
-14.0075 -14.5848 0.0290798
-15.6257 -13.2105 -0.0268404
-12.9931 -15.0301 0.318554
-12.3134 -14.6568 -0.291248
-15.2094 -13.277 -1.11068
-11.6133 -16.2558 -0.452875
-14.6235 -13.9114 -1.47917
-13.9493 -13.6237 -1.06229
-14.3936 -13.4454 -1.58783
-12.819 -14.4228 -1.24032
-12.8443 -14.2081 -0.942686
-12.6407 -13.5846 -1.23425
-15.5377 -12.1426 -2.45189
-14.1594 -12.7603 -2.32006
-14.4095 -14.0111 -2.22416
-11.3947 -15.4086 -1.19429
-15.1985 -12.0554 -3.08885
-14.9297 -12.9151 -3.05261
-13.9025 -13.4213 -2.68371
-11.3836 -16.0534 -1.71111
-13.1124 -13.8318 -1.97352
-11.5237 -16.0422 -1.89903
-12.0093 -14.4587 -2.03392
-11.4702 -14.6845 -1.6029
-12.146 -14.3155 -2.06255
-11.6488 -16.1106 -1.90078
-10.9023 -15.7183 -1.82714
-11.4572 -16.0652 -2.33654
-11.8947 -13.4605 3.04485
-12.7439 -13.2553 2.75018
-16.8459 -12.6984 1.75095
-15.498 -12.9895 0.838738
-14.2421 -13.5677 0.95156
-16.2562 -12.6468 0.735333
-15.0704 -13.3117 0.14862
-14.6626 -13.6154 0.789353
-12.4123 -14.6404 0.727602
-15.3888 -13.613 -0.539977
-12.249 -15.4972 0.0808513
-15.3665 -13.0893 -0.668074
-12.432 -14.745 -0.201836
-12.0033 -15.5128 -0.150469
-13.0585 -14.1529 -0.901781
-14.4575 -12.9861 -2.42566
-14.8342 -13.4774 -2.03893
-14.4405 -13.283 -2.5104
-14.0698 -13.7423 -2.18628
-13.1561 -14.1061 -1.54699
-15.4368 -12.5921 -2.97987
-12.9274 -14.1304 -1.64227
-11.5093 -15.7992 -1.80143
-12.0136 -15.136 -1.59517
-11.2915 -16.1116 -2.14832
-11.2204 -15.9848 -2.60021
-13.0453 -14.5319 0.923723
-14.1789 -13.962 0.626995
-15.8364 -13.2273 -0.787233
-12.6234 -14.8157 -0.253655
-13.1164 -14.2895 -2.13427
-11.621 -15.0325 -1.75541
-11.0538 -16.5728 -1.74165
-11.4001 -14.4812 -2.21898
-11.1684 -14.7597 -2.16669
-12.0879 -13.3203 2.63969
-16.4631 -12.766 1.29398
-16.5254 -12.7056 1.13395
-14.4101 -13.0347 0.58224
-12.7589 -15.2605 0.765567
-15.647 -13.5987 0.366665
-14.2636 -13.5688 0.166825
-12.6957 -14.423 0.215802
-15.1331 -12.7698 -0.90414
-12.0711 -15.4321 -0.664681
-12.4328 -15.7144 -0.7343
