-15.7914 -12.9285 -0.821083
-15.4414 -13.621 -0.456067
-15.877 -12.5647 -0.163711
-13.5515 -14.0513 0.280783
-15.4784 -13.4708 0.790809
-16.0706 -13.1764 0.691054
-16.6314 -12.9019 0.817011
-14.4231 -13.3142 1.19533
-14.5015 -13.546 1.21842
-14.9222 -13.7069 1.12824
-14.5161 -13.6051 1.05197
-16.2628 -12.6553 0.727194
-16.2384 -13.0977 0.668891
-15.9219 -13.4602 1.56188
-15.9606 -13.376 1.33029
-12.1258 -13.3429 2.30183
-15.2722 -13.3947 1.65414
-12.3788 -14.3956 -1.71414
-13.2413 -14.1316 -1.42681
-12.6209 -14.1312 -1.24973
-13.4222 -13.8376 -0.912471
-13.7611 -14.1591 -0.654334
-14.6684 -13.278 -0.822847
-14.3915 -13.9813 -0.741406
-13.3453 -14.2133 -0.493691
-13.7397 -13.9923 -0.590582
-15.9773 -12.6676 -0.640509
-15.2687 -13.0776 -0.296904
-14.4373 -13.7843 -0.215386
-13.8378 -14.6647 0.0791459
-14.9808 -13.3184 1.06169
-14.7488 -13.4024 0.179205
-15.6954 -13.1287 0.417385
-14.62 -13.5616 0.750084
-16.525 -12.9663 0.755988
-16.0455 -13.0252 -0.00210151
-15.7523 -13.3608 0.668841
-16.6279 -12.287 0.633069
-16.5408 -12.9488 0.431907
-12.9738 -15.1159 1.2105
-16.3745 -13.0538 0.645455
-12.8771 -12.8052 2.04326
-15.7068 -13.4797 1.35185
-15.7298 -13.6999 1.79345
-14.8017 -13.2735 1.73194
-12.1945 -13.9842 2.5335
-12.3997 -15.0995 -2.02673
-13.03 -13.5744 -1.33585
-14.2839 -13.2665 -1.69433
-15.6997 -12.6891 -0.585435
-14.11 -15.1191 0.722134
-15.9332 -13.1631 0.128585
-16.349 -13.5816 0.335346
-14.1234 -13.5646 1.01
-15.8476 -13.3998 0.0460723
-14.3198 -13.6164 0.842712
-15.8016 -13.4452 0.923818
-16.4796 -12.8929 0.89163
-12.7165 -13.3341 1.91278
-14.9091 -13.7396 -1.9984
-14.3751 -13.8052 -0.145586
-14.3193 -14.0007 -0.20395
-13.7954 -14.0148 0.619424
-15.1666 -13.0398 1.2445
-13.3561 -13.6261 -1.51679
-14.286 -13.3778 -1.61226
-15.0993 -13.1496 -1.18851
-13.1414 -14.5674 0.433298
-13.2412 -14.165 1.38398
-14.5764 -13.5771 1.80988
-13.5088 -13.9981 -0.592513
-12.7866 -14.5964 -0.69587
-12.9951 -14.8838 -0.536975
-15.3817 -12.7505 -0.421001
-15.8205 -13.0932 -0.773191
-16.0947 -13.0017 0.260482
-15.6478 -13.0004 0.363533
-12.9332 -14.7987 -0.75764
-13.7874 -14.5097 -0.453462
-13.3977 -13.9329 0.285564
-13.5975 -14.1202 0.511467
-13.0438 -14.4976 1.15392
-12.8953 -13.1228 1.9285
-15.6039 -13.1022 0.0087561
-13.4114 -14.8227 1.32005
-12.9479 -15.1659 0.0561368
-13.8313 -14.3764 0.563179
-15.745 -12.2358 -2.00011
-15.1098 -12.9246 -1.39052
-15.5213 -12.8889 -1.27734
-14.2786 -13.4707 -1.18735
-12.7348 -13.958 -1.12684
-16.2051 -12.8513 -1.04188
-12.2187 -14.8345 -1.46269
-15.9892 -12.4544 -0.385273
-14.5964 -13.2957 -0.993092
-15.5106 -12.9029 -0.258534
-16.4025 -12.3768 0.1448
-15.1065 -12.9544 -0.472696
-16.4971 -12.7256 -0.147998
-16.1165 -12.6386 -0.151992
-15.7293 -12.9844 0.333868
-14.4167 -14.3582 -0.380026
-16.4193 -13.1612 0.583925
-13.2582 -14.8036 0.0258948
-15.9154 -12.6838 0.687675
-13.8065 -14.0396 0.0595404
-16.0522 -13.5327 0.412787
-15.8541 -13.1633 0.413179
-16.3102 -13.3866 0.736727
-15.2724 -13.4884 0.875567
-16.4167 -12.5377 1.38305
-14.7488 -13.2955 0.730061
-16.678 -12.5714 1.19269
-16.0818 -12.7787 1.00264
-13.6866 -14.7263 0.0702978
-13.5077 -14.799 0.476833
-14.7513 -13.1458 0.896926
-14.9058 -13.7622 0.863557
-16.3968 -13.1996 1.08202
-16.2549 -13.4987 1.41003
-15.1662 -13.4177 1.70601
-16.1101 -13.4271 1.68979
-16.0521 -13.4044 1.27174
-13.8572 -12.9634 1.63281
-14.588 -13.2991 -1.8444
-15.286 -12.753 -1.26471
-14.7474 -13.221 -1.9255
-16.3095 -12.4214 -0.774008
-15.1428 -13.1925 -0.710337
-15.1596 -13.4519 -0.366523
-16.1155 -12.8338 -0.096672
-15.3356 -13.3412 -0.211316
-15.5518 -12.5033 -0.130794
-16.4911 -12.721 -0.0510062
-14.2311 -14.0643 -0.0781259
-15.4581 -13.0492 0.185154
-15.9664 -13.165 -0.474031
-15.8456 -12.3312 0.887455
-15.7474 -12.862 0.28115
-16.6494 -13.0262 0.990461
-15.8229 -13.3651 0.272676
-13.5727 -14.6214 0.358685
-13.0655 -14.7333 0.541595
-14.8422 -13.1669 1.29651
-12.4474 -15.6094 -0.162628
-15.9817 -12.9256 1.36341
-12.8131 -13.1489 2.07498
-14.7482 -13.6673 -2.08574
-14.27 -13.7996 -2.58633
-11.7897 -14.885 -1.14899
-12.2429 -14.3046 -1.3407
-15.348 -13.3761 -1.12706
-16.2858 -12.6829 0.148208
-14.3217 -13.8435 0.00427488
-15.5591 -13.9897 0.431445
-15.1729 -13.215 0.385658
-13.7656 -13.9486 0.317231
-15.7585 -13.3522 1.28362
-15.955 -13.4071 1.42913
-15.0474 -13.2958 1.85926
-14.0695 -13.553 -1.91658
-13.9288 -13.606 -1.3458
-15.4176 -13.196 -0.767896
-15.1124 -13.0889 -1.26459
-15.4015 -13.3375 -0.109634
-12.654 -14.5174 -0.539668
-16.4485 -12.9343 0.459742
-14.4537 -14.2572 -0.00820718
-16.7394 -12.7955 0.539153
-16.0472 -13.223 1.08424
-15.7124 -13.0876 0.516591
-13.3524 -14.3002 0.433568
-15.7109 -13.4192 1.09061
-16.209 -13.6477 0.98182
-13.8414 -14.8764 0.774858
-13.6802 -14.6362 1.20463
-15.1979 -13.1846 1.79294
-12.5318 -12.7298 2.29877
-14.3193 -13.6577 2.29663
-14.7898 -13.5208 2.36081
-14.0049 -13.5422 -2.41936
-11.7431 -14.4658 -1.95633
-15.868 -13.1592 1.6082
-13.0879 -14.9269 0.970525
-12.9404 -14.4691 1.15579
-14.6086 -13.4247 -0.32966
-13.7805 -14.1035 0.344545
-13.9129 -14.0987 0.932925
-12.6141 -12.7883 2.07936
-15.3909 -13.1714 -0.37626
-12.4518 -15.2288 0.249313
-14.8617 -13.6156 1.77345
-15.0522 -13.0552 -0.377617
-13.4098 -13.7099 -1.23058
-11.7107 -14.5954 -1.63882
-14.5877 -13.0457 -1.90046
-15.292 -13.5558 -0.17239
-15.4941 -13.2605 0.146056
-12.9838 -14.2667 -0.964724
-12.096 -14.6554 -1.87106
-14.4173 -13.5046 0.903868
-15.7654 -13.9259 1.21056
-15.4295 -13.7069 1.65216
-12.5927 -14.7443 -0.176225
-13.139 -14.7167 0.676122
-12.8496 -15.0977 0.956656
-16.1184 -12.8226 -1.10587
-15.7221 -12.2505 -0.813488
-14.3972 -13.7088 -1.27028
-16.293 -13.576 0.275483
-16.071 -12.7651 0.285555
-15.6074 -13.0591 1.3437
-15.2829 -13.2441 1.41394
-16.1432 -13.5801 1.98303
-13.2693 -14.5432 0.630409
-13.2263 -14.3185 1.27234
-15.5982 -12.3882 -1.31823
-14.4116 -13.2441 -1.72921
-13.8777 -13.2042 -1.91314
-12.4755 -14.883 -0.770622
-10.8568 -16.0811 -2.45164
-13.6614 -14.4263 -0.289597
-15.9456 -13.8631 1.27587
-13.6502 -14.4753 0.174929
-13.7736 -14.5708 0.61599
-12.8464 -15.9248 0.0446025
-16.3403 -12.3853 -1.0227
-12.77 -15.2174 0.32887
-12.6361 -15.593 -0.00108482
-12.6506 -15.7839 -0.55607
-14.5515 -12.7699 -1.73581
-15.1322 -13.2393 0.202348
-14.1242 -13.3855 -0.851815
-15.6877 -12.9658 0.521729
-11.552 -15.7522 -1.35828
-17.0227 -12.9344 0.715633
-13.6382 -14.3849 1.05438
-13.6132 -13.1577 -1.07165
-13.6303 -15.0621 0.326343
-13.5338 -14.7531 0.194778
-11.552 -14.7514 -1.7629
-15.5375 -12.2024 -1.5896
-15.7294 -12.3814 -1.78449
-15.4485 -12.7889 -1.02574
-16.3733 -12.4897 0.535123
-14.1713 -13.5857 -1.5776
-14.6364 -13.4734 -1.11075
-14.6866 -13.4972 -0.371302
-14.138 -13.379 -0.719499
-16.3179 -13.4689 1.11122
-12.8376 -14.1092 -0.767592
-13.486 -14.3833 -0.570986
-13.7448 -14.343 0.438292
-13.3204 -13.1526 2.27756
-14.8519 -13.3008 -1.91008
-16.2113 -12.6912 0.0410012
-12.8101 -13.5964 -1.72587
-14.9583 -13.534 1.15552
-13.2819 -14.2636 -0.812026
-13.2553 -14.434 -0.648085
-13.3815 -14.2295 -0.231775
-13.6229 -14.4683 -0.123696
-13.8131 -14.3999 0.321621
-12.7683 -15.2051 0.802216
-15.8436 -12.6311 -0.775493
-15.2818 -13.4476 -0.991076
-14.6132 -13.7036 -1.23489
-15.3582 -12.8088 0.529183
-11.7231 -14.8461 -1.22068
-15.0244 -13.7742 1.44045
-13.8296 -14.2516 0.257613
-13.4145 -14.3994 0.647395
-13.1744 -14.9797 -0.0357897
-12.4642 -15.2499 -0.230553
-12.4669 -15.024 0.61454
-14.3522 -13.3052 0.972373
-14.1421 -14.0259 1.22779
-13.9999 -14.3648 0.165448
-12.4495 -15.6427 -0.0583783
-15.9578 -13.2765 0.886586
-13.7617 -14.4142 -0.642852
-16.684 -12.8613 0.0571701
-12.9898 -14.3291 -0.242204
-15.2899 -13.294 -0.440127
-14.8215 -13.4268 -0.520693
-14.4398 -13.2955 -1.70896
-15.7893 -12.9442 -1.61749
-15.9973 -12.8489 0.136608
-16.1613 -12.7093 0.217009
-15.6115 -12.5817 -0.350186
-15.9 -12.627 0.191263
-15.3381 -13.287 -0.515875
-15.3011 -12.8286 -0.722347
-14.9459 -13.2229 -1.64291
-14.8038 -12.9633 -1.11883
-15.4117 -13.6256 -0.501059
-13.3527 -13.6084 -1.72458
-12.8822 -13.7206 -1.33319
-13.1369 -14.3069 0.132063
-13.4256 -14.6957 0.311358
-12.7372 -14.8358 -0.102558
-12.58 -14.9328 -0.0482113
-12.1867 -14.5239 0.0532686
-12.5014 -15.5904 0.0589964
-15.87 -13.1961 0.0292526
-15.4905 -13.4079 -1.43499
-15.7753 -13.3188 0.0249275
-14.3143 -13.3968 -1.53017
-14.2258 -13.7158 -2.50059
-13.8989 -14.474 0.100766
-12.7216 -14.2163 -0.695713
-12.6966 -14.988 -0.666569
-12.4557 -14.978 -0.0144351
-12.9916 -15.2634 -0.236123
-13.2852 -15.6217 -0.0341798
-12.5253 -14.6165 0.0848027
-13.1918 -15.3137 -0.201698
-15.887 -12.4849 -1.7608
-16.5048 -12.2693 0.274069
-16.7904 -12.3577 0.759546
-16.0252 -12.2913 0.0159731
-15.9964 -12.6968 0.0227173
-15.2407 -12.9446 -0.78025
-13.4206 -13.623 -2.35461
-14.3754 -13.8439 1.82057
-13.3869 -14.7736 -0.659783
-12.6502 -14.8472 -0.233073
-12.2858 -15.0657 -0.141577
-16.1892 -12.6414 0.452901
-14.7368 -13.1427 1.0081
-15.6334 -13.3117 1.95828
-14.0158 -14.3941 -0.295282
-13.3331 -14.1456 0.651577
-12.3658 -15.1236 0.230295
-12.6789 -15.6874 0.174271
-12.6799 -15.0997 -0.0960896
-12.8005 -15.6649 0.614911
-12.2853 -15.1107 -0.0346005
-12.6965 -14.9919 0.932198
-13.5647 -14.0362 -0.222111
-15.5204 -12.9865 0.0259288
-12.8274 -14.1828 -0.468365
-11.9619 -15.586 -0.157571
-16.4303 -13.2279 0.270351
-13.539 -14.7873 0.771398
-14.5507 -13.638 -0.969712
-12.9418 -14.5951 -0.4987
-13.2333 -12.891 2.56173
-15.0263 -13.3229 -0.516135
-16.3704 -12.185 -0.683005
-16.5898 -13.1011 0.375659
-15.8336 -12.1453 -2.11016
-16.495 -12.9617 0.0810152
-15.5435 -12.7018 -1.32158
-16.073 -12.8857 0.529099
-15.4649 -12.8362 -1.67592
-16.0866 -12.5904 0.22104
-15.8379 -13.3872 0.0208676
-15.2593 -12.642 -1.56852
-15.2596 -12.7916 -1.74325
-15.6437 -12.7826 -0.465706
-15.9106 -13.7459 1.77813
-15.2003 -13.5285 -0.671616
-14.7507 -12.882 -2.0145
-14.9946 -12.8066 -1.49286
-14.72 -13.7052 -1.75942
-14.5153 -13.6723 -1.58367
-14.6608 -13.5917 -2.20602
-14.5881 -13.9487 -0.606008
-14.3672 -13.9926 0.109009
-14.3376 -13.8466 0.079152
-13.8816 -14.4897 -0.153243
-13.1487 -14.0791 -0.545198
-14.0361 -14.1433 0.299338
-13.7761 -14.3868 -0.40598
-13.7168 -13.9653 0.0228498
-13.4865 -14.1478 -0.416503
-13.6549 -14.8095 0.704166
-12.8826 -12.8891 2.06014
-13.2413 -14.6686 -0.778963
-13.1654 -14.6562 0.682654
-12.0484 -14.7329 -1.58388
-12.471 -14.0649 2.04131
-12.5249 -14.9412 -0.299801
-12.773 -14.9364 0.0893641
-12.9493 -14.848 0.589371
-11.9816 -15.729 -0.373452
-15.9292 -12.2595 -0.938554
-15.5039 -12.728 -1.69109
-15.6779 -13.2296 -1.35672
-15.0542 -13.2274 -1.38279
-16.1444 -12.7564 -1.03471
-15.6721 -12.8539 -1.25991
-15.4763 -12.2241 -1.42134
-15.1811 -13.1133 -1.32516
-15.5893 -13.3173 1.00066
-15.5865 -13.2743 -0.418556
-14.9591 -13.4535 -1.09965
-14.54 -13.5167 0.946832
-14.6916 -13.1817 1.2915
-14.0725 -13.5757 -0.597962
-14.7001 -14.2726 0.452932
-12.882 -13.4516 -0.892596
-13.0276 -14.6827 0.830445
-12.9893 -14.7508 0.97017
-12.9665 -14.9679 -0.140321
-12.7079 -14.858 0.288883
-12.7491 -14.725 -0.182757
-12.8741 -15.2221 -0.266232
-12.6861 -15.0787 -0.132171
-12.1909 -15.2247 0.183577
-12.6293 -15.53 -0.296904
-16.2305 -12.2422 -0.881121
-16.1963 -12.5453 -0.461948
-15.7306 -12.9445 -0.725831
-14.8222 -13.3741 -0.271992
-14.9239 -13.5799 1.47867
-14.5106 -13.6411 -1.0721
-13.6565 -13.9607 -0.825274
-13.2235 -14.4383 0.168934
-13.8055 -13.5654 0.0726243
-13.7319 -14.4502 0.839816
-12.9098 -14.6436 -0.349343
-12.8016 -14.7968 1.10343
-12.073 -13.5995 2.27894
-12.5596 -14.9681 -0.257738
-12.6098 -14.6676 0.014584
-12.4734 -14.9988 -0.744124
-12.8371 -15.0235 0.0804552
-12.9527 -14.5621 0.0650822
-12.3997 -15.3081 -0.694691
-15.9958 -13.0098 -0.652352
-15.1604 -12.5399 -1.77381
-13.0978 -14.4385 -0.513557
-13.1836 -14.3994 -0.682343
-12.6389 -14.1726 -1.53506
-12.7419 -15.06 -0.209091
-12.5702 -15.0672 0.122997
-12.7756 -15.5617 0.438968
-12.8235 -15.8772 -0.579489
-11.6805 -15.5305 -1.32269
-15.8434 -12.4342 -1.63001
-15.7549 -12.3836 -0.838916
-16.2409 -12.7061 0.33322
-15.7602 -12.5695 -1.67729
-15.9016 -13.2263 -0.213701
-14.491 -14.3916 0.238083
-13.7587 -14.1416 0.156213
-13.5668 -14.2114 0.282474
-13.3142 -14.5229 0.281517
-13.7882 -14.6247 -0.479317
-13.3715 -14.5579 -0.0492051
-13.1309 -15.0323 0.940643
-12.6272 -13.8213 2.81589
-12.0577 -14.9604 -0.0505796
-12.4391 -15.0585 -0.0126113
-11.7848 -15.0619 -1.41927
-16.5607 -12.6608 -0.127912
-16.073 -12.6584 0.305273
-14.5937 -13.3759 1.08551
-12.8973 -13.7942 -0.636366
-13.6755 -14.1484 -0.401056
-13.5686 -14.3876 0.357658
-13.5666 -14.0268 -0.192843
-13.2707 -15.4544 0.215978
-12.7664 -14.5764 0.162224
-11.9044 -15.3438 -0.436454
-12.9857 -13.8828 -1.18523
-12.5673 -14.6959 -0.365293
-13.0527 -12.7926 2.38308
-13.286 -14.0345 -0.113887
-13.4785 -14.8926 -0.151547
-11.7765 -15.1253 -1.74834
-13.6187 -14.2029 -0.327294
-16.45 -12.7482 0.559751
-15.8718 -12.1739 -1.8959
-15.603 -12.9142 -1.06482
-15.0782 -12.1046 -1.61761
-15.8237 -12.8888 -1.75783
-14.906 -13.5034 0.65578
-15.4981 -12.8363 -1.67503
-15.3422 -12.4113 -1.41416
-14.9176 -12.7967 -1.16667
-14.9203 -13.225 0.78123
-14.7781 -13.3203 0.490099
-14.5098 -13.262 1.27363
-15.3428 -13.2274 -1.83185
-14.5363 -13.1932 -1.59144
-14.743 -13.3019 -1.27047
-14.837 -13.0669 -1.97906
-14.2335 -14.1189 0.116136
-13.7703 -14.456 0.033912
-12.9122 -14.6386 -0.408729
-12.2874 -14.4651 -1.82898
-12.3863 -14.7926 -1.82698
-16.2132 -11.9572 -0.978814
-15.8082 -12.0912 -2.28827
-15.8046 -12.316 -1.55088
-15.8016 -12.7324 -0.928582
-15.7664 -12.4976 -0.585613
-15.6224 -13.5405 -1.00872
-15.8123 -12.7933 -1.30765
-15.1636 -12.7259 -1.57277
-15.8035 -12.4812 -1.29355
-15.6239 -13.3822 -0.952618
-14.7308 -13.3464 1.50991
-15.4556 -13.1312 -1.6037
-15.0843 -13.568 -1.17624
-14.8236 -13.6303 -0.863886
-14.1315 -13.4929 -2.03475
-14.5411 -14.2685 -1.70902
-13.8765 -14.037 -0.294642
-13.7954 -14.1256 -0.346672
-14.1831 -13.6905 -0.298744
-12.4414 -13.0554 2.32579
-13.4555 -14.2279 0.104026
-12.2994 -13.458 1.78615
-12.4794 -13.5416 2.10437
-12.5523 -15.1118 -0.286341
-12.2813 -15.4178 0.149198
-16.2901 -12.692 0.0164616
-15.6721 -13.0848 -0.0366137
-14.9847 -13.2242 1.84278
-15.4773 -13.2716 -0.204026
-15.507 -12.6762 -1.75384
-15.6316 -13.0056 -1.1824
-14.8138 -13.8038 2.16104
-15.0279 -13.3141 -1.25818
-14.4742 -13.8096 0.376745
-14.6905 -13.2903 -1.83664
-14.0119 -13.7646 -0.708746
-13.4788 -14.5281 1.02236
-13.1381 -14.6586 0.577763
-13.5601 -14.593 0.242777
-13.2325 -13.96 -0.872968
-13.52 -14.2745 0.244389
-13.6425 -14.3908 -0.333034
-12.8147 -14.8546 0.179557
-12.2895 -15.3696 -0.0275254
-12.9112 -15.063 0.493274
-12.7572 -15.5215 0.344719
-12.9199 -15.4831 0.435746
-12.399 -15.1354 0.736612
-12.7086 -14.9781 -0.386364
-12.8387 -15.1197 -0.611481
-12.586 -14.2489 -1.36664
-12.1536 -14.8001 -1.5927
-16.1135 -12.8332 0.518236
-15.7925 -12.7643 0.852031
-15.6134 -12.3891 -0.941115
-16.3173 -12.7446 -0.611275
-15.714 -13.0072 0.101412
-14.437 -12.9287 0.558738
-14.8967 -13.215 -2.37313
-13.8584 -13.8977 -0.492137
-13.6174 -14.6095 0.932586
-13.6597 -14.051 -0.0251368
-13.2316 -14.3107 -0.0136145
-13.8784 -14.0721 -0.557836
-12.657 -13.7714 -1.30812
-12.4574 -15.1464 0.0319525
-12.7414 -14.6413 0.0562656
-12.5116 -14.996 -0.175441
-16.4673 -12.1687 -0.416045
-15.9157 -12.9 -0.903879
-15.976 -12.985 -0.602149
-15.8886 -13.3715 0.725172
-14.4853 -13.6458 0.224373
-13.5143 -14.0905 0.0981787
-12.5977 -15.3421 0.250617
-14.8198 -13.5449 2.22243
-13.9764 -14.1095 0.104515
-13.7784 -14.2964 0.377127
-14.6227 -14.1684 0.234904
-13.7378 -13.5353 -1.16261
-12.798 -14.604 -0.282168
-12.3921 -14.4281 -1.1
-12.0223 -14.4957 -1.16517
-12.5166 -14.4694 -1.23953
-15.461 -13.1467 -0.660908
-16.0532 -13.4894 -0.344364
-14.5407 -13.5754 1.19876
-14.9808 -12.8867 -1.33327
-15.8448 -13.7127 -0.558107
-15.2389 -13.2506 -1.24612
-15.5975 -12.8587 -1.2301
-15.4404 -13.2241 -0.732435
-15.137 -13.3921 -0.856585
-14.8956 -12.8286 -1.75335
-14.271 -13.5577 -0.0987752
-14.8168 -13.5662 -1.55345
-14.0311 -13.977 -0.523439
-14.4461 -14.1543 -2.0917
-12.847 -15.0452 0.922275
-12.8804 -14.6364 0.588006
-12.907 -13.831 -0.55567
-12.9496 -14.4527 -1.00112
-13.0255 -13.9811 -1.90588
-12.7725 -13.9443 -1.5036
-12.2222 -15.2333 0.275914
-12.5864 -14.1454 -1.66833
-12.8501 -14.53 -1.45838
-12.3554 -13.6619 -1.76255
-12.3731 -14.6254 -1.93948
-12.321 -14.4724 -1.79542
-12.203 -14.2756 -1.52085
-12.0749 -14.3816 -1.63795
-11.7321 -14.2232 -1.89074
-16.6661 -12.2962 -0.0817624
-15.4148 -12.5011 -0.582013
-16.1269 -12.7418 -0.898344
-14.9555 -13.3094 0.915109
-16.4973 -12.4621 -1.28776
-15.8398 -12.9882 -0.892785
-15.6384 -12.9664 -1.19181
-15.6204 -13.1548 -0.396159
-15.4959 -13.2891 -0.451088
-13.6943 -14.4963 -0.482998
-12.7933 -14.9562 -0.525093
-14.74 -13.1182 1.71485
-15.6377 -13.0027 -0.252268
-15.6803 -13.3847 0.481953
-16.0203 -13.1706 0.409683
-16.1224 -12.3692 -0.678108
-16.0331 -12.43 -1.69781
-15.4974 -13.1609 -0.444114
-14.2531 -14.1563 1.17868
-15.3405 -12.8871 -1.13113
-13.9324 -14.0384 0.5335
-14.898 -13.845 -0.931729
-15.0923 -13.0355 -2.11526
-13.8365 -14.3991 1.00909
-13.6069 -14.3534 0.624175
-12.4233 -13.6875 2.4009
-13.3337 -14.4937 0.558961
-13.7624 -14.3269 0.522381
-13.588 -14.2382 0.318726
-13.6934 -14.1576 -0.217995
-13.646 -14.6277 -0.431028
-12.8808 -14.8862 -0.0604071
-12.2428 -14.8924 0.183307
-11.9435 -14.9367 -0.852384
-16.1979 -13.0319 0.308696
-15.5378 -13.4847 0.404119
-14.8945 -13.4185 0.732112
-14.6079 -13.7259 0.775802
-13.4658 -14.4348 1.19234
-13.6095 -13.4411 -1.61083
-12.2994 -14.7229 0.777643
-12.7602 -14.8444 0.126216
-12.1715 -15.8483 -0.173744
-12.0005 -15.4566 -1.27983
-15.991 -12.7911 0.483814
-14.7704 -13.105 -0.541561
-14.7843 -13.4633 -0.526423
-13.806 -14.1216 -0.109701
-12.1413 -13.3154 2.5218
-12.9505 -15.1837 0.679755
-12.99 -15.0005 0.190564
-11.9127 -15.7304 -0.557747
-15.8881 -13.3855 0.42966
-13.9788 -13.7229 -0.163354
-13.0491 -14.553 -0.100163
-13.3461 -14.3806 -1.23721
-11.7428 -14.9917 -1.51193
-14.3487 -13.554 1.45149
-14.7564 -13.5894 2.02412
-15.4033 -13.2696 -0.175947
-12.7139 -14.616 -1.60044
-12.4823 -14.2961 -0.909955
-12.8344 -14.4435 -1.48555
-11.6135 -15.6177 -1.09106
-14.4736 -14.0938 0.170067
-16.1249 -13.313 1.38827
-16.3915 -13.4343 0.363567
-16.2829 -13.2016 0.63256
-14.929 -13.1703 0.794278
-15.5089 -13.5399 0.162024
-14.8612 -12.693 1.26095
-14.4978 -13.8603 0.828465
-15.9189 -13.0057 -0.554373
-15.8969 -12.1216 -1.26018
-16.2489 -12.9053 -0.898558
-15.5488 -12.8584 -0.455299
-15.9926 -12.483 -0.333725
-15.11 -13.0986 -0.78216
-14.8912 -13.1461 -0.200168
-15.3456 -13.2547 -0.41983
-15.0109 -13.4771 0.130412
-15.5271 -12.2705 -2.03348
-15.6715 -12.5395 -1.71272
-15.0329 -12.8113 -1.04038
-15.4224 -13.8858 -0.562091
-15.4987 -12.9294 -1.35181
-13.7164 -14.4038 0.636411
-13.8284 -13.9374 -0.179306
-13.5539 -14.1465 0.0250181
-15.3292 -12.452 -1.69932
-14.7222 -13.5534 -0.791173
-14.5573 -13.5149 -1.50169
-14.2201 -13.8999 -1.15197
-14.626 -13.432 -1.12821
-15.168 -13.3025 -1.87583
-14.4371 -13.1027 -1.94477
-14.915 -13.2741 -1.90412
-14.3401 -13.2591 -1.6214
-12.2282 -15.5407 0.149593
-13.5501 -13.9359 -2.45065
-12.4585 -13.8959 -1.56671
-17.4225 -12.7295 1.14892
-16.2666 -13.3 0.914157
-14.7203 -13.4792 1.80069
-15.1376 -13.3135 1.57594
-16.035 -13.2284 0.401156
-16.083 -12.3075 -1.19399
-15.7284 -12.9967 -0.307353
-15.8136 -12.4748 -1.08982
-12.8453 -13.2464 1.56744
-15.4306 -13.0291 -0.169862
-15.5739 -13.1376 -0.821018
-16.4823 -12.3179 -1.70133
-15.8957 -12.304 -1.4263
-15.7301 -12.5016 -1.56034
-15.0128 -12.9525 -0.946274
-16.0452 -12.1446 -1.53759
-13.5127 -14.3281 0.576741
-14.8579 -14.0908 -0.177209
-15.2707 -13.1672 -1.65294
-13.1806 -14.7004 1.19102
-14.1805 -13.6421 -0.551602
-14.3207 -14.3905 -0.677192
-13.2061 -14.0948 0.515584
-14.801 -13.4102 -1.12829
-13.4742 -14.1811 -0.171643
-13.4056 -14.7644 -0.0913448
-13.1102 -14.1017 0.0696862
-13.9632 -14.5604 -0.192405
-14.2366 -13.699 -1.34711
-14.2361 -13.9136 -1.70805
-13.5693 -13.8815 -0.944221
-13.3924 -13.8506 -0.520934
-13.1181 -13.5096 -0.804965
-13.7276 -13.5589 -2.35263
-12.254 -15.2733 -0.482097
-13.8824 -13.8577 -2.64164
-12.7974 -13.4796 -1.46097
-12.5214 -14.4818 -1.43875
-14.7043 -12.9703 1.78781
-16.1449 -13.5601 0.451585
-16.0538 -13.1087 0.227687
-15.3844 -13.1287 -0.537763
-15.7953 -12.8358 -0.958425
-15.1899 -13.4519 -0.463442
-13.9874 -14.1078 1.09082
-13.8992 -14.1462 0.619352
-13.3376 -14.7367 1.22279
-15.6222 -13.1012 -1.35574
-13.6563 -14.2664 0.895552
-13.6234 -14.3323 0.27762
-15.2093 -12.5694 -1.77231
-14.0809 -14.2444 -0.177752
-14.5445 -13.2479 -1.73072
-13.6085 -13.7705 -0.181201
-14.8321 -12.8014 -1.36775
-12.5733 -14.7452 0.424649
-12.2951 -15.202 -0.190884
-12.2034 -14.6091 -1.4533
-16.2924 -13.1513 1.4076
-16.7467 -12.5775 0.482911
-16.3589 -13.3583 0.30599
-15.7879 -13.488 0.136045
-15.4573 -12.824 -0.821796
-16.2092 -12.626 -0.691591
-14.0934 -13.9947 0.988684
-13.321 -14.2275 0.618958
-13.6903 -14.5433 0.153082
-13.5278 -14.1531 0.5859
-13.3639 -14.2521 0.0407525
-14.5889 -13.4764 -1.72633
-12.9607 -15.0733 0.458345
-12.6584 -14.9908 0.104567
-12.7555 -13.8443 -2.09648
-11.7955 -14.5619 -1.14688
-12.6513 -14.026 -1.80049
-11.8486 -14.5194 -2.19944
-12.3783 -14.195 -1.85976
-16.558 -12.881 1.57536
-15.693 -13.4354 0.147176
-14.3736 -13.3172 0.784381
-12.7181 -13.0428 2.00795
-14.6666 -14.1841 -0.52304
-13.4161 -13.9536 0.973792
-13.6674 -14.4308 0.546305
-13.6812 -14.674 0.409416
-13.1723 -14.3965 -0.0819226
-12.9323 -14.6061 -0.31882
-14.5993 -13.5216 1.64038
-15.7899 -13.3356 0.572575
-14.0494 -14.3132 0.881662
-14.4106 -14.5668 -0.00537623
-13.4237 -14.9454 0.874462
-13.6898 -14.5309 -0.866143
-13.6969 -14.7999 -0.90495
-14.8728 -14.0418 1.40272
-14.7413 -13.6207 1.21241
-13.6802 -14.4523 0.277806
-14.1402 -13.8977 -0.646343
-14.0502 -14.732 0.535638
-14.4064 -14.4116 -0.275347
-12.103 -15.3149 -0.765258
-16.3828 -13.1064 1.10105
-16.039 -13.1425 0.310537
-16.5562 -12.6408 0.491219
-16.5749 -12.8892 0.443923
-16.1117 -13.3839 0.139165
-12.5498 -13.055 2.34406
-15.844 -13.4241 0.591185
-15.8105 -12.9586 0.400901
-12.2879 -13.5164 2.27934
-15.8315 -13.3929 0.29394
-14.3541 -13.8052 1.15472
-14.9716 -13.4996 0.953382
-15.4684 -13.407 -0.265359
-16.0501 -13.0039 0.519214
-16.1815 -12.0742 0.403934
-14.4647 -14.2034 1.20102
-14.5836 -13.5208 1.02213
-15.6872 -12.8243 -0.171334
-16.0233 -12.467 0.0128724
-15.6182 -13.4954 0.31052
-14.0973 -14.4576 1.0125
-16.0512 -12.6334 -0.185587
-15.8797 -12.9178 -0.912937
-14.3223 -13.7282 0.434887
-14.9833 -13.2905 -0.00935025
-12.9881 -14.9682 1.14805
-15.9669 -13.0263 -0.42687
-15.6621 -12.5328 -1.02919
-16.6429 -12.6671 -0.672719
-15.6035 -12.9105 -0.618697
-15.6225 -12.4967 -1.33912
-15.5984 -12.6081 -0.539179
-15.7088 -11.9208 -0.761218
-15.9627 -12.5482 -1.05396
-15.5177 -12.7789 -1.46892
-15.2712 -13.0205 -0.367834
-13.2085 -14.3569 0.717063
-16.2721 -11.8966 -1.00691
-15.5993 -13.5664 -0.512948
-13.8645 -14.2063 -0.0134056
-13.5934 -14.6174 0.407728
-15.7763 -12.9759 -0.823959
-15.667 -12.4883 -1.5162
-15.2338 -13.3804 -0.930601
-16.0071 -12.5487 -1.27
-16.2078 -12.2181 -1.41729
-13.4958 -14.3649 0.0222564
-16.358 -12.8005 -1.60955
-15.4287 -13.1847 -0.951375
-15.8325 -12.2942 -1.57035
-14.6768 -12.8489 -1.31104
-15.3905 -12.7646 -1.43594
-14.6134 -13.7041 -1.09799
-15.3887 -11.9019 -1.59625
-16.0593 -12.0761 -1.46127
-15.7415 -12.19 -1.60856
-15.7279 -12.352 -1.64987
-13.6931 -14.4602 -0.0557351
-16.166 -12.5536 -2.02122
-14.2133 -13.8964 -1.19053
-15.6413 -13.5597 -0.929686
-15.4196 -12.6648 -2.20871
-12.7713 -14.8166 -0.786721
-14.9111 -13.7864 -1.88493
-12.1323 -15.6276 -0.153945
-12.7682 -15.0392 -0.312664
-15.2752 -12.4961 -1.47479
-14.8722 -13.0998 -1.27819
-14.4539 -13.0009 -1.88886
-15.1155 -12.7047 -2.14689
-14.3648 -13.2278 -1.81928
-14.6526 -13.5269 -1.5206
-14.0856 -13.6873 -1.38301
-14.0059 -13.4572 -2.34137
-14.7768 -13.1645 -2.04519
-14.7478 -13.6304 -1.78298
-14.3996 -13.4905 -2.20086
-16.7279 -13.1162 1.46143
-13.7778 -13.3108 2.46576
-14.9428 -13.4437 1.65184
-16.403 -13.1942 0.878111
-16.3594 -12.4085 0.43081
-16.4479 -12.8179 0.292667
-15.9669 -13.6578 1.02154
-16.3075 -13.2036 0.29922
-16.1074 -13.315 -0.37003
-16.1123 -12.9894 -0.265061
-16.0835 -12.6429 0.0587668
-16.0272 -12.7212 -0.474202
-13.0646 -14.9566 1.06375
-13.6082 -14.9552 1.26331
-15.6147 -13.096 -0.503837
-16.3445 -12.4449 -0.689697
-15.9612 -13.1544 -0.776679
-16.24 -12.4528 -0.911549
-14.3574 -14.174 0.206736
-15.1817 -13.1313 0.206207
-15.59 -12.8538 -0.616426
-15.3521 -13.9236 -0.513082
-14.0357 -14.0295 -0.201787
-15.2272 -13.5502 -0.483896
-13.921 -13.8681 0.194474
-13.7296 -14.4465 0.539686
-15.6366 -12.4617 -1.45095
-15.6231 -12.5975 -1.58983
-15.2841 -13.1628 -1.42629
-13.3183 -14.3804 -0.718999
-15.7799 -12.6229 -1.48487
-13.5868 -13.4958 -0.516657
-15.2423 -12.7226 -2.01481
-14.9734 -13.2826 -1.81819
-14.8252 -13.1985 -1.40241
-15.1325 -12.4732 -1.85131
-15.538 -12.3301 -1.33518
-14.7452 -13.3594 -1.06368
-13.4794 -14.2459 -0.475066
-15.411 -12.6378 -1.93236
-15.0076 -13.59 -1.87872
-14.5447 -13.0238 -2.07921
-14.687 -12.7866 -2.14303
-15.4767 -13.0692 -2.08989
-13.5234 -13.4837 -1.79015
-11.9555 -15.2514 -0.89738
-14.0775 -13.5935 -1.96061
-12.7344 -14.2302 -1.3375
-14.3143 -13.2255 -2.33303
-14.4439 -13.3333 -1.84437
-12.5737 -14.8478 -0.848071
-14.249 -13.589 -2.0816
-12.9314 -13.6889 -1.40973
-12.3403 -14.566 -1.24427
-11.6068 -15.6492 -1.6294
-16.3528 -13.7332 1.43714
-15.1039 -13.313 1.38409
-16.4381 -13.2928 0.826922
-15.2879 -13.2858 1.48787
-14.8012 -13.3758 1.21668
-15.7995 -12.8692 -0.0419928
-14.8072 -13.3895 0.536976
-14.507 -13.2547 0.649682
-15.2952 -13.7094 0.472154
-15.7988 -13.7112 0.396271
-13.969 -13.7789 0.937936
-13.3231 -14.8267 1.30091
-15.4704 -12.9312 -0.851141
-16.0782 -12.8537 -0.310355
-15.8375 -12.6436 -0.712573
-15.5218 -12.8964 -0.346945
-14.7664 -13.4035 -0.674429
-14.519 -13.9712 0.0749933
-14.5517 -13.1027 -0.492758
-15.9831 -12.0509 -1.59624
-13.756 -14.1767 0.187926
-16.0076 -12.4986 -1.29123
-13.1037 -15.1109 0.518031
-12.8061 -15.6184 0.147388
-15.6784 -12.6186 -1.41674
-12.5265 -15.4858 0.15922
-12.1895 -15.0867 -0.320771
-14.4007 -13.895 -1.83703
-12.9331 -14.7359 -0.888897
-14.2203 -12.7999 -1.89299
-12.8155 -14.085 -1.91229
-12.709 -13.6877 -2.0267
-15.8907 -13.5253 1.18643
-13.943 -13.9531 0.814884
-14.8021 -13.172 0.680859
-14.4716 -13.4601 0.218158
-13.7154 -14.6631 0.869001
-16.2884 -12.3616 -1.32777
-14.958 -13.8101 0.0231274
-15.5072 -13.2329 0.0468701
-15.8068 -12.7749 -1.32006
-14.5337 -13.2587 -1.80661
-12.9385 -14.5792 -1.27992
-13.1148 -14.3751 -1.41154
-12.7968 -14.5804 -1.52192
-16.4054 -13.1155 0.432909
-16.0123 -13.4571 0.296962
-15.6468 -13.3785 -0.0121986
-15.8827 -12.9656 0.051861
-15.4223 -13.1617 -0.210234
-15.8418 -13.279 -0.577249
-15.2021 -13.547 -1.01382
-15.5005 -13.1639 -0.782168
-14.7001 -13.7591 -0.992356
-14.7131 -13.9179 -1.36015
-14.2801 -14.2137 -1.68973
-13.6591 -13.3938 -1.71169
-12.3392 -14.4694 -1.00215
-12.6014 -14.2413 -1.67421
-12.1645 -15.0306 -1.54596
-10.6104 -16.3667 -2.3095
-12.336 -13.2035 2.54483
-13.3622 -14.3081 0.119122
-14.1484 -14.3434 -0.174622
-15.1261 -13.1617 -2.01529
-12.6795 -13.5063 -1.90418
-13.8796 -14.1127 0.908096
-15.3202 -13.4401 0.1026
-13.4609 -14.4559 -0.641568
-14.2544 -14.1516 -1.83637
-13.4037 -13.474 -2.15049
-15.7078 -13.3342 -0.485185
-14.3006 -14.3206 -0.629309
-13.6905 -14.2569 0.775195
-12.8296 -14.5936 -1.31932
-13.9378 -13.7887 0.093476
-12.5602 -15.2297 -0.395094
-12.6427 -14.3527 -1.09959
-12.6722 -14.1308 -1.84127
-13.0757 -14.0279 -1.57726
-12.9357 -13.9252 -0.903182
-13.1873 -13.9632 -1.71005
-14.5507 -13.0651 -1.9919
-15.5882 -12.6535 -1.81908
-14.7331 -13.3742 -1.31542
-13.9523 -14.0447 -1.06842
-13.9069 -13.8156 -0.977714
-15.6023 -12.3501 -1.04672
-15.4834 -13.1657 -0.561086
-15.0554 -12.7026 -0.682823
-16.2908 -12.8185 -0.404688
-14.7757 -13.4014 0.274929
-15.2332 -13.2788 -0.205347
-15.1924 -13.2353 -0.303916
-13.8701 -14.157 0.356549
-14.5965 -13.3696 0.352
-13.9375 -14.376 0.596312
-14.4999 -13.103 0.592903
-14.616 -13.425 0.228505
-16.4295 -12.9747 0.365011
-15.7691 -13.0367 -0.0577601
-15.6366 -13.2484 0.589605
-14.7736 -13.3982 0.748084
-15.5308 -13.4155 0.789711
-15.8089 -12.8557 0.713163
-16.0078 -13.4026 0.48628
-16.1409 -13.7399 0.661033
-16.8563 -12.5888 1.03312
-15.8313 -13.1797 0.464311
-16.4293 -12.7767 0.414467
-15.698 -13.1611 0.705293
-14.6279 -13.3162 1.23834
-14.6611 -13.4091 0.841052
-14.689 -13.4861 0.962679
-16.5367 -12.8615 1.1628
-15.8787 -13.4695 0.862542
-16.3892 -13.023 0.342576
-16.3981 -12.7289 1.06586
-16.2789 -13.0489 1.22491
-16.9375 -12.9366 0.650092
-16.233 -13.4754 1.71843
-15.43 -13.894 0.976674
-12.5931 -13.4935 1.98258
-16.1749 -13.6626 1.36863
-15.0668 -13.455 1.94779
-13.1956 -13.773 -1.64673
-14.1958 -13.4492 -0.755716
-12.2855 -15.4894 -0.615689
-12.6859 -15.0749 -0.21734
-15.9072 -12.3441 -0.850068
-15.4031 -13.2698 -0.10369
-14.9799 -13.2476 -0.511119
-15.8862 -12.9107 -0.424549
-15.8206 -13.2594 -0.111272
-15.7408 -13.4778 0.0210898
-15.2842 -13.337 -0.12488
-16.086 -12.7553 0.0965542
-13.0819 -14.5964 0.510806
-15.642 -13.3953 0.105403
-15.8251 -13.4161 0.517097
-12.8185 -14.8242 1.59949
-12.7992 -15.079 1.1554
-16.6605 -12.3017 0.510647
-16.1043 -13.8551 0.786372
-12.8475 -12.8955 2.41911
-12.8987 -12.9582 2.223
-13.6494 -13.0248 1.99077
-15.6358 -12.6275 -0.35281
-15.0416 -13.2139 -0.35591
-14.9692 -13.595 0.312658
-15.5503 -13.672 0.185045
-15.9745 -13.6709 0.380505
-15.0615 -13.0847 1.03358
-12.6747 -14.9222 0.800526
-14.2304 -13.9946 1.05527
-16.5854 -13.0877 0.656713
-16.2791 -13.0931 1.11678
-14.4869 -13.8055 -1.51097
-14.8488 -13.0202 -0.446866
-15.0682 -13.287 -0.207873
-15.2579 -13.1997 -0.410373
-15.1804 -13.3153 -0.14786
-15.142 -13.5597 0.0193427
-15.7169 -13.4714 0.340505
-16.505 -12.9507 0.455174
-12.5367 -12.8261 2.26726
-13.308 -12.7516 2.47847
-13.8935 -13.9435 -1.012
-14.8524 -12.9391 -0.022303
-15.1867 -13.3803 0.122073
-14.8588 -13.3725 0.647665
-16.575 -13.528 0.840999
-14.8505 -13.5329 1.54592
-14.3973 -13.5185 1.19951
-13.8916 -13.7759 -2.17816
-13.7837 -13.8943 -1.34318
-15.9552 -12.9712 0.373024
-12.7574 -14.8573 0.510335
-15.9008 -13.0571 -0.00127731
-13.5804 -14.4512 0.732757
-16.436 -13.0441 1.45267
-15.3502 -13.5614 2.05682
-15.1667 -13.0209 -0.177325
-14.0981 -14.1385 0.215289
-12.6059 -15.2169 0.0638514
-13.4041 -13.9631 0.585884
-13.8775 -14.3421 1.42819
-14.4741 -13.3177 0.960169
-15.5489 -13.4071 -0.280943
-13.1417 -14.4947 0.613412
-12.7307 -14.8521 -0.227006
-13.5683 -14.4059 0.359585
-13.385 -12.4539 2.36419
-15.5886 -13.0797 0.00942642
-16.1837 -12.5211 -1.64738
-15.1688 -12.9447 -1.56303
-12.7378 -14.1349 -1.63682
-13.5557 -13.7762 -1.47508
-15.1931 -13.4012 -1.18929
-16.3482 -12.3568 -0.994004
-16.0521 -12.9513 -1.03484
-14.6535 -13.6433 -1.4013
-15.8785 -13.1251 -0.271361
-16.4002 -12.4931 -0.341135
-15.5258 -13.2733 -0.448374
-15.4216 -13.3932 -0.865235
-15.4885 -13.1884 -0.884037
-16.1401 -12.9572 -0.481221
-13.564 -14.4005 -0.135839
-15.9601 -12.8757 -0.20961
-16.4145 -12.5597 0.435455
-15.6957 -13.6416 0.188742
-15.8659 -13.0749 0.467709
-15.7063 -13.6499 0.171975
-15.0915 -13.5352 0.719938
-15.7193 -13.3571 0.340092
-16.0606 -12.9935 0.208888
-16.0856 -13.2255 0.683535
-12.8447 -14.6996 0.575386
-16.1821 -13.6906 0.956314
-16.3147 -13.3453 1.13462
-14.6544 -13.6296 0.795114
-16.7385 -12.6494 0.904423
-16.1349 -12.9768 1.29924
-13.3674 -14.4362 1.15748
-13.079 -14.6812 0.674121
-13.0303 -14.922 1.04425
-16.1249 -12.8053 1.44637
-14.5793 -13.068 1.72741
-13.1851 -12.8707 2.3208
-14.4585 -13.1673 -2.36262
-15.3994 -12.4273 -1.48373
-12.8546 -13.7885 -1.45874
-15.7227 -13.2237 -0.0233324
-14.9969 -13.4268 0.176928
-11.7916 -15.6397 -0.528548
-13.3099 -14.1141 0.709385
-15.9072 -12.9099 0.669787
-15.646 -13.6505 0.469302
-15.9426 -13.0956 0.748318
-16.1439 -12.9883 1.27551
-14.8011 -13.2077 1.61089
-15.8977 -13.8165 1.43461
-15.2166 -13.346 1.78683
-15.1274 -13.0498 1.83129
-14.1116 -13.6486 -1.55208
-16.0353 -13.0179 -0.191395
-16.4571 -12.9121 0.72351
-13.6167 -14.4112 0.208943
-13.3432 -14.7555 0.176911
-15.8904 -13.1161 0.949829
-12.8451 -14.8786 1.14201
-15.8781 -13.1558 0.926232
-15.0878 -12.7415 2.54516
-12.6436 -13.2918 2.20654
-11.9568 -14.0045 -1.54596
-12.9366 -14.4034 -0.857618
-15.0695 -13.2204 -0.616978
-14.2124 -13.4163 -0.143421
-12.3184 -15.1847 -0.619784
-13.0209 -15.1552 0.614729
-16.1102 -12.9216 1.499
-15.8827 -13.5377 0.0510553
-15.8736 -13.1384 0.629134
-14.9379 -13.4848 2.15256
-12.3466 -13.3709 2.46513
-15.6316 -13.4642 -0.872758
-15.8826 -12.8016 -0.104593
-14.8525 -13.6281 1.12558
-13.8548 -13.5147 -0.216759
-16.0544 -13.1002 0.381046
-15.129 -13.2028 0.0557022
-13.8747 -14.8352 0.843156
-13.1219 -13.092 1.78881
-12.8449 -14.3323 -1.2284
-14.9522 -13.8451 0.686649
-14.9454 -12.8065 -1.33603
-16.571 -12.1017 -0.861049
-16.2589 -12.7579 0.151633
-16.353 -12.3503 0.69183
-16.2286 -13.3717 0.941795
-16.1339 -13.4823 1.53694
-15.9492 -13.6482 1.33394
-14.7941 -13.1004 1.4239
-14.8668 -13.5178 1.72094
-15.7489 -12.4655 -1.88874
-16.2159 -12.9568 -0.396238
-15.1522 -13.1235 -0.385285
-15.8008 -13.23 0.380611
-14.6525 -13.7892 0.493748
-12.5271 -14.8393 1.03431
-14.3691 -14.1634 -0.558812
-16.472 -13.1112 0.883272
-13.454 -13.417 -1.89251
-14.619 -13.6928 1.04576
-13.3664 -14.0547 0.90118
-12.7843 -15.0899 1.07252
-15.0438 -13.5767 -0.364278
-14.1742 -13.7325 -0.21497
-15.6451 -13.0924 0.309593
-15.532 -13.1567 0.758256
-13.7345 -14.4372 0.310322
-13.4283 -14.5726 -0.944455
-16.0963 -12.562 0.213228
-12.9109 -14.8713 -1.31124
-15.0358 -13.4531 1.30174
-12.5675 -15.203 -0.256036
-13.3332 -15.4963 1.12249
-16.2519 -12.527 -0.0622624
-16.6437 -13.083 -0.609597
-15.5484 -13.3559 0.738293
-15.7947 -13.4804 0.372947
-14.7889 -13.1951 1.58197
-15.1481 -12.8119 1.76128
-14.6818 -13.5549 0.564058
-13.3311 -14.1301 -1.09505
-16.313 -12.9254 0.344958
-16.2129 -12.8356 0.00842512
-15.0499 -13.3579 -0.545293
-15.0086 -13.164 0.864043
-12.5845 -15.2829 0.765471
-16.1425 -12.4907 -0.0482217
-14.7105 -13.5726 0.573577
-13.3208 -14.4381 -0.809742
-13.39 -14.2795 0.795511
-12.5837 -15.3062 0.126526
-12.49 -15.2012 0.475316
-12.6571 -15.1348 0.594267
-16.2146 -12.7231 0.0945546
-16.6319 -12.8041 0.1801
-14.519 -13.5909 1.55809
-14.7399 -13.2223 1.83061
-12.8236 -15.8062 -0.0475651
-16.4636 -12.7507 0.242029
-16.3388 -12.4897 -0.0692357
-16.0993 -12.8809 0.374783
-15.509 -13.0455 -1.27709
-14.2915 -13.2828 -2.31926
-14.132 -14.1622 -2.18878
-14.4738 -13.6576 1.37794
-13.0008 -14.5495 -1.0855
-12.8175 -14.1977 -0.832623
-13.8683 -14.1863 -0.405322
-13.511 -14.3156 -1.32839
-14.1149 -13.5395 -0.0620033
-13.895 -14.3972 0.00125597
-13.5968 -14.7564 0.197801
-13.5426 -14.5507 0.447836
-13.1932 -14.9222 -0.542858
-14.025 -14.5496 0.521032
-12.5056 -15.087 -0.238347
-12.7167 -14.9001 0.0201096
-13.6545 -14.094 -0.103346
-13.8821 -14.6364 -0.160087
-12.9071 -14.9194 0.547001
-12.9954 -15.2055 0.391036
-12.8033 -15.6389 0.518566
-12.3126 -15.2418 -0.590575
-14.3774 -13.4077 -0.72725
-13.7237 -13.7677 -1.64725
-15.6755 -13.1153 1.99193
-12.5506 -15.3723 0.172297
-14.3375 -14.0903 -1.69839
-15.9521 -12.4058 -1.74534
-16.234 -12.4625 0.198901
-15.8872 -12.7251 0.415834
-15.3941 -12.8276 -1.83043
-15.7578 -12.9892 0.100731
-14.3115 -13.8401 -0.0338936
-13.8862 -14.1965 -0.303469
-13.2876 -14.5956 0.422358
-12.5821 -15.2036 0.234745
-16.1947 -12.2564 -1.8504
-15.4096 -13.1871 -2.11152
-14.3964 -13.5337 0.921221
-13.8236 -14.3385 0.368445
-13.6234 -14.6064 0.0925557
-12.7887 -12.9066 2.55885
-12.2767 -14.71 0.10051
-12.9025 -15.0624 -0.379281
-11.2991 -15.8231 -2.80683
-16.2357 -12.7377 -0.774808
-15.9003 -13.0773 -0.64285
-15.5962 -13.066 -0.808561
-15.3552 -12.9539 -0.76009
-14.6909 -13.3111 -1.35693
-13.9159 -14.3456 -0.275833
-13.368 -14.6587 -0.17263
-12.7354 -14.2751 -0.914325
-13.7586 -14.5029 -0.184631
-12.6317 -15.072 -0.244808
-12.7716 -15.04 0.714318
-14.4972 -13.0251 -2.49749
-14.866 -13.2807 1.92518
-12.1957 -15.1602 -0.136827
-12.2429 -15.6138 -0.319932
-12.0709 -15.2748 -0.265886
-12.5806 -12.7888 3.01315
-12.9428 -14.6038 -0.119606
-16.5735 -12.7688 -0.270093
-15.5357 -12.7948 -1.7563
-15.1438 -13.278 -0.256024
-14.4702 -12.9526 -1.67141
-14.2524 -13.2665 -2.37084
-14.5954 -13.7953 0.858149
-14.5273 -13.1664 0.364038
-14.4618 -14.1787 1.01073
-12.7807 -15.074 -0.26382
-12.6739 -14.5859 0.0357399
-16.0198 -12.1866 -1.75592
-15.7649 -12.6607 -1.66665
-14.7028 -13.1399 -2.16349
-14.585 -13.3455 1.94369
-14.8805 -13.6929 1.69173
-13.2915 -14.1696 0.176699
-13.6621 -14.0927 -0.233529
-13.2455 -14.1496 0.716257
-13.4314 -14.3103 0.338336
-13.7882 -14.2607 0.722751
-12.5767 -15.0802 -0.213646
-12.7242 -15.2643 -0.277343
-12.2863 -15.452 -0.455983
-13.0641 -14.8318 0.699219
-15.5991 -12.6713 -1.13424
-14.7571 -12.6148 -2.08885
-14.8984 -12.7358 -0.554147
-15.3405 -13.367 1.40643
-13.7556 -14.1654 0.094621
-13.3617 -13.9476 -0.0168958
-12.7564 -14.8883 -1.05861
-12.2188 -13.7517 2.04704
-12.0531 -15.2388 -0.43989
-16.2936 -12.4516 -1.18831
-16.237 -12.6483 -0.84335
-16.4409 -12.5316 0.413671
-14.8433 -13.6493 0.406677
-14.7488 -13.6382 1.22936
-13.6112 -14.7277 0.730697
-13.9151 -14.19 -0.187716
-12.4428 -14.1747 -1.12338
-12.5199 -14.7465 -0.035974
-13.031 -15.2318 -0.407874
-13.7652 -14.6922 -0.250735
-12.7774 -14.521 -0.341288
-12.4096 -15.6315 0.171237
-14.6754 -13.2775 1.85031
-15.2246 -13.6116 1.05569
-13.2121 -13.6031 -1.45649
-13.076 -14.7236 -0.0853713
-12.6545 -15.172 -0.582931
-12.0024 -15.4439 -0.724178
-15.25 -13.0704 1.88467
-15.4613 -12.5108 -1.81765
-15.4657 -12.7766 -0.566584
-15.4542 -13.0543 -0.496563
-16.3553 -13.0023 -1.3877
-15.2875 -12.7113 -0.917411
-15.0919 -13.5488 1.54692
-14.3528 -13.6045 -1.76392
-14.7201 -13.9767 -0.85755
-14.479 -13.4508 -2.03538
-13.1315 -13.0556 2.75446
-12.9654 -15.6632 0.472542
-12.3751 -15.0361 0.273009
-12.6697 -15.3526 0.0221195
-12.5746 -15.0768 -0.458553
-12.1417 -14.4921 -1.55566
-16.3025 -12.2193 -1.53612
-15.9896 -12.8494 -0.598496
-15.7632 -12.4344 -1.54364
-15.9544 -12.7463 -0.0761836
-15.3579 -12.2214 -1.348
-15.2884 -12.979 -1.66223
-14.8248 -12.8961 -1.99203
-14.9977 -13.2967 -0.876902
-14.7682 -13.6332 1.71188
-14.8388 -13.4519 -2.00987
-12.5632 -13.0225 2.27084
-13.8719 -14.582 0.424425
-13.571 -13.8327 -0.380643
-13.5469 -14.4006 0.400652
-13.2912 -13.4607 1.98036
-13.5255 -14.3459 -0.479694
-12.6109 -13.4355 2.03704
-12.8517 -14.8756 0.218278
-12.28 -15.5494 0.534458
-12.6418 -14.807 -1.28235
-12.6231 -15.4179 -0.473923
-12.7945 -14.9838 0.151356
-12.8115 -14.9789 -0.36939
-12.5898 -15.5398 0.0346273
-16.3942 -12.3632 -0.561911
-16.1151 -12.8347 -0.011857
-15.2673 -12.5549 -1.94752
-15.2102 -12.9505 -0.705358
-15.3864 -13.3101 -1.02843
-14.9434 -13.4976 -2.11895
-13.8287 -14.1531 -0.574028
-12.8645 -13.6146 -1.17351
-14.1356 -14.05 -0.104615
-13.2359 -14.3699 -0.123231
-13.6994 -14.89 -0.0856491
-12.7008 -13.4426 2.25015
-13.0678 -15.0567 0.532359
-12.7247 -15.1371 0.0158566
-12.8186 -15.2758 -0.212893
-15.5624 -12.8651 -0.635009
-15.5311 -12.4314 -1.45543
-14.829 -13.0726 1.17029
-13.7187 -14.367 -0.0521951
-13.6477 -14.3056 -0.422902
-13.6318 -14.3545 -0.436673
-13.8895 -14.6798 -0.267698
-12.7985 -14.5056 -1.11616
-13.1235 -15.082 0.195892
-12.535 -15.1741 -0.0467174
-13.778 -14.3782 -0.176013
-12.9858 -13.775 -1.22722
-12.9205 -15.5768 0.475137
-14.8323 -12.9823 1.05643
-12.042 -15.4941 -0.257219
-15.839 -12.1241 -1.63164
-16.2476 -12.684 -0.825634
-15.7525 -12.4811 -1.27575
-15.6044 -12.9788 -0.850562
-15.4058 -13.2336 -0.915394
-15.2827 -13.1156 -1.16836
-14.9503 -13.1152 -2.24816
-15.2462 -13.0311 -2.09308
-14.1539 -13.9032 0.0329115
-14.5079 -13.4533 -2.44462
-16.4711 -13.1219 0.5241
-16.1425 -12.1074 -0.713201
-15.6973 -12.8904 -0.747208
-15.7204 -13.3947 -1.12026
-14.4375 -13.575 -0.0135584
-13.593 -12.9843 2.39083
-14.4192 -12.909 -1.34203
-13.931 -14.2813 1.19818
-14.0979 -14.008 0.125641
-13.1768 -14.2223 -0.020735
-12.6618 -13.2922 2.78647
-13.5652 -14.0208 -0.12459
-13.2731 -14.7225 -0.0282794
-12.8623 -15.3366 0.785837
-12.2917 -14.9956 0.694835
-12.9743 -15.2507 0.666631
-12.3064 -15.0606 0.254183
-12.3759 -15.631 0.582399
-12.6252 -15.1261 -0.237809
-12.8113 -15.1719 0.457847
-12.1945 -14.3836 -1.56873
-12.1124 -15.1971 -0.271623
-15.1802 -13.0988 -1.02566
-14.9483 -13.2658 0.0906844
-13.8706 -14.2275 0.475491
-13.4593 -13.8415 0.156363
-13.1915 -14.1532 -1.45881
-12.8445 -15.1954 0.209195
-12.8244 -15.0617 0.0857101
-12.7266 -14.6485 0.240241
-13.0803 -14.9851 0.199485
-12.0105 -15.8656 -0.438658
-15.3016 -12.9264 -0.379618
-13.9562 -13.883 -0.804321
-13.8102 -14.5069 -0.0547962
-13.5006 -14.7451 0.423697
-13.7568 -13.4444 -1.74674
-12.9842 -14.2953 -0.986644
-12.7998 -15.8585 -0.734064
-16.1564 -12.6261 0.054425
-13.7283 -14.6595 -0.0673049
-13.4056 -14.4771 -0.0795121
-12.0039 -13.8597 1.93472
-14.5618 -13.8276 -1.06686
-13.1463 -14.9608 -0.255094
-13.0985 -14.9787 0.604448
-13.3439 -13.4102 -1.05283
-12.8426 -14.5869 -1.37553
-12.7758 -15.0161 -1.48158
-16.0275 -12.7765 0.38227
-16.1493 -12.751 -0.981072
-16.0054 -13.0258 -0.446994
-14.7693 -12.7865 0.749288
-15.5966 -12.9678 -0.317595
-14.6884 -13.522 0.54734
-14.851 -13.1521 -1.08138
-14.7983 -13.1812 -2.18059
-13.6742 -14.4837 0.15052
-13.4817 -14.5569 -0.243962
-13.9294 -13.9703 0.359922
-13.0181 -13.6064 -1.40023
-13.0838 -13.5459 -1.63775
-12.4277 -13.7352 -1.88731
-16.2981 -12.4199 0.181769
-16.5723 -12.9581 0.0849883
-15.6423 -13.2624 -1.01912
-13.619 -13.6812 0.942274
-15.2217 -13.1247 -1.96279
-14.6562 -13.8713 0.283107
-14.597 -13.6577 0.634317
-14.3411 -13.6485 -0.61047
-12.3922 -13.2919 2.23452
-14.3908 -13.4825 -1.22192
-14.1198 -14.2538 -0.0523219
-14.8077 -13.0655 -1.43274
-14.469 -14.1015 -0.2708
-14.0714 -14.4217 -0.237313
-13.5867 -14.1664 0.195383
-12.1426 -13.4628 2.19157
-12.6532 -14.604 0.293842
-12.5991 -15.0382 0.308955
-15.555 -12.3995 -1.03758
-15.4954 -13.19 -0.577629
-14.8446 -13.4096 -0.0600455
-15.5898 -12.5056 -2.20289
-12.6619 -13.7576 2.6366
-13.6885 -14.5183 0.55453
-13.8689 -14.3335 0.276917
-14.7193 -12.9532 -2.17564
-13.6606 -14.3706 0.0585967
-14.1874 -14.2166 0.118841
-13.5775 -14.6102 0.478472
-12.5159 -15.04 -0.83673
-12.0854 -16.0862 -0.291328
-12.3633 -14.731 -1.45093
-16.0793 -13.0601 0.710968
-16.0486 -12.7773 0.254912
-14.791 -12.9109 0.644513
-15.4302 -13.2994 -0.34365
-13.5241 -14.2144 -0.0752745
-13.2503 -14.4353 0.554525
-13.4078 -14.4532 0.229342
-13.5224 -14.3771 -0.371667
-15.0291 -13.3304 1.5139
-12.759 -15.5983 0.258772
-14.6954 -13.9784 -0.0512547
-13.0405 -13.4509 2.06755
-12.0863 -14.4803 -0.443278
-12.536 -15.6195 -0.216916
-12.7238 -13.0405 2.38634
-14.7137 -14.2742 0.138105
-14.4575 -14.3503 0.036455
-13.7298 -14.46 0.625335
-15.2242 -13.3963 -0.331138
-15.9996 -12.9903 -0.0528715
-16.2431 -12.012 -1.43601
-15.5437 -12.8305 -0.374566
-16.119 -12.8249 -0.358581
-15.5834 -13.1047 -0.525086
-15.2795 -13.156 -0.690772
-15.6863 -13.3698 -0.518746
-15.2022 -13.4015 -0.137943
-15.2798 -12.7258 -0.742984
-15.1282 -13.2009 -1.29922
-15.0116 -12.9489 -1.61198
-15.1708 -13.4117 -1.04675
-14.9789 -13.6348 -1.77818
-15.8011 -13.2114 -1.46103
-15.3905 -13.1578 -0.99542
-15.2693 -12.9765 -1.79046
-13.6909 -14.3603 0.727699
-14.4187 -13.802 -0.257605
-15.1403 -13.0862 -1.66655
-15.176 -12.9814 -1.43972
-14.9628 -13.0859 -1.57435
-13.1265 -14.4352 0.553424
-12.7505 -13.7004 -1.78488
-12.7931 -13.9375 -2.13444
-16.642 -12.2638 -0.0148879
-15.881 -12.9862 0.385171
-16.2964 -12.8794 0.0959261
-15.716 -13.3083 0.358842
-12.8901 -13.3422 2.04745
-14.2401 -14.1262 0.2508
-15.4173 -12.6037 -0.981135
-14.9438 -13.1223 -0.616373
-15.4204 -12.7518 -1.37153
-15.188 -12.6817 -1.74521
-13.8951 -14.2519 -0.115747
-13.5196 -14.5388 0.758228
-13.7771 -14.0674 0.711634
-14.6769 -13.5497 -1.1571
-13.5047 -13.8668 0.0851209
-15.1771 -12.0195 -1.89186
-13.4894 -14.7467 0.0490518
-14.5653 -13.3076 -1.56832
-16.7692 -13.2478 0.54133
-15.9043 -12.7738 -1.11423
-15.833 -12.9635 0.0905921
-14.7186 -13.6425 0.789317
-13.1146 -13.0107 2.27243
-14.7069 -13.9319 1.25035
-12.705 -12.7731 2.13657
-15.9407 -12.9714 -1.10133
-13.3881 -14.6894 0.384707
-13.5518 -14.8374 0.62922
-12.9471 -15.0481 0.140039
-13.0735 -15.0267 0.181008
-16.2817 -12.6344 0.274201
-15.0418 -13.2794 0.790009
-14.5264 -13.8818 0.0914456
-14.853 -13.5605 -0.767516
-13.5813 -14.1598 0.355788
-13.4325 -14.3982 -0.342934
-13.7193 -14.4129 -0.376436
-12.2504 -14.8659 0.636041
-12.785 -15.0718 0.111756
-14.4885 -14.1965 0.164956
-13.9811 -13.9517 -0.857453
-12.3977 -15.7731 -0.474548
-12.5174 -14.494 -1.38956
-15.0861 -13.4887 1.40395
-15.3592 -12.4053 -1.16377
-13.3043 -14.2516 0.785543
-12.56 -14.7258 -0.551093
-13.0404 -14.1011 -0.924508
-13.7109 -13.9962 -0.568888
-14.0923 -14.059 -0.399054
-14.9031 -13.3415 1.64201
-15.9377 -13.2488 0.253481
-15.1202 -13.0795 0.803163
-15.3466 -13.3855 0.314068
-15.9709 -13.0831 -0.119168
-15.5681 -12.8507 -0.178765
-14.7588 -13.3704 0.966406
-14.009 -13.8382 0.932633
-15.5102 -12.9959 -0.180493
-14.0264 -14.0829 0.844922
-15.2941 -13.5324 -0.39885
-16.4801 -12.703 -1.46981
-15.6687 -12.9692 -0.558372
-14.1777 -14.0249 0.475857
-15.7967 -12.8349 -1.48449
-15.4141 -13.0963 -1.01054
-15.4803 -12.2352 -1.31934
-15.0656 -12.3631 -1.49807
-12.7006 -15.1053 0.474002
-14.7506 -13.1231 -1.70839
-15.1709 -13.0317 -2.07591
-14.295 -12.9906 -1.71161
-15.9921 -13.7603 1.01519
-16.0259 -13.2312 0.508028
-14.2402 -13.0995 0.65146
-16.0582 -12.3755 -1.24675
-15.9185 -13.2195 -0.198252
-16.5014 -12.2393 -0.963132
-15.4589 -13.2642 -0.330836
-13.7411 -14.2973 1.2872
-13.7826 -14.2889 0.451308
-15.9335 -12.9111 -0.558291
-15.2862 -13.8075 -0.517167
-15.1188 -13.1966 -0.645559
-14.1968 -14.1866 0.0187669
-15.4528 -13.0761 -1.14716
-13.32 -14.3524 0.825362
-15.5378 -12.8252 -1.37023
-13.3334 -14.4279 -0.0259839
-15.4547 -12.3732 -1.28275
-14.9421 -13.1789 -1.13305
-13.1085 -14.6131 0.822289
-14.2659 -13.7407 -0.965569
-12.3089 -15.0005 0.166762
-12.4734 -15.9988 -0.270702
-12.9825 -15.0511 -0.510548
-11.7809 -14.7122 -1.28608
-12.0484 -14.4438 -1.69497
-15.775 -13.5634 1.71991
-14.9499 -13.6929 1.43653
-16.6653 -12.7415 0.30307
-15.6483 -13.1967 0.509332
-15.4148 -13.1123 0.569354
-15.7231 -13.2515 0.306572
-12.8976 -13.2385 2.2556
-15.9704 -12.298 -0.920242
-16.1131 -12.797 -0.487995
-15.8511 -13.1539 -0.403836
-13.9677 -13.8979 0.112999
-14.1733 -13.6477 -0.401971
-12.9399 -14.5766 -0.172061
-14.9923 -12.6633 -1.64872
-14.365 -13.5399 -2.15193
-12.8471 -14.1591 -1.13304
-12.9815 -12.8777 1.66644
-15.0176 -13.2855 -0.101749
-13.9701 -13.9273 -0.373048
-14.1063 -13.7435 -0.167135
-12.4587 -15.3471 0.225569
-13.2398 -14.6611 -0.223419
-12.0861 -15.2867 0.097264
-12.0616 -14.6695 -1.25918
-14.6302 -13.581 1.07156
-14.4426 -14.1447 0.496024
-13.5649 -14.0747 -0.783963
-13.4243 -13.9861 -0.494654
-14.7149 -12.8781 -2.18084
-12.6062 -14.0427 -2.11616
-11.4953 -14.7988 -1.75477
-16.549 -13.0088 0.171822
-14.6593 -13.2806 1.03341
-13.8624 -14.1468 1.0681
-13.5109 -14.0727 -0.500332
-13.0481 -14.8893 -0.523099
-12.6799 -15.1118 -0.395475
-16.5453 -13.6893 1.32797
-14.8646 -13.398 1.62731
-16.5486 -13.2281 0.801615
-16.2112 -13.091 0.441327
-15.7546 -13.1947 0.340712
-15.8495 -13.3178 0.463175
-13.7837 -14.0049 0.617933
-15.6548 -13.2081 -0.00728486
-15.871 -12.8773 0.0194886
-13.1784 -14.8758 1.02801
-15.5665 -12.5995 -0.827532
-16.4555 -12.2936 -0.781981
-15.7587 -13.019 -0.341032
-12.7803 -14.3979 0.87384
-15.9932 -12.1557 -0.903355
-16.6971 -11.7934 -1.09452
-13.6761 -14.4437 -0.414378
-15.7278 -12.8801 -1.52416
-15.514 -12.8052 -1.72172
-12.89 -14.9137 -0.239015
-15.7056 -12.8571 -1.86655
-15.9167 -12.0777 -1.93843
-13.0355 -14.7156 -0.861378
-14.7836 -13.2868 -1.62746
-14.3532 -13.6452 -1.98909
-11.8043 -15.8561 -2.28736
-11.4097 -15.575 -2.23208
-16.19 -13.3551 0.0113205
-15.4472 -13.346 0.187772
-14.7726 -13.7642 0.535867
-15.6038 -12.9116 -0.837686
-14.9653 -12.9455 -0.65491
-15.3252 -13.4384 -0.55221
-14.939 -13.1797 -0.476087
-16.2667 -12.6358 -1.43183
-15.3859 -13.0145 -1.23841
