-13.5746 -14.0774 -1.18957
-15.7202 -12.7468 -0.951834
-14.2222 -14.0986 -1.06894
-13.491 -14.2393 -1.02763
-13.8198 -13.679 -0.612398
-16.3506 -12.2058 -0.261409
-13.184 -14.6026 -0.732776
-17.1235 -12.2594 -0.00626158
-16.5552 -13.1347 0.46017
-15.1184 -12.93 -0.398614
-13.0369 -14.3831 -0.578053
-13.7887 -14.4081 -0.160032
-15.3827 -13.8407 0.237897
-16.856 -12.7194 0.3861
-16.6877 -12.8171 0.652466
-17.3314 -12.6199 0.368734
-17.6491 -12.3717 1.03606
-17.4809 -12.1446 0.771536
-17.5177 -12.3256 0.495055
-13.3061 -14.6429 0.337444
-17.107 -12.6565 0.48691
-17.0839 -12.6097 0.765191
-16.9351 -12.3991 0.866406
-14.462 -13.8778 0.968328
-13.7185 -13.7426 0.934444
-13.8235 -12.5666 1.74611
-13.3266 -12.913 1.69274
-12.9615 -12.628 1.93989
-13.2139 -13.1309 1.8438
-14.2057 -13.0358 -2.93152
-16.1559 -11.8626 -2.35013
-15.4287 -12.3523 -2.79969
-15.2269 -13.1785 -2.61406
-13.6701 -13.2557 -2.128
-15.0742 -13.0629 -2.22209
-14.8573 -12.6588 -2.27349
-11.9766 -15.6387 -2.16761
-12.2049 -15.605 -2.48219
-13.2531 -13.9029 -1.27549
-16.1257 -12.7498 -1.1029
-12.3681 -14.8106 -0.596091
-14.6617 -13.3352 -0.308236
-14.2275 -14.3191 -0.174319
-12.9962 -14.7535 -0.487054
-13.8539 -14.6729 0.323814
-16.5333 -12.6907 0.186063
-16.4287 -12.784 0.370513
-15.2163 -12.9434 0.454164
-14.3064 -13.7245 0.0887879
-13.3785 -14.3588 0.98957
-13.3461 -14.5856 1.43167
-14.3881 -13.1186 -3.37066
-13.0046 -13.4636 -1.90955
-12.2591 -13.9398 -1.95061
-15.3279 -13.015 -2.25412
-11.8639 -15.4592 -2.4779
-14.9712 -13.1156 -1.50895
-14.4834 -13.4353 -0.219146
-12.147 -14.8715 -0.53808
-16.897 -12.6692 0.0753045
-16.9205 -13.1888 0.103998
-16.6627 -12.8109 -0.0102562
-16.6597 -12.9266 -0.0528979
-14.0788 -13.7552 0.38197
-14.8156 -13.346 0.564645
-15.4 -12.4006 -2.55598
-13.1317 -14.2312 -0.984865
-16.1158 -13.3054 -0.315033
-16.7138 -12.4383 -0.117682
-13.7627 -14.1666 0.111058
-13.7255 -14.1945 0.470897
-13.6199 -14.3769 0.841752
-13.4954 -13.1939 -1.69177
-15.5602 -13.0953 0.304948
-13.798 -14.2299 1.05376
-13.6741 -13.4882 -1.99458
-14.7712 -13.8823 -0.287249
-14.7693 -13.505 -0.46736
-13.0702 -12.8377 2.56691
-13.1148 -13.963 -1.52018
-13.3417 -13.8809 -0.911821
-13.7409 -13.7725 -1.65063
-13.2957 -13.9579 -1.06207
-13.6979 -14.315 0.107103
-12.8125 -14.2341 -1.65459
-15.7535 -12.3519 -2.03086
-15.7526 -12.4045 -2.80149
-16.522 -11.8825 -2.30201
-15.8036 -12.7284 -1.59565
-12.3686 -13.8063 -2.04165
-15.7448 -12.4619 -1.81138
-12.4199 -13.7913 -1.58419
-15.9787 -13.3186 -1.02403
-15.5548 -12.855 -1.68165
-13.2476 -13.0722 -1.43347
-13.4264 -13.5597 -1.28348
-12.0769 -15.1754 -2.64441
-13.3642 -14.0372 -1.24402
-12.6971 -14.0483 -1.56555
-12.637 -14.2808 -1.43467
-16.464 -12.1678 0.151981
-13.0478 -14.0828 -1.17476
-13.3128 -13.677 -1.2903
-13.7878 -14.2684 -1.30132
-13.5091 -13.6857 -0.73856
-11.9901 -15.2556 -2.32912
-16.2128 -13.5312 0.0476534
-11.7604 -15.3434 -2.30357
-13.5086 -14.1008 -0.935297
-13.9749 -14.0981 -0.169356
-11.9237 -15.6043 -2.02542
-14.2748 -14.0015 -0.354617
-14.0755 -14.2545 -0.107617
-14.8334 -14.0193 -0.296934
-13.1398 -14.2988 -0.732728
-14.1431 -13.5014 0.298489
-13.3094 -14.8648 -0.270654
-14.7984 -13.6818 0.601525
-13.5147 -14.9807 0.115097
-13.872 -14.2518 1.12496
-13.7754 -14.5918 -0.0465955
-13.7739 -14.8793 0.725398
-12.4589 -15.4923 0.18245
-13.205 -13.4257 1.95308
-12.9008 -14.283 -1.94343
-13.7665 -13.4541 -1.68374
-13.3027 -13.4035 -1.48236
-13.5436 -13.395 -1.37849
-13.3137 -14.1349 -1.85238
-17.0869 -12.3545 -0.0222128
-17.2542 -12.804 -0.236898
-12.2182 -14.898 -2.36378
-13.8881 -13.7421 -0.332202
-16.5072 -12.8198 0.764893
-15.6307 -12.8142 0.678596
-11.9133 -15.1442 -2.17487
-11.9687 -15.433 -1.93278
-14.6626 -13.8001 0.747246
-13.9854 -14.007 -0.15236
-14.6233 -13.7586 0.810892
-13.4111 -14.3829 -0.226604
-12.9196 -15.0505 -0.473005
-12.7059 -15.0215 -0.662087
-13.3904 -14.9507 0.31799
-13.3812 -15.2856 0.121261
-12.9768 -14.8235 -0.133163
-12.3315 -13.3948 -2.22963
-13.8674 -13.2891 -1.55719
-13.5988 -12.871 -1.65116
-16.0864 -12.7412 -0.3072
-16.8487 -12.193 -0.0745537
-11.8865 -15.2179 -2.33458
-16.9639 -12.7149 -0.132001
-16.3981 -13.1781 0.505237
-17.3478 -12.5787 0.273499
-14.9591 -13.3389 0.0354929
-15.3983 -12.9931 0.939536
-14.0407 -13.9804 -0.624124
-14.0632 -14.0801 -0.0166953
-14.1523 -13.7075 -0.305251
-14.8231 -13.0889 1.31138
-12.4308 -14.9652 -1.4278
-13.4636 -14.9166 -0.639584
-14.1213 -13.9132 0.999767
-13.2964 -13.1895 -2.17529
-14.2678 -13.2743 -1.52346
-13.5312 -14.0013 -0.703961
-13.974 -13.9403 0.46084
-14.6062 -14.6127 0.196293
-14.1684 -13.8106 0.427692
-13.3951 -14.6025 -0.0731645
-13.6574 -14.7236 0.23281
-13.6283 -15.3387 0.664502
-13.0802 -13.5028 -2.4816
-13.8439 -13.4174 -0.842153
-13.2876 -13.8795 -1.45961
-16.3317 -12.7023 -0.13956
-12.8384 -14.6976 -1.38596
-15.0503 -13.397 -0.062218
-12.832 -14.9499 -0.544618
-13.3575 -14.5074 0.989995
-12.6338 -13.8305 -1.65854
-13.2979 -14.18 -1.08531
-15.1571 -13.2089 -0.317949
-13.5428 -14.4423 -0.0940516
-13.5537 -14.184 -1.10847
-14.8073 -13.4786 -0.597454
-16.5849 -11.9409 -1.49035
-16.8532 -12.5888 0.30748
-13.2408 -13.2219 -2.29126
-17.8223 -12.5261 0.802584
-15.0689 -12.7966 0.838518
-13.796 -14.3175 -1.52371
-14.6922 -13.4718 -0.396326
-13.0337 -14.2937 -1.10793
-12.9573 -13.9572 -1.67238
-14.0301 -13.6521 -0.171854
-13.4208 -14.2982 -0.780158
-13.3871 -14.308 -0.509153
-14.7159 -14.4331 -0.185669
-14.5314 -13.6181 0.0420447
-14.1173 -14.309 -0.435236
-13.0169 -14.4578 -0.722744
-12.3599 -15.4135 -1.9897
-13.2701 -14.9107 1.28299
-16.0558 -11.4874 -2.29641
-15.4405 -12.6053 -2.14712
-16.2805 -12.7268 -1.07311
-17.1248 -12.674 0.0782429
-13.5067 -13.3225 -1.69355
-12.6013 -13.9493 -2.07749
-15.5463 -13.086 0.162683
-13.554 -13.6277 -0.658338
-12.1492 -14.0862 -1.82066
-13.172 -13.3906 2.57042
-13.6509 -14.2626 0.140069
-11.3831 -15.5459 -2.18819
-13.9898 -14.3051 1.0784
-13.2316 -15.0532 0.22234
-13.702 -14.4215 0.407311
-12.5749 -15.1135 -0.24457
-17.0445 -12.4934 -0.257443
-14.4133 -13.2385 -1.02196
-14.6541 -13.1478 0.655378
-14.6445 -14.3492 0.363548
-14.2789 -14.4521 0.380964
-14.2466 -14.4798 0.309573
-12.3957 -15.0474 -2.69493
-13.547 -13.9723 -0.391989
-12.0614 -15.4969 -1.7686
-13.3511 -14.3149 -0.338767
-13.8001 -14.633 1.47067
-13.3374 -14.8943 0.37212
-13.1181 -15.0319 -0.0968185
-15.8612 -12.4053 -1.4242
-16.2167 -12.7743 -0.264128
-12.8328 -14.7196 -1.31313
-13.7338 -14.385 0.357433
-13.3238 -14.8434 0.263861
-12.7432 -15.3885 -0.450127
-14.4717 -13.0702 -1.20714
-12.1802 -15.4042 -1.54812
-13.4548 -14.1682 -0.174021
-13.4763 -13.7704 -0.402095
-16.3758 -11.4654 -2.38271
-15.8904 -12.197 -1.63174
-16.9845 -12.4854 -0.168567
-16.8202 -12.4467 0.286506
-14.7458 -12.5712 -3.12295
-15.176 -13.3267 -0.123904
-13.0748 -13.189 -2.73818
-14.5334 -13.9328 -0.572372
-13.9266 -13.5387 -0.831677
-14.4438 -13.8628 -0.389282
-14.0722 -13.7658 0.265591
-13.4552 -14.4035 -0.430727
-12.7816 -13.9367 -1.79602
-12.5465 -14.5017 -0.0466266
-13.1749 -15.0275 0.091383
-11.9557 -15.3473 -2.30985
-11.6849 -14.8896 -2.23098
-15.9662 -12.7517 -1.09842
-15.721 -12.8752 -1.07874
-16.1192 -13.6752 -0.518476
-14.7063 -13.6634 -1.52455
-14.6822 -13.6187 -0.998808
-13.5003 -14.654 -0.333541
-12.8871 -14.8101 -0.243521
-16.2931 -12.7908 -1.38866
-16.2946 -13.1944 -0.486194
-14.2275 -13.3853 -1.54971
-14.1367 -13.445 -1.96834
-14.819 -13.6054 -1.07831
-14.3298 -13.9061 -0.458776
-13.9428 -13.9481 -0.364508
-13.6449 -13.6809 -0.780423
-13.4933 -13.8939 -0.948867
-13.5151 -14.2986 0.133871
-13.9501 -14.2653 0.873211
-13.349 -14.6251 -0.394277
-17.1255 -12.5621 -0.0872729
-15.6399 -12.7133 1.34109
-13.7803 -13.2504 -1.7322
-14.111 -14.2315 0.289854
-14.1282 -14.289 -1.2245
-15.1985 -12.8762 -2.02831
-14.0434 -13.3141 -0.935919
-13.2151 -15.1114 -0.301413
-13.6809 -14.2361 0.0896151
-16.6067 -11.768 -2.5007
-16.9902 -12.4969 0.283456
-15.892 -11.5206 -3.29822
-16.5803 -12.1933 -1.03432
-14.8837 -12.687 -1.33472
-14.9943 -12.9268 -2.237
-13.8091 -13.6149 -1.58133
-15.0342 -13.7297 -0.463029
-14.535 -13.8541 0.456014
-13.9834 -14.2013 -0.257017
-14.2726 -14.6917 0.0529763
-13.3022 -13.6936 -2.39749
-13.5861 -14.0463 0.355022
-13.0491 -14.6231 -1.39246
-12.8785 -14.1081 -1.68866
-12.8347 -14.2668 -1.50697
-16.9844 -12.1462 0.10375
-15.6827 -11.6465 -2.88041
-16.606 -12.9626 -0.652259
-13.7883 -12.8333 -1.49409
-12.8313 -15.1244 -0.120984
-12.0561 -15.6587 -1.76378
-17.0283 -12.654 -0.0514088
-14.753 -13.0754 1.50987
-13.487 -13.1124 -2.60943
-13.2859 -14.3835 -0.442114
-16.8729 -12.0025 -1.22187
-16.8707 -12.9276 0.852219
-16.0531 -12.86 -1.26749
-15.7605 -12.8458 -0.586507
-15.11 -12.607 -0.705044
-13.8551 -14.2967 -0.452028
-13.3917 -14.492 -0.344678
-14.1137 -13.0236 -2.79131
-13.7474 -13.7635 -0.638238
-16.7485 -11.9638 -0.734787
-15.8691 -12.6401 -1.76627
-14.8458 -13.0835 -0.740192
-14.4834 -14.067 -0.779426
-14.274 -14.0071 -0.290705
-14.6411 -12.513 -2.60916
-13.8121 -14.0747 0.342706
-14.5583 -14.435 0.0578721
-14.1518 -13.7738 -0.249588
-14.398 -14.0016 -0.16025
-14.8238 -12.9237 -3.02899
-14.0893 -14.1128 -0.61901
-13.4416 -14.5492 0.810655
-13.6525 -13.5482 -1.52245
-13.2199 -14.5672 0.341486
-13.2393 -13.954 -1.09072
-13.1722 -15.093 -0.0185294
-12.4116 -14.5051 -1.25944
-15.4297 -12.8745 0.710369
-14.2995 -13.9081 -0.284908
-14.606 -13.7984 -0.138212
-13.6585 -14.0383 -0.735529
-13.3779 -13.1971 -1.68087
-13.4338 -14.5664 0.180343
-13.3446 -14.9068 0.0549457
-13.2867 -14.7879 0.0561436
-13.4043 -14.4625 0.178912
-13.2355 -14.2748 -0.988207
-13.3364 -14.7565 0.202865
-13.1739 -14.9762 0.364921
-15.3195 -12.2669 -2.13656
-14.4985 -12.7837 -2.65419
-14.9237 -14.3557 0.494218
-14.2126 -14.0272 -0.38554
-14.0664 -13.8648 -0.0884609
-13.3428 -14.1676 0.0263043
-13.4637 -14.5589 -0.304745
-13.317 -14.5789 -0.563116
-12.0276 -15.719 -1.34122
-13.6187 -14.2917 0.0675543
-14.1119 -13.8233 -1.15007
-13.1846 -14.6894 -0.0790842
-12.9776 -14.1647 -1.41861
-13.2766 -13.624 -1.57367
-13.6167 -14.313 -0.0999456
-12.4244 -14.9928 -0.0658838
-13.2261 -14.7063 -0.492782
-13.4566 -14.2369 -0.53125
-12.9822 -12.8058 2.72138
-16.4736 -11.7258 -1.44686
-16.1916 -11.7607 -2.99811
-13.8882 -13.2987 -1.31098
-13.5338 -14.1383 -1.29796
-12.7423 -14.2978 -0.990914
-12.1974 -15.0019 -2.97041
-16.9926 -12.0839 -0.209262
-15.4943 -12.7761 -1.79701
-14.5747 -13.6706 -0.502567
-14.3728 -14.8505 -0.289546
-14.5718 -13.6135 -0.513286
-14.1009 -13.4549 -0.471378
-13.3945 -14.7878 0.219479
-15.1762 -12.5299 -2.61469
-13.7565 -14.4934 0.281052
-13.0881 -14.4709 -0.134689
-13.7729 -14.9338 0.198485
-13.2276 -15.0168 0.159939
-13.997 -14.1409 -0.959469
-13.1463 -14.7037 -0.198139
-13.2071 -14.7162 -0.537674
-12.8372 -14.4702 0.0161219
-12.6203 -14.7544 0.323853
-12.8587 -13.4662 -2.26863
-12.5248 -14.3629 -1.67415
-11.6638 -14.9255 -2.57001
-17.3107 -12.0569 0.755939
-16.7927 -11.8131 -1.0222
-14.7838 -12.9021 0.893579
-15.1999 -13.2096 0.48609
-15.2104 -13.3821 0.416619
-14.7201 -13.432 0.860457
-15.3326 -13.0712 -0.579898
-15.0145 -13.5463 -0.305984
-14.1817 -14.1014 0.000342164
-13.7353 -13.5781 -0.204512
-13.2932 -14.7984 0.32282
-14.7368 -13.075 -2.86801
-13.3786 -14.9452 -0.361361
-12.5562 -14.0989 -1.84952
-14.9514 -13.0676 0.224149
-15.7382 -12.7606 -2.16273
-14.2496 -14.0886 0.478722
-13.6804 -14.9338 0.209526
-13.5714 -13.794 -1.78019
-14.9451 -13.5259 0.942728
-15.1968 -13.217 -0.085941
-13.6825 -14.2514 -0.0741511
-13.9592 -14.1168 -0.704061
-13.7178 -14.3083 -0.969105
-12.8398 -14.8708 -0.398796
-12.5764 -14.0587 -1.97452
-13.2261 -14.2848 -1.45152
-17.657 -12.356 0.834722
-12.9824 -13.0467 2.42392
-13.6138 -12.9779 2.26477
-15.2136 -13.284 0.733661
-16.3394 -12.6843 -1.09827
-16.7851 -12.1738 -1.25602
-16.8367 -12.0782 -1.49497
-16.9135 -12.2712 -1.53107
-16.3408 -11.9252 -1.58659
-14.4823 -14.0694 -0.182763
-14.7517 -13.7826 -0.402423
-13.7997 -13.8657 -0.350851
-14.8271 -13.2161 -0.199475
-13.6067 -14.4979 0.54497
-14.1158 -14.3026 -0.188684
-14.1573 -14.4228 0.0315737
-14.2807 -14.1296 -0.245869
-13.2537 -14.6683 0.428234
-15.3027 -12.5519 -1.99158
-13.4428 -14.4899 -0.188173
-13.404 -14.7562 0.0120449
-15.1213 -12.5788 -2.99776
-15.6618 -12.4759 -3.09944
-13.2769 -14.648 -0.306751
-13.2418 -14.7197 -0.356714
-13.2688 -14.9861 -0.00696635
-15.1717 -12.1382 -3.50234
-13.6983 -13.915 -1.39524
-14.6993 -12.7604 -2.87481
-13.3782 -13.3887 -1.78536
-13.9522 -13.6188 -1.48548
-13.4024 -13.6436 -1.02336
-13.3846 -13.5293 -1.46249
-13.3708 -14.3107 -1.13623
-13.4281 -13.138 -1.86849
-13.7685 -12.7539 -2.57738
-13.2499 -14.2521 -1.50858
-12.503 -14.679 -1.80074
-16.6266 -12.7337 0.242835
-13.5675 -14.515 0.677798
-13.72 -14.1399 0.0769994
-13.9324 -14.6014 0.818961
-13.9918 -14.0318 -0.639083
-13.3697 -14.6722 0.243508
-15.41 -12.7372 -2.26351
-12.9541 -13.8917 -0.285267
-12.9759 -14.8072 -0.634015
-14.5738 -12.8205 -2.79249
-13.1129 -14.7738 -1.37709
-12.9293 -14.2309 -1.47446
-12.6171 -15.1496 -2.09556
-11.8467 -15.263 -2.30821
-12.0488 -15.2602 -2.88697
-16.9291 -12.5758 0.75223
-16.8102 -12.6864 -0.0713392
-15.5674 -13.0865 0.891813
-15.1807 -12.4685 -0.236407
-16.8597 -11.8705 -1.9619
-14.4837 -14.3305 0.572018
-13.4132 -15.0445 0.129425
-12.9373 -14.9389 -0.188998
-13.8079 -14.7789 0.249189
-13.1735 -14.9231 -0.718396
-13.1118 -14.3731 -0.470107
-13.6392 -14.936 -0.622704
-13.4397 -14.2038 -1.54113
-14.1306 -12.7867 -3.00457
-14.7031 -13.3263 -2.55536
-14.4053 -12.6989 -2.825
-12.7691 -14.3115 -1.77468
-14.9762 -13.5044 0.450947
-13.208 -14.6749 0.875947
-13.3626 -14.7813 -0.0738622
-12.9054 -15.7806 0.158047
-12.9361 -14.3184 -2.01163
-15.0804 -12.8638 0.40427
-14.7648 -13.6377 0.745682
-15.0732 -13.9389 0.000525326
-14.6747 -13.7696 -0.340165
-13.6492 -12.9879 2.19726
-14.949 -13.1305 0.274989
-14.3417 -14.678 0.957385
-13.1995 -14.3309 -1.31164
-13.2115 -14.9872 -0.515176
-13.0662 -15.057 0.251857
-13.704 -14.0429 -1.50149
-12.2989 -15.2815 -0.932468
-13.4546 -14.1693 0.264923
-13.0283 -14.3416 0.0674557
-12.6209 -15.0547 -1.38788
-13.024 -15.3153 -0.448334
-13.9346 -12.9305 1.79207
-12.8404 -13.3896 2.05084
-16.8894 -12.689 0.565757
-16.4138 -12.6766 0.167103
-14.7054 -13.7795 1.23925
-16.9069 -12.8351 -0.526939
-13.7765 -14.5036 1.00848
-13.2528 -14.2753 0.952673
-16.1672 -12.3247 -0.644881
-16.7464 -11.7692 -1.80492
-16.2128 -12.1241 -0.810304
-16.1517 -12.2999 -1.1446
-13.3014 -14.6711 -0.0974162
-13.1291 -13.8098 -0.105284
-14.1607 -13.8754 0.230583
-16.4954 -11.9621 -2.15763
-13.6597 -14.7609 -0.159141
-15.8669 -12.2665 -2.00775
-14.7305 -12.9116 -1.06093
-16.2565 -11.7276 -1.76604
-15.4626 -13.2336 -1.80108
-16.0226 -12.0372 -2.44032
-13.2542 -14.272 -0.191825
-15.9591 -12.7834 -2.1098
-13.7452 -14.538 -1.30787
-15.1413 -13.3793 -1.75449
-14.7606 -12.8453 -2.26598
-15.1367 -12.5652 -2.76254
-14.7903 -12.5717 -2.2479
-15.5443 -12.0511 -2.93062
-14.1089 -12.7655 -1.66227
-12.6132 -15.594 -0.398517
-15.1069 -12.2327 -2.77132
-13.8602 -13.9527 -1.68557
-13.4329 -13.5798 -1.64111
-14.9959 -13.0189 -3.04857
-13.2117 -14.3096 -1.09928
-15.0825 -12.924 -3.02685
-14.5807 -12.4026 -2.66587
-14.4048 -12.5833 -2.58993
-14.2383 -12.5587 -2.65988
-15.1565 -12.5243 -3.08489
-14.8763 -13.264 -2.64467
-12.7097 -14.0075 -1.46132
-12.9155 -14.1966 -1.57549
-12.509 -13.8407 -1.59173
-14.3924 -12.566 -2.5568
-12.9965 -14.1969 -1.5917
-12.465 -14.085 -2.16708
-11.6192 -15.16 -1.63799
-12.3846 -14.9416 -2.25546
-17.4056 -12.9301 0.797769
-17.0613 -12.3255 0.700539
-17.3554 -12.4529 0.869227
-16.3048 -12.9899 0.066555
-16.1089 -12.7119 -0.588201
-16.7684 -12.4107 -1.52118
-14.3076 -14.5735 0.750181
-13.879 -14.1149 0.0993578
-13.5977 -14.1805 -0.221085
-13.5597 -14.3486 0.148967
-13.1612 -14.549 0.0602563
-16.5585 -12.0729 -2.50386
-16.0496 -11.6223 -2.42782
-16.3672 -11.6771 -2.63739
-13.7572 -13.8646 -1.06329
-15.4176 -12.7275 -3.34722
-14.4831 -13.0961 -2.66731
-12.9776 -14.3176 -1.32827
-12.4077 -14.4567 -1.43964
-12.2081 -15.4796 -1.43562
-12.1142 -15.1433 -2.12924
-11.8121 -15.4462 -2.8632
-14.0119 -12.3843 2.00332
-16.1823 -13.0033 0.0988491
-13.4769 -14.783 0.844814
-15.2203 -12.7995 -0.862511
-13.0026 -14.5626 0.284607
-13.658 -14.5043 -0.0861134
-13.4502 -14.8403 -0.157247
-12.3526 -15.0619 -0.634391
-13.4718 -13.5804 -1.89142
-12.9924 -13.5718 -1.68636
-13.5381 -13.5665 -1.94067
-13.2379 -13.6857 -1.51592
-12.682 -13.8139 -1.61389
-12.356 -13.6308 -2.47565
-13.0286 -13.1203 3.30651
-13.6092 -14.248 -0.279433
-13.9302 -13.9806 -0.882126
-12.2659 -15.2048 -0.567722
-13.3805 -13.5506 -2.40198
-13.4026 -13.492 -1.8172
-13.8535 -13.9474 -1.61233
-13.2692 -13.7529 -1.88076
-14.7738 -13.0175 -2.55611
-12.6456 -14.2833 -1.30196
-12.4338 -13.6384 -2.30737
-16.2465 -13.3411 -0.328189
-13.4539 -14.2454 -0.699731
-12.8956 -14.0639 -1.88325
-12.5118 -14.0401 -1.7199
-12.7188 -14.3245 -1.79588
-12.0751 -15.1578 -2.24422
-11.7628 -15.4063 -2.34483
-16.4725 -12.9186 -0.256463
-13.2815 -14.763 -0.194344
-14.4125 -13.5961 -1.10074
-13.3566 -14.4218 0.0693489
-13.062 -14.1831 -1.55127
-12.0564 -14.7364 -2.78163
-13.4957 -14.1853 -0.326803
-13.1112 -14.273 -0.142663
-13.3339 -14.4253 -1.07811
-13.5125 -14.3548 -1.63186
-13.6433 -13.3686 -1.13479
-11.3931 -15.4067 -2.48051
-15.6634 -12.4588 -3.15498
-15.8735 -11.1902 -2.9124
-11.6422 -15.4768 -2.14502
-14.9809 -12.8452 -2.94859
-16.0148 -12.3264 -2.52871
-12.275 -14.0099 -1.68458
-16.1121 -12.1851 -2.39548
-12.6963 -14.1982 -1.3082
-16.4506 -11.6013 -2.47822
-15.5353 -12.1252 -2.27003
-13.2136 -14.0877 -2.0036
-13.11 -14.016 -1.82217
-14.059 -13.4699 -1.17186
-15.0436 -12.9188 -1.18368
-13.3725 -13.9909 -0.891591
-16.2971 -12.5644 -1.69983
-13.8453 -14.0345 -1.06353
-14.3219 -13.5784 -0.907408
-15.9329 -12.5769 -1.21741
-15.4048 -12.7675 -1.34503
-15.5779 -13.2473 -1.6187
-15.7414 -12.6953 -1.32642
-13.2336 -14.8604 -0.165396
-12.9051 -14.7095 -0.371978
-13.8303 -13.6463 -0.725483
-13.6627 -13.3413 -0.936263
-14.9624 -13.2601 -0.279862
-14.403 -13.9587 -0.677234
-16.6715 -12.5785 -1.03137
-14.6975 -13.3386 -0.338133
-16.4423 -12.2108 -0.607302
-16.7088 -12.4092 -1.05992
-15.3826 -13.5252 -0.520273
-14.9791 -13.883 -0.703272
-17.1496 -11.9354 -0.208459
-16.5446 -12.7825 -0.220705
-16.4694 -13.0242 -0.32785
-14.8782 -13.1582 -0.10872
-15.3089 -13.1713 0.0289853
-17.0314 -13.1624 -0.402642
-17.0507 -12.2617 0.457522
-14.9103 -13.445 0.662048
-13.7748 -14.9721 0.917327
-13.6414 -14.5793 1.19663
-15.3533 -13.6111 0.893021
-12.7842 -13.5343 -2.13781
-14.8645 -13.0841 -3.07935
-14.5379 -13.2601 -2.6347
-13.6547 -13.3225 -1.76429
-13.8238 -13.2937 -1.76548
-13.7679 -13.7336 -1.26333
-16.2355 -11.9404 -2.32498
-13.8282 -13.4245 -0.953615
-16.4515 -12.5512 -1.56247
-13.3319 -14.0747 -0.349323
-12.306 -15.3433 -0.535544
-13.2113 -14.5589 -0.261993
-16.9477 -12.3763 -0.748127
-15.1255 -12.9841 -0.66148
-14.6927 -14.3867 -0.064808
-13.515 -13.9682 0.251215
-13.592 -14.5369 0.22846
-16.3094 -13.2735 -0.17353
-14.5881 -14.3302 0.134787
-16.6862 -12.4626 0.075233
-15.3345 -13.3387 0.418044
-17.2775 -12.4431 0.324118
-12.0493 -13.8657 -2.01277
-14.3654 -13.3813 -0.821481
-12.6558 -14.5659 -0.330899
-13.5127 -14.2453 0.378105
-16.1726 -12.5019 0.228058
-14.0669 -13.989 0.638826
-11.4579 -15.4565 -1.95884
-15.8803 -12.6889 -0.727138
-13.7686 -13.4749 -0.751551
-14.4375 -13.8951 -0.164083
-16.2453 -12.8382 -0.357668
-15.0468 -13.4715 0.877158
-14.8735 -13.7689 1.01188
-14.0835 -13.8062 1.12268
-17.0837 -12.8275 0.989725
-13.2663 -12.6913 1.59457
-12.6801 -14.3848 -1.12222
-13.6776 -13.5574 -1.72981
-13.02 -14.7531 -1.60353
-15.3548 -12.7165 -1.53224
-15.1693 -12.7377 -0.730011
-16.3942 -12.6859 -0.380867
-14.6678 -13.9322 -0.217149
-16.5478 -12.4131 -0.305395
-15.0476 -12.7997 0.790507
-13.5644 -14.0142 0.756867
-17.0743 -12.4953 0.948009
-13.433 -12.6403 2.56084
-12.6586 -14.2699 -1.32019
-13.8079 -13.7654 -0.728706
-13.4942 -14.2935 0.280314
-13.7828 -14.3658 0.253997
-13.3215 -14.2975 0.402297
-13.2149 -14.7956 0.407571
-13.1798 -14.407 -1.20947
-13.4451 -12.5207 2.4582
-13.4916 -14.4406 -1.21585
-11.7922 -14.9894 -2.74249
-15.7778 -11.7407 -2.24051
-12.4362 -14.1698 -2.21728
-11.937 -15.0544 -2.1158
-11.9431 -15.264 -2.54802
-12.0796 -15.7202 -1.84768
-13.1426 -13.8509 -0.956026
-14.64 -13.67 -0.815857
-13.6275 -14.496 -1.00524
-14.5331 -13.59 -0.620006
-14.5655 -13.6961 -0.694672
-14.1952 -14.0804 -0.802156
-16.0539 -12.6956 -1.00525
-16.319 -12.7927 -0.182133
-13.4707 -14.2815 0.0354134
-14.558 -13.6608 0.262927
-16.8312 -12.4057 0.513757
-16.734 -12.5833 0.48641
-14.7033 -13.77 0.683821
-17.1643 -13.087 0.460628
-12.7824 -13.1923 2.21609
-13.4235 -13.3715 2.69823
-11.4814 -15.4764 -2.65182
-12.3279 -14.5222 -1.11512
-13.6 -13.4724 -1.35404
-13.7768 -14.3078 -1.1245
-16.8506 -11.7624 -1.10158
-15.6392 -12.5102 -0.629447
-12.718 -15.6995 -0.882052
-15.7092 -12.8531 0.0416811
-13.8484 -14.2364 -0.352446
-17.5954 -12.1563 0.536185
-14.278 -13.601 -1.9763
-14.3298 -13.8192 -0.790681
-16.2493 -12.4179 -0.999397
-16.1401 -12.202 -0.752028
-17.5073 -12.2881 0.723907
-13.522 -14.8178 1.1493
-11.548 -15.2623 -2.09262
-13.4855 -13.4939 -1.72421
-12.6637 -14.8177 -1.48158
-13.6466 -14.027 -0.83174
-15.7949 -13.081 -0.601707
-16.3622 -12.3204 -0.559123
-15.4343 -12.9206 0.283216
-14.2699 -13.3871 -1.00396
-15.1344 -13.5761 0.735958
-14.1549 -13.7452 0.548348
-14.1295 -14.5355 0.590717
-12.3855 -14.5591 -1.28569
-14.5224 -12.8747 -1.10069
-15.6205 -12.8652 -0.567992
-13.2848 -14.119 -0.374333
-13.4454 -13.3202 -1.66982
-13.1151 -14.6383 -0.188114
-15.7434 -12.1777 -1.64249
-11.8767 -15.2083 -2.50548
-12.7234 -14.4303 -1.6301
-15.4187 -12.9528 -1.43951
-11.8574 -15.3684 -2.12959
-16.6106 -12.6219 0.094848
-13.5105 -13.7326 -0.932459
-14.4023 -13.5558 0.117008
-15.3087 -13.49 0.514851
-13.7251 -14.6666 1.02002
-13.4671 -13.8998 -2.03778
-13.0683 -13.5087 -1.85735
-11.9167 -15.1647 -2.14327
-12.4419 -14.4439 -1.68157
-12.8413 -13.6995 -1.5524
-13.6117 -14.098 -1.18654
-12.9673 -14.4245 -1.37029
-14.9725 -12.8121 -0.629052
-14.337 -13.798 -0.354239
-14.527 -13.3192 -0.215739
-12.6918 -15.2379 -1.00731
-12.5857 -14.645 -0.870163
-14.6259 -13.9604 0.101107
-13.2634 -15.2311 -0.328965
-13.0943 -15.5112 -0.189011
-13.9167 -14.1802 0.859063
-13.9292 -13.0367 2.18573
-13.7281 -13.5079 -1.34027
-15.0353 -13.1811 -0.206397
-12.1853 -14.6177 -1.31382
-13.5102 -14.7406 0.325738
-14.9274 -13.3646 0.353522
-12.6362 -15.3279 -0.164988
-13.2166 -13.868 -0.745588
-14.8911 -13.7764 -0.589864
-13.4304 -14.3705 0.868147
-13.7043 -14.5378 -1.75685
-15.3679 -12.4677 -0.583953
-15.2081 -13.9499 -0.382333
-13.904 -12.7477 -1.1758
-14.1317 -13.0381 -1.53239
-14.6914 -12.9089 0.229262
-16.5644 -12.5507 0.323794
-14.4618 -13.3702 -1.22057
-17.2287 -12.7078 1.06305
-17.2631 -13.0251 0.330669
-15.2109 -12.613 0.527354
-15.4681 -12.9646 0.820677
-13.8394 -14.032 -0.447111
-13.8662 -13.5449 0.056278
-14.3535 -14.12 0.831105
-13.4192 -14.282 0.59005
-13.8176 -14.7302 0.703028
-12.5111 -13.1335 2.51058
-12.7672 -13.9822 -2.61119
-14.7649 -13.0452 -0.854534
-12.8838 -14.473 -1.90679
-13.2459 -13.9923 -0.951807
-11.7359 -14.8962 -2.21206
-14.0054 -13.8172 -0.831985
-13.8987 -13.9337 -0.329277
-12.8343 -14.7587 0.0682731
-12.4267 -15.2056 -0.483082
-13.0439 -15.2176 0.0857865
-15.1031 -13.0131 -0.971295
-13.6974 -13.5391 -0.382149
-13.945 -13.8037 -0.179607
-14.8724 -14.3896 -0.000536613
-14.0334 -14.5417 0.267377
-13.753 -13.8411 0.471603
-13.0002 -14.7601 -0.266022
-13.4311 -14.4441 -0.0791423
-13.1336 -15.014 0.746532
-13.4511 -14.6302 0.193072
-13.5768 -14.4679 1.16859
-13.566 -14.935 0.917413
-15.5878 -12.538 0.399688
-13.5029 -14.4389 1.28412
-13.1926 -12.9683 -2.02474
-14.3509 -13.1398 -1.28239
-12.7206 -14.0552 -0.7848
-15.5467 -12.7518 0.736274
-15.115 -13.0032 -0.171149
-14.658 -13.8544 -0.0748398
-13.2663 -15.0251 -0.487222
-16.6108 -12.3946 -0.0206783
-17.2227 -12.5254 -0.0934247
-14.2852 -13.2139 -1.06144
-15.5757 -12.7363 0.581042
-12.7495 -13.8218 -1.22555
-14.2872 -13.4466 1.24315
-14.3038 -13.9085 0.453105
-13.4809 -14.2529 -0.186386
-13.5045 -14.4339 0.520041
-16.698 -12.4045 0.0953446
-12.1037 -15.3374 -1.99183
-14.6225 -13.7922 0.23146
-13.3685 -14.7956 0.29787
-14.7513 -12.6309 -0.391861
-14.3863 -13.2109 -1.22007
-13.6613 -13.2503 -1.7963
-16.8909 -12.866 0.39443
-13.3947 -14.3307 -0.487417
-14.7716 -13.4084 -0.957303
-13.2378 -14.757 -0.959569
-13.6354 -14.2207 -1.1561
-12.4236 -14.9593 -1.32101
-14.2561 -12.8638 -3.45005
-17.0124 -12.3371 -0.538874
-15.6564 -12.7607 -1.25412
-13.6148 -13.6856 -1.63697
-13.0325 -15.5646 -0.951784
-13.3525 -15.0192 0.222592
-14.4504 -13.4806 -1.52039
-15.7364 -12.4532 -0.820553
-17.1513 -12.3854 0.255755
-14.3566 -13.7015 -0.65549
-12.8311 -15.1755 -0.174532
-14.2446 -13.1429 -2.16717
-14.6227 -13.7838 -0.781655
-14.7686 -13.4364 -1.10285
-12.8668 -14.971 -0.353526
-13.1512 -12.7033 -1.38498
-13.4985 -13.6838 -0.560927
-13.2295 -14.481 -1.09974
-16.7351 -12.3187 0.146478
-16.8152 -12.4507 0.162054
-16.7526 -12.7181 0.375244
-14.6728 -14.3993 0.00513835
-13.2713 -14.9265 -0.188241
-16.7677 -12.4596 -0.0918607
-16.103 -12.6105 -1.16117
-13.0198 -14.4087 0.244127
-17.3006 -12.5557 -0.0855617
-15.3006 -12.8598 -1.84711
-15.2549 -13.2644 0.960505
-14.676 -13.2681 -0.833759
-13.5879 -14.0421 -1.27566
-13.7375 -14.2766 -0.7394
-14.1912 -14.0768 0.487134
-13.7879 -14.4623 -0.477418
-12.5324 -14.0672 -1.54114
-13.1419 -14.6301 -1.24396
-13.4264 -14.6327 0.104671
-14.153 -13.0775 -1.5353
-14.3685 -13.4273 -0.79658
-16.9968 -12.3872 0.418928
-13.698 -14.553 -0.376299
-17.1129 -12.2505 0.356
-13.7815 -14.1507 -0.828717
-12.7778 -15.1234 -0.290481
-13.7504 -12.561 1.99555
-16.7909 -12.8216 0.444205
-13.474 -14.9432 0.297289
-11.5872 -15.2003 -2.67009
-16.2049 -12.0861 -2.19143
-14.716 -13.5503 0.0561801
-14.7923 -14.281 0.183806
-14.411 -14.1614 -0.166441
-13.0937 -14.0164 -1.20586
-13.0897 -14.8406 -0.275654
-11.8468 -15.1948 -2.06564
-16.9574 -12.7227 0.785949
-16.1732 -12.2741 -2.06173
-14.1998 -14.0741 1.26876
-13.309 -14.4565 -1.73776
-12.5711 -14.2384 -1.63953
-12.9955 -14.8428 -0.146196
-13.652 -14.2273 -0.384467
-13.1252 -14.5301 -0.787876
-15.068 -12.8864 -2.21733
-13.1384 -14.3686 -0.0877302
-12.6934 -14.188 -1.09172
-15.9037 -12.7741 -1.4931
-12.0909 -15.3438 -2.3928
-11.7906 -15.3515 -2.77416
-13.48 -14.2966 -0.810484
-13.0837 -14.4468 -1.85687
-13.0854 -15.3164 0.168046
-12.6218 -14.0354 -1.65297
-13.9255 -13.8321 -0.59146
-13.4469 -13.83 -0.900769
-12.8474 -12.9552 2.23725
-13.8628 -14.081 0.0574538
-13.9645 -12.8002 -1.46463
-13.701 -13.3124 -1.73196
-13.1107 -15.1453 0.195417
-13.5724 -14.5323 0.224802
-13.1175 -14.9955 -0.104845
-13.4306 -14.0974 -0.894824
-12.9777 -15.4642 -0.916575
-13.4437 -13.2056 1.97808
-13.7921 -14.6027 -0.0706004
-13.6284 -14.5447 0.331822
-12.7152 -15.5438 -0.719023
-16.7549 -12.924 -0.196768
-13.4605 -13.1774 -1.78685
-12.3935 -15.3017 -0.552722
-12.6193 -14.0311 -1.56198
-13.409 -14.0576 -0.0114311
-13.8063 -12.7699 -1.05102
-13.472 -14.4178 0.00879883
-13.408 -14.1048 -0.462349
-17.219 -12.0378 -0.25631
-16.9134 -12.5498 0.5095
-16.6683 -12.3023 -0.336372
-14.8097 -12.9283 -0.550412
-15.4995 -12.4375 -1.66757
-15.9061 -11.8911 -3.28352
-14.0932 -13.9984 0.367439
-14.2968 -14.4227 0.954345
-14.3866 -13.6326 -1.16103
-13.0544 -14.1578 -0.141801
-13.1995 -14.9226 0.0429703
-17.4744 -12.6264 0.162333
-17.2565 -12.2912 -0.0124797
-14.5573 -13.7088 0.729255
-13.0925 -14.5269 0.282781
-14.3809 -12.7918 -2.99005
-13.2744 -14.397 -0.359113
-12.1378 -15.1865 -2.1632
-16.1256 -12.1381 -2.36947
-13.9927 -14.092 -0.0965104
-13.4844 -14.8579 0.199901
-13.7283 -14.844 0.549399
-13.4543 -14.5892 -0.736408
-12.6465 -14.6923 -0.571223
-14.8646 -13.2621 -0.214978
-12.9865 -15.2066 -0.502741
-13.2638 -14.3973 -0.477956
-16.4693 -12.8124 -0.195782
-16.112 -12.5312 -1.06225
-16.2122 -12.3385 -1.64222
-14.228 -14.0617 0.472127
-15.841 -12.6987 -2.11707
-16.1495 -12.3695 -2.42045
-15.6708 -12.3576 -1.99321
-13.6273 -14.3133 0.129358
-14.4771 -13.7901 -0.769814
-13.4419 -14.5953 0.0723538
-15.381 -12.4581 -2.38914
-13.7777 -13.7693 -0.85975
-13.7281 -14.7071 -0.0494855
-13.1391 -14.9869 0.521703
-17.1084 -11.9388 -1.64096
-14.069 -13.7372 0.265286
-14.3971 -14.4768 0.439387
-14.9541 -13.1011 -0.808232
-13.881 -13.679 -0.504093
-13.581 -14.1217 -0.14932
-12.8849 -15.117 0.00655258
-13.4822 -14.5816 0.00458457
-12.971 -15.0527 -0.278555
-12.9449 -15.0085 -1.04272
-11.2071 -15.7234 -2.53968
-17.3913 -11.739 0.295833
-15.2558 -13.4419 -0.205496
-13.1846 -14.629 0.781875
-13.7999 -15.2027 0.227038
-13.0475 -14.6898 0.0487368
-13.6153 -14.1666 -0.204534
-13.079 -14.3707 0.0593255
-12.5968 -14.2268 -0.443226
-14.7112 -13.2545 -0.523159
-13.5328 -13.0292 -1.52316
-12.9804 -15.2424 -0.658002
-13.3873 -14.0838 -1.39209
-12.6795 -14.5822 -0.8351
-12.6494 -14.6411 -1.18395
-13.7867 -15.0701 0.406373
-12.4461 -14.9645 -1.21888
-14.2141 -13.9356 0.346438
-14.3357 -13.6992 0.120804
-16.3736 -11.9511 -1.85104
-13.4797 -14.0585 0.150975
-16.0215 -12.34 -1.71526
-15.5253 -11.8355 -2.81467
-12.8371 -15.2237 -0.978886
-13.0355 -14.2351 -1.54328
-13.2882 -13.3528 -1.77405
-13.5538 -13.2644 -1.85694
-12.6051 -14.1593 -1.55061
-14.9796 -13.6965 0.683604
-13.6317 -14.5021 1.29553
-13.2616 -14.09 0.496481
-13.4226 -14.9405 0.169872
-13.6967 -13.8405 0.196934
-13.3777 -15.0723 -0.676005
-13.6256 -14.7614 -0.432086
-13.2072 -15.1021 0.20102
-14.1682 -13.2453 -1.74708
-13.507 -14.7617 -0.0952258
-13.3286 -13.8 -1.25506
-12.4833 -14.2189 -0.446363
-11.8206 -15.7043 -2.51535
-12.1553 -15.4124 -2.48017
-14.6727 -13.0911 -1.33291
-12.9645 -14.7868 0.0330177
-12.6815 -15.0385 -0.25665
-12.7024 -13.8697 -1.97899
-12.1266 -15.3727 -2.76116
-13.5122 -14.5929 0.619344
-14.0663 -14.2644 -0.77291
-14.1461 -13.9367 -1.15549
-13.7124 -13.5284 -1.83213
-12.2271 -14.0499 -2.09095
-13.5947 -14.2004 -1.77704
-12.5906 -15.4944 -1.07906
-14.0763 -13.8558 -1.07586
-11.9683 -15.2957 -0.757628
-14.3541 -13.438 -0.952791
-13.2948 -14.3749 -0.80694
-13.2846 -14.1273 -1.28763
-13.7705 -14.7707 0.21112
-13.4184 -14.2891 0.336191
-17.849 -12.3403 0.618671
-13.2702 -15.0527 0.870846
-13.153 -14.605 0.985876
-13.1516 -14.9658 0.0231723
-13.4 -15.0931 0.381406
-13.4962 -14.0186 -0.148691
-13.2934 -14.6601 0.0397743
-13.5955 -14.2917 -0.122218
-15.7252 -12.5538 -1.04532
-17.0248 -12.0468 -2.48461
-15.5214 -12.352 -2.02764
-13.2278 -14.39 -0.566324
-15.2678 -12.7979 -1.40277
-16.2355 -11.6523 -2.56974
-16.2213 -11.3749 -2.8626
-16.0212 -12.0937 -2.51221
-16.1434 -12.4475 -2.11175
-15.3738 -12.3541 -2.29489
-15.4342 -12.7039 -2.3558
-13.7002 -13.9842 -1.24994
-13.9052 -12.7828 -1.72021
-15.4143 -12.1616 -2.83083
-12.1154 -15.4405 -1.22196
-15.0781 -12.7852 -2.7424
-12.3285 -13.4866 -2.01044
-11.4922 -15.6053 -1.83201
-11.7081 -15.6495 -2.56371
-12.7114 -13.1144 1.3773
-16.8021 -12.6831 0.542234
-16.1531 -12.1875 -0.728345
-15.7234 -12.9705 -0.90279
-13.4611 -14.2379 -0.190121
-14.997 -13.4382 -0.556948
-16.1138 -11.6468 -2.38618
-15.081 -12.6943 -1.81508
-12.8073 -15.1992 -0.708311
-13.723 -13.1359 -1.57452
-13.2271 -13.6466 -1.61483
-12.8505 -14.0431 -1.4042
-11.6375 -15.3478 -1.89504
-13.6798 -14.6486 0.457475
-12.3378 -15.0336 -0.786435
-11.7876 -14.8816 -2.24588
-13.3157 -14.228 0.0548248
-15.9667 -12.2102 -1.10462
-14.1691 -13.4403 -1.51264
-11.6717 -14.6614 -1.85287
-14.9735 -13.796 -0.35005
-13.5956 -14.003 -0.565271
-12.4116 -14.5926 -1.52551
-15.2364 -13.0346 1.00976
-15.2399 -13.3583 -0.212726
-12.8915 -14.6309 -1.88618
-17.1181 -12.7076 0.717804
-13.4907 -14.828 0.918336
-13.5272 -14.5872 1.03435
-14.6698 -13.302 0.61856
-17.003 -12.4686 0.12661
-17.6067 -11.9376 -0.0249336
-15.5101 -12.8825 -0.111405
-16.3521 -13.025 -0.0167791
-13.9093 -14.328 0.43961
-13.6415 -14.1163 0.289966
-16.4363 -12.0003 -0.431637
-15.0477 -13.2961 -0.627272
-16.5796 -12.3678 -0.958514
-13.7601 -14.3859 -0.824543
-12.8008 -15.2877 -0.18933
-14.4298 -13.8735 -0.801436
-14.2551 -13.963 -0.429252
-14.0123 -14.0094 -0.882296
-12.768 -14.4664 -0.634291
-14.495 -13.6955 -0.969388
-14.7196 -13.4836 -0.970128
-13.5885 -14.1995 -0.891145
-16.5791 -11.766 -1.48878
-16.3306 -11.9549 -2.20084
-16.2163 -11.5731 -2.4643
-15.905 -12.0855 -2.68325
-14.1371 -13.8797 -1.90199
-15.2323 -12.8803 -2.52347
-12.613 -14.4718 -1.66423
-14.138 -12.9284 -2.21207
-12.7462 -13.9049 -1.6879
-13.535 -13.368 -1.80947
-16.0339 -11.6903 -3.1293
-15.0558 -12.9548 -2.68987
-15.4106 -12.0872 -2.98993
-14.7519 -12.1029 -2.80851
-12.2132 -14.9099 -2.47577
-11.9475 -15.6997 -2.13293
-12.0138 -15.1961 -1.9028
-13.3382 -12.8716 -2.21661
-12.109 -15.0194 -2.7278
-12.2477 -14.1794 -2.02007
-12.3813 -15.4653 -2.56168
-12.377 -14.9175 -2.69586
-12.0611 -15.3027 -2.69801
-11.8241 -15.0065 -2.73789
-16.2054 -12.3769 1.28028
-17.4611 -12.6574 0.774935
-16.6958 -13.1915 0.420875
-17.4005 -12.508 -0.0188289
-14.7285 -13.1428 0.571502
-14.7924 -13.7994 0.587196
-17.0371 -12.7505 0.31444
-16.9214 -12.5523 -0.093696
-16.5847 -12.7182 0.0310137
-14.4529 -14.6311 0.26209
-15.7666 -12.6363 -0.556775
-13.6011 -14.8013 0.350382
-13.6065 -15.0702 0.275092
-13.7278 -13.8542 0.377182
-14.7021 -14.1195 -0.358995
-16.3672 -12.8013 -0.37646
-13.6854 -14.5531 -0.0598944
-12.9939 -14.1061 -0.603166
-15.9008 -12.7606 -1.44099
-12.2271 -15.6606 -0.864813
-15.2754 -13.3409 -1.83307
-14.6318 -13.0671 -1.36188
-15.0587 -12.8597 -1.89118
-13.4652 -13.8091 -1.55227
-13.5119 -13.6217 -1.23922
-13.3193 -12.9689 -1.46743
-16.2118 -11.5276 -2.69644
-14.8183 -12.1069 -2.55137
-15.0247 -13.3691 -2.57275
-12.008 -14.7462 -1.5213
-15.8481 -11.3747 -3.30695
-15.5488 -12.2246 -3.33019
-14.5205 -12.7253 -2.95654
-11.9493 -15.3436 -2.08926
-13.7479 -13.1678 -2.24645
-12.0813 -15.3212 -2.28205
-12.6202 -13.7493 -2.3066
-12.0926 -13.9928 -1.87086
-12.7607 -13.609 -2.3296
-12.2035 -15.3934 -2.29548
-11.4765 -14.9836 -2.15372
-11.9945 -15.3044 -2.71627
-12.77 -13.186 2.83767
-13.6124 -12.9854 2.52113
-17.684 -12.4851 1.37787
-16.2867 -12.651 0.509707
-15.016 -13.1936 0.633328
-17.052 -12.3267 0.399408
-15.8168 -12.8982 -0.183853
-15.4268 -13.2415 0.447848
-13.1386 -14.1803 0.407599
-16.0926 -13.1502 -0.909685
-12.9143 -14.9725 -0.300229
-16.0845 -12.617 -0.992188
-13.1129 -14.2056 -0.527221
-12.6581 -14.96 -0.520078
-13.7296 -13.5774 -1.20408
-15.1026 -12.3329 -2.68962
-15.4772 -12.868 -2.36385
-15.0706 -12.6208 -2.79806
-14.6975 -13.0931 -2.49632
-13.8001 -13.479 -1.84701
-16.0705 -11.9265 -3.25484
-13.5665 -13.4873 -1.93299
-12.0805 -15.087 -2.16382
-12.6183 -14.4615 -1.92693
-11.8357 -15.3611 -2.52493
-11.7494 -15.1937 -2.96069
-13.7834 -14.1105 0.581758
-14.9235 -13.5563 0.28021
-16.543 -12.7601 -1.14475
-13.299 -14.278 -0.593841
-13.7273 -13.61 -2.44504
-12.2231 -14.3314 -2.05903
-11.5991 -15.8469 -2.14752
-12.0029 -13.7352 -2.46368
-11.7633 -14.0092 -2.42396
-12.9502 -13.0183 2.43695
-17.279 -12.5003 0.935596
-17.3362 -12.4286 0.778412
-15.1875 -12.637 0.302435
-13.4628 -14.8128 0.376857
-16.3913 -13.2222 -0.018362
-15.0024 -13.1283 -0.148861
-13.407 -13.9296 -0.0970764
-15.8531 -12.2707 -1.18924
-12.706 -14.8379 -1.02835
-13.0532 -15.1253 -1.13855
-15.7862 -12.2771 -2.63285
-13.4649 -13.1383 -2.41386
-12.467 -13.915 -2.16944
-14.0001 -13.9867 0.502725
-13.2237 -14.6007 0.0237688
-14.3245 -13.2766 -1.36627
-13.3423 -14.4539 -0.66227
-13.9962 -13.9925 -0.818007
-15.1902 -13.1025 0.677927
-13.9247 -14.0939 0.0716087
-14.7749 -13.5173 1.18659
-13.54 -14.8243 0.136675
-12.3827 -14.2352 -1.4149
-14.1083 -14.5578 -0.107069
-13.5529 -14.11 -0.816809
-13.1496 -14.4054 -0.775949
-13.1451 -13.4203 -2.54603
-12.1236 -15.3571 -2.74031
-11.5122 -15.4417 -2.21462
-12.0632 -15.1967 -2.55495
-12.0247 -15.2 -2.45864
-14.5241 -12.5271 -3.15798
-15.114 -12.5252 -3.13262
-15.5994 -11.9223 -2.48103
-12.1352 -15.1263 -2.28343
-14.7042 -12.6447 -2.38318
-14.3531 -13.4417 -2.93338
-15.8224 -11.8532 -2.66946
-14.8667 -12.1931 -2.87596
-14.5575 -13.4802 -2.58367
-14.2907 -13.2121 -2.57228
-15.0088 -12.2672 -2.58749
-16.2922 -11.6876 -2.95467
-14.7061 -12.445 -2.45399
-15.8568 -11.3571 -2.68088
-14.6355 -12.7194 -2.46782
-14.8954 -12.8962 -2.82408
-16.3082 -11.2119 -3.14442
-16.1432 -11.9155 -2.78307
-16.0878 -11.6571 -2.62089
-15.9047 -11.7515 -2.7253
-15.9096 -11.9764 -2.96588
-15.3578 -12.3797 -2.15093
-15.312 -12.2408 -2.52148
-14.7477 -13.0984 -2.44666
-14.4928 -13.0977 -1.93255
-14.8349 -13.354 -2.28617
-15.7358 -12.6312 -2.63661
-15.4583 -12.8643 -2.21227
-15.5516 -12.5657 -2.47662
-12.621 -13.7621 -1.73882
-12.9233 -13.7428 -1.4167
-15.5488 -12.5939 -2.35149
-15.4322 -12.4555 -2.76792
-16.8411 -11.0447 -2.73527
-16.2921 -11.7172 -2.33462
-15.0421 -12.7772 -2.05583
-15.9481 -12.0027 -2.35784
-12.6346 -14.3647 -1.48382
-15.4169 -12.8785 -2.04168
-12.3922 -14.3589 -1.34674
-14.215 -13.6116 -1.33676
-14.2904 -13.7941 -1.86621
-15.6617 -12.5428 -1.60002
-16.1893 -11.7455 -1.70188
-14.1004 -12.9312 -1.59059
-14.574 -13.7019 -1.14068
-12.2756 -15.5977 -1.76441
-13.201 -13.7742 -1.125
-12.0599 -14.961 -1.32673
-15.5795 -12.3215 -2.34718
-15.9651 -12.9603 -1.65297
-14.1784 -12.9848 -1.48706
-13.4346 -13.158 -1.81313
-13.9425 -13.2926 -0.859898
-15.1127 -13.1949 -1.55879
-14.9843 -13.0581 -1.17045
-15.0962 -12.5419 -1.93127
-15.2956 -12.6159 -1.90311
-16.909 -12.0061 -1.39751
-15.1399 -13.0771 -1.30943
-15.4018 -13.0842 -1.51577
-15.5816 -12.5806 -1.54862
-12.395 -14.8348 -1.03949
-15.801 -12.4349 -2.22759
-15.44 -12.7123 -1.30289
-12.5664 -15.2185 -0.69463
-14.7841 -13.0406 -1.38839
-14.842 -13.1167 -1.51647
-13.72 -14.2737 -0.814921
-13.3723 -14.0908 -0.744969
-16.5331 -12.0939 -1.77188
-14.4198 -13.0726 -0.869217
-14.6561 -13.42 -0.806884
-14.5995 -13.0951 -0.986501
-15.4538 -12.8585 -1.90549
-15.184 -13.2205 -1.62782
-16.3101 -12.0962 -1.2947
-14.6957 -12.94 -0.832083
-14.7781 -13.7431 -0.829621
-16.0783 -12.4319 -1.2322
-15.0289 -12.953 -0.752714
-17.3591 -12.1515 -1.01884
-16.4805 -13.3167 -0.959726
-16.7194 -12.498 -1.43644
-16.5283 -12.6619 -0.830216
-16.5376 -12.1153 -0.51957
-13.7809 -14.3517 -0.810789
-14.836 -13.7944 -0.626609
-12.8222 -14.2874 -0.75216
-13.9161 -14.7706 -0.287538
-12.9908 -14.9717 -0.345987
-16.8772 -12.5085 -0.379108
-13.6566 -14.1847 -0.140076
-16.5498 -12.4341 -0.637954
-16.3119 -12.4713 -0.923906
-16.4488 -12.2536 -0.813828
-14.5245 -14.2733 -0.0581275
-14.8476 -13.1636 -0.14867
-13.5193 -14.3183 0.130095
-14.6858 -13.3355 0.167119
-14.7312 -13.554 -0.126023
-15.3571 -12.6878 -0.255332
-16.1568 -12.3788 -0.402046
-13.4446 -14.457 0.0425149
-13.4083 -14.3405 -0.149525
-16.6243 -12.4792 -0.357315
-16.7193 -12.2651 -0.497373
-13.5973 -14.7282 0.0486108
-14.1944 -14.0219 0.406029
-14.0838 -14.0301 0.405226
-13.5206 -14.2659 0.00141009
-17.0783 -11.8988 -0.716259
-16.115 -13.1435 -0.307699
-14.5346 -13.9916 0.397243
-13.3912 -14.5433 0.611601
-14.4832 -13.931 -0.25769
-17.6015 -12.115 -0.0525647
-17.1315 -12.1818 -0.602317
-16.8065 -12.585 -0.46806
-17.1966 -12.2233 -0.180925
-16.4696 -12.6742 0.075148
-16.5139 -12.3283 -0.083875
-16.6682 -12.6457 -0.146576
-15.5851 -13.1586 0.608117
-16.9469 -12.7676 -0.10591
-17.0579 -12.1115 0.252915
-15.5619 -12.7052 1.17615
-17.328 -11.8202 0.390705
-14.8363 -13.6538 0.613419
-16.4708 -12.8956 0.844727
-17.9171 -12.1438 0.496099
-17.431 -12.9418 0.740516
-16.8763 -12.876 0.668041
-17.0405 -12.7189 1.11796
-12.7243 -13.283 2.21157
-12.966 -13.2086 2.13958
-11.8076 -15.0921 -2.91115
-11.6251 -14.9094 -2.53196
-11.6968 -15.7775 -2.69121
-11.8366 -15.878 -2.90252
-11.8787 -15.3738 -2.29418
-11.8911 -15.4441 -2.94046
-11.9651 -15.3856 -2.6721
-12.0435 -14.7734 -2.32797
-11.7168 -15.2981 -2.1931
-11.7843 -15.4651 -1.95996
-12.2402 -15.0131 -2.2413
-11.7271 -15.1121 -2.34954
-13.2232 -12.6413 -2.62454
-11.7852 -15.4065 -2.28885
-12.1951 -15.3175 -2.17258
-16.2746 -11.6941 -3.16433
-15.9454 -12.1144 -3.22931
-14.8837 -13.2157 -3.19853
-15.0431 -12.7572 -3.05612
-13.214 -13.1769 -2.40003
-12.3343 -15.2384 -2.05247
-16.2655 -11.5887 -2.61337
-16.0609 -11.0972 -2.35235
-15.914 -11.8344 -2.37247
-12.6875 -14.0683 -1.57222
-12.8837 -14.2095 -1.71388
-12.333 -14.0012 -1.5975
-12.24 -13.8919 -1.61378
-13.623 -13.137 -1.59686
-12.8813 -14.2057 -1.94954
-13.9187 -13.6961 -1.84015
-16.0657 -11.5584 -2.83292
-12.9188 -14.2062 -1.39684
-15.8761 -11.6478 -2.53384
-15.1031 -12.9737 -2.02306
-13.4979 -13.8695 -1.80132
-14.6675 -13.1176 -2.23955
-15.5408 -13.3313 -2.09938
-16.5808 -11.3865 -2.30196
-11.7125 -15.5742 -1.21718
-16.1782 -12.0702 -2.11336
-16.1495 -12.1788 -2.09633
-14.7826 -13.0605 -1.60045
-15.2231 -12.8935 -2.00657
-16.2505 -12.1739 -2.02294
-12.5833 -14.6581 -1.27899
-15.0633 -12.2788 -2.39881
-12.6216 -14.9909 -1.32409
-14.2426 -13.7531 -1.46984
-15.6404 -12.7219 -2.12695
-14.5519 -13.3351 -2.00686
-15.4007 -12.4871 -1.51502
-15.7287 -12.8866 -1.9787
-15.7497 -12.8379 -1.96367
-16.066 -12.231 -1.70857
-16.2154 -12.2335 -1.81639
-16.2398 -12.6822 -1.82081
-16.2998 -11.8806 -1.41288
-14.9622 -12.6379 -1.83445
-16.6915 -12.2055 -1.46964
-16.7289 -11.5387 -1.52931
-16.0028 -12.7581 -1.33062
-14.5508 -13.5213 -0.797627
-14.2323 -13.2363 -1.01493
-15.8092 -13.0893 -1.07193
-15.1596 -13.0583 -1.07649
-15.8442 -13.0741 -0.98072
-15.0104 -12.9979 -1.19874
-15.0251 -13.4391 -0.563981
-16.9589 -11.9072 -1.62122
-16.8144 -11.6992 -1.36312
-16.706 -11.8669 -1.30959
-16.6165 -12.5774 -0.851511
-16.3763 -12.7083 -1.1047
-16.8442 -12.3447 -1.12571
-15.7614 -12.8882 -0.730499
-13.1609 -14.5936 -0.491348
-16.1272 -12.6702 -0.985385
-14.3284 -13.7248 -0.417682
-16.0597 -13.015 -0.55667
-15.3365 -13.206 -0.455527
-12.8143 -14.9408 -0.443173
-16.7334 -12.9099 -0.557418
-14.7165 -12.815 -0.145836
-14.2316 -14.0272 -0.735384
-14.2935 -14.2654 -0.599459
-13.2024 -14.6978 -0.0952276
-13.1451 -13.9139 0.24471
-15.2495 -13.5549 0.108856
-13.8319 -14.5479 0.0379539
-13.4342 -15.6392 0.465835
-14.9996 -13.597 -0.0195901
-13.2533 -15.2295 -0.19907
-14.8267 -13.5885 0.0162434
-13.7736 -14.2297 0.293451
-16.0619 -12.9414 -0.350789
-16.013 -13.1204 -0.374354
-16.0572 -13.2796 -0.136591
-16.1226 -13.2201 -0.210289
-13.8232 -14.111 -0.0534146
-13.8788 -14.5225 -0.194026
-13.6909 -14.9607 0.511354
-16.255 -13.4534 -0.031738
-14.7309 -14.0215 0.23941
-14.6009 -13.5334 0.15323
-13.4595 -14.892 -0.209839
-13.9361 -13.6125 0.32279
-14.8195 -13.5151 -0.3678
-14.8265 -14.0681 -0.353971
-16.23 -12.6733 -0.605632
-15.4725 -12.883 0.239298
-16.0238 -12.5176 -0.0208292
-16.2217 -12.6919 -0.177629
-15.1972 -13.6939 -0.0636504
-15.117 -13.4513 -0.0621002
-15.0503 -13.2021 0.599622
-16.8601 -12.9404 -0.472153
-15.1806 -13.3803 0.439332
-14.0604 -13.9541 0.563848
-14.8387 -13.2007 0.993008
-14.5519 -13.1433 0.779696
-14.206 -14.2846 0.770162
-15.06 -13.7608 0.469465
-13.0433 -14.9029 0.631275
-13.8494 -14.2433 0.458018
-14.4827 -13.1112 0.813867
-13.1069 -14.6338 0.832142
-17.2233 -11.9641 0.1716
-16.9117 -12.7191 0.174287
-13.9557 -14.4093 0.817711
-15.0521 -13.4531 0.486051
-15.6204 -13.1007 0.159061
-14.9507 -13.4175 0.637485
-16.8874 -12.3585 0.767895
-15.2221 -12.8334 0.82935
-14.3905 -13.8715 0.709133
-15.2685 -13.4477 1.02031
-14.6651 -13.6157 1.04126
-14.1641 -13.4862 0.578908
-16.3704 -12.8819 0.452768
-14.7784 -14.0833 1.03267
-14.2486 -15.0189 0.900901
-14.4795 -13.7183 0.805214
-13.887 -14.2567 1.14343
-16.9481 -13.3756 0.410481
-13.4007 -14.3758 0.969813
-17.0677 -13.088 0.388844
-13.6591 -14.867 1.16063
-17.4504 -12.4712 0.242547
-16.8936 -12.8411 0.478409
-16.2521 -13.1858 1.06461
-16.6295 -12.9939 1.46326
-17.3662 -12.8629 1.28787
-16.9876 -12.7648 1.18538
-17.2106 -12.9576 0.983607
-17.2221 -12.6849 0.939327
-16.5419 -13.0675 1.20065
-16.9456 -13.0108 0.938754
-13.6423 -12.2323 1.86455
-13.3725 -13.0315 1.83178
-12.9076 -12.7694 2.10931
-13.6485 -13.2736 1.97595
-13.1248 -13.895 1.73347
-12.9248 -13.09 1.90636
-13.2809 -12.7373 2.56523
-12.8211 -13.1594 1.70695
-13.5095 -13.4503 2.18938
-12.9631 -13.2063 2.44348
-13.4218 -12.3443 2.10168
-13.7353 -13.0327 2.23678
-13.7792 -12.6707 2.67893
-12.3671 -15.6068 -2.05106
-11.6392 -15.6776 -2.25316
-15.7744 -11.5482 -2.80783
-12.8884 -13.9369 -2.17935
-14.3126 -12.7373 -2.06403
-16.0545 -12.4305 -2.54436
-15.2033 -12.4355 -2.59606
-14.9932 -13.2962 -2.12198
-12.9476 -14.2172 -1.63106
-15.2132 -13.1694 -2.02822
-15.6187 -12.0004 -2.2166
-12.2122 -15.4753 -1.97975
-15.9242 -12.077 -1.74009
-16.0685 -12.6504 -1.90271
-15.9727 -11.785 -2.15124
-15.1892 -12.6324 -1.97643
-15.0438 -12.6741 -1.78383
-13.6684 -13.5881 -1.38657
-16.7141 -11.9406 -1.95292
-15.2863 -12.9052 -1.79488
-15.5617 -13.1781 -2.17568
-12.0169 -15.3594 -1.35128
-15.4587 -12.8107 -1.93068
-15.145 -13.0481 -1.90303
-15.925 -11.9114 -2.16317
-15.4056 -13.2427 -1.48354
-16.4382 -12.292 -1.74853
-15.7602 -12.3029 -1.66528
-16.4796 -12.3914 -1.81863
-16.085 -11.6965 -1.70618
-12.5442 -15.0483 -0.674223
-16.2923 -11.4927 -1.68152
-15.5268 -12.8409 -1.52969
-15.8474 -12.838 -1.855
-16.0135 -12.7045 -1.85525
-15.5134 -13.15 -1.00749
-12.7768 -14.8287 -0.551745
-14.3792 -13.6752 -1.49826
-15.4629 -13.2577 -1.30249
-15.4317 -13.4827 -1.03543
-16.6776 -12.4112 -1.19136
-16.7248 -11.8966 -1.30548
-16.4316 -11.3829 -1.45334
-16.4566 -12.4067 -0.693568
-16.1137 -12.273 -0.687142
-14.9225 -13.9687 -0.703188
-14.1832 -14.1249 -0.542585
-14.6253 -13.2697 -0.167329
-15.218 -13.3643 -0.542989
-16.3153 -12.5538 -0.329971
-14.4529 -13.5448 -0.216211
-16.0936 -12.2613 -0.74166
-15.9424 -13.1262 -0.399529
-13.6464 -14.6283 -0.173094
-16.0913 -12.7913 -0.539939
-13.7731 -14.619 0.202167
-15.8743 -12.8192 -0.411051
-14.0411 -13.958 -0.0492048
-14.3736 -13.8689 0.0260753
-13.1085 -14.8085 0.394469
-16.7873 -12.4894 -0.43356
-16.1489 -12.6793 -0.0564805
-16.7459 -12.6343 0.14182
-17.0145 -12.5599 -0.251062
-15.5552 -13.2539 0.449383
-16.4995 -12.481 -0.0694244
-14.2893 -14.2537 0.444381
-16.4167 -12.4381 0.343831
-16.0961 -12.9511 -0.221838
-16.6776 -12.6836 0.219091
-16.8969 -12.9322 -0.116395
-14.23 -14.4188 0.855331
-17.07 -12.5716 0.640869
-16.4405 -12.9732 0.039824
-15.3944 -12.6428 0.462872
-15.5016 -12.3556 0.28605
-15.2148 -12.8448 0.384304
-14.3435 -13.4174 0.280199
-14.6663 -13.6703 0.506494
-16.8073 -12.0866 0.191235
-16.7544 -12.3494 0.297419
-16.4338 -12.55 0.22324
-13.4061 -14.5494 1.15718
-13.6732 -14.4052 1.08113
-13.7924 -14.2689 0.825757
-14.0102 -14.3273 0.701711
-17.4276 -12.392 0.26608
-17.7737 -12.4221 0.657326
-17.2567 -12.4873 0.773621
-16.596 -13.453 0.515928
-16.5711 -12.6298 1.11833
-16.9591 -12.8199 0.849681
-13.3557 -12.5121 2.25569
-12.6969 -12.7852 2.25083
-13.8827 -12.5188 1.34075
-13.7347 -13.385 1.88892
-13.6461 -12.3439 1.66639
-17.1655 -12.9556 1.56681
-13.1 -13.2149 2.12975
-13.7457 -12.9379 1.95508
-13.4245 -13.1714 2.59377
-13.825 -12.9504 2.31291
-13.4682 -13.0931 2.36461
-13.4089 -12.822 2.22631
-11.5149 -15.6377 -2.50795
-12.2106 -15.3727 -2.55626
-11.8765 -15.7121 -2.23307
-15.0006 -12.9131 -3.14749
-15.0923 -12.5727 -2.57008
-15.9563 -12.2895 -2.59866
-12.9859 -13.8869 -1.33053
-13.609 -13.9235 -1.55636
-13.4576 -14.0466 -1.62601
-15.0331 -13.0065 -2.42267
-13.9598 -13.3277 -1.47172
-16.4605 -11.6918 -2.1522
-16.0728 -11.9524 -2.22866
-16.0236 -11.9614 -2.1884
-15.5957 -12.9959 -2.22852
-13.1831 -14.5296 -1.66856
-15.3406 -12.63 -1.86367
-13.5267 -13.7569 -1.7116
-14.0096 -13.0239 -1.17299
-12.1813 -16.1306 -1.40487
-16.3115 -11.9135 -1.65623
-13.7009 -13.6639 -1.19522
-13.3479 -13.8741 -1.34512
-14.3201 -13.554 -1.56977
-15.8004 -12.4704 -1.52449
-15.1508 -13.8207 -2.04874
-13.7045 -14.2975 -1.72409
-16.2471 -12.2652 -1.4909
-15.8518 -12.5402 -1.42918
-14.8387 -13.3682 -1.58049
-16.0883 -12.8124 -1.56586
-15.7233 -12.3467 -1.99481
-14.4491 -13.25 -1.39035
-17.1055 -12.156 -1.49257
-15.4152 -13.1331 -1.92481
-15.1762 -13.0704 -1.37687
-15.2116 -12.4014 -1.34804
-16.115 -12.5204 -1.06526
-12.8779 -14.3312 -0.562724
-13.6822 -14.1548 0.130971
-14.1826 -14.1585 -0.288328
-13.5593 -13.538 -0.746045
-15.1205 -13.7975 -0.53008
-14.7823 -13.9583 -0.243998
-14.7656 -13.7212 -0.086252
-13.993 -14.0948 -0.84301
-13.3479 -15.3568 0.00976373
-14.056 -14.1957 0.183222
-14.6047 -13.271 -0.560102
-14.6215 -13.281 -0.341483
-15.8622 -12.9413 -0.158929
-16.8622 -12.2685 -0.118589
-14.1544 -13.8303 -0.166301
