-12.4675 -14.2949 -3.09019
-12.9949 -13.9931 -3.25921
-11.8823 -15.1664 -2.53061
-14.5088 -12.3235 -4.65425
-12.1457 -15.3875 -2.3379
-14.9895 -12.4838 -4.60336
-11.5275 -15.5158 -2.62228
-11.2627 -15.3915 -1.75881
-14.8922 -12.4839 -3.58378
-14.9268 -11.7802 -3.87354
-11.8893 -15.6264 -2.20085
-11.1524 -15.6508 -1.58619
-11.9673 -15.5372 -1.23094
-11.6588 -15.8814 -1.83149
-15.5347 -12.1797 -3.30121
-15.153 -12.5449 -2.92332
-12.0763 -16.3061 -0.869682
-12.0892 -15.352 -0.861418
-12.6674 -14.0709 -0.387708
-14.2469 -13.6843 -0.489157
-14.9216 -12.6352 -1.25244
-12.4816 -15.624 -0.32888
-16.415 -12.295 -0.960752
-13.4289 -15.0432 0.0893257
-16.1353 -11.8796 -0.587228
-13.3928 -14.1456 0.320456
-12.8691 -14.4191 0.52209
-12.9372 -14.8494 -0.0755688
-13.0697 -14.9293 0.475437
-12.6454 -15.1841 0.801583
-14.813 -13.3942 0.010483
-13.0253 -14.9829 1.10951
-13.0795 -13.853 0.606126
-13.534 -14.3286 0.883952
-16.6878 -11.1045 2.24701
-16.8898 -11.313 1.82959
-12.3532 -14.2298 -3.23554
-12.9819 -14.3437 -3.5549
-11.8871 -14.985 -2.71423
-15.4366 -12.1611 -2.31733
-15.7445 -12.2628 -2.73967
-16.1184 -11.746 -2.67683
-12.3972 -15.5264 -1.01885
-12.8696 -14.8631 -0.581688
-13.24 -14.1597 -0.595415
-13.2443 -14.0076 -1.40689
-13.0918 -14.129 0.865671
-13.2298 -15.1762 0.271045
-12.8015 -15.1803 0.104861
-12.7362 -15.4113 0.770456
-16.713 -12.4289 0.0953487
-12.7208 -15.3435 1.21303
-17.0448 -11.0921 2.1634
-12.3844 -14.3749 -3.59534
-12.4562 -14.1913 -3.57952
-12.6969 -14.0831 -3.79454
-12.6107 -13.5871 -2.44375
-11.6022 -15.9655 -1.65105
-12.2719 -14.8752 -1.283
-13.0736 -15.0528 0.38309
-12.7003 -14.7036 -0.0968987
-10.8405 -16.06 -2.66546
-11.4251 -15.3161 -1.73584
-11.7553 -14.4778 -1.08852
-11.9952 -14.9827 -1.13686
-12.8424 -14.3055 -1.30271
-12.9269 -13.9685 -1.4307
-13.6467 -14.7101 -0.0821268
-13.4556 -14.7172 0.703629
-12.0962 -14.3081 -2.06086
-12.6269 -14.4366 -1.31155
-12.8209 -14.1098 -1.16771
-13.0936 -14.0306 -0.474041
-13.4098 -14.3626 -0.896473
-12.8088 -14.0327 0.474641
-13.6839 -13.8257 0.773706
-13.1715 -13.9516 -1.46136
-12.0175 -14.6061 -1.22073
-12.7907 -14.3618 -0.87103
-12.7408 -14.3598 -0.493895
-12.7533 -14.7975 -0.392676
-12.8416 -14.4601 0.664151
-14.816 -13.4143 -0.620836
-14.562 -12.3296 -4.21292
-14.4543 -12.8419 -3.41656
-13.5502 -13.3525 -4.11546
-16.8975 -9.69249 -4.57575
-12.2856 -14.025 -3.33557
-15.2501 -12.234 -3.82267
-14.9376 -11.7197 -4.40102
-11.7584 -14.8811 -3.12604
-15.2344 -11.5521 -4.33303
-15.0901 -12.0751 -3.80309
-10.9212 -16.4605 -2.7639
-14.1137 -12.6476 -3.41624
-12.2078 -13.9226 -2.39728
-15.5614 -12.6447 -3.35219
-15.7106 -12.5355 -2.69604
-16.0718 -11.9584 -2.59974
-11.3532 -15.8612 -1.99829
-15.7715 -12.6296 -2.23101
-15.7157 -12.6929 -2.5245
-11.8392 -14.6341 -1.19266
-12.0392 -14.574 -1.30224
-11.9007 -15.8012 -2.27991
-15.0473 -12.5132 -2.13893
-12.2326 -15.087 -1.53699
-12.1167 -15.5645 -0.891481
-11.1987 -15.753 -1.36497
-11.6148 -16.0084 -1.87165
-12.268 -15.4865 -1.59434
-15.5982 -12.1695 -2.0159
-15.9707 -12.6174 -1.67352
-12.6724 -14.0634 -0.822442
-13.2662 -14.3696 -0.858267
-16.0175 -12.1998 -0.887133
-14.3786 -13.6336 -0.355471
-12.8059 -15.4087 -0.234497
-12.9722 -14.8582 0.349429
-13.1071 -14.6863 0.281397
-13.4782 -14.4986 -0.116273
-12.5857 -15.6073 0.165651
-13.0385 -15.3403 0.590103
-13.7497 -12.7484 -3.61009
-13.558 -13.3658 -3.84693
-14.4533 -12.2993 -4.52309
-12.6722 -13.8805 -3.39205
-12.4667 -14.2229 -3.3788
-14.2751 -12.9232 -3.83139
-14.8081 -12.1694 -3.76863
-15.9096 -11.7045 -3.34997
-12.0401 -14.3905 -2.14497
-13.1654 -13.4013 -2.00231
-12.9874 -13.3501 -2.20085
-12.1305 -14.2112 -1.63813
-11.9285 -14.5046 -2.10791
-11.4703 -14.2374 -1.7251
-12.9292 -13.7201 -1.66478
-15.1731 -12.1536 -3.08513
-15.5698 -11.8235 -2.91088
-11.841 -15.3861 -2.07115
-15.1335 -12.9223 -2.64647
-13.2714 -13.5244 -1.87382
-16.3063 -12.0167 -2.47295
-11.5693 -14.8666 -1.44099
-11.9247 -14.7422 -1.48867
-11.8555 -15.0888 -1.11736
-12.306 -15.0097 -1.30254
-11.912 -15.6191 -1.78269
-11.9503 -16.0017 -1.03329
-13.2385 -14.2945 -0.295947
-12.6123 -15.2202 -0.945745
-12.59 -15.3363 -0.515795
-16.0929 -12.3317 -0.265917
-12.5355 -14.7485 -0.291734
-12.8832 -14.7255 0.26442
-13.3498 -14.3829 -0.0204993
-12.8462 -15.0333 0.511469
-12.8425 -14.5571 0.508825
-14.539 -13.2505 0.872863
-12.9636 -14.5925 0.399977
-12.5949 -13.4208 2.95139
-12.2093 -13.3448 2.88558
-12.7218 -13.825 -3.54429
-12.506 -14.5016 -2.69038
-11.7876 -14.7064 -3.4043
-12.1667 -14.1343 -3.51966
-12.1135 -15.0977 -3.46687
-11.8901 -14.474 -3.04459
-13.7894 -12.9708 -3.23649
-11.3719 -15.7147 -2.93489
-11.4815 -15.1672 -2.89463
-11.7014 -15.3484 -2.43383
-12.7833 -13.911 -2.36444
-11.5507 -15.9276 -2.7365
-11.8636 -14.7337 -1.82984
-13.3583 -13.8046 -1.31385
-13.3532 -14.2561 -0.856822
-11.9176 -15.0357 -0.862531
-12.6938 -15.0608 -0.770706
-14.8332 -13.2248 -0.190033
-13.1884 -14.2758 -0.413777
-13.0833 -15.2256 -0.129567
-16.4423 -12.2549 0.243942
-13.5088 -14.6571 0.198929
-12.8004 -15.6274 0.694606
-12.8417 -14.5171 0.717049
-12.8422 -14.914 -3.17361
-11.4352 -15.2107 -3.34777
-11.5114 -15.4151 -2.69096
-13.065 -13.7002 -2.0296
-11.673 -14.5614 -2.60238
-11.6046 -16.1591 -1.57964
-11.8928 -14.3583 -1.43563
-11.4776 -15.2773 -1.264
-13.5316 -13.334 -1.21287
-15.6103 -12.7982 -1.00421
-14.7721 -13.3259 -0.717781
-12.8273 -14.3217 0.687458
-11.4584 -14.5754 -1.95488
-11.4974 -14.7562 -1.95256
-11.437 -15.1798 -1.95737
-12.1454 -15.4553 -1.60046
-13.7035 -13.8777 -1.57867
-12.3599 -14.9845 -1.33239
-11.291 -15.7822 -2.02189
-12.0868 -14.7442 -1.84973
-12.3617 -14.666 -1.82665
-12.5897 -14.2692 -1.61822
-11.8285 -15.9728 -1.97745
-12.5267 -14.6096 -1.13069
-12.8836 -14.3824 -0.850701
-13.6473 -13.7276 -0.92557
-12.459 -15.0172 -0.608855
-13.3691 -14.6117 0.174413
-14.3807 -13.3836 0.49694
-12.8503 -14.2363 0.964947
-12.7303 -13.8603 -3.67297
-12.6667 -14.5874 -1.37867
-13.9342 -13.4825 -1.41576
-11.6231 -15.0027 -1.72156
-12.1214 -15.1905 -0.928294
-14.5961 -13.1624 -0.624044
-12.2408 -13.8739 -3.36855
-11.9326 -14.8158 -1.62832
-12.5685 -14.385 -1.99155
-12.3519 -14.9632 -3.42505
-12.8913 -14.3119 -3.74516
-12.8368 -14.871 -0.58535
-13.9604 -13.2589 -1.11682
-12.3896 -14.9285 -0.622641
-12.9957 -13.9414 -0.888913
-13.4909 -14.2283 -0.659243
-13.637 -14.6473 0.00430143
-12.646 -13.9539 -2.12493
-11.9757 -15.4678 -1.37741
-12.8172 -14.6674 -0.644523
-14.8947 -11.7171 -3.88804
-14.4908 -13.229 -3.85599
-14.1636 -13.016 -3.4848
-13.8573 -12.6373 -3.73235
-12.4868 -14.4938 -3.18424
-14.5604 -12.5788 -3.35039
-12.9072 -14.2158 -3.47078
-12.3361 -14.0799 -3.44081
-12.3093 -13.8105 -2.62934
-15.6588 -12.0635 -2.9006
-11.725 -14.7304 -3.27638
-15.5989 -11.7736 -2.53361
-15.7337 -12.0106 -3.07864
-11.8016 -15.2031 -3.25662
-15.3473 -12.2482 -2.21356
-10.9243 -16.0819 -2.66602
-13.7229 -13.5709 -1.20322
-12.2829 -14.6591 -1.72863
-12.0678 -14.8266 -1.35764
-12.6672 -13.9527 -1.37081
-12.3837 -14.6872 -1.63755
-11.681 -15.3328 -1.86507
-11.7505 -16.001 -1.41492
-11.5185 -15.8537 -1.85835
-16.5525 -12.6103 0.109485
-12.8649 -14.8984 -0.151673
-12.4398 -14.8859 -0.485523
-13.1316 -15.1477 0.541669
-12.6724 -15.3592 0.349826
-13.4996 -14.5543 0.779923
-13.5688 -14.9081 0.684929
-13.4294 -14.6107 0.604763
-13.956 -13.3927 -3.99579
-15.9009 -11.9715 -3.77613
-14.2852 -12.8485 -3.65003
-11.7682 -14.8041 -2.062
-15.563 -11.7528 -2.56478
-12.131 -14.0418 -2.10477
-12.9675 -14.1096 -1.24664
-12.6645 -13.9873 -1.00105
-11.8261 -15.1936 -1.4545
-11.7866 -14.4942 -1.55564
-11.4117 -15.7782 -1.67003
-16.2817 -12.6877 -0.899645
-11.5731 -16.2842 -1.61073
-12.4564 -14.9796 -0.670686
-13.4405 -14.054 -0.743307
-13.4883 -14.401 0.142374
-12.9406 -15.3673 -0.295162
-13.1153 -14.6919 -0.144656
-12.9007 -15.1104 0.460994
-13.6837 -14.5243 1.66672
-13.0966 -13.5558 -3.8759
-15.4398 -11.7288 -3.6388
-13.7927 -13.2021 -3.42372
-12.3745 -14.4743 -3.04742
-12.6755 -13.364 -2.35836
-12.2304 -14.4311 -3.30019
-15.1651 -12.4406 -2.79913
-11.6782 -15.0827 -2.52776
-11.325 -15.8431 -3.12701
-12.126 -15.7851 -2.34175
-12.4799 -14.8385 -1.32627
-12.9451 -14.2006 -0.236094
-12.7315 -15.1411 -0.3513
-13.7331 -14.0526 -0.272376
-13.1607 -15.4589 -0.232541
-15.0433 -13.2912 0.89093
-13.3631 -14.8367 0.0802726
-12.914 -13.9076 -2.39366
-13.3728 -14.2788 -0.775429
-13.3774 -14.6859 0.278577
-14.0409 -13.3238 0.789243
-12.7785 -14.7572 0.534186
-13.9449 -13.8508 1.27164
-13.3115 -14.6146 1.37785
-12.6196 -14.2267 -3.46458
-12.0917 -14.485 -3.73395
-12.1991 -14.3615 -1.46038
-11.6814 -15.2479 -1.05851
-11.9124 -15.0536 -1.26438
-12.7583 -15.2654 -0.502494
-13.4402 -13.4583 -3.99301
-12.1183 -15.4906 -1.2449
-12.5589 -15.3026 -0.57741
-13.1729 -14.6717 -0.298246
-13.15 -14.1314 -0.142256
-13.7049 -13.6918 -1.1552
-14.5485 -12.151 -4.81334
-15.357 -12.2915 -3.98301
-15.274 -11.943 -3.76931
-15.5217 -11.4687 -3.77189
-13.5911 -13.7026 -3.76186
-13.8784 -13.4742 -4.19137
-12.2246 -14.1204 -3.21322
-12.1363 -14.4947 -3.35271
-16.3106 -12.152 -1.18521
-13.5166 -13.7091 -1.26119
-14.854 -13.0888 -0.872383
-12.3243 -14.4661 -1.768
-11.6642 -15.4007 -2.86783
-11.4999 -14.5857 -1.49219
-12.1746 -14.5563 -1.09752
-16.3511 -12.3807 0.666194
-14.749 -13.5476 0.628451
-11.2986 -15.6984 -1.65556
-13.8995 -14.243 0.92664
-12.9095 -15.0544 -0.982446
-11.9037 -16.0353 -1.48345
-12.3174 -15.7269 -0.12607
-13.4646 -14.1552 0.525758
-13.9466 -14.7311 1.21262
-12.6627 -15.1548 1.18198
-14.1628 -11.8911 -4.3416
-14.0623 -13.161 -3.30441
-14.2192 -13.3372 -3.71583
-12.9568 -13.5999 -1.97648
-13.1142 -13.3183 -2.32526
-12.4526 -14.2042 -3.12603
-12.443 -14.2387 -3.24968
-12.2665 -14.8341 -3.84511
-12.7149 -14.287 -1.78045
-12.637 -13.8287 -1.51333
-12.0442 -14.8447 -3.58561
-13.1312 -14.184 -1.67413
-13.2913 -12.9918 2.58564
-12.8274 -13.3534 2.42404
-11.5007 -15.6082 -2.88009
-11.3752 -15.6569 -2.60241
-11.1165 -15.6427 -2.81526
-11.2266 -15.7975 -2.8497
-11.3662 -15.5872 -1.66486
-11.2683 -15.541 -2.02019
-13.6142 -14.3488 0.295694
-13.7819 -14.421 0.286543
-14.0908 -14.1284 1.19127
-13.469 -14.3694 0.472348
-12.4753 -15.3174 0.321846
-13.3298 -14.9144 0.0206663
-12.7427 -15.3986 0.00991185
-12.7943 -15.3139 0.268087
-12.2655 -15.0856 0.0528786
-14.0484 -11.9971 -4.12341
-12.8276 -13.2778 -2.53028
-12.747 -14.4182 -1.5654
-16.4679 -12.4396 -0.276249
-12.0536 -14.5503 -1.31567
-12.6515 -15.1352 -0.613999
-12.7656 -14.6169 -0.00204947
-13.2456 -14.5737 1.22149
-12.53 -15.1023 0.416994
-13.0334 -15.0042 1.19013
-13.0809 -14.6468 1.22238
-13.9756 -13.5549 -3.67383
-12.8175 -13.3033 -2.73724
-12.1005 -14.6344 -2.54078
-13.1298 -14.4417 -0.914766
-11.065 -16.2432 -1.08227
-13.1852 -15.1872 0.656129
-13.6118 -14.1761 -0.697063
-12.0052 -14.8858 -1.05567
-14.4269 -13.5519 -1.07709
-14.7142 -13.3745 -0.437574
-11.4902 -15.341 -0.884577
-12.6566 -15.1297 0.285219
-13.141 -14.4557 -0.771232
-11.5864 -15.6249 -1.2997
-13.2525 -14.9497 -0.414902
-13.6303 -14.9136 0.287317
-13.4337 -14.9533 -0.234307
-17.6919 -11.5546 0.916727
-12.9059 -14.7058 -0.926725
-12.5413 -15.467 -2.10036
-12.3623 -14.8096 -0.827392
-15.6109 -11.7352 -2.13034
-13.365 -13.5279 -4.02377
-12.8735 -14.4151 -1.67647
-13.0993 -14.4203 -1.381
-14.4233 -13.0842 1.0612
-14.3411 -13.4475 0.818565
-13.94 -14.3899 0.602447
-11.9801 -14.8105 -3.08592
-13.9213 -14.2498 0.502737
-14.2289 -13.9937 -0.32179
-14.0068 -14.5496 -0.272225
-12.0329 -14.4832 -1.15628
-13.9129 -14.1742 -0.0439781
-13.1549 -14.3066 0.646278
-12.8131 -14.9874 0.0328906
-12.8 -14.9624 -0.11273
-12.635 -14.9671 0.169761
-13.2449 -14.718 0.501598
-11.6001 -15.6774 -2.80073
-12.5777 -15.3467 0.629821
-11.5846 -15.4642 -2.41222
-10.9283 -15.6227 -2.20285
-11.5987 -15.7153 -1.66575
-14.5211 -12.4609 -3.61181
-15.374 -12.8357 -1.84369
-12.725 -13.2246 1.97925
-13.1779 -13.4243 -1.19478
-14.5114 -13.3921 -0.817129
-12.323 -13.8474 -2.50549
-14.6727 -13.7895 0.801187
-14.735 -13.6108 1.17581
-13.1794 -14.2109 -0.824908
-13.8829 -14.4207 0.247443
-11.8317 -14.6649 -3.22712
-14.2238 -14.6359 0.340547
-13.558 -14.6002 1.03922
-13.352 -14.6002 -0.586366
-12.8882 -14.7349 -0.684189
-12.2057 -14.8565 -0.316428
-12.8086 -15.5016 0.401465
-12.796 -14.7044 1.32804
-10.8729 -15.3592 -2.76721
-11.4703 -15.4817 -2.49542
-11.3823 -15.4421 -2.0938
-11.1706 -15.3494 -1.91725
-11.6319 -15.6169 -1.94668
-12.581 -15.3082 -0.0261206
-10.4267 -16.2445 -2.74937
-10.5504 -16.2481 -3.24042
-16.4601 -12.8997 0.24574
-12.3584 -13.9037 -2.49084
-13.5802 -14.2988 -0.557466
-14.6157 -14.3681 -0.45111
-12.4199 -14.447 -1.32269
-13.7984 -14.0185 -0.534774
-13.3651 -14.0943 -0.214276
-12.4859 -14.7062 -0.597477
-13.2382 -14.6732 0.632006
-12.9423 -14.7385 0.669325
-12.5221 -15.1862 0.893636
-11.6796 -15.68 -3.01418
-11.3007 -15.7324 -2.67981
-14.6345 -13.6205 0.0873189
-12.442 -14.2059 -3.45892
-14.5351 -13.9674 -0.0593014
-11.7529 -14.1759 -0.967457
-12.2203 -15.342 -1.34834
-12.6734 -14.9664 0.361938
-10.5399 -16.0681 -2.61058
-17.035 -9.3544 -3.98101
-16.9883 -9.54673 -4.37718
-17.1247 -9.405 -4.23148
-13.1642 -14.2334 -0.469561
-11.6565 -15.4981 -1.64105
-14.6575 -13.0701 -0.199072
-13.0688 -14.3475 -0.0632356
-13.2997 -14.7957 -0.642388
-12.4914 -15.5965 -0.494945
-13.2783 -14.0711 -1.46108
-12.3316 -15.549 -1.6579
-14.3423 -13.7807 -0.580353
-13.1018 -14.5056 0.394162
-13.0338 -14.6332 -0.36171
-12.9168 -15.146 -0.99094
-13.1972 -14.4995 -0.938175
-13.4637 -14.8445 -0.275074
-13.121 -13.6815 -2.57126
-17.0897 -10.0172 -4.05876
-16.8755 -9.30708 -4.16056
-17.6821 -11.4536 0.224251
-17.2628 -11.962 -0.0951618
-17.3563 -11.9577 -0.0313683
-14.8948 -12.0356 -3.95664
-15.8774 -12.9345 -0.481149
-14.3518 -12.8628 -3.411
-13.5984 -14.2065 -0.0172435
-13.0912 -13.7534 -2.91353
-12.9807 -13.8834 -1.09508
-13.7228 -14.1826 0.439226
-13.4583 -14.3886 0.0943677
-13.6179 -14.3204 0.419512
-13.2325 -14.6314 -0.210711
-13.2131 -14.3078 -0.478093
-13.0026 -14.9334 1.54675
-12.9672 -13.2897 -3.54189
-12.8531 -14.1333 -3.67238
-13.2765 -14.2573 -0.334325
-12.1274 -14.5014 -2.80234
-13.1842 -14.514 -0.255355
-12.4366 -14.5118 -2.7009
-13.0059 -15.107 0.0594302
-11.9631 -14.7126 -2.58754
-12.9113 -15.0643 0.370058
-12.9029 -15.1318 0.102053
-12.7133 -15.1489 -0.0938993
-12.5166 -15.1975 0.285308
-12.514 -15.27 0.409649
-12.2116 -15.5492 -0.760061
-12.9214 -15.2708 -0.00382345
-11.3689 -15.5359 -1.87374
-11.1084 -16.0812 -2.28785
-10.6903 -15.95 -2.43319
-17.6615 -11.6157 0.491988
-17.3733 -11.6325 0.24796
-17.3752 -11.472 -0.0515866
-16.9209 -12.1991 0.199191
-16.0399 -12.7745 0.164331
-16.2533 -12.642 0.379858
-14.2404 -13.5671 1.18291
-13.8966 -13.2919 -1.55509
-13.9312 -13.3457 -1.20847
-12.8893 -13.6592 -1.85209
-13.5572 -14.6304 -0.238743
-13.6899 -14.1454 -0.729255
-14.0202 -14.2821 0.455309
-13.486 -14.1496 -0.569582
-13.973 -14.2849 0.130616
-13.5345 -14.134 0.00445753
-13.3501 -13.6465 -3.89587
-12.9791 -14.3763 -1.07993
-12.0031 -13.7431 -1.97693
-12.9715 -15.0589 -0.886318
-12.1174 -13.9433 -2.84682
-12.2328 -14.7121 -3.09674
-12.8169 -15.0292 0.361812
-12.8256 -15.1138 -0.156826
-12.9882 -14.9987 -0.258974
-12.9067 -14.663 0.491248
-12.5068 -15.1917 -0.251166
-13.1449 -15.479 0.466352
-12.4632 -15.0242 -2.64674
-11.5797 -15.0384 -2.60823
-17.2027 -9.79834 -4.64052
-17.7952 -11.7683 0.219072
-16.4648 -12.4265 -0.464515
-13.2485 -13.5484 -1.52202
-13.8136 -14.3289 0.626198
-13.7472 -14.4715 0.0523243
-12.343 -14.1275 -2.33324
-12.773 -15.3398 0.288446
-12.0562 -14.8922 -1.00184
-12.6843 -15.2061 0.0523551
-12.3786 -14.674 -3.20511
-13.5674 -14.4978 -0.0493168
-12.6397 -14.3709 -3.11629
-12.2654 -14.2875 -2.84692
-12.9795 -14.3067 -0.607588
-11.6097 -15.2862 -1.68264
-11.1095 -15.858 -2.44753
-13.562 -13.6429 -1.7692
-13.2496 -14.1928 0.685208
-12.5267 -14.001 -3.47634
-12.8364 -14.7109 -0.327322
-12.6811 -14.5012 -0.876772
-13.9694 -13.8303 -0.89743
-13.3985 -14.6125 -0.18437
-13.3305 -14.6447 -0.553703
-12.7776 -14.3063 -0.816769
-11.9679 -14.6496 -0.91833
-12.5097 -14.9099 -0.499629
-14.6709 -12.9078 -0.465898
-15.4069 -13.3893 -0.671814
-13.3328 -14.1306 1.27825
-13.2391 -14.4337 0.483852
-13.4751 -13.9535 0.0246583
-14.5395 -12.4138 -3.92664
-14.1836 -12.9218 -3.7574
-12.8925 -15.2795 0.578496
-13.053 -14.7436 0.0493526
-12.5483 -14.5729 0.175812
-12.6131 -15.0387 -0.446432
-12.237 -14.0451 -2.01164
-12.5121 -13.9294 -2.36923
-12.2247 -14.5144 -0.572651
-13.001 -13.2017 -3.78441
-12.2178 -14.3808 -2.61817
-12.7572 -13.9242 -3.47584
-12.3335 -14.2971 -3.39216
-12.4389 -14.174 -3.05757
-12.3425 -14.1939 -3.5521
-11.5011 -14.423 -1.66588
-10.9493 -16.0582 -2.43467
-13.2357 -14.5318 -0.7669
-12.6348 -15.0628 0.37336
-12.6925 -14.3754 -1.79184
-13.2092 -13.8227 -3.69865
-12.8369 -14.8649 -2.83602
-12.0823 -14.7049 -1.42731
-12.425 -15.6824 -0.478332
-12.316 -14.382 -3.42608
-12.6435 -15.3727 -3.00457
-17.4351 -9.63195 -4.12667
-16.9558 -9.85516 -4.19177
-17.0557 -9.87698 -3.4359
-12.053 -15.5939 -2.25495
-10.903 -15.7087 -2.58369
-13.2023 -14.8176 0.0424461
-12.7101 -14.4281 -0.590099
-13.2253 -14.7167 -0.11047
-13.2209 -14.8935 0.203692
-12.2242 -15.1256 -0.783612
-12.1434 -15.0331 -1.2344
-12.7429 -15.689 0.204878
-13.3312 -14.48 -1.1228
-13.3782 -14.4039 0.699607
-13.0986 -14.3411 -1.19036
-11.5076 -15.1682 -1.24117
-13.6458 -13.7944 -0.727462
-14.0911 -13.2125 -1.39086
-16.6378 -12.9462 0.136902
-13.189 -14.517 0.899401
-12.8107 -14.7752 0.983422
-13.5716 -14.4431 0.19778
-12.609 -14.9383 0.471008
-13.3327 -14.8103 -0.024269
-13.1074 -15.1719 0.295644
-12.7629 -14.7544 -0.34758
-12.5609 -15.1812 -0.212195
-12.3539 -14.3767 -1.15653
-11.8862 -14.7012 -1.11765
-13.509 -13.4682 -3.93382
-13.398 -13.4601 -3.57422
-11.45 -15.7041 -2.4787
-14.0075 -13.6222 1.23789
-12.5828 -14.6943 0.0672766
-13.3803 -14.8046 0.32443
-13.0623 -13.9003 -1.01215
-12.4577 -13.2988 -2.63483
-12.2574 -14.6214 -3.10879
-14.4432 -13.2704 1.05777
-13.2545 -14.6662 1.08191
-12.898 -14.9692 0.248491
-13.226 -15.0046 0.513176
-12.6476 -14.0479 -1.86722
-12.1135 -14.4514 -2.34387
-11.488 -15.6376 -2.41376
-10.7214 -16.5031 -2.51032
-13.1825 -14.7774 -0.519783
-13.195 -13.563 -3.47372
-12.4383 -14.0248 -3.36572
-11.2047 -15.586 -2.23535
-12.3207 -14.992 -0.550246
-12.6635 -14.5086 0.0038536
-12.431 -14.1642 -0.161599
-13.461 -13.9211 -1.08079
-12.4949 -14.6131 -0.939686
-13.3208 -14.8342 -0.759135
-12.3221 -14.7507 -0.515878
-12.0183 -15.2796 -1.24268
-16.286 -12.4412 0.38354
-14.263 -13.726 0.666304
-16.3351 -12.7285 0.339864
-13.5641 -14.3854 0.925214
-13.7341 -14.6448 1.36374
-16.3941 -12.5341 -0.915517
-12.7961 -14.4186 0.727312
-13.0561 -15.1318 0.682319
-12.7318 -14.4719 0.514725
-16.9693 -9.07867 -4.5363
-13.7861 -13.4528 -1.95759
-12.8335 -14.7525 -1.40049
-12.1695 -14.2762 -1.5351
-12.7602 -14.582 -1.59283
-12.341 -14.7826 -1.3364
-11.8929 -14.3672 -1.16068
-12.4582 -14.1524 -0.894408
-12.3326 -16.0081 -1.76807
-13.1219 -13.8397 -3.64547
-12.6118 -14.2546 -3.61529
-12.879 -14.6831 -3.29153
-12.1759 -13.7414 -3.23085
-12.5242 -14.5288 -3.49781
-11.9227 -14.8146 -3.69831
-13.2664 -14.5963 0.21488
-13.0705 -14.6438 0.291731
-13.1697 -14.7274 0.584789
-13.0338 -14.8418 0.463557
-13.402 -14.6358 0.333781
-14.4719 -13.1108 -2.38977
-15.5628 -11.4541 -3.78211
-12.3335 -16.1261 -1.10882
-12.0883 -14.9385 -1.82509
-11.9879 -14.5789 -2.40252
-11.4698 -14.9391 -2.71335
-12.231 -14.2502 -2.09561
-12.3851 -13.7447 -2.83833
-12.352 -13.7068 -3.35344
-13.206 -14.8097 0.156293
-13.0792 -14.5993 0.451841
-12.9763 -14.6447 -0.215416
-11.9642 -14.8813 -2.52737
-12.9311 -14.146 -3.38991
-12.1127 -14.2253 -3.41356
-13.3751 -14.618 0.787538
-13.5183 -14.9607 0.509798
-12.9438 -14.4792 -0.217615
-11.5368 -15.4271 -1.77139
-12.0743 -13.9696 -2.38331
-12.2391 -14.7714 -2.53357
-12.9154 -13.7378 -3.04341
-11.2373 -15.2181 -3.06652
-14.9602 -13.8531 -0.231634
-12.4568 -14.7477 -1.35077
-11.1104 -14.9867 -2.15064
-13.4332 -14.9416 0.265281
-12.9241 -14.4562 0.430528
-13.3366 -14.9712 -1.17375
-12.3423 -15.2293 -0.607292
-12.7248 -14.8321 0.630338
-13.5627 -14.0475 -0.724255
-13.3076 -14.3797 -0.317587
-12.1617 -15.7675 -1.62435
-14.7533 -13.4148 0.967089
-14.7118 -13.7902 0.244018
-13.6789 -14.6922 0.66587
-16.5102 -12.7753 -0.235962
-13.5693 -14.6885 -0.23783
-12.8869 -14.8007 0.38802
-13.3371 -14.8623 0.58774
-13.0673 -14.8041 0.165555
-13.4251 -14.7501 0.491744
-12.5043 -14.4589 -0.0530474
-13.2033 -14.4498 -0.273839
-12.9651 -15.5822 -0.102208
-13.1749 -14.0849 -1.15124
-14.4951 -12.7096 -2.42094
-12.7007 -13.6647 -1.24707
-13.3018 -13.7767 -2.09798
-12.0006 -14.7304 -0.934501
-12.3121 -15.2342 -0.808454
-17.3331 -9.161 -4.2523
-16.5772 -9.44377 -4.38946
-11.6781 -15.7938 -1.0461
-12.5561 -13.9873 -1.20227
-11.9614 -15.6822 -1.7732
-11.9775 -15.6486 -1.77764
-11.8424 -16.2488 -1.63488
-11.8757 -14.5636 -2.10405
-11.963 -14.3867 -2.66786
-12.4947 -14.1541 -3.39218
-12.1635 -13.7334 -3.32556
-12.6684 -14.2753 -3.14577
-12.3434 -14.8286 -3.54479
-12.1179 -14.1915 -3.1437
-12.9556 -15.1623 0.81146
-13.1562 -14.3864 0.471028
-13.2313 -14.0248 0.248683
-13.2635 -14.5012 -0.0487445
-13.0469 -14.6537 0.344828
-15.6527 -12.9524 -1.43655
-15.7789 -12.5335 -1.94737
-12.3334 -15.1503 -0.992237
-17.409 -9.67702 -4.63317
-12.5696 -14.7467 -1.42918
-12.0165 -14.6904 -1.4514
-11.4897 -15.3567 -1.40217
-11.6929 -15.3462 -1.47403
-11.6905 -15.6969 -1.84116
-11.939 -14.0094 -2.30308
-11.8099 -14.7462 -2.27262
-11.7012 -14.3062 -2.29366
-11.8694 -14.0101 -2.65011
-13.4326 -13.7295 -3.26951
-13.34 -14.0312 -3.49256
-11.4323 -15.2222 -2.77945
-12.7284 -14.5586 -3.67828
-13.0123 -13.8695 -3.0495
-12.423 -14.0047 -3.18464
-11.752 -15.1444 -2.30684
-16.7617 -12.8945 0.0311042
-13.5501 -14.6849 0.3818
-12.7634 -14.2839 0.885735
-13.3181 -14.3888 0.352241
-13.2407 -14.5126 0.423339
-12.8663 -14.209 0.14991
-13.4468 -14.6437 -0.590677
-12.3306 -15.9986 -0.398782
-13.2037 -13.8301 -1.29358
-12.3759 -14.8319 -0.858338
-12.3245 -14.1314 -1.13605
-12.1233 -14.9486 -1.61934
-12.115 -14.7602 -1.82778
-12.2947 -14.6282 -1.46514
-12.237 -14.9529 -1.68854
-11.8131 -15.8718 -1.27514
-13.3204 -14.6049 1.20339
-14.5749 -13.76 0.271755
-14.7673 -12.9689 -0.404245
-12.6277 -14.822 -0.78665
-13.0159 -14.258 -1.47655
-13.9895 -13.4795 0.641899
-14.2201 -13.825 1.18655
-14.5433 -13.4866 0.367305
-13.0758 -14.7225 1.28576
-15.1656 -13.9035 -0.0667439
-12.7645 -15.2533 0.185157
-13.0092 -14.3732 -1.03264
-16.5261 -9.51357 -3.90751
-16.8542 -9.9515 -4.53377
-11.8213 -14.441 -1.9146
-11.4735 -15.3543 -1.91857
-13.4207 -14.324 0.835908
-13.0477 -14.6885 -0.241294
-12.1676 -14.8719 -0.90859
-11.8448 -15.3036 -2.55456
-13.9901 -14.993 1.24731
-12.4373 -15.0198 -0.0934127
-13.7706 -15.0838 0.109488
-12.7583 -14.3312 0.0490111
-12.7442 -14.9085 -0.412282
-11.876 -15.5095 -0.255929
-13.0413 -14.06 0.219559
-11.5479 -15.657 -2.32338
-11.5626 -16.1277 -1.52508
-11.814 -15.3628 -1.30305
-12.5375 -14.9324 -0.563936
-12.3695 -15.3411 -0.423022
-13.4926 -14.5903 -0.146841
-13.1288 -14.3027 -0.000177566
-14.559 -14.1691 0.267603
-13.3599 -14.8824 0.316348
-12.6631 -14.65 0.475245
-13.1908 -14.7301 0.491315
-13.0965 -15.0377 0.411962
-14.9023 -13.5644 0.169806
-16.8785 -11.4135 1.59683
-12.5115 -14.1812 -3.30387
-11.9921 -14.4238 -3.56291
-11.1033 -15.4957 -2.61068
-11.8278 -14.7703 -2.24348
-11.7557 -14.7413 -2.52421
-11.1565 -16.0563 -1.87865
-12.276 -14.6317 -1.28183
-12.1694 -14.4959 -1.29658
-13.0529 -14.6091 -1.08363
-12.8074 -14.3785 -0.297182
-13.382 -14.6483 0.0699
-13.4613 -14.8555 0.22545
-12.8506 -14.481 0.353116
-13.0873 -15.187 -0.0362316
-13.291 -14.7798 0.536031
-13.0722 -15.0486 0.671951
-15.3827 -13.5323 0.209517
-16.5651 -12.3358 -0.0861467
-13.199 -15.128 0.675065
-13.5835 -14.2555 0.649362
-12.5461 -13.9288 -3.37216
-11.3999 -16.2558 -2.17447
-16.9326 -10.0968 -4.31188
-11.767 -14.354 -1.11942
-12.9512 -13.7546 -1.61819
-13.0232 -13.8438 -0.882798
-12.3682 -14.7077 -0.628782
-13.7474 -13.7833 -0.696186
-13.2411 -14.7044 -0.00111682
-14.7849 -14.0224 0.37303
-14.8824 -13.5849 0.427736
-14.3194 -14.4916 0.864076
-13.3649 -14.3797 1.12294
-14.9197 -13.2626 0.944197
-14.3284 -13.4924 1.01978
-12.3279 -14.4392 -1.3055
-11.8591 -14.8439 -1.57079
-13.0327 -13.7797 -1.48512
-13.2415 -14.7182 -0.3498
-13.253 -14.81 -0.115893
-13.2181 -14.5726 0.384396
-13.4272 -14.8598 0.0311205
-12.4758 -15.5114 0.906236
-13.0801 -14.007 -0.448817
-13.0389 -14.5614 -0.639756
-14.8921 -13.1558 -0.566018
-13.1142 -14.594 0.659416
-14.4787 -14.0257 0.0913279
-12.9277 -14.9587 1.06134
-12.0038 -14.4705 -1.04336
-12.3842 -14.936 -0.723242
-13.6728 -14.1615 -0.70616
-12.776 -15.0177 -0.239863
-12.7109 -14.9197 -0.162768
-12.2164 -14.5407 -1.11446
-12.3043 -15.1338 -0.832898
-12.8138 -15.0926 -0.797924
-11.9751 -15.6779 -2.29341
-13.3464 -14.5576 0.198041
-12.5192 -14.0625 -2.18985
-13.2572 -14.8608 0.322815
-12.4079 -14.3173 -3.23849
-15.5266 -11.353 -3.65314
-17.0024 -9.83078 -4.40385
-12.1106 -14.1506 -1.88496
-11.5762 -15.3864 -1.75595
-15.5142 -12.2045 -2.61401
-13.305 -14.1039 -1.34857
-12.0268 -15.9006 -0.942316
-12.0633 -15.0613 -0.731271
-11.8323 -15.6047 -0.179512
-13.0736 -14.9922 0.536265
-12.8518 -14.7346 0.493878
-12.8029 -14.602 0.65981
-12.9327 -15.3225 0.806629
-16.4823 -11.2113 2.01436
-12.6793 -13.4791 -3.73212
-12.6038 -14.1807 -3.64826
-11.1897 -15.4943 -2.46827
-11.0745 -15.6735 -2.09988
-13.0487 -13.5914 -2.14084
-13.2371 -13.7965 -1.37473
-12.156 -14.2654 -1.48578
-13.5072 -14.0541 -0.694788
-12.982 -14.5442 -0.455192
-13.4493 -13.9921 0.147935
-12.9983 -14.6473 0.956434
-13.0879 -14.577 0.592047
-16.6921 -12.8763 0.263868
-13.2221 -15.036 0.190569
-12.469 -13.7228 3.24296
-11.639 -15.8377 -3.03679
-10.6501 -15.7507 -2.52304
-11.8082 -14.9208 -1.98745
-12.5261 -15.2187 -1.52044
-11.9053 -15.1059 -1.45908
-12.0952 -14.7088 -1.67204
-11.8671 -14.7403 -1.66997
-12.2656 -15.0567 -0.901592
-16.038 -12.1436 -1.83411
-14.0404 -13.4326 -1.27255
-14.6985 -13.042 -0.745781
-12.8737 -14.4303 -0.165937
-13.2596 -14.2327 0.376751
-12.9892 -15.0494 0.512816
-14.895 -13.1156 0.494232
-12.7988 -14.9726 0.500652
-10.9369 -15.8583 -2.73693
-12.1244 -14.794 -1.63706
-12.236 -14.7812 -1.33819
-12.2739 -14.2829 -1.4029
-11.6659 -14.9192 -2.11221
-12.0736 -14.3756 -1.74318
-13.271 -15.0247 0.507447
-13.406 -15.1472 0.269631
-12.9346 -14.8814 0.414081
-13.5176 -14.5718 0.739425
-11.583 -16.1174 -2.18966
-11.8417 -14.6078 -1.46172
-13.1014 -14.7775 -0.74387
-12.7207 -15.0185 -0.74931
-12.8484 -14.6082 -0.197761
-16.2614 -12.846 -0.0311091
-14.3702 -13.6754 0.927301
-14.1269 -13.4841 0.587876
-12.3047 -14.7932 -0.66722
-13.3873 -15.4121 0.750973
-12.996 -14.8963 1.24656
-12.8446 -14.2612 -1.4445
-12.3354 -14.4022 -1.91291
-11.5192 -14.3103 -1.81281
-11.7039 -15.5524 -2.59627
-10.645 -16.1875 -3.12029
-14.947 -12.9115 -2.42641
-13.3169 -14.3138 -0.316279
-12.0409 -15.6612 -0.657334
-16.1395 -13.0969 -0.087686
-13.0741 -14.8773 0.480477
-12.6693 -13.28 2.74825
-12.1193 -13.0361 2.5963
-16.9356 -9.17084 -4.35508
-15.0331 -11.9859 -3.18696
-12.3388 -14.2526 -2.2386
-12.318 -13.8539 -2.48647
-11.4185 -15.3718 -2.8559
-11.2429 -15.3173 -2.75813
-10.9825 -15.6251 -2.08329
-10.7761 -15.7476 -2.4974
-14.6426 -13.0573 -2.28196
-13.4453 -14.5565 -0.320608
-14.7357 -13.4892 -0.582564
-12.6221 -14.9596 -0.761161
-12.8297 -14.6255 -0.441459
-13.2561 -15.1306 -0.17153
-13.1901 -14.3989 0.0453311
-12.9727 -14.633 0.459018
-13.0626 -14.5031 0.61301
-12.8734 -14.9181 1.22666
-13.7801 -13.0052 -4.08943
-11.4189 -15.3025 -3.08484
-13.4079 -13.5103 -2.12132
-13.2106 -13.3031 -2.26803
-11.9933 -13.8653 -1.93149
-11.8251 -14.4815 -1.68856
-11.9475 -14.6005 -1.64499
-15.1589 -12.9776 -1.83758
-12.1921 -14.8278 -1.4592
-13.2776 -13.7286 -3.95683
-14.5707 -13.5556 -0.595977
-13.2363 -14.693 -0.058197
-12.585 -14.4925 0.156243
-14.7865 -13.3349 0.451779
-13.1244 -15.2653 1.53755
-10.9136 -15.9786 -3.09235
-11.7984 -14.4028 -2.10019
-12.6222 -14.601 -1.70603
-12.4865 -14.2677 -1.90202
-12.33 -14.4557 -1.18772
-12.8277 -14.4151 -1.01248
-13.0603 -14.3696 -0.066226
-12.4353 -14.4455 -3.53805
-13.2193 -14.8034 0.0286161
-13.2894 -14.7217 -0.00627348
-11.7735 -15.8336 -2.27335
-13.5225 -13.9603 -1.81206
-13.4224 -13.9052 -1.10084
-12.8708 -14.5476 0.165126
-15.2693 -12.4059 -3.07588
-11.9135 -14.3575 -1.83387
-11.7552 -15.5394 -2.49385
-11.1515 -16.2417 -2.65749
-10.8939 -16.1539 -2.66875
-12.1291 -14.5675 -1.28387
-12.9533 -14.7973 -0.43138
-13.4257 -14.7145 1.52424
-13.3706 -13.2642 -3.75277
-13.1445 -13.5061 -3.45525
-11.8964 -14.9361 -3.34681
-13.4001 -13.6675 -2.32293
-11.5877 -15.0747 -2.81328
-12.9491 -14.1735 -1.3888
-11.6247 -15.743 -2.87542
-12.2462 -14.6008 -1.36216
-11.94 -14.8731 -1.95293
-11.6927 -15.1102 -1.09445
-12.7288 -14.35 -0.68483
-16.6812 -13.1298 0.782386
-14.2492 -13.939 0.974562
-12.2762 -12.8027 3.40248
-13.7665 -13.4392 -4.01091
-13.2231 -14.268 -3.38511
-12.3061 -14.5046 -3.34969
-11.8855 -14.9173 -3.14376
-11.6731 -16.0845 -2.87509
-13.2656 -14.8461 -0.49383
-13.4971 -14.7794 -0.124958
-14.7722 -13.6128 0.893069
-13.2634 -13.5058 -3.95822
-13.2918 -13.6939 -1.01354
-13.3151 -14.7317 -0.148544
-13.4094 -14.4312 -0.262427
-12.8917 -14.9699 -0.0692182
-12.4393 -13.9958 -1.89092
-11.5303 -15.6075 -2.34296
-12.6707 -14.395 -0.318277
-12.8988 -14.6406 -0.631116
-13.9883 -13.8707 1.05854
-12.214 -15.4354 -0.117223
-12.6874 -15.2077 0.380787
-12.6546 -13.6782 -2.14611
-12.2522 -14.5186 -3.15583
-13.4649 -13.9387 -1.28944
-11.922 -14.5823 -1.39253
-11.1924 -15.6304 -3.04932
-13.6313 -14.1735 -0.405819
-13.402 -14.8454 -0.287857
-13.4573 -13.9654 -0.0709568
-13.5198 -14.8904 -0.556383
-12.9081 -14.7845 -0.462642
-13.1388 -14.7791 -0.0322089
-12.4514 -14.8669 0.153795
-12.4921 -15.7502 0.655639
-13.1458 -15.2554 -0.00441661
-12.9574 -15.2464 0.990435
-13.3765 -13.6608 -1.24826
-12.1263 -14.497 -1.10338
-13.4491 -14.2815 -0.657975
-14.3899 -13.9002 0.182848
-12.2555 -15.2698 -1.10883
-13.5614 -14.3444 1.22553
-16.7315 -10.0206 -4.62669
-12.5802 -13.49 -2.17956
-12.5541 -14.1402 -3.01426
-12.5491 -14.0008 -2.33031
-14.0217 -13.6273 -1.53173
-11.2512 -15.7035 -2.63463
-13.1602 -14.7301 -0.371091
-13.4053 -14.1865 -0.214711
-12.9945 -14.9135 -0.406052
-12.4813 -15.0073 -0.245827
-16.9172 -9.82812 -4.13683
-13.017 -13.5612 -2.50951
-13.6631 -13.2905 -1.83067
-14.6713 -13.8134 -0.42046
-14.3436 -13.6631 -0.075204
-12.9045 -14.4212 -0.468177
-13.1556 -14.836 0.232386
-13.0373 -14.4803 -0.456548
-14.2746 -12.7984 -3.40262
-15.1351 -12.9636 -2.45776
-14.1101 -13.4848 -1.38349
-12.4046 -14.7141 -2.53462
-16.729 -12.8732 0.500329
-16.3677 -12.834 0.672812
-16.2553 -12.5646 0.174751
-13.1495 -14.4152 -1.43695
-14.7304 -13.601 0.983155
-14.4883 -14.0787 -0.0091849
-13.807 -13.786 0.581098
-13.7187 -14.1174 1.30332
-11.239 -15.7214 -2.28118
-10.5281 -15.7455 -3.21767
-11.504 -15.6919 -2.31159
-11.7699 -15.6432 -2.69086
-11.5611 -15.5059 -1.8453
-12.9717 -14.858 0.0456499
-12.9295 -15.3724 0.513327
-12.6069 -15.8103 0.650775
-13.8413 -13.2552 -1.80105
-15.3297 -12.4587 -0.828691
-12.0289 -14.1881 -3.55665
-11.8896 -14.433 -2.29788
-11.8594 -14.5774 -1.34688
-14.3104 -13.9337 0.325613
-14.9891 -13.4616 1.02105
-14.995 -13.9276 0.195783
-13.8214 -14.0105 -0.187628
-13.0263 -14.3089 -0.476269
-12.0813 -15.7785 -2.36333
-12.8008 -14.7052 1.28409
-13.1635 -14.934 0.0574043
-11.0975 -16.1599 -2.53598
-12.522 -14.7621 0.197098
-12.494 -15.2739 0.837047
-14.3126 -12.9846 -0.259968
-13.4214 -14.004 -1.26874
-12.5079 -13.9695 -1.22834
-11.9164 -14.4959 -1.18989
-14.313 -13.6902 -0.0452471
-13.2859 -14.4422 0.19799
-13.2756 -14.8417 -0.261583
-11.6013 -15.2665 -1.40427
-12.5504 -15.1093 -0.295312
-12.5224 -14.7147 0.0282542
-11.0874 -15.957 -2.72874
-12.2363 -15.0594 0.542131
-16.9669 -9.19805 -4.55427
-17.1885 -9.41129 -4.0023
-13.4209 -14.2164 -1.34811
-12.7235 -14.8686 -0.586162
-13.1863 -14.4619 -0.573289
-13.1245 -14.9289 0.386193
-13.8263 -14.2919 -0.553317
-12.6457 -14.999 0.486372
-13.3393 -14.2351 -0.224301
-14.3883 -13.0821 -0.828766
-12.6897 -14.7501 -1.61957
-12.9992 -14.7563 -0.635867
-12.9175 -14.1252 -1.55479
-12.2345 -14.7056 -1.15051
-17.2432 -11.836 0.0735023
-16.3482 -12.2397 -1.05447
-16.1316 -13.2132 -0.297048
-13.7209 -13.142 -3.84509
-12.3878 -14.0416 -1.45179
-13.5304 -13.9992 0.310964
-13.6027 -14.6581 0.751504
-12.8994 -14.5801 0.0989746
-12.8502 -15.3877 -0.477928
-11.0825 -15.5145 -3.0364
-12.5379 -15.5908 0.495063
-10.5299 -15.7019 -2.49632
-14.7345 -12.3282 -3.0776
-11.9976 -14.3761 -2.44532
-12.676 -14.7725 -3.02864
-12.4161 -14.2342 -3.43593
-14.101 -14.3496 -0.0523087
-12.6088 -14.8328 -0.125272
-11.9274 -15.3523 -2.59922
-12.8772 -14.9974 0.405739
-12.9061 -15.5685 -0.231484
-12.6723 -15.4158 0.206261
-11.3256 -15.5627 -2.74493
-10.8167 -16.1391 -2.86221
-17.1116 -9.43157 -4.31131
-13.2809 -13.6236 -1.31656
-14.6906 -13.9666 -0.337137
-14.6807 -14.1405 0.26826
-12.0553 -14.3879 -1.7609
-12.4347 -14.6838 -1.42226
-11.0997 -15.747 -2.17202
-12.4253 -14.6567 -3.01597
-12.9427 -14.6211 0.0420855
-12.9577 -15.2432 -0.598322
-12.7495 -14.4699 -1.04802
-13.712 -13.1076 -0.5545
-12.9564 -13.5425 -1.44408
-13.2219 -14.633 -0.187898
-12.7156 -14.8367 -0.893779
-13.111 -14.7457 -0.113256
-14.6819 -13.693 -1.12187
-12.7058 -14.2645 -0.677009
-13.2155 -14.6844 -0.0968437
-11.7916 -14.8278 -1.12235
-12.5605 -14.5517 -1.03705
-12.3651 -14.9471 -0.589302
-12.8071 -14.6361 -0.950255
-17.6963 -11.6409 0.13062
-17.7709 -11.7446 -0.000854291
-17.8042 -11.3643 -0.166857
-17.8508 -11.8598 0.154786
-13.1982 -13.8946 -1.45246
-13.7389 -14.0247 0.348648
-13.9123 -14.025 0.43293
-13.293 -14.4159 -0.324443
-13.1604 -14.2938 0.44212
-13.3546 -14.3447 -0.483822
-13.0878 -14.4672 -0.277612
-13.1908 -14.9745 0.393403
-12.8513 -14.8714 0.330567
-12.7998 -14.7965 0.31062
-12.6723 -15.2434 0.215051
-11.4797 -15.5794 -1.80283
-11.3474 -15.7304 -3.19175
-17.0881 -9.29581 -4.36414
-16.9903 -9.72665 -4.43175
-17.369 -11.4829 0.0306703
-17.6053 -11.4767 0.848954
-16.2945 -12.27 -0.746729
-12.7846 -14.8121 0.300184
-12.8434 -15.322 -0.378768
-12.6579 -15.6695 0.25668
-12.1752 -15.1115 -2.94786
-11.2403 -15.3832 -3.10645
-13.2843 -14.1178 -1.06944
-12.5172 -14.9757 -0.890843
-11.9159 -14.1302 -1.92067
-12.8934 -15.2275 0.0625532
-12.8907 -15.0951 -0.0962358
-11.3728 -16.0147 -2.63227
-14.443 -13.6424 -0.88948
-12.7442 -15.0204 -0.251035
-11.9653 -15.4108 -2.33508
-14.1392 -13.3696 -1.05677
-12.7712 -14.3531 -0.547523
-12.5279 -14.2337 0.000101659
-11.9113 -15.5934 -1.26909
-13.7597 -13.6405 -1.19196
-12.7098 -14.8532 -0.962346
-12.6335 -14.3564 -0.443939
-13.2768 -14.1678 -1.19375
-17.8166 -11.1717 -0.180625
-17.2649 -11.5331 -0.195269
-16.5379 -10.07 -4.45052
-16.506 -12.6936 0.0657765
-16.1539 -12.7868 0.290839
-15.6786 -12.7305 -0.521683
-12.9393 -14.8704 -0.76641
-13.2417 -14.9607 0.0985415
-13.0129 -15.1894 -0.0317985
-12.7837 -15.5544 0.387767
-12.5599 -14.8299 0.0583033
-12.7334 -14.8309 -0.366422
-12.1387 -14.8625 -1.64089
-16.5893 -9.94189 -3.70166
-13.6004 -14.646 0.135301
-12.7742 -14.7092 -0.0529992
-11.4327 -15.4363 -2.11919
-11.8328 -14.8689 -1.80029
-16.7836 -9.87805 -4.3775
-12.6466 -14.6545 -1.67466
-13.3731 -14.6756 0.456024
-12.8584 -14.5993 -0.602275
-13.0734 -14.6362 -0.650914
-14.0876 -13.5909 -1.1
-12.7133 -14.2593 -0.958182
-12.8788 -14.9483 -0.188443
-11.7627 -15.1596 -1.37703
-11.943 -15.5191 -2.51506
-13.5784 -13.9296 -0.318097
-13.2796 -14.9254 -0.0958628
-11.5624 -15.5904 -0.746219
-13.2687 -14.5166 -1.08641
-16.3885 -12.7342 0.33835
-13.3203 -14.5477 0.369036
-13.254 -14.7235 -0.0162849
-11.8209 -14.4668 -2.28282
-12.607 -14.2298 -3.71408
-11.2695 -16.2089 -2.3052
-16.0495 -11.9422 -2.35339
-11.8495 -14.389 -1.66004
-13.123 -13.7956 -3.30028
-11.4278 -16.255 -2.38239
-17.2154 -10.0455 -4.12865
-12.6062 -14.2654 -3.3339
-11.0723 -15.8993 -2.53247
-12.9766 -14.3274 -1.15707
-13.1296 -13.979 -1.30195
-13.0148 -13.768 -0.834581
-12.2242 -14.5412 -0.888535
-11.9475 -14.2495 -2.26519
-12.8641 -15.0111 0.304416
-13.3285 -14.8324 -0.377939
-13.1459 -14.4147 0.13959
-12.4456 -15.4458 -0.68874
-12.5663 -14.4622 -3.09177
-11.4366 -15.9121 -2.38983
-13.8627 -14.6151 1.24602
-12.0244 -14.1926 -2.77115
-13.1296 -13.9875 -0.967402
-12.0686 -14.3732 -2.4907
-13.2556 -14.7068 0.039122
-12.5214 -15.2158 -1.03628
-11.7128 -14.5917 -2.18914
-13.2699 -13.9754 -0.774402
-13.3189 -14.2785 -0.634741
-12.7774 -14.9592 -0.603434
-12.8912 -14.6459 -0.333769
-13.3669 -15.3619 -0.570799
-13.3213 -13.7047 -0.986434
-13.1403 -14.1994 -0.628545
-12.2183 -15.1303 -1.14817
-11.876 -15.4072 -1.68157
-11.7395 -15.508 -0.745516
-13.3061 -14.7369 1.46094
-13.2751 -14.1552 0.521586
-12.7645 -14.5704 -0.0711268
-11.6546 -14.9894 -1.84766
-14.7359 -13.3815 -0.648836
-13.2914 -14.7707 0.441875
-12.7215 -14.6185 0.462699
-13.5426 -15.0281 -1.00697
-11.6167 -14.7481 -2.06139
-11.9606 -14.6623 -2.19542
-11.4902 -14.7202 -2.36525
-10.7042 -15.8865 -2.93684
-11.8874 -15.7939 -1.2221
-12.8113 -14.502 -1.3713
-12.6641 -13.9486 -3.23686
-12.7773 -14.6302 0.358085
-13.0756 -15.0728 0.19768
-11.9764 -15.4241 -1.76564
-13.0033 -14.7781 -0.00218482
-13.3098 -13.1058 -1.93061
-13.4915 -13.5927 -2.30948
-15.9948 -12.7828 0.138975
-15.8959 -12.3215 -0.585687
-13.2758 -14.8974 0.239435
-13.663 -14.308 0.702088
-13.0128 -14.4305 0.323851
-13.4748 -14.7167 0.0670066
-16.723 -9.64829 -3.53803
-12.2255 -13.9068 -1.32082
-12.1925 -15.8478 -1.00924
-12.6406 -14.4678 -3.52623
-12.8845 -14.0216 -3.6658
-12.4418 -14.7086 -3.14869
-13.1794 -14.4937 0.340611
-13.2379 -14.5154 0.511727
-13.1483 -14.9197 0.24253
-11.2651 -15.8312 -1.59787
-12.2015 -16.0437 -1.6259
-12.3306 -14.4206 -2.26018
-12.0183 -14.8366 -2.32196
-10.8714 -16.2182 -2.48327
-14.8551 -12.9738 -0.30105
-13.0011 -14.5683 0.545229
-11.5378 -15.3042 -0.197453
-11.3614 -14.3971 -1.86738
-13.0884 -13.9986 0.245285
-13.5012 -14.0283 -0.0858242
-13.5446 -14.3164 -1.13596
-13.2246 -14.3501 -0.654468
-11.8484 -14.5826 -3.4784
-12.9852 -14.9226 0.679602
-14.8657 -13.5124 0.920458
-16.2925 -13.1784 -0.219819
-13.0411 -14.6936 0.399745
-13.2533 -14.7039 1.11866
-13.4465 -14.6905 0.340469
-13.7087 -13.6733 -1.28128
-12.448 -15.7063 -0.769612
-12.4826 -15.4173 -0.596499
-16.6849 -9.4218 -3.73589
-11.924 -15.5116 -1.51447
-12.217 -14.4 -2.10482
-11.8712 -14.8015 -2.04336
-12.1323 -15.3757 -2.19886
-12.9033 -14.4521 -3.59584
-12.4571 -13.5164 -3.65364
-12.3995 -14.6253 -3.22756
-12.3651 -14.3253 -3.42882
-12.731 -14.266 0.334152
-13.1644 -14.4554 -0.0373607
-12.1933 -14.4047 0.36298
-12.8459 -14.9071 0.157132
-13.0257 -14.7108 0.388539
-13.4146 -14.715 0.0422921
-13.1221 -14.2564 -1.40812
-13.2828 -13.8684 -1.26467
-12.3477 -14.9889 -1.12431
-12.3074 -14.8692 -1.45948
-11.7555 -14.6632 -1.94639
-11.8712 -14.9679 -2.1388
-11.4474 -15.7258 -2.43216
-12.4195 -14.2865 -2.52048
-12.1103 -14.4786 -2.50137
-12.6978 -14.0502 -3.81503
-12.1411 -14.6799 -2.97531
-12.1045 -14.353 -3.4569
-13.3845 -12.8884 2.09574
-14.5072 -14.1106 -0.470968
-12.8694 -14.7245 0.425891
-13.7812 -14.901 0.33069
-13.2242 -14.9654 0.595
-13.1057 -15.0046 0.17815
-12.3204 -15.5562 0.105678
-13.1702 -14.1592 -1.0517
-12.2513 -15.2802 -1.19827
-11.6452 -15.4097 -1.9782
-11.9324 -14.6071 -2.07882
-11.2383 -15.8088 -2.48456
-13.0655 -14.876 0.465788
-13.1693 -15.1694 0.966212
-13.3575 -14.3896 0.667516
-13.7894 -14.5486 -0.569167
-13.2622 -14.5371 -0.486103
-13.2972 -14.5455 -1.22557
-16.5076 -10.1114 -3.89659
-11.6146 -14.6119 -2.20995
-11.9422 -14.863 -1.52255
-12.0275 -15.0267 -2.08186
-11.4315 -14.6248 -2.57514
-11.0413 -15.3528 -3.1414
-12.8874 -14.8389 0.772388
-13.299 -14.3895 -0.119472
-12.8254 -14.2297 -0.75849
-12.4019 -15.4428 -0.607939
-16.8243 -9.26046 -4.42931
-11.9446 -14.0832 -2.17821
-13.2091 -13.8122 -1.50963
-12.9205 -14.6062 0.604459
-12.9878 -14.3056 0.756769
-13.4814 -15.2088 0.163916
-13.1531 -14.9024 -0.584092
-12.8933 -14.9842 -0.794425
-11.9036 -15.5866 -1.91489
-13.3137 -14.4165 0.822576
-13.4049 -14.157 -0.0135701
-16.6799 -11.2393 1.93032
-17.2517 -11.0123 1.92115
-16.9152 -11.5558 2.13139
-18.0995 -11.3569 1.62883
-15.0039 -13.145 0.876541
-14.933 -13.0381 0.440074
-14.786 -13.1178 0.480426
-16.3447 -12.6666 -0.350828
-13.501 -14.6239 0.330367
-13.2579 -14.2647 0.483663
-13.0645 -14.6401 0.3061
-13.2207 -15.2938 0.295871
-13.1296 -14.6414 0.411917
-13.1685 -14.5465 0.447654
-13.3998 -14.804 0.460863
-13.1048 -14.2907 0.0514404
-12.0538 -15.7656 -0.184576
-15.534 -13.837 -1.31507
-15.4619 -12.5324 -1.23547
-12.4392 -14.6907 -0.490611
-11.6091 -15.7685 -0.880024
-12.2579 -14.7318 -0.4478
-11.8798 -14.3514 -1.4605
-12.3978 -14.3399 -1.52291
-11.3745 -15.0742 -1.68902
-11.7486 -15.8767 -1.36685
-12.4383 -14.8013 -1.88743
-16.8716 -9.04546 -4.7769
-11.9207 -14.9814 -2.75857
-14.6858 -12.1885 -4.00088
-12.2915 -14.6389 -3.00501
-13.2039 -13.4709 -3.54499
-12.503 -14.005 -3.37657
-12.1888 -13.9496 -2.75869
-12.3785 -14.701 -2.70982
-11.0503 -15.57 -1.95472
-11.9253 -15.1296 -2.77907
-11.9043 -14.8761 -2.99644
-15.5393 -11.5174 2.11607
-14.2312 -13.381 0.996208
-12.7296 -14.5449 0.687078
-13.2543 -14.8461 0.693494
-16.1454 -12.6816 0.63435
-15.59 -13.0667 0.559248
-14.965 -13.6688 0.432172
-13.4359 -15.3522 0.773912
-12.8071 -14.3949 0.646445
-13.1962 -14.5292 0.440361
-14.6374 -13.6001 0.0781772
-13.0348 -14.8478 0.141082
-13.0969 -14.6325 -0.403834
-12.9811 -14.5972 -0.0948694
-14.4407 -13.0852 -0.786452
-14.2609 -14.0463 -1.2866
-13.027 -13.733 -1.60787
-12.0847 -14.7681 -1.00149
-12.2332 -14.629 -1.73376
-12.6732 -14.6675 -1.65276
-11.8865 -15.7962 -2.45608
-12.1098 -14.6581 -2.22075
-12.8355 -13.4797 -3.86094
-12.5785 -14.3951 -3.46144
-12.657 -14.2844 -3.67678
-12.5941 -13.9853 -3.26294
-12.0707 -14.4156 -3.42557
-12.7464 -14.3623 -3.14729
-12.894 -13.638 3.165
-15.1261 -12.7271 1.26946
-13.9469 -13.6457 1.30411
-14.9364 -13.3043 0.721499
-13.8868 -15.0099 0.913805
-14.8299 -13.2293 0.64503
-15.1005 -13.6883 0.876448
-16.4263 -12.7629 0.204894
-13.5299 -14.9898 0.30624
-13.2365 -15.001 0.83788
-13.1567 -14.5369 0.332511
-13.3556 -14.9193 0.545308
-12.628 -14.6556 -0.166503
-12.1561 -14.9027 -0.929564
-12.2291 -15.1418 -0.981692
-13.1973 -14.067 -1.54421
-13.0507 -13.9087 -1.277
-11.8679 -14.8671 -1.1294
-12.2157 -14.3909 -0.913411
-11.7862 -15.4629 -1.19795
-12.4854 -14.5131 -1.339
-12.3443 -14.6479 -1.50152
-12.0434 -14.9923 -1.34416
-11.9431 -14.2911 -1.72873
-11.6352 -13.8189 -2.04209
-11.9977 -15.4451 -2.59662
-12.6121 -14.5859 -4.02689
-12.1251 -14.9816 -3.0402
-12.6937 -15.3035 0.911302
-14.6922 -13.6228 0.178991
-12.9277 -14.7791 0.348835
-15.5818 -13.0304 -1.02128
-13.366 -14.5726 -0.286596
-13.5771 -14.2234 -1.2001
-13.0318 -14.0873 -0.888842
-13.3965 -14.3627 -0.772895
-13.3663 -14.409 -1.335
-12.3337 -14.8768 -0.761666
-12.6771 -13.5533 -1.27989
-12.0973 -14.5586 -1.61753
-11.4981 -14.9226 -1.53993
-12.2943 -14.9076 -1.50949
-16.5638 -9.99966 -4.11269
-12.2761 -14.6224 -2.63545
-11.0867 -15.9762 -2.78528
-11.2841 -15.7578 -2.51747
-13.1286 -14.7205 1.50166
-13.5561 -14.6688 0.436914
-14.8126 -13.5644 -0.354446
-12.9815 -14.4225 0.393508
-13.2965 -14.3543 0.423693
-14.5002 -12.7994 -0.352285
-14.241 -13.0881 -0.682848
-12.8147 -14.3947 0.029393
-13.4604 -14.3802 -1.40413
-12.6173 -15.376 -0.209322
-13.3288 -14.3132 -1.16326
-12.2866 -15.1383 -0.379227
-12.112 -14.665 -1.49992
-12.039 -15.1024 -1.81268
-11.9483 -14.9954 -1.76414
-11.7439 -14.3743 -1.97871
-12.2703 -13.653 -2.8077
-12.603 -15.0877 -0.510558
-12.9951 -14.3878 -0.484066
-13.1765 -14.0215 -0.82571
-13.6164 -14.0701 -1.36905
-12.3678 -15.072 -0.551794
-11.2633 -15.0811 -2.34296
-13.1394 -14.7159 1.03821
-13.4836 -14.1133 0.646508
-12.9468 -14.5622 0.702227
-13.3743 -14.4034 0.420652
-12.7451 -15.32 -0.39327
-11.9403 -14.7871 -1.94997
-12.101 -14.6849 -2.62835
-13.2352 -14.6134 0.109799
-11.9246 -14.1365 -2.37509
-13.3737 -14.3994 -0.244116
-11.6146 -15.5454 -2.49903
-12.0821 -15.3171 -0.798109
-11.252 -15.1781 -2.82586
-11.254 -15.662 -2.50098
-10.8433 -16.0196 -2.70432
-11.1881 -15.7154 -2.6813
-11.7688 -15.2416 -2.8565
-11.2052 -15.4927 -2.86432
-10.6121 -16.0159 -2.34509
-11.5403 -15.1519 -2.77396
-13.5275 -13.2508 -3.8435
-14.4935 -12.9387 -3.84598
-12.4887 -15.1496 -2.79702
-13.959 -13.4377 -3.45928
-14.4451 -12.5146 -4.17461
-12.3043 -14.8105 -3.18513
-12.2099 -15.06 -2.79155
-13.993 -13.2981 -3.55731
-11.7779 -15.7192 -2.34155
-12.0295 -14.6008 -2.48828
-14.736 -12.3731 -3.63698
-13.8079 -12.9104 -3.41806
-14.633 -12.1582 -3.897
-15.6632 -11.5245 -4.23284
-11.994 -15.4909 -2.54554
-15.7692 -11.8538 -4.24679
-11.1397 -16.3832 -2.00661
-12.1062 -15.2982 -2.59863
-12.2124 -14.9079 -2.26004
-14.1533 -13.236 -2.87567
-11.8776 -15.2799 -2.31759
-11.8964 -15.1455 -2.89217
-11.8921 -15.3223 -2.59934
-14.9042 -11.9111 -3.43609
-15.0808 -11.8845 -3.79398
-11.014 -15.7867 -2.31622
-11.1216 -16.1963 -2.05197
-10.8781 -16.4024 -1.61508
-14.5532 -12.407 -3.34976
-11.8297 -15.5418 -1.90506
-12.3111 -15.6052 -2.04467
-12.1559 -15.8471 -2.56365
-12.1106 -15.7291 -1.85217
-15.381 -12.5177 -2.90612
-11.3435 -15.631 -1.80714
-15.0638 -12.2957 -3.47574
-11.769 -15.8357 -1.39945
-15.301 -12.0309 -3.18551
-14.9182 -12.9361 -2.99494
-14.9876 -12.781 -2.27098
-15.9468 -11.7126 -2.77301
-14.5334 -13.1837 -2.68009
-14.5118 -13.0745 -2.3237
-15.3214 -12.302 -2.68578
-12.1397 -14.3567 -1.05219
-15.2009 -12.5178 -3.0687
-11.6861 -15.6573 -1.13477
-12.9814 -13.8419 -1.9508
-11.8402 -15.7842 -1.43895
-14.3954 -13.45 -2.62108
-13.3347 -13.5461 -1.97438
-13.384 -13.6249 -1.63198
-14.8122 -13.6175 -1.51736
-15.5209 -11.5934 -2.00582
-14.9494 -13.3488 -2.20452
-15.9291 -12.2901 -2.40614
-15.6389 -12.3944 -2.02768
-15.1695 -12.8927 -2.04124
-13.7428 -13.6485 -1.33721
-14.9728 -13.123 -1.31103
-12.3814 -14.4359 -0.943098
-12.7588 -14.7217 -1.09187
-12.427 -14.5456 -1.56392
-14.6986 -13.0164 -1.32657
-15.7981 -12.6684 -1.70631
-14.1037 -13.6729 -0.93438
-16.2601 -12.2904 -1.55186
-14.1079 -13.0227 -1.12935
-13.68 -14.492 -1.21365
-17.0095 -11.7428 -2.2444
-17.3469 -11.7839 -1.71585
-16.9586 -11.1796 -1.4947
-13.2036 -14.1444 -0.11491
-16.2097 -12.1065 -1.73177
-13.8332 -13.4465 -1.00016
-13.3412 -14.5654 -0.414753
-13.5389 -14.3871 -0.378894
-15.5395 -12.7743 -1.05736
-14.6837 -13.4591 -0.832264
-13.4245 -14.6168 0.154672
-12.6996 -15.5105 -0.516663
-13.713 -14.1092 -0.802714
-13.1644 -14.5303 -0.622005
-16.0331 -12.2377 -0.950911
-12.6595 -14.6995 -0.384884
-16.472 -12.0945 -0.719351
-13.763 -14.262 -0.0788876
-13.8107 -14.1986 -0.254286
-13.8459 -14.316 0.259428
-13.532 -14.505 0.0523206
-12.6934 -15.153 0.271725
-13.2599 -15.1413 -0.0290515
-16.2504 -12.7288 -0.466092
-12.9475 -14.5319 0.460217
-16.9095 -11.6531 -0.59033
-15.2041 -13.8061 0.173667
-17.8101 -10.9995 -0.629918
-13.2683 -14.6439 0.309341
-13.275 -14.687 -0.221811
-16.7899 -12.5008 -0.506186
-12.9245 -14.992 0.639788
-13.0583 -15.2763 0.116149
-13.5647 -14.7324 0.538923
-17.8307 -11.3815 -0.405415
-14.0209 -14.5325 0.644596
-17.3124 -11.9248 0.722299
-17.0945 -12.5105 -0.205915
-16.9903 -12.5004 0.445754
-15.6449 -13.2906 0.205089
-16.4102 -13.1428 -0.106371
-16.2987 -12.773 0.678577
-15.4007 -13.8423 0.79472
-12.4411 -15.0465 0.759292
-13.3515 -14.5732 0.897972
-14.7368 -13.7239 1.12058
-14.3928 -13.312 1.38882
-14.0696 -14.0705 1.14507
-13.9379 -14.4009 1.26021
-13.5435 -14.5055 1.2202
-13.7692 -14.969 0.935678
-17.7966 -11.9267 1.18643
-13.1434 -13.5653 2.23556
-17.9026 -11.2331 1.67661
-12.863 -12.9662 1.82256
-12.8838 -12.9541 2.51099
-13.1487 -12.8011 2.55105
-12.8655 -13.2684 2.81177
-11.6533 -15.8096 -2.96673
-12.2992 -14.5402 -3.51219
-11.5888 -15.625 -2.83532
-12.2274 -13.955 -3.83985
-11.3367 -15.7826 -2.89008
-11.6437 -15.8382 -2.81952
-11.1695 -15.514 -2.7494
-11.3451 -15.7957 -2.56019
-12.9614 -14.4183 -4.10342
-11.6558 -15.6527 -2.74617
-12.7817 -13.99 -3.21472
-11.2247 -15.9826 -2.46695
-14.2458 -13.3907 -4.29756
-11.8279 -15.2595 -2.50259
-11.433 -15.0441 -2.4259
-14.4077 -12.9852 -3.74528
-14.7036 -12.2017 -4.39122
-13.3732 -13.4886 -3.30636
-12.0373 -14.5554 -3.19465
-14.0998 -12.8026 -3.67315
-15.0216 -12.0396 -3.56003
-14.2417 -12.7784 -3.44595
-11.9223 -15.1007 -2.43823
-11.6266 -15.5751 -2.44909
-12.3514 -14.552 -2.75059
-15.4427 -11.6144 -4.0413
-11.3541 -16.1839 -2.36754
