-15.1334 -12.378 -1.18481
-13.7212 -12.897 -2.35636
-15.7019 -9.6661 0.60501
-15.4401 -12.8387 -0.841704
-20.0442 -10.6995 -2.04238
-20.281 -11.1423 -2.54663
-19.3744 -11.348 -1.15513
-20.3031 -10.9965 -1.82337
-20.2949 -10.3855 -1.18208
-19.9301 -10.9152 0.390252
-19.4758 -11.1448 -1.30809
-20.2025 -11.0077 -0.260981
-20.0158 -9.69484 0.593838
-19.3189 -10.9173 -0.627674
-18.6775 -11.2717 -1.26682
-18.6977 -11.7103 -1.7714
-18.9539 -11.4149 -0.526634
-19.5132 -12.3724 -1.26085
-18.458 -11.1237 -2.17064
-19.3617 -11.4285 -1.95849
-18.8071 -11.5987 0.929295
-17.7154 -11.742 -2.15952
-18.7599 -11.3814 1.99949
-18.9125 -11.2662 -2.01319
-18.6004 -11.4948 -0.604692
-17.8211 -11.9217 -0.351015
-17.834 -11.2175 -1.62998
-16.775 -11.4157 -2.6807
-18.0671 -10.9519 1.12666
-17.4983 -13.003 -1.23452
-18.2322 -10.8503 -1.0977
-15.2361 -11.6956 -2.24531
-15.8174 -11.5779 -1.7866
-15.4645 -11.8306 0.797869
-15.6253 -12.3533 -1.2653
-15.9986 -9.38939 1.30011
-15.6888 -13.2263 -1.06717
-15.6039 -12.3755 -3.23189
-20.4123 -11.1418 -0.955067
-20.1792 -10.926 -1.59294
-19.7179 -10.7728 -0.80555
-20.3565 -10.8733 -1.64371
-20.0939 -10.7489 -0.257129
-19.6502 -10.9915 -0.621013
-20.2343 -12.2133 -0.361278
-20.2986 -10.996 -0.674078
-19.3428 -11.3448 -0.239471
-19.6804 -11.5866 -0.996386
-19.0763 -12.4837 0.938291
-17.9052 -11.1315 -2.64488
-17.8091 -10.9531 -0.63681
-18.0498 -11.3562 -1.15174
-18.9621 -11.3014 -1.05696
-19.1384 -11.3675 1.22023
-16.7852 -11.6306 -3.38033
-18.2146 -10.1946 0.572189
-17.8488 -12.2188 1.11583
-16.1419 -12.2134 -0.412897
-17.9897 -10.0717 1.5568
-17.3627 -11.1274 -1.67136
-17.7517 -11.7459 0.778598
-17.2716 -11.2661 -0.110252
-16.4058 -11.7525 0.496913
-16.3073 -12.1044 -0.576352
-17.14 -11.4325 -0.565723
-15.8489 -11.344 -1.40214
-16.0734 -12.4572 -1.14906
-12.7545 -11.8377 -2.00579
-20.8964 -11.1262 -1.42576
-20.5949 -11.0526 0.56059
-19.515 -11.1953 -0.662461
-18.6632 -11.8902 -2.46883
-18.6109 -11.1533 -0.605565
-19.1466 -11.0681 1.3606
-18.8768 -11.7614 -2.10704
-17.6725 -11.69 -1.96858
-18.4399 -10.6422 0.213665
-16.6888 -10.5044 -0.226904
-16.8127 -11.9698 -1.24427
-17.7227 -12.2644 -0.430137
-16.6768 -12.1694 -1.76087
-16.925 -11.4278 -0.0944256
-16.3868 -11.9245 -0.312946
-15.8756 -12.051 0.359794
-17.6237 -13.4791 0.0116176
-16.3783 -11.9179 -0.655861
-16.2868 -11.7252 -1.55912
-16.1603 -12.5356 -1.35372
-16.3203 -11.6834 -0.290627
-15.6532 -12.6292 -0.890854
-15.7016 -11.9749 -0.345591
-16.1724 -11.561 -0.373745
-15.0566 -12.3142 -0.831309
-19.5826 -10.8734 -0.748048
-19.3735 -10.5803 1.19238
-18.9103 -11.0566 0.872685
-16.0299 -11.1386 -0.878955
-17.0698 -11.4607 -0.640936
-16.5131 -11.5131 -1.47998
-16.4469 -12.1218 -0.575523
-16.455 -11.3167 -1.19373
-15.6665 -11.5313 -1.13884
-15.7411 -12.1869 1.17768
-15.4854 -11.617 -0.872242
-19.9459 -11.7195 -0.362397
-20.1998 -11.6454 0.48863
-18.2173 -10.5474 -1.85651
-19.7391 -12.1205 0.271155
-16.5138 -11.4023 -1.44753
-19.6042 -11.0944 0.193059
-19.0584 -11.0443 0.909768
-16.1405 -11.8843 -2.33356
-16.6539 -11.7851 -1.0211
-16.6551 -11.3941 -0.848659
-17.5716 -11.1977 0.979449
-16.265 -11.7232 -3.02993
-16.8086 -11.821 -2.16194
-16.523 -11.5662 -0.232728
-17.4402 -12.0275 -1.81145
-17.4123 -11.4094 -1.96418
-18.7449 -11.2549 -0.820844
-19.124 -11.6548 -0.303057
-19.5665 -11.8007 0.52738
-19.8832 -10.3536 -1.63847
-19.7493 -10.8353 -1.97128
-19.0855 -11.83 -0.833424
-19.211 -10.7151 -3.09688
-18.7797 -11.7211 0.495475
-18.2454 -11.3293 0.17445
-18.6218 -11.5809 -2.08085
-18.5248 -10.5655 -3.63222
-19.3175 -11.925 -1.90436
-19.0014 -11.3255 -1.7414
-16.5236 -11.5313 -0.15335
-18.5259 -11.3688 -3.41765
-17.6621 -11.4516 0.139537
-17.4744 -11.8627 -0.953753
-16.7161 -10.7458 -1.10194
-15.7434 -10.3189 1.50213
-17.6037 -12.157 0.611134
-17.0614 -11.6386 -2.55326
-15.2794 -9.36415 0.737908
-16.7897 -12.3966 0.0192002
-16.5828 -12.4258 -1.37023
-16.5572 -10.9207 -1.44339
-15.6647 -11.9073 -1.45264
-15.4449 -12.2149 -0.765176
-15.286 -11.8096 -1.49419
-19.5615 -11.1257 0.627362
-20.0416 -11.6672 0.704484
-20.4242 -10.4868 -1.1834
-19.8412 -10.565 -0.185268
-20.4037 -11.1616 0.714453
-19.4017 -11.935 0.0446331
-20.4121 -10.3351 -0.151123
-20.2957 -11.5444 -1.82027
-20.751 -12.1525 -0.390191
-19.2171 -10.988 -1.56053
-20.039 -11.2909 -2.27565
-20.2425 -11.3259 -1.271
-20.004 -10.6745 -2.15861
-18.7014 -11.5599 -1.13695
-19.2687 -11.904 -0.0813313
-19.6686 -12.4158 0.926403
-19.1313 -10.3535 -0.525736
-18.5408 -10.4869 0.91725
-18.7406 -10.6094 -2.12371
-19.6838 -11.0628 -0.988059
-17.7435 -11.2655 1.7282
-18.3601 -11.3385 -2.45818
-20.1457 -10.7012 -2.78822
-19.8512 -9.67213 -2.00998
-18.1818 -10.9831 1.79006
-17.4405 -11.508 1.31578
-17.938 -11.1366 -1.78139
-18.2032 -11.4489 -1.95008
-18.6502 -10.5613 0.322509
-19.1219 -10.8952 -2.46868
-18.0035 -10.8578 0.258855
-18.5642 -10.8436 -0.626761
-17.2481 -11.625 1.12501
-18.3128 -10.61 -1.5678
-18.9029 -11.0525 -3.05623
-19.3928 -11.0323 -1.22941
-17.7106 -10.7259 -0.542021
-18.2072 -11.5136 -2.42986
-18.2315 -10.9539 0.0573331
-18.1943 -12.0322 0.414738
-17.6092 -11.7022 -2.6842
-17.4768 -9.59358 -1.43785
-17.8923 -11.4535 -1.96709
-17.6005 -11.9465 -0.258473
-16.0691 -10.6753 -0.0217992
-17.5052 -12.4169 0.899066
-17.0554 -11.7598 0.504112
-16.6858 -10.9066 -3.00795
-16.2078 -12.1074 -1.63818
-17.1367 -11.5482 -0.807826
-16.6241 -11.1777 -0.51894
-16.884 -11.3733 0.666303
-15.9987 -10.3323 2.70186
-16.6061 -11.2712 -0.984138
-16.1411 -10.7673 -0.213284
-15.7331 -12.0319 -1.08631
-14.9921 -11.4651 -0.966924
-15.143 -12.1225 -1.29477
-14.7262 -11.5735 -3.14054
-20.0863 -10.7975 -0.3666
-19.655 -11.5876 0.260598
-20.1924 -10.7987 -1.9933
-20.2118 -10.8393 -2.55659
-19.8078 -11.8344 1.12375
-19.6897 -11.0261 -0.667026
-20.1254 -11.4436 -1.6289
-20.164 -11.2425 -2.25256
-20.2248 -11.1678 -1.91293
-19.2229 -11.2571 1.21496
-19.3371 -9.99513 -1.29162
-19.34 -11.3478 -2.22075
-19.6546 -11.1753 -1.99361
-18.4444 -11.4482 -0.880141
-18.6206 -11.8631 -3.49811
-18.9428 -10.98 -2.19348
-19.2809 -10.8909 -0.486778
-19.9285 -10.4959 -1.18644
-19.0206 -11.0473 -1.52264
-18.6974 -11.2379 -0.680862
-19.2346 -11.4187 -1.74398
-18.6538 -11.4418 -1.66251
-18.3808 -12.0543 -2.02766
-17.8112 -10.5931 -1.86993
-18.2473 -11.765 -1.35456
-17.6795 -11.8519 -0.812532
-17.7937 -12.2722 -0.412564
-18.7169 -11.3779 -1.5754
-17.4041 -10.9258 -0.652687
-17.2383 -11.293 -0.295422
-17.5047 -11.5802 -1.23593
-18.2093 -11.6334 -3.1385
-16.0319 -10.4015 1.78125
-17.441 -11.155 -0.174185
-17.42 -12.1923 -1.34365
-17.3241 -11.6311 -1.53863
-16.5036 -11.7827 -0.300219
-16.302 -10.7171 -0.773856
-16.9417 -11.4229 -2.08396
-16.7857 -11.0692 0.131713
-17.1205 -11.3993 -2.58878
-15.9134 -12.3566 -0.170422
-15.8156 -10.2296 -2.17773
-15.8995 -12.2561 -1.23909
-15.9575 -11.9921 -0.859399
-15.2351 -11.839 -1.92315
-14.5041 -12.3537 -0.880447
-14.8583 -12.8986 -2.8665
-20.186 -10.3616 1.52801
-20.1855 -11.4722 1.56362
-20.4284 -11.3221 -1.28908
-20.2732 -11.3454 -0.115377
-19.7864 -10.2087 -1.15042
-19.7195 -10.1134 -0.86598
-19.6101 -10.9184 -1.00581
-18.6911 -10.8196 -0.885374
-19.0046 -12.467 0.432016
-19.6481 -10.8373 -2.75797
-19.0247 -11.5109 0.203889
-19.2121 -11.1849 0.0537737
-19.0364 -10.7425 -1.07831
-18.3902 -10.8131 -1.17782
-18.8146 -10.5333 -2.74853
-18.5573 -11.5216 -0.973537
-18.7472 -11.7705 -1.7502
-17.9866 -11.2536 -1.59727
-16.7209 -9.28277 0.392379
-16.3206 -11.3033 -1.26841
-17.619 -11.9941 -1.29088
-15.6185 -11.1957 -2.50598
-16.099 -11.8128 -2.01737
-15.1525 -11.6687 -0.315206
-15.7101 -11.5878 0.1202
-15.8573 -10.2232 -1.89546
-16.1588 -12.1341 -0.512409
-15.4398 -12.098 -1.50314
-15.7564 -11.492 -1.31588
-16.0974 -10.8936 -2.87231
-15.5181 -12.261 -2.21489
-19.4272 -11.025 0.493436
-19.1421 -11.957 0.681056
-19.5032 -11.1865 -0.154421
-18.4323 -10.9299 1.19647
-19.5817 -11.3906 -1.27872
-19.0853 -10.6891 0.0283611
-18.0332 -10.7462 0.57959
-18.5745 -11.0191 0.592682
-18.5969 -10.5668 -1.31352
-18.8098 -10.9827 0.512788
-18.3209 -10.4474 1.93251
-17.9103 -10.8006 -0.320267
-18.2836 -11.3573 -1.7358
-17.0244 -11.3509 1.45802
-17.4329 -12.0324 0.0949928
-16.3866 -10.972 -0.795202
-16.9031 -11.8726 0.161912
-16.2831 -11.6006 -0.0122757
-17.622 -11.6702 -1.11549
-17.2145 -11.0182 -0.918351
-17.0114 -11.1175 -1.34415
-17.7319 -11.9497 -1.41759
-16.0255 -11.5615 -1.61163
-16.2364 -11.8915 -0.926064
-15.7664 -12.0953 -0.22833
-15.6304 -11.933 -0.757103
-15.5092 -10.9768 -1.78916
-15.7898 -11.3792 -0.894443
-19.7945 -11.5026 -0.078212
-20.7241 -11.8455 -0.141153
-19.6512 -10.7155 0.583359
-18.5831 -11.8457 1.32763
-17.9164 -11.0579 -2.26556
-18.964 -11.6098 -2.93207
-17.843 -11.84 -0.0850414
-16.6457 -10.9819 -0.785178
-16.3747 -12.1249 -0.95123
-15.4544 -11.8834 -0.454964
-15.2675 -11.0796 0.359573
-16.6477 -11.7228 -2.46145
-16.289 -12.9205 -0.934805
-15.4335 -11.9025 0.653061
-15.064 -12.0524 -1.46824
-16.3666 -12.3115 -1.49675
-16.2682 -11.7924 -2.42869
-15.2562 -12.6061 -1.21112
-15.8849 -10.9571 -2.97349
-18.7309 -10.6431 1.34249
-18.5412 -10.427 -0.588675
-18.2075 -10.6195 0.96066
-18.7124 -11.0548 -1.85619
-18.2797 -11.5567 -3.58255
-17.313 -10.79 -0.652617
-16.6141 -11.0584 -0.535097
-15.6308 -11.9351 1.41246
-19.7852 -10.6969 -1.50177
-19.5313 -11.6654 0.180053
-16.6383 -10.9259 0.752095
-19.36 -11.2902 0.704967
-16.6248 -10.5719 0.459938
-17.3409 -11.7579 -0.950508
-16.2075 -12.1958 0.501044
-16.695 -11.1141 0.713997
-16.4359 -11.2012 -1.10856
-17.9135 -11.082 0.918472
-17.2612 -10.1302 1.19003
-16.9625 -12.7545 -0.588215
-17.3549 -11.8298 -0.0864057
-16.847 -11.7639 -1.91133
-19.5158 -11.5251 -0.97051
-20.7162 -10.9644 -0.00484885
-20.6276 -10.6787 -0.766071
-19.3027 -11.9013 -1.48366
-20.5786 -10.8749 -0.0878856
-19.9039 -11.0198 -2.03406
-19.1732 -11.0056 -0.689322
-19.3515 -11.3187 -1.27975
-20.0913 -11.6938 -1.34634
-20.3231 -11.3842 -1.47241
-16.5389 -9.99712 1.50051
-17.8299 -11.2521 0.0184178
-19.6607 -11.3203 -0.811349
-19.9402 -10.3425 -1.10388
-17.4772 -11.5413 0.17649
-18.488 -10.9023 -0.723263
-19.8374 -11.7367 -1.48273
-19.4007 -10.3613 -0.2886
-20.548 -11.2718 -0.562374
-19.7368 -10.8166 -2.44582
-17.807 -11.5472 -1.10516
-20.3384 -11.7229 -1.41665
-19.7672 -10.9227 -1.52419
-18.6447 -11.7044 -0.430593
-18.7245 -11.977 -0.403111
-18.2732 -10.8733 -0.244486
-18.7096 -10.82 -0.173712
-18.9265 -11.3336 -0.625003
-17.6286 -11.167 -0.0628863
-17.607 -11.4554 -0.663001
-17.3595 -11.5895 -2.04001
-18.234 -10.4828 -1.92842
-16.6365 -10.7567 0.711319
-19.7213 -10.9506 -2.20505
-16.7168 -11.7855 -0.419572
-20.4912 -10.1667 -1.83648
-19.3054 -11.5693 -1.29946
-19.4824 -11.4002 -1.86624
-17.5474 -11.1371 -1.20438
-19.8737 -11.6469 -2.01621
-17.5395 -11.3778 -0.715448
-20.1284 -11.6669 -2.0453
-18.5788 -10.9653 -0.505924
-20.4023 -10.7989 -1.35508
-16.7277 -11.6991 -0.449903
-18.6482 -11.4624 -1.3038
-18.5996 -10.6002 -2.73716
-16.7334 -11.6302 0.557331
-19.4924 -10.9388 -2.81438
-19.5326 -10.6158 -2.78835
-18.2225 -11.8589 -2.3641
-18.7525 -10.9274 -1.90685
-18.2063 -11.1684 -2.1434
-19.8874 -10.6786 -2.50353
-17.5426 -11.6183 -0.409289
-18.217 -10.8039 -1.0628
-18.4862 -11.4139 -2.81429
-18.5325 -11.2906 -1.78097
-19.181 -11.1782 -2.15447
-18.1522 -11.8806 -2.97513
-18.4975 -11.2465 -2.56119
-18.7159 -12.3897 -2.21138
-18.3429 -10.8163 -2.18092
-18.4258 -10.772 -2.29784
-19.282 -10.7888 -1.26453
-18.6661 -12.6033 -1.76987
-18.6778 -11.3435 -1.54245
-17.9447 -11.3809 -2.30512
-19.4538 -10.9191 -2.67888
-17.9149 -11.0526 -2.42591
-17.6897 -10.8963 -1.74781
-18.0869 -10.8573 -2.87378
-19.0034 -10.9565 -1.50903
-18.3247 -11.3034 -2.21872
-16.2366 -10.1792 -0.698674
-18.6158 -11.3124 -2.36012
-18.8494 -11.0144 -2.15507
-17.9868 -12.0851 -1.80387
-17.7432 -11.6277 -2.15469
-18.3263 -11.1763 -2.6199
-18.2088 -11.6868 -2.31923
-17.9085 -11.5012 -2.86825
-16.7235 -11.4422 -0.23266
-15.3287 -11.6672 -2.0174
-18.2774 -11.1339 -2.43651
-17.7997 -11.1044 -2.74147
-15.1103 -12.9029 -0.541502
-17.3308 -11.9307 -3.6274
-15.9381 -12.789 -1.91893
-16.4554 -12.0755 -1.17545
-20.2978 -10.7757 1.34875
-19.5663 -10.9016 0.414576
-19.0223 -10.8626 1.61847
-19.998 -11.1575 0.0136513
-20.8389 -11.7874 1.52083
-20.001 -11.2555 -0.443193
-19.4681 -11.3386 -0.45862
-19.6232 -11.3036 0.456493
-19.2669 -11.5662 1.16079
-20.0574 -10.0667 -0.145434
-18.5939 -12.4746 0.858909
-21.0863 -10.9323 -0.501399
-18.7622 -10.4274 -0.235097
-20.0611 -11.7014 -0.733292
-19.4637 -11.7784 0.551493
-19.1791 -10.8181 -0.516699
-16.2775 -9.58136 1.03826
-19.4438 -12.2178 -1.28658
-17.1245 -9.71645 2.09063
-19.6082 -12.1501 0.729721
-20.0768 -10.234 -0.66467
-18.9268 -12.136 -0.677843
-18.4836 -11.4722 -1.1671
-19.0204 -11.019 -0.613925
-18.0224 -11.6406 0.557602
-17.1439 -10.3774 1.00439
-18.6227 -11.3611 0.323941
-19.777 -12.3302 -0.833699
-20.3145 -11.361 -1.4018
-19.859 -11.2913 -1.55206
-16.4997 -10.1574 1.47347
-17.8069 -11.3394 0.68187
-17.5859 -11.1501 0.749396
-18.7252 -10.996 -1.21381
-15.9534 -10.2176 2.22305
-19.6413 -11.66 -1.3469
-17.6614 -11.1314 -1.01005
-19.2927 -10.0422 -2.02493
-18.689 -10.8171 -1.31297
-18.9893 -10.9212 -0.895593
-18.8912 -12.1659 -2.23538
-18.9934 -11.3801 -1.19211
-18.4657 -10.3607 -1.0263
-19.1183 -11.202 -1.58983
-18.3538 -10.9636 -1.25792
-16.7166 -11.8564 -0.395961
-19.3728 -10.69 -1.81003
-16.208 -10.2912 2.01265
-19.7858 -10.7655 -1.47708
-17.2562 -10.9146 -0.00341827
-19.0761 -11.3716 -2.54757
-19.4706 -10.5394 -2.68664
-19.953 -9.90994 -2.18647
-17.7709 -12.2015 -1.49419
-16.0715 -11.4428 0.859642
-17.6253 -12.0639 -1.5869
-18.8544 -11.0218 -1.80827
-17.9085 -12.1199 -2.06644
-17.0966 -12.3637 -0.0382463
-18.5964 -11.5403 -2.36197
-17.1503 -12.0371 -0.24078
-19.4189 -12.3159 -2.07597
-18.1874 -10.4401 -2.06408
-17.0124 -11.1256 -0.788334
-16.5539 -12.0509 -0.420072
-18.0605 -10.4215 -2.77615
-18.8189 -10.7166 -1.85604
-19.4967 -10.9497 -3.24648
-16.5196 -12.0144 -1.01433
-18.0354 -10.7871 -2.41706
-15.633 -12.0158 -0.832914
-15.4206 -12.0311 -0.243132
-18.5645 -10.9692 -2.94174
-18.8385 -11.9432 -1.66373
-19.1317 -12.0803 -2.40366
-18.3618 -11.4862 -2.04224
-18.7583 -11.8112 -2.15651
-18.1061 -11.0664 -3.17457
-17.7723 -12.6729 -2.9819
-16.1366 -12.3094 -0.510291
-18.0448 -11.9913 -2.27235
-18.3593 -11.0874 -2.56657
-17.6491 -11.5442 -2.37287
-16.7246 -11.2423 -2.68678
-15.4713 -11.7447 -1.84426
-16.1417 -11.9239 -2.35854
-16.2409 -11.4017 -2.23556
-14.7761 -12.0867 -2.68744
-16.7469 -10.8309 -2.51573
-15.9802 -11.2118 -3.54683
-14.6052 -12.5331 -3.28602
-18.3187 -12.3491 0.903396
-19.087 -11.3189 0.482826
-19.2257 -11.1286 0.963259
-19.0112 -10.8054 -0.394385
-18.4804 -11.246 0.738461
-20.1942 -11.6144 -0.0714313
-17.0549 -9.85634 1.17688
-19.2213 -11.0243 0.781295
-19.1036 -11.4493 1.06881
-19.9276 -11.1988 0.757479
-19.9418 -9.6534 -0.796713
-19.7503 -11.6321 0.369342
-20.0879 -10.8156 -0.933942
-20.0721 -10.7323 -1.21452
-18.8306 -10.2169 -0.295075
-20.0691 -10.1408 -0.632505
-19.4199 -11.1621 0.0845455
-16.6777 -9.94357 0.939965
-17.1338 -9.88333 1.67832
-19.5123 -11.335 -0.887253
-17.2336 -10.5772 0.805842
-19.7207 -10.4228 -1.7139
-20.0415 -11.4971 -1.61664
-20.0632 -10.7351 -0.546095
-19.4285 -9.7914 -2.08972
-18.1824 -10.9686 -1.1187
-19.029 -10.7744 0.17418
-19.1159 -10.7227 -0.452237
-18.9963 -10.8845 -1.76474
-18.6026 -10.5602 0.616534
-19.6716 -10.7291 -1.77129
-20.2552 -10.4771 -1.40613
-19.3436 -10.3869 -1.12519
-19.7359 -10.5336 -3.06326
-20.1801 -10.6204 -2.46824
-19.5368 -11.0294 -0.969933
-20.0667 -11.4313 -2.36299
-20.0307 -11.1256 -1.45321
-19.5018 -10.8793 -1.19863
-17.6361 -11.4017 -0.779285
-17.9547 -11.3654 -0.83336
-17.2619 -10.3167 -0.145459
-18.8515 -11.5321 -1.33511
-19.4674 -11.3933 -1.75592
-20.2262 -9.70853 -1.95112
-19.9625 -10.1931 -1.83358
-20.2352 -11.3603 -2.40473
-19.0555 -11.7179 -1.86479
-15.6026 -11.9671 0.665049
-16.8259 -11.2881 -0.503234
-17.38 -11.6594 -1.59319
-18.8194 -10.9102 -2.8757
-18.6938 -11.5419 -2.47679
-18.1621 -11.0688 -2.32234
-18.6065 -11.7738 -1.67971
-14.769 -11.7374 -0.901305
-18.6053 -11.5785 -2.71302
-15.7001 -12.3911 -0.18401
-14.8321 -11.9024 -1.49128
-16.0067 -12.5164 -0.572326
-15.8365 -12.6983 -1.27297
-17.2249 -12.3489 -1.66074
-14.3737 -12.5052 -0.427564
-16.2731 -12.8533 -0.303807
-15.4912 -11.9114 -1.20009
-16.0376 -11.9002 -2.53179
-20.773 -11.548 -0.208523
-19.8457 -11.6671 -0.627039
-19.7519 -11.666 0.676605
-18.8581 -12.1287 0.607086
-19.4195 -11.9524 -0.532355
-18.8276 -11.5226 0.330843
-18.178 -11.1645 0.427941
-19.5537 -11.6863 0.7991
-19.5271 -11.2215 0.326873
-20.2077 -11.3906 0.50577
-18.4459 -10.8729 0.470005
-19.164 -11.1666 -0.820498
-15.7475 -9.59926 1.86813
-17.113 -8.472 1.75576
-20.0986 -11.5362 -1.09313
-18.5226 -10.9627 -0.011599
-17.4002 -11.2241 0.305867
-16.4574 -9.63489 1.56315
-16.8415 -11.3647 0.620814
-17.4855 -11.2487 0.513672
-19.6911 -11.6579 -2.30213
-19.5624 -10.3892 -1.99844
-19.0916 -11.3451 -1.65065
-19.6517 -10.9121 -3.20658
-17.7792 -12.1758 -0.76283
-14.7469 -10.8805 1.81214
-16.8941 -11.358 0.0312202
-20.4457 -10.5904 -2.62536
-19.6281 -11.5252 -2.76654
-16.535 -12.4224 0.774998
-16.3579 -11.9473 -0.717468
-16.5512 -11.6144 0.286115
-16.2442 -11.4913 -0.953009
-15.916 -10.7306 -1.02161
-19.6873 -10.0548 -3.08328
-18.2577 -10.7291 -2.16792
-18.1619 -11.5449 -2.8655
-17.6608 -11.3913 -0.387463
-18.5718 -11.0372 -2.76568
-15.6274 -11.9294 -0.299726
-15.7213 -12.316 -0.900001
-15.4349 -12.9073 -0.805033
-15.5602 -11.7294 -1.40247
-15.6807 -11.1839 -1.33056
-16.7609 -10.2069 -2.03141
-15.876 -12.2571 -2.82993
-15.0974 -11.689 -2.21681
-19.1818 -11.8033 2.03039
-19.8429 -11.4165 1.09548
-18.3873 -11.1981 1.29159
-17.8183 -11.4338 2.4723
-18.2987 -11.0166 1.11122
-18.1361 -11.4454 0.176021
-19.2481 -11.382 0.0228543
-19.3677 -11.4958 0.185562
-20.2187 -11.0169 -0.763934
-19.9417 -11.0176 -0.675946
-19.4987 -10.623 0.256867
-18.0725 -10.8429 -1.71922
-17.4151 -11.7399 -0.854774
-17.2904 -12.6089 -0.106433
-19.2846 -11.1642 -1.40016
-18.1091 -11.7683 -1.82765
-17.1306 -11.8646 0.144022
-15.8292 -13.136 0.703523
-17.5751 -11.8504 -1.03109
-17.7758 -11.5527 -1.0286
-15.7672 -12.7074 -0.565371
-16.1828 -12.5095 -0.137728
-16.2856 -11.9433 -0.845531
-17.1722 -11.5581 -2.03253
-17.7116 -11.1335 -2.93178
-18.0887 -11.6275 -2.26263
-15.7773 -12.2701 -2.3525
-15.1115 -11.6618 -0.693931
-16.1934 -11.7318 -2.15984
-15.9825 -11.0161 -3.14521
-17.1419 -11.4476 -1.76261
-16.7109 -11.313 -2.6321
-15.587 -12.0734 -3.08551
-15.9526 -11.8807 -2.48177
-18.0926 -11.1303 0.203089
-19.6279 -11.6838 -2.20227
-20.231 -11.0928 0.0843544
-19.8783 -11.406 -1.20042
-16.4282 -9.71838 0.987794
-19.3132 -11.4765 -1.78958
-20.0183 -10.7263 -1.39318
-15.8599 -10.8577 1.0898
-17.1723 -10.7082 0.412985
-17.0149 -10.6516 -1.68646
-15.3879 -13.1668 -1.3923
-17.1241 -11.3236 -1.45357
-14.5843 -12.3484 -0.565224
-16.3284 -12.2335 -2.93856
-14.459 -12.2276 -3.55352
-19.8502 -10.9344 0.0922651
-20.3463 -10.9194 -0.587445
-16.1157 -9.863 2.05682
-16.2614 -10.1301 0.493424
-17.33 -10.9452 -0.0365655
-18.5393 -10.322 -0.647482
-17.6616 -11.5929 -0.743544
-19.3899 -11.183 -1.76068
-17.8926 -11.5694 -0.726571
-17.7118 -10.8729 -0.505193
-16.7971 -10.9528 -1.05907
-15.8569 -11.4973 -1.81861
-15.4313 -11.7963 -1.99513
-19.0597 -10.7923 -0.48177
-18.3604 -11.2428 0.945779
-19.5996 -11.8706 -0.976185
-19.4625 -11.4326 -0.338768
-16.8995 -11.5469 -1.21213
-17.2611 -10.9298 -2.27549
-18.0732 -11.4135 -1.71017
-15.4298 -11.4249 -0.969573
-16.0592 -12.046 -2.21412
-16.3961 -9.36735 1.61009
-18.3806 -11.7606 0.712555
-17.4552 -12.7577 -0.00434237
-17.1544 -11.0653 -1.46482
-16.8185 -11.2589 -3.48782
-17.6555 -11.5608 -1.87002
-17.1788 -11.8592 -1.56026
-17.4642 -9.62912 1.01662
-17.5175 -11.2759 -2.00929
-17.4803 -10.7484 0.721094
-18.7847 -11.6406 -2.78316
-19.5794 -10.6398 -2.49249
-18.7462 -11.9207 -2.10959
-19.4106 -11.5278 -2.7091
-18.026 -11.4506 -2.04151
-18.5205 -10.9955 -2.92639
-19.4801 -10.9807 -2.25896
-19.0401 -11.7141 -1.78485
-17.8301 -11.095 -2.26108
-15.5872 -10.7849 -2.05336
-18.2796 -11.5917 -1.8436
-18.2396 -12.1204 -1.99824
-18.934 -12.2832 -1.98217
-18.9418 -11.1699 -2.5131
-19.1512 -11.38 -1.99836
-19.597 -10.9085 -1.6462
-20.2817 -10.4296 -1.09762
-20.5909 -11.8734 -2.0371
-18.1326 -11.3788 -1.46182
-18.8387 -11.505 -0.968788
-17.8989 -11.5193 -0.963697
-19.9845 -10.0501 -1.86667
-19.6867 -11.1461 -0.925157
-19.5814 -11.2001 -1.38808
-18.6524 -11.1485 -1.9102
-17.3773 -10.7518 -1.7145
-19.7803 -11.3786 -2.01393
-18.4191 -10.808 -1.05745
-19.4115 -11.3877 -1.03963
-20.2279 -11.2353 -0.744262
-19.2538 -11.2329 -0.745432
-20.078 -11.8316 -0.883443
-20.9641 -10.921 -1.28391
-19.4598 -10.4276 -1.9026
-19.3499 -10.6463 -0.0495528
-19.0721 -11.7052 -0.714995
-17.9215 -11.6264 -2.22715
-18.7502 -11.2327 -0.861687
-18.4548 -11.6967 -1.20278
-18.3208 -11.6915 -1.14058
-19.4605 -10.9465 -0.833688
-19.4639 -11.993 -0.699107
-19.1894 -11.0731 -1.11649
-18.6837 -12.2653 -0.174576
-16.0382 -11.7996 -0.678773
-20.5128 -10.6893 -0.361233
-17.2364 -12.161 -1.71932
-16.3291 -11.3341 -0.0562068
-18.3764 -10.6954 -0.728235
-18.9806 -11.4846 -1.27228
-19.6973 -11.8376 -0.438877
-18.6883 -10.7667 -0.769004
-19.7379 -10.6862 -0.883966
-19.7671 -12.047 -0.544445
-17.7264 -10.8913 -0.67496
-16.4247 -11.0701 -0.195914
-16.1827 -11.4592 -0.780418
-16.772 -13.041 -0.696801
-18.9605 -11.6261 -1.44694
-15.824 -11.7148 0.734208
-19.9121 -11.462 0.239233
-16.9568 -10.8556 0.465133
-19.5315 -11.3053 0.0212123
-20.0607 -10.3514 -0.456569
-19.6327 -11.1048 -0.407266
-19.8644 -11.1948 0.289543
-16.9615 -10.5376 0.420486
-18.5323 -10.3363 -0.265457
-19.3193 -11.2117 0.527645
-15.947 -11.9786 0.4953
-20.2489 -11.8884 0.51953
-20.3094 -11.3644 0.150031
-18.165 -11.1276 0.129417
-15.9445 -12.2696 1.04583
-17.8459 -12.0086 0.241961
-17.4699 -10.7408 0.915285
-18.2098 -11.6346 0.55065
-18.6154 -10.2363 1.57783
-20.517 -11.1906 -0.290598
-19.228 -11.5815 0.942558
-20.2421 -11.1867 -0.114197
-20.0296 -11.7811 0.83502
-20.1137 -10.5248 0.234322
-19.451 -11.249 1.07666
-18.4344 -10.839 1.22915
-19.5664 -10.8423 0.475307
-19.1693 -10.777 0.693216
-19.8668 -12.0205 2.04114
-18.0322 -11.231 1.57942
-17.5266 -10.0561 0.714365
-19.601 -12.2841 0.517419
-20.559 -11.8634 0.848799
-20.5177 -11.2916 1.44692
-17.799 -11.4801 -2.60962
-15.2565 -11.5738 -3.53809
-18.8017 -10.8613 -1.91565
-18.8766 -10.9021 -2.36815
-18.6179 -11.7704 -2.63446
-19.3383 -11.1963 -2.37696
-19.2205 -12.0243 -2.38081
-19.3802 -11.0949 -3.7331
-18.5237 -10.8557 -2.68079
-19.9059 -11.9176 -1.41869
-19.9119 -10.9045 -1.61544
-19.7472 -11.245 -2.13174
-15.8347 -11.4496 -1.63519
-19.7503 -10.8713 -1.45492
-19.5999 -11.2338 -1.77764
-18.7993 -11.0104 -1.34872
-18.9034 -11.0897 -1.69342
-18.8218 -11.8823 -1.31466
-19.5713 -11.3748 -1.30088
-15.3696 -12.1308 -0.589582
-17.067 -11.7041 -1.03122
-18.3156 -11.1646 -1.46978
-19.4959 -11.1231 -1.1652
-18.9995 -11.1892 -1.55832
-16.4795 -11.9111 -0.857136
-19.9847 -10.2896 -1.1757
-20.4712 -11.2822 -0.291043
-19.861 -10.8162 -0.242115
-19.787 -10.8369 -0.386537
-19.7685 -10.697 -0.663973
-18.5495 -10.65 -1.44801
-16.7222 -11.9392 -0.616909
-19.1631 -11.5747 -0.693664
-17.8823 -12.0182 -0.0647711
-16.2562 -12.509 -0.0229888
-18.312 -10.7818 -1.34042
-17.1897 -11.5989 -0.236521
-18.9015 -11.6016 -0.912958
-20.0664 -11.1925 -0.476791
-16.7251 -11.1264 -0.180674
-20.117 -11.5206 -0.679355
-19.4049 -11.3051 -0.987131
-19.5666 -10.7906 -0.153556
-19.7258 -10.5947 -0.197389
-19.5405 -10.3251 -0.487239
-19.4627 -11.9647 -0.69289
-18.7731 -11.173 0.924608
-18.9413 -11.6582 0.855503
-19.0835 -12.8456 0.58347
-20.2194 -11.3166 -0.522025
-18.7961 -11.6656 0.0117137
-20.8775 -11.4778 1.80387
-19.7428 -10.8391 1.90537
-20.337 -10.909 0.771135
-16.0623 -9.57859 2.00751
-15.2412 -12.8722 -2.72433
-16.8955 -11.7757 -1.07694
-18.6439 -12.0082 -2.00228
-18.2546 -11.6315 -2.82983
-19.3256 -11.5401 -1.71649
-17.8377 -10.9159 -2.20195
-19.2213 -11.2138 -1.66096
-19.029 -11.0564 -1.95613
-17.3383 -11.3402 -1.36943
-15.3603 -10.7898 -0.413487
-19.6886 -11.7084 -0.514603
-19.2391 -10.7951 -0.40621
-16.6613 -12.1102 -0.280909
-19.52 -11.1764 -0.779261
-16.1937 -10.9572 0.255645
-16.4105 -11.1738 -0.0283853
-19.8562 -10.4554 -0.599455
-19.3702 -11.0013 0.907739
-16.2586 -11.3661 1.26915
-17.0615 -10.7619 -0.54068
-15.5853 -10.1242 0.799616
-17.7053 -11.9799 0.435705
-17.7971 -10.7399 1.19416
-20.0197 -11.6017 -0.0682569
-15.1223 -10.1254 1.09581
-20.4837 -11.043 1.76257
-15.2714 -9.96227 1.1859
-16.9221 -11.1755 -2.40973
-16.8594 -10.6804 -2.28562
-16.2062 -11.8858 -3.34726
-16.7749 -12.0813 -1.97208
-18.8727 -12.0558 -2.42134
-19.64 -11.0368 -1.01729
-18.9153 -12.1259 0.00313155
-19.4309 -11.1336 -1.35803
-19.0041 -11.9413 -1.60324
-18.8399 -10.897 0.00628806
-18.1905 -11.643 0.271337
-18.2958 -10.3588 0.399915
-18.8883 -11.4427 0.611826
-20.0257 -11.1132 1.424
-19.6107 -11.1544 0.418163
-18.4154 -12.2016 -0.357099
-19.6532 -11.3259 1.02747
-17.8298 -10.5685 0.505388
-17.4389 -10.7564 -1.51544
-18.2671 -11.7518 -2.44685
-16.2419 -11.7737 -1.72655
-16.3867 -11.713 -2.24982
-20.4001 -11.0178 -1.01763
-15.9357 -12.0522 -1.71929
-17.4839 -11.2702 -1.1994
-19.6381 -10.7808 -0.986348
-15.7566 -11.6116 -0.512634
-20.006 -12.7232 -1.40073
-18.1791 -10.7404 -1.0066
-16.9734 -12.1073 -0.0517255
-19.3034 -10.9503 -0.776905
-15.913 -11.6871 0.179911
-19.336 -11.8382 0.210187
-18.9653 -10.9193 0.699932
-19.7605 -10.8801 -0.386944
-18.657 -11.1803 0.200047
-17.9398 -11.7969 0.489424
-18.1538 -10.7868 0.428782
-19.4255 -11.4811 1.22796
-20.1766 -12.5021 1.9289
-18.1803 -11.1082 -2.43965
-19.4179 -11.6777 -0.85523
-17.3904 -11.1452 -0.272802
-18.284 -10.9032 0.510354
-16.18 -12.0157 1.17487
-16.3043 -11.5887 -0.131342
-19.3364 -10.7064 0.873368
-18.0796 -11.2059 0.744834
-16.7371 -10.9619 -1.8069
-15.202 -12.2358 -2.45054
-17.9841 -10.7677 -1.84749
-16.2381 -11.4394 -0.208817
-16.8318 -11.0879 -0.344099
-17.9065 -10.3412 -0.0479455
-18.5305 -11.4262 1.2629
-16.538 -9.84161 1.46887
-15.8778 -12.2623 -1.79079
-17.1989 -11.1055 -1.04922
-20.1784 -11.9307 0.880789
-19.0192 -11.0874 -0.735611
-19.3535 -11.2818 -1.67759
-17.4019 -11.2458 0.877137
-18.6741 -10.6869 -0.135734
-17.1738 -12.8005 -0.535213
-17.844 -11.4002 0.533715
-16.3919 -12.2272 0.644514
-15.8513 -11.8721 -1.36339
-19.239 -11.9233 0.962531
-17.7735 -10.1376 0.424693
-17.2416 -10.9174 -3.19027
-16.9219 -11.2565 -2.18624
-18.4764 -11.3239 -2.02181
-20.9846 -11.5604 -1.38572
-18.1119 -11.9113 -1.59103
-18.7587 -11.0569 -1.16384
-19.6851 -10.8963 -0.252394
-17.6358 -11.4016 -1.02442
-19.7934 -10.9071 -1.39897
-19.9028 -11.3298 -0.783443
-19.2856 -11.1895 -1.44506
-18.55 -12.0402 -1.0326
-19.9389 -11.4642 -1.14352
-19.1217 -10.585 -1.4443
-19.6855 -11.5108 0.309781
-19.5939 -11.6898 -0.241459
-18.7734 -10.7079 -0.0797589
-19.5533 -12.0839 -0.351598
-20.2756 -11.2279 -0.0188748
-18.5493 -11.5925 -0.445799
-19.5023 -11.9197 -0.230277
-17.6734 -12.0906 -0.30605
-17.0635 -10.226 -0.70264
-19.5805 -10.0556 -0.870895
-18.855 -12.0367 0.684615
-19.904 -11.4861 0.52396
-16.9361 -12.0025 -0.766789
-20.3393 -12.3972 -1.19602
-20.2025 -11.5537 0.406841
-19.2282 -11.3454 1.39394
-19.7413 -12.0056 0.179544
-18.9795 -11.3652 -0.00757719
-20.4743 -11.1148 1.66387
-16.6862 -11.7622 -0.2103
-15.8503 -11.8203 -0.711622
-16.6391 -11.2462 -0.538557
-19.2843 -10.9681 0.0869119
-16.5148 -11.2949 0.481765
-16.4539 -12.4035 -1.12482
-20.9181 -11.7526 2.00247
-15.8488 -11.6878 -1.09287
-17.3226 -11.5605 1.04105
-16.8338 -10.0227 0.38746
-18.2482 -10.4486 1.42846
-17.2537 -10.0697 1.51104
-16.3526 -9.86898 1.68954
-18.2026 -10.5637 -2.05636
-19.059 -11.9449 -1.55954
-19.0775 -10.3787 -2.01632
-19.4737 -10.3489 -0.267154
-19.757 -10.0671 -1.33922
-18.9681 -12.0138 -1.0677
-19.3318 -9.74794 -0.887953
-19.9111 -11.3279 -1.11782
-18.4392 -11.3374 -0.685221
-18.6251 -10.0734 -0.493016
-14.9941 -11.9922 -2.61975
-14.9243 -13.0609 -2.67513
-15.1383 -12.0375 -1.73407
-19.9411 -10.8862 -0.310037
-15.553 -11.9147 -2.20089
-15.3134 -11.9156 -2.25186
-19.2694 -11.3594 -0.828116
-19.2393 -11.0757 -0.749449
-20.7426 -10.8826 0.0358367
-17.9453 -11.9366 -0.0504771
-17.2085 -11.2252 0.303911
-19.693 -10.8464 -0.373142
-19.6148 -12.1387 -0.484337
-19.7262 -12.1057 -0.349628
-16.0699 -12.7517 -0.353651
-18.8813 -11.3935 0.549734
-20.1027 -11.7943 0.162705
-18.9002 -11.5314 -0.385805
-16.7864 -12.252 -0.285785
-20.1786 -11.585 1.55089
-16.4061 -12.7099 -0.667279
-17.3676 -11.2655 -0.0754615
-18.7062 -12.328 1.87583
-19.0432 -11.2553 1.24314
-16.4564 -12.7302 0.137577
-17.9975 -11.4421 1.87126
-16.4856 -9.87963 -0.0586534
-17.3482 -9.8655 0.881454
-16.7554 -9.73161 1.41267
-18.8375 -10.772 -3.33088
-18.7409 -11.4702 -1.1227
-18.7044 -11.4547 -1.77786
-19.2404 -11.6002 -1.79465
-15.0605 -11.7198 -1.96964
-17.0985 -10.9932 -1.30585
-17.0782 -11.5586 -1.99007
-19.9644 -11.7941 -0.336928
-19.2513 -10.4962 -0.579133
-19.2406 -11.2558 -0.551589
-20.344 -10.2188 0.621065
-19.4169 -11.4465 0.387023
-17.6911 -11.2405 -0.788639
-20.2208 -11.4674 0.0467895
-19.1936 -11.2751 0.668896
-17.6955 -11.0838 0.0493096
-19.9872 -10.9129 1.91902
-20.3845 -12.079 1.27981
-19.3508 -12.1286 0.363602
-20.1008 -11.2546 -0.0886557
-17.5596 -11.5971 -0.987237
-20.2635 -10.7464 1.07817
-17.4363 -11.8052 -0.580857
-17.8355 -11.513 -0.0459445
-17.0253 -13.1169 -0.744277
-19.1243 -12.1146 0.63026
-18.5604 -10.9331 1.40764
-19.116 -11.0873 1.35356
-19.9665 -10.413 -1.33368
-17.4226 -12.4108 -1.683
-17.4776 -11.1514 -1.62491
-19.2898 -11.4322 -1.21055
-18.6612 -11.1581 -0.227527
-20.0038 -9.49717 -0.355507
-17.296 -11.3755 -1.04147
-19.9088 -11.7751 0.0386546
-18.0295 -11.0727 0.166281
-19.831 -11.6413 1.33227
-15.8433 -11.1618 -1.45214
-17.3591 -12.0964 -0.9405
-18.9613 -10.8665 1.03403
-15.7815 -11.491 -0.781874
-18.032 -10.7116 0.438146
-16.2229 -11.5957 0.0275331
-18.4134 -11.3803 0.710363
-18.265 -11.3485 1.62745
-18.9121 -11.6876 1.54164
-18.1874 -10.8142 1.08744
-18.2018 -12.3289 -2.02791
-16.6724 -11.999 -2.72937
-18.4336 -11.8173 -1.28532
-19.0062 -10.8905 -0.984484
-18.3047 -11.8477 -0.813889
-18.5793 -11.2121 0.627399
-16.0005 -11.4712 -0.206133
-18.7298 -10.2677 1.31777
-18.8875 -11.5949 1.33603
-17.5172 -11.2425 -0.217493
-17.9002 -10.9521 0.424232
-15.9212 -11.9309 0.353155
-17.1096 -11.6265 -0.00444428
-17.7788 -10.6267 1.34353
-16.8785 -11.5853 0.730492
-18.0222 -10.6442 -0.917284
-19.123 -10.9458 0.584092
-19.0813 -11.5416 0.342767
-17.4539 -11.4244 0.174228
-19.0937 -12.1469 -0.440275
-19.125 -10.3714 -0.329544
-19.4982 -11.2309 -0.397973
-17.8646 -11.238 0.64424
-18.2234 -11.6127 1.3948
-18.2902 -10.3462 1.99161
-19.0662 -10.3125 1.65613
-16.6176 -11.7081 -2.70327
-18.5468 -11.5381 -0.0955645
-14.9859 -11.8757 -1.30741
-16.243 -11.8981 -0.0144519
-17.4604 -11.3151 -0.453901
-17.0142 -10.9681 -1.43102
-19.0663 -11.8794 -0.482658
-14.8449 -11.1114 -3.06259
-18.9706 -11.6851 -0.0311465
-17.3363 -10.5803 1.14763
-19.9191 -11.603 -0.725135
-18.6041 -10.3721 -2.09735
-18.7091 -11.5049 -2.53224
-18.2624 -11.4933 -2.45516
-18.3969 -10.7427 -1.7276
-19.648 -11.4016 -1.26745
-19.5677 -11.8127 -0.744058
-17.3807 -10.7794 -2.32628
-18.8526 -10.2516 -0.990487
-17.5447 -11.968 -0.846464
-19.2485 -10.7046 -0.508078
-16.7164 -10.5684 -2.27483
-20.4601 -11.3182 -0.0838279
-17.6371 -11.163 -0.78466
-18.5966 -11.3739 1.31474
-16.6914 -11.2303 -0.824682
-17.2544 -11.6341 0.316699
-17.4015 -11.8455 0.327198
-17.0109 -11.1921 -0.902014
-16.5956 -11.0101 -0.888662
-15.833 -11.0209 -1.22061
-15.4461 -11.9155 -0.928505
-15.4457 -12.5875 -0.584178
-15.0949 -12.0932 0.737073
-16.3758 -9.18692 1.45226
-20.194 -10.8855 -1.13934
-19.8445 -11.0274 -1.70007
-19.4597 -11.7531 -1.79232
-20.2937 -11.2851 -0.52262
-19.7659 -12.0649 0.475263
-18.5937 -12.1858 -3.39165
-18.3185 -11.9576 -1.64332
-17.6809 -11.1916 -2.32403
-20.5294 -11.261 1.42956
-19.5903 -11.2081 0.589601
-19.6523 -11.9032 -0.625009
-15.5039 -10.8388 -2.57352
-17.026 -11.4494 -1.7041
-16.9904 -11.2882 -0.555756
-18.1176 -12.1222 -1.11671
-19.1911 -12.5867 0.882989
-15.51 -11.5135 -1.98876
-16.26 -11.1943 -1.00331
-19.0057 -10.9097 -0.0818527
-16.1548 -11.4757 -2.49867
-18.3252 -10.0995 0.709045
-15.8564 -11.3652 -1.45215
-15.9281 -12.3646 -0.616242
-16.9522 -11.1716 0.263861
-17.0983 -11.8709 0.266284
-16.4563 -11.8915 -0.231199
-16.9419 -11.7357 0.860182
-18.7322 -12.042 -0.948951
-19.6185 -11.1821 0.361432
-16.8304 -11.8575 -2.62885
-18.2518 -11.0077 0.891579
-16.7801 -11.0339 -1.69785
-19.0222 -11.5267 0.167841
-17.6078 -11.1684 -0.796442
-16.5409 -10.7205 -1.38691
-17.4207 -11.4597 -1.08548
-17.7128 -11.7489 -0.766687
-18.735 -10.5492 1.71332
-16.4752 -11.9165 0.381255
-16.5633 -11.8847 -0.408473
-14.9277 -11.6688 -0.790344
-15.4239 -11.6286 -0.233614
-20.7821 -10.1671 -1.99815
-20.6284 -11.7948 -0.637872
-17.0628 -11.7828 -2.35999
-18.6757 -11.7041 -0.916957
-19.3632 -11.1082 0.867147
-15.6843 -11.5665 -0.0193636
-16.8593 -11.3549 -0.378929
-15.7226 -11.6461 -2.81442
-17.9256 -11.1722 -0.943174
-17.0007 -11.1545 -0.363879
-17.2216 -11.793 0.0942847
-13.5865 -12.0719 -3.36062
-15.7169 -11.5343 -0.965574
-15.3485 -12.1128 -0.884323
-15.7317 -11.9764 -0.353241
-19.4203 -11.2904 -2.34873
-20.2463 -11.2554 1.81668
-16.558 -11.422 -1.16193
-17.1615 -12.0352 -0.125262
-17.3806 -11.1284 -0.941392
-15.728 -11.4709 -1.01843
-16.2509 -11.1553 0.700521
-16.2279 -11.3249 0.594575
-18.3858 -11.7485 -1.197
-18.8084 -11.9546 -0.472094
-19.8176 -10.5624 0.289609
-17.757 -12.0267 -0.338056
-18.1653 -11.8524 1.34099
-15.976 -11.8795 -1.14432
-18.3273 -10.9871 0.431848
-15.9193 -11.1075 -1.90885
-19.7247 -12.0087 -0.640583
-18.4523 -11.5252 0.80903
-17.1024 -11.2553 -0.0677713
-19.817 -10.1847 1.13574
-16.6789 -10.4403 -0.78974
-19.4586 -11.3395 -0.496638
-17.2011 -10.8502 0.483944
-20.6153 -11.1922 -1.49068
-19.9692 -11.6927 0.216314
-20.1041 -11.5156 0.465791
-19.5903 -11.8826 -1.39293
-18.4039 -11.2575 -0.550189
-18.3494 -11.1238 -0.807163
-17.2477 -10.7669 0.842349
-17.8082 -10.8736 0.99387
-17.2655 -11.2123 -1.80771
-17.0077 -11.4207 -0.849487
-16.1661 -11.0671 0.0722608
-16.5525 -11.717 -1.10261
-15.8415 -11.3322 -0.737043
-15.7492 -10.9254 0.281718
-15.4514 -9.51468 1.44319
-15.7194 -10.4224 1.61846
-20.8778 -10.6731 -1.10933
-19.2777 -11.4909 -3.21211
-20.3746 -11.3086 0.0225813
-20.1853 -12.0514 -1.2002
-19.0961 -11.3952 -1.88544
-20.0776 -11.8757 0.359486
-19.8033 -11.2554 -1.52427
-20.0622 -11.7107 -0.109994
-19.1882 -11.8382 -2.83518
-19.9059 -11.3073 -1.18506
-19.4627 -10.9796 -0.75881
-19.8178 -11.8769 -0.0318153
-17.6793 -11.4992 -3.34
-18.3595 -10.3272 -0.848303
-18.3028 -11.2694 -0.925259
-18.0644 -11.3118 -0.222888
-16.4912 -10.7327 -2.93064
-16.4391 -11.2438 -2.15291
-16.8378 -11.1374 -0.764004
-16.762 -11.069 -0.962888
-16.2295 -11.089 -1.0441
-17.4106 -9.86022 0.96044
-17.4255 -10.5743 -1.85278
-17.1847 -11.8888 -1.09496
-16.932 -11.4412 -0.846807
-15.9776 -11.1585 -1.48826
-16.7938 -11.3722 -0.86897
-16.2498 -11.9891 -0.53402
-14.8395 -11.9052 -2.51143
-16.86 -11.4366 0.381327
-16.3281 -11.5963 -1.40141
-15.7339 -13.1121 -0.0142874
-13.3147 -11.9531 -3.02396
-13.8805 -12.9257 -3.46487
-18.8493 -10.7875 -2.05477
-20.1932 -11.7212 -0.649751
-19.1668 -10.218 -1.67207
-19.987 -11.1935 -0.875035
-19.4021 -10.7298 -1.33156
-18.7781 -12.0902 -1.66852
-17.8517 -11.4345 -2.89094
-19.0273 -11.3265 0.411309
-18.7264 -11.1868 0.946598
-17.1393 -11.1478 -2.99714
-18.3986 -11.0476 1.00978
-18.208 -11.3224 1.67235
-17.6886 -12.2191 -0.699457
-17.9149 -11.9064 -0.613376
-17.1163 -12.3915 -0.755432
-16.9639 -11.0357 -1.0845
-16.1391 -11.3413 0.0405331
-16.8288 -12.7605 0.284716
-15.87 -11.415 -1.9368
-15.9246 -12.282 -1.33437
-16.4883 -11.0229 -0.520114
-15.6075 -11.9248 -2.10485
-16.151 -11.5762 -0.553003
-15.7004 -11.9862 -1.26405
-16.1328 -11.4828 0.443655
-15.2014 -11.564 -1.13793
-16.3653 -11.4192 -0.666234
-20.1364 -10.7061 -3.02418
-18.4573 -12.3792 -2.66125
-20.1665 -11.5514 -1.24675
-20.1168 -10.6971 -1.97387
-21.1633 -11.4855 0.197351
-19.1492 -10.8633 -0.983358
-19.3847 -11.6788 0.651093
-20.1128 -12.0797 1.01601
-18.4898 -11.6715 -1.73833
-17.0196 -11.3689 -3.52184
-17.2936 -12.0486 -1.14424
-16.9362 -11.4825 -1.61876
-17.8339 -10.9367 0.593418
-16.4312 -11.1132 -0.0628572
-16.6161 -11.1368 0.0532932
-15.5697 -12.1129 -0.89805
-15.6989 -11.8454 -1.73469
-15.6513 -12.4605 -0.787148
-19.1789 -10.6534 -1.8261
-19.6161 -10.9333 -1.8542
-19.6098 -11.3245 -1.93435
-18.4477 -10.8316 -0.682211
-17.1303 -10.872 -0.865007
-16.7138 -12.1667 -0.416824
-16.8411 -11.4661 -1.02254
-16.8577 -11.573 -0.287825
-16.8506 -12.1782 0.10393
-16.7427 -11.1632 -1.62154
-16.836 -11.3927 -1.13962
-17.0211 -11.2021 -0.134508
-16.4049 -11.3098 -0.934404
-16.2554 -11.0701 -1.1485
-15.3885 -12.4423 -0.599107
-15.9824 -11.7074 -0.72702
-20.8132 -11.5828 -0.481409
-18.2485 -10.2261 -0.898603
-16.9444 -11.2988 -0.27063
-18.353 -10.5292 -0.116556
-17.1956 -10.9543 -0.161538
-15.4812 -11.9123 -2.29922
-18.617 -10.4702 -2.38431
-17.5353 -11.3564 -1.83294
-15.5978 -12.3563 -1.6174
-19.5982 -11.7342 0.114835
-18.4606 -11.1666 -1.56884
-17.3458 -11.7014 -1.17948
-16.2565 -11.8168 -0.0383059
-16.1294 -10.995 -1.66237
-15.0597 -13.1219 -0.141403
-18.3654 -11.3279 2.03294
-18.2575 -11.2764 -1.10911
-17.2085 -10.6147 -1.49768
-15.4076 -11.7942 -1.89861
-18.9728 -10.449 0.431483
-20.3885 -12.1858 -0.306769
-19.9565 -10.1846 0.938961
-19.5866 -11.0213 -0.603029
-19.8223 -10.3383 -2.67863
-19.104 -11.5022 -1.06107
-18.9718 -11.4335 -0.458691
-17.8867 -11.7898 0.939107
-18.2999 -11.2972 -1.04603
-19.7276 -11.0316 -1.17746
-18.9396 -10.5816 -2.51693
-18.951 -11.672 -3.41849
-18.5555 -11.5521 -2.132
-19.3843 -11.1062 -2.48905
-19.3252 -11.6266 -2.09342
-19.4217 -11.4647 -2.3575
-19.587 -12.1525 -2.17897
-18.3251 -11.6446 -1.77224
-19.1744 -10.7204 -2.36901
-18.0902 -11.5288 -3.43103
-18.2059 -11.4617 -2.63511
-18.6023 -10.4066 -0.057479
-18.8168 -11.5149 -1.20397
-18.6087 -11.5538 -0.936113
-16.9742 -10.4863 1.58168
-17.9277 -11.2119 0.680985
-18.3267 -11.6131 -2.45023
-17.4233 -12.2227 -0.919833
-17.9532 -11.2704 -2.8302
-15.9447 -11.2919 -1.84796
-16.7386 -11.0684 -0.980356
-16.0211 -11.2585 0.690782
-15.005 -11.7433 -1.0305
-15.4507 -13.0269 -2.23936
-15.9412 -11.7523 -2.97321
-20.9293 -10.5135 1.10181
-20.7699 -11.2397 0.889463
-19.4696 -10.1772 -0.418212
-19.0877 -10.6634 -0.0762527
-19.8647 -10.3006 -1.66691
-19.7415 -10.5572 0.145047
-19.4659 -11.5035 0.4203
-20.1751 -10.7625 -0.921049
-19.5779 -11.6598 -0.32261
-19.9823 -11.4362 -0.997876
-19.2565 -10.075 -1.77922
-18.9422 -11.0836 0.331508
-19.5536 -11.2907 -0.72665
-19.123 -10.8622 -2.55072
-18.3715 -12.8338 -1.31565
-18.5069 -10.6756 -1.92265
-17.9298 -12.0964 1.30687
-17.6952 -10.1291 -0.101267
-18.3736 -11.1147 -2.65642
-18.5477 -11.6969 -0.21103
-18.4723 -11.3922 -2.6307
-18.7501 -11.1757 -2.85126
-18.3253 -12.0608 -2.14518
-18.4144 -11.5088 -0.828574
-16.8343 -10.6494 1.14574
-16.321 -10.7499 0.998748
-16.7993 -9.99708 0.915015
-16.5605 -11.3377 -2.08141
-16.6042 -12.2114 -0.437384
-15.2619 -9.70396 0.874372
-16.3161 -10.8885 -0.0238537
-15.6428 -12.1534 0.33549
-15.5619 -12.0952 -0.83708
-15.9776 -11.4742 -1.0481
-16.2039 -11.4284 -1.58301
-20.1593 -11.8745 2.14573
-20.0843 -11.6267 -0.250855
-19.8702 -11.9223 -1.3978
-19.2286 -11.7945 2.93339
-19.181 -10.4097 -0.951341
-19.5901 -11.3084 -2.33953
-18.6976 -10.125 -1.23846
-19.3813 -12.0363 -0.198339
-20.359 -11.1717 -1.71811
-18.2557 -10.7873 0.849197
-18.0565 -11.4276 -0.0379769
-18.2482 -11.4901 -1.12654
-17.6732 -10.8257 0.176504
-18.0166 -10.7505 0.216292
-18.1087 -10.8444 -2.25726
-17.785 -9.28925 1.69949
-17.722 -9.66427 1.40897
-16.3236 -10.7487 0.581829
-18.1235 -12.4592 -2.81879
-17.4336 -10.8127 -0.980137
-17.2641 -11.7143 -1.39222
-17.5251 -10.7736 -1.44992
-17.8466 -11.603 -0.457583
-16.5461 -12.4257 0.380865
-17.4777 -10.396 -1.0549
-16.1923 -10.8322 -1.26463
-15.7908 -9.92485 1.74028
-15.8008 -11.3803 0.790995
-15.6448 -11.9576 -0.953334
-14.831 -11.4758 -1.17229
-13.9495 -12.3616 -2.67704
-19.5357 -11.0317 -1.20617
-20.0445 -11.3472 -0.899583
-19.4389 -11.5621 -0.182836
-19.4878 -11.1892 -1.33156
-20.0996 -11.2307 -1.86698
-18.6086 -10.6877 -1.62028
-18.2541 -10.0343 -2.04904
-18.2973 -13.0918 -2.06463
-18.8991 -11.3424 -2.25682
-18.3372 -11.272 1.12418
-18.1986 -11.0005 -0.051626
-18.3385 -11.2408 -0.871933
-18.924 -11.9024 -0.261936
-17.1118 -10.765 -0.988882
-17.6836 -11.1886 -1.92418
-16.8724 -11.0822 0.280112
-17.6344 -11.9384 0.317007
-17.1118 -12.1334 -0.628841
-16.0647 -11.8128 0.329831
-15.9467 -12.7536 -1.27061
-15.96 -13.1679 -1.23147
-15.9796 -11.8778 0.125979
-20.7644 -10.6924 -1.47002
-20.1602 -10.767 -1.3402
-20.0128 -10.7183 -2.31352
-19.8328 -11.0372 -1.04
-18.3816 -10.5364 0.802537
-19.1217 -10.9601 -2.19166
-18.3249 -10.6884 1.45541
-18.5005 -11.519 -1.54195
-17.5019 -10.1365 1.73119
-16.8228 -10.2619 0.744784
-17.5089 -11.8014 -0.108112
-16.9399 -11.9095 -0.437308
-16.9481 -11.8111 -0.182934
-16.524 -11.8335 -1.28804
-15.9063 -11.9617 0.0480199
-15.9009 -11.481 -1.45716
-15.8026 -11.3305 -0.831934
-15.4378 -11.3124 -1.53582
-16.3661 -13.1992 -0.620927
-15.3593 -12.9428 -1.93771
-19.9326 -11.2118 -0.634868
-20.7167 -11.1221 -2.27105
-20.1255 -11.3453 -0.204178
-18.3338 -10.6098 0.465323
-18.361 -11.8525 -0.00260181
-17.5994 -11.491 -1.86086
-15.7088 -12.4432 -1.46499
-19.5447 -11.283 -1.20358
-18.5986 -9.96892 -0.34252
-15.9621 -12.513 -1.5695
-15.6565 -11.4548 -1.80934
-15.6997 -11.6905 -1.31149
-16.0938 -12.1043 -1.13882
-17.1107 -11.2725 -2.10522
-16.3384 -12.4457 1.24943
-19.79 -11.9976 0.473221
-17.8167 -10.693 -0.48612
-18.0393 -11.7787 1.44744
-17.9753 -11.1217 -1.77586
-16.5823 -11.5361 -2.67722
-18.2977 -10.9098 -0.254922
-16.9186 -11.5296 -0.214947
-15.3355 -12.2929 -0.604095
-16.8453 -11.0501 -2.4884
-16.7333 -9.59677 2.02192
-20.8514 -10.6665 1.45117
-19.2595 -11.5226 0.589232
-19.5295 -11.3953 -0.21408
-20.1891 -11.1326 -1.27062
-18.2469 -10.5704 1.07807
-20.3787 -10.3125 -1.78065
-19.6561 -11.5633 -1.65047
-18.9553 -11.7463 0.397724
-20.4311 -9.88163 -1.96062
-19.6474 -11.0193 -1.90216
-20.1785 -10.8352 -2.02512
-17.5804 -9.58276 1.73206
-19.3763 -11.111 -2.4909
-18.2944 -10.6575 -0.596451
-20.4195 -11.5519 -2.55898
-19.6215 -10.6185 -2.71751
-19.09 -10.4493 -0.556427
-18.0623 -11.068 0.0150105
-19.1007 -11.1252 -1.05768
-19.1399 -11.6209 -1.31694
-19.7088 -10.6361 -1.84359
-18.073 -11.5328 0.310506
-19.5138 -10.0974 -2.14193
-19.2527 -11.5405 -1.69151
-19.0035 -11.0482 -1.25401
-18.0589 -11.5338 1.34678
-18.8914 -11.1892 -2.58208
-15.217 -9.72307 1.58008
-18.8067 -11.0092 -1.25146
-15.6806 -9.17172 1.48693
-19.1539 -11.4117 -2.28153
-18.7858 -11.4098 -2.04029
-17.8079 -11.472 -2.09518
-18.2687 -11.8238 -2.59501
-17.4328 -10.2453 -0.229779
-18.5384 -11.8124 -3.40268
-18.9252 -11.9005 -1.26397
-18.1216 -10.4273 -2.19343
-18.3927 -11.2931 -2.59143
-18.8023 -11.0691 -1.16894
-18.5099 -11.108 -2.68247
-17.5762 -11.8335 -1.04336
-17.6667 -10.5916 0.1264
-17.6958 -12.3586 -0.689724
-20.1479 -11.2324 -2.90531
-18.5245 -11.1014 -2.20566
-16.384 -11.5341 -0.762583
-18.2627 -11.3914 -2.08803
-16.0579 -11.4051 0.313892
-15.9704 -11.8072 0.16197
-15.89 -11.9407 1.01068
-18.0841 -11.7763 -2.57008
-17.9244 -11.5418 -2.27378
-17.5674 -11.6441 -2.81707
-17.7392 -10.6644 -3.42883
-18.0586 -11.634 -2.12903
-17.0716 -10.9673 -1.94442
-19.22 -11.7335 1.65027
-19.5053 -11.3129 -0.0864261
-19.9371 -11.0243 0.558018
-19.1567 -11.5663 0.416068
-19.5012 -11.5596 0.898554
-17.9857 -11.1388 1.16239
-19.8817 -12.1442 -0.220836
-18.2407 -10.9053 0.593832
-19.3137 -10.1753 -0.931788
-19.6019 -10.5296 -0.674138
-19.0234 -10.8326 -1.02927
-19.3932 -10.8177 -3.13526
-18.8743 -11.3547 0.374875
-19.1978 -11.5183 -1.74662
-18.3265 -10.5278 0.317996
-19.1859 -11.4373 -2.18296
-18.5312 -11.9721 -0.821689
-18.8833 -12.5527 -0.908228
-19.767 -11.3543 -1.20985
-17.9113 -9.63173 -1.81784
-19.689 -10.1586 -1.6175
-19.5423 -11.578 -1.64503
-18.6526 -11.7987 -1.7365
-19.7994 -11.4284 -1.99173
-20.1679 -11.2158 -2.01249
-18.8702 -11.371 -1.91058
-19.741 -11.0566 -2.85865
-17.4407 -11.8483 1.08864
-17.0107 -11.3848 0.684282
-16.5353 -10.2116 1.98785
-17.3411 -11.4025 -0.128584
-18.5505 -11.9964 -2.23322
-18.6308 -10.9512 -1.43379
-19.0545 -11.788 -1.93179
-16.989 -11.5708 -0.796097
-16.5284 -11.4145 0.839736
-14.5627 -9.38724 2.24284
-16.4393 -11.0557 -1.12991
-16.1179 -10.41 1.54528
-15.8382 -9.16967 1.7416
-16.9877 -11.0455 -0.489496
-16.22 -11.1636 -0.459175
-16.9024 -11.6927 -0.751236
-16.7951 -11.8651 -1.1822
-17.609 -11.927 -1.84178
-18.2613 -11.7572 -1.28774
-14.8632 -12.7963 0.151215
-15.9415 -10.9518 -3.60151
-14.8274 -11.2361 -0.296094
-14.863 -12.4781 -1.47642
-19.727 -12.1088 1.38317
-19.5046 -11.5577 1.18752
-20.645 -11.5315 -1.40552
-19.3251 -10.418 0.961625
-20.4122 -10.4718 -1.8129
-20.7628 -10.1788 -1.37564
-19.0956 -11.2215 -1.74383
-17.7829 -10.949 1.54228
-18.6128 -10.7839 1.01003
-19.168 -11.143 -0.274729
-19.0921 -11.5715 -0.802798
-19.8826 -11.4577 -0.825334
-18.8006 -9.77599 -0.250947
-20.6513 -10.3378 -1.06131
-19.4505 -11.1182 -0.711063
-19.3175 -11.1078 -1.2715
-19.4903 -11.3749 -1.46445
-19.4336 -11.1157 -1.06544
-19.0817 -11.0206 -0.0554344
-19.7792 -11.4124 -1.63017
-19.027 -10.6315 -2.14388
-18.8621 -11.3805 -1.67143
-19.6283 -11.6777 -2.65778
-17.9894 -11.4259 -0.835779
-19.4732 -10.168 -2.07681
-18.549 -10.8895 -2.25753
-19.043 -11.6431 -1.55905
-19.2701 -10.6253 -1.61072
-18.4627 -10.8348 -1.28704
-16.359 -9.2028 1.3732
-17.1209 -12.0305 -0.468933
-15.8389 -9.45071 1.05928
-17.0848 -10.9516 -0.960586
-15.9757 -11.107 -0.203222
-18.3366 -10.3167 -2.50464
-16.5921 -11.2274 -1.28516
-15.6903 -11.0576 0.046646
-15.6065 -12.0167 -0.249652
-16.5121 -10.808 -1.83581
-14.5773 -11.6473 -0.681477
-15.1552 -11.0139 -1.37255
-15.7354 -11.6025 -0.304761
-14.7595 -12.0575 -3.01383
-15.4138 -11.8859 -1.94145
-15.3714 -12.0062 -2.34469
-18.1264 -10.3988 1.3438
-18.8796 -10.0178 0.87658
-17.8004 -11.456 1.96588
-18.8571 -10.9756 0.816544
-19.0164 -10.9498 -0.294488
-19.3784 -10.7133 -1.91273
-18.1528 -12.3663 2.06859
-19.7186 -10.8 -2.14509
-19.4315 -11.1398 -1.63323
-16.6546 -10.8852 -0.00975907
-15.6905 -9.07318 1.83565
-18.314 -11.8633 -2.53017
-16.5562 -11.9662 -0.937181
-15.0047 -10.4049 0.962358
-16.3584 -12.0092 -1.03947
-17.219 -11.9337 -1.34823
-16.2586 -11.6237 -0.735704
-15.2219 -12.704 -0.059049
-16.1542 -11.9322 -0.712258
-16.4585 -11.7253 -1.55825
-19.9016 -11.1658 1.12058
-20.1098 -11.3285 -0.26677
-18.9126 -11.3145 0.159216
-20.6032 -10.724 -0.962751
-19.1455 -11.7451 0.00441744
-16.4871 -9.76997 2.59178
-17.5876 -10.5851 -0.760149
-16.0056 -10.0768 0.623832
-16.9386 -11.6372 -0.0692675
-17.5032 -11.7934 0.135601
-17.3374 -11.3657 0.370221
-16.9934 -11.0277 0.926549
-16.4146 -11.2561 1.09232
-16.3977 -11.3371 0.806266
-18.7248 -11.0219 -1.92137
-17.0659 -11.8892 -0.656782
-17.7615 -11.3422 -1.6921
-17.287 -10.801 -0.570094
-18.662 -10.7616 -2.39513
-17.7743 -12.164 -0.419096
-17.3031 -12.0233 -1.03652
-17.1488 -10.6188 -2.0442
-17.2614 -10.1878 -3.1139
-15.4941 -11.781 -2.76332
-15.6916 -11.0234 -1.79515
-15.8236 -12.0863 -2.3802
-14.8011 -11.6143 -2.63744
-18.3922 -11.3908 -1.26669
-17.6222 -11.6235 0.331163
-17.7142 -11.4094 -0.087755
-18.1524 -11.1238 -0.606723
-17.5522 -11.1591 -0.819302
-17.6119 -11.2828 0.130304
-17.875 -11.0402 -2.46392
-17.3934 -11.2636 -0.0293282
-17.2163 -12.7045 0.167999
-16.8152 -12.4704 0.845281
-16.151 -12.133 0.567361
-15.5418 -11.6101 -3.20439
-19.2919 -11.4151 -0.527972
-18.313 -9.95599 0.159278
-17.7554 -11.0215 -0.586255
-17.5299 -12.4484 -0.134632
-17.2207 -11.9754 0.332889
-17.9982 -10.9007 -2.61389
-17.2211 -12.1596 -1.71343
-19.0432 -10.4213 0.464417
-19.1135 -11.5391 -1.10301
-18.4496 -11.3355 0.716412
-18.7022 -10.0752 -1.32465
-17.5591 -11.4436 -0.876425
-15.6866 -11.3452 -0.548343
-17.9899 -11.2977 -2.25253
-16.4613 -9.97119 -1.53951
-14.2059 -12.7701 -2.74802
-16.414 -11.5132 -0.676567
-17.2346 -11.4774 -0.0658799
-15.2183 -12.0587 -1.69877
-16.8164 -11.4295 -0.253298
-16.0949 -11.0967 -1.86873
-15.375 -11.5826 -1.86389
-17.7573 -9.87504 1.96101
-17.317 -11.7757 -1.51236
-20.0797 -11.2315 0.537411
