-16.5826 -11.6554 -0.813614
-15.9756 -11.1415 -1.38988
-15.6833 -12.113 -2.63627
-16.0532 -12.4746 0.458325
-14.4136 -11.745 -0.944002
-20.7849 -10.8636 0.739824
-18.5633 -12.3899 -2.22705
-16.3885 -11.4891 -3.0834
-16.5106 -12.1027 0.17629
-15.4745 -12.6074 -0.644188
-18.2946 -11.3368 -1.50129
-18.2918 -11.6164 -0.698306
-16.377 -12.2895 -1.57321
-16.0674 -11.6288 -1.54204
-15.0204 -13.2098 0.392139
-21.3846 -10.5542 1.70141
-16.0197 -11.095 -2.68852
-16.3683 -11.8135 -2.2353
-20.3754 -11.583 0.0166251
-15.7318 -11.2619 -0.368493
-15.5345 -11.6305 -1.98524
-16.0152 -12.1996 -1.02413
-16.4523 -11.7711 -1.29049
-16.9446 -12.6403 0.310627
-20.5091 -10.518 -2.36658
-19.027 -10.5471 -3.61489
-18.163 -10.7256 -0.0614744
-17.7964 -12.1644 0.13415
-16.6796 -11.8406 -2.54425
-16.5439 -11.6074 -2.29116
-16.1786 -11.84 -1.59647
-15.4951 -11.8822 -1.91127
-15.1877 -12.3754 -1.20546
-15.9993 -12.2736 0.164117
-15.7977 -12.125 -0.875275
-20.8312 -11.0771 0.704136
-19.0445 -10.1941 -1.32461
-18.8627 -10.6284 -3.59825
-17.8403 -12.0867 -1.02482
-17.0685 -11.8566 -0.584728
-16.5977 -11.186 -0.602631
-15.2342 -11.9602 -0.10856
-19.2106 -11.6444 -4.67324
-18.4345 -11.0927 -2.47906
-21.1384 -11.1768 0.22571
-19.963 -11.9919 -0.322581
-16.9988 -11.807 -1.15771
-16.1085 -12.5692 -1.6388
-15.6937 -12.5646 -1.76764
-15.5299 -12.2448 -3.36792
-16.4929 -11.6306 0.225233
-15.1576 -12.29 -0.28427
-16.1033 -12.4117 -0.319623
-19.9797 -11.1722 0.367241
-19.537 -11.39 -0.104939
-18.8628 -11.3427 -3.08702
-16.924 -12.4105 -0.923774
-16.9936 -12.8545 -0.281333
-15.9416 -11.8642 0.107873
-16.1062 -12.23 -0.271587
-16.2027 -12.4385 0.935526
-15.2879 -11.8473 -2.28858
-16.7427 -11.0463 -1.33159
-15.3373 -13.8293 -0.758307
-15.4737 -12.7902 -0.154036
-15.4839 -12.9328 -0.420644
-15.6299 -12.4555 -1.21509
-22.2349 -10.8469 1.25756
-19.5743 -10.9874 -0.316581
-18.7923 -10.6508 0.198533
-18.0169 -10.5607 -0.849852
-17.9727 -9.94213 -0.534063
-15.2162 -12.5155 -0.169789
-17.7657 -11.3954 -3.69909
-15.9622 -12.2898 -1.83845
-15.6116 -11.0162 0.173082
-16.0383 -12.0317 0.153456
-19.1792 -11.874 -0.549228
-19.0965 -11.0602 -1.81243
-16.4079 -11.6767 0.0410775
-17.1095 -11.6903 -0.49343
-16.1126 -11.6809 -1.22486
-14.4969 -13.3388 -0.696003
-14.6277 -13.2558 -0.961169
-14.9486 -12.3551 -3.32632
-19.4322 -12.5959 -0.175607
-16.1819 -11.778 -1.98527
-14.4981 -12.8804 -1.29874
-13.5634 -12.9691 -3.5373
-15.6173 -11.4839 -0.779943
-15.9112 -12.038 -1.25287
-17.9948 -11.095 -0.294571
-20.2039 -10.9184 -1.88905
-16.8241 -11.64 0.0486331
-16.7006 -12.1784 -0.447349
-17.1292 -11.8145 -0.357823
-18.5033 -11.3531 -4.03366
-15.8733 -11.6867 -1.2629
-16.1538 -13.0106 -2.11307
-17.3551 -11.396 -3.26359
-15.79 -11.3144 -2.03166
-16.3383 -12.0908 -1.90323
-19.8228 -10.5307 0.19619
-18.2136 -10.9868 1.01984
-16.1054 -13.1922 0.208271
-18.4573 -11.8646 -2.72987
-15.6611 -12.4266 -0.10693
-15.5244 -11.8762 -0.452926
-18.706 -12.3651 -2.7196
-15.5614 -12.0592 -0.21161
-15.5306 -12.1319 -0.14724
-15.4588 -12.2059 -1.80132
-17.7802 -11.2607 0.175059
-17.4032 -11.4304 -3.10492
-15.7532 -13.2813 -0.800871
-18.1658 -11.0479 -2.62019
-15.8093 -13.1227 0.26993
-15.432 -12.7976 -0.644752
-15.4102 -13.0986 -0.328177
-16.2501 -11.5784 -2.03983
-18.618 -11.1746 -0.392925
-19.5025 -11.4223 -2.61677
-15.3715 -12.3496 -0.68414
-15.7979 -11.7105 -2.52806
-15.1305 -13.1739 -1.14559
-15.8134 -9.47974 1.59227
-17.5864 -11.8373 -0.497149
-16.2777 -12.783 -1.38646
-16.3576 -11.3021 -1.40268
-16.2258 -12.7753 -1.63869
-15.6871 -11.0269 0.464131
-16.4585 -12.4941 0.323898
-18.1582 -10.2133 -1.41361
-15.9679 -12.0917 1.4879
-15.8577 -12.7072 -0.478357
-15.5439 -12.9628 0.16203
-15.6154 -12.4212 0.101973
-15.7031 -12.59 -0.0990429
-15.8867 -12.2698 -1.70107
-19.8441 -10.8435 -2.02923
-14.4974 -12.8701 -0.115753
-15.1779 -12.4392 -1.37384
-18.9022 -9.96916 -3.85056
-16.5907 -11.3631 -3.0225
-15.8187 -11.4467 -1.30825
-15.0002 -11.8913 -1.97137
-14.9945 -12.6009 -0.686943
-16.0857 -12.2306 -2.77234
-15.7942 -12.5175 -2.09723
-15.4584 -13.1497 -1.51714
-16.0251 -11.2102 -3.07655
-17.6192 -10.7806 -0.0453542
-16.1496 -12.3744 0.290648
-17.3448 -12.0777 -0.418444
-15.9608 -12.1102 0.659285
-16.8208 -11.8588 -0.239761
-16.0841 -11.3489 0.0431625
-16.3866 -11.9954 -1.59062
-17.3834 -12.2802 -0.746142
-17.3232 -12.5497 -0.378221
-15.7894 -11.791 -0.919152
-16.8788 -11.5494 -0.927718
-16.233 -12.0535 -0.289376
-17.3585 -11.6893 -1.20486
-18.6723 -12.0117 -2.82335
-16.8848 -11.8876 -2.42029
-17.4064 -12.2368 -3.14763
-15.1951 -13.1901 -1.61253
-15.7115 -12.0016 -1.90944
-16.7095 -12.0933 -2.09409
-15.5479 -11.8906 -2.34455
-15.7128 -12.3606 -1.45769
-17.6126 -11.2164 -0.617696
-16.0856 -11.636 0.128807
-16.8652 -11.3457 -0.810185
-18.8895 -10.7962 -2.27307
-16.7373 -10.9193 -0.686366
-17.9236 -11.3686 -2.49631
-15.6996 -12.9122 -0.487375
-16.5595 -11.6906 -2.27376
-20.3498 -11.1122 0.127639
-15.441 -11.1224 -0.171464
-15.0219 -12.7382 -0.91235
-18.0721 -11.459 0.828392
-17.7134 -11.6972 -1.58824
-15.7626 -12.3023 1.24328
-16.3064 -11.8508 -0.0239374
-16.3689 -12.092 0.377506
-15.602 -12.5288 -1.32936
-15.2798 -13.3292 -0.708264
-14.0834 -13.0852 -1.41826
-15.6829 -12.297 -2.38525
-16.8671 -11.8583 -0.849185
-16.3958 -11.682 -1.17306
-16.0913 -11.1005 -1.65889
-15.6562 -11.4489 -2.30448
-15.0552 -12.9194 -1.8902
-16.1361 -12.3447 -0.510037
-16.6287 -11.6169 -0.569959
-16.5634 -11.7497 -0.871725
-15.3539 -12.6052 -1.06885
-16.3443 -12.5024 0.0710292
-16.9591 -11.9574 -0.11602
-15.515 -10.1498 1.4371
-20.5492 -11.6319 -0.657839
-20.3463 -11.2206 0.821332
-17.5813 -11.9184 0.0692722
-15.4257 -11.1835 0.511952
-17.3242 -11.656 -0.383055
-16.8812 -12.2859 0.132395
-18.2138 -11.0183 -1.18282
-18.6264 -12.1928 -0.55254
-15.959 -10.8587 0.0155136
-16.5805 -11.4065 -0.387032
-15.5463 -12.8136 0.419331
-20.3741 -10.7093 -2.25531
-17.1833 -11.3684 -1.32481
-16.1401 -12.1752 -1.19475
-15.5086 -12.6571 -0.833967
-19.3568 -11.0831 -2.00164
-20.006 -10.254 -3.87076
-15.0659 -12.8208 -1.10653
-19.114 -10.6764 -3.6169
-16.2759 -11.1731 -1.75781
-17.0117 -11.9162 -1.58269
-16.0296 -12.5415 -1.77429
-15.973 -11.6829 -2.57561
-16.2894 -12.1716 -2.91218
-16.4865 -11.2882 -1.30003
-17.569 -10.9491 -2.58256
-14.5368 -13.1276 -2.41858
-16.2265 -11.6997 1.40026
-18.1266 -11.4282 0.469919
-19.3953 -10.7292 -0.944321
-18.4711 -11.2019 -0.914758
-15.7848 -11.9715 0.374756
-16.6789 -11.6668 -0.314917
-16.3499 -12.4804 0.23475
-15.5376 -11.6838 0.782354
-15.6313 -11.7921 -0.689285
-16.7046 -11.7169 -0.899569
-19.5444 -11.6119 -3.16483
-18.0403 -11.8678 -2.46416
-15.1733 -13.0386 -1.10414
-17.4251 -11.6212 -1.48444
-18.986 -11.3966 -1.97548
-15.0756 -12.0119 -2.33952
-16.3715 -11.8178 -2.19184
-15.5519 -13.0723 -1.74946
-15.6228 -11.8833 -1.79424
-16.2797 -11.2245 -1.87199
-16.3261 -11.3277 -2.26921
-14.6609 -11.8321 -2.30761
-14.5853 -12.8432 -2.25607
-16.9353 -11.5624 0.651597
-15.4788 -12.0652 -0.102897
-16.0333 -12.4255 0.0183521
-19.202 -10.926 -0.288917
-15.5658 -11.9809 0.457498
-16.3939 -12.0856 -0.0524796
-17.1941 -12.4264 -1.95285
-19.261 -11.3732 -1.51011
-19.7259 -10.8008 -2.97082
-14.9888 -13.2225 -1.71305
-14.9288 -12.863 -1.19701
-15.6702 -11.7095 -1.57174
-17.9005 -11.3712 -0.325302
-19.7908 -11.1521 0.179861
-20.4204 -10.7125 -0.341607
-16.0214 -12.2492 -0.256915
-14.8541 -12.2422 -0.884112
-17.4206 -9.61525 0.469836
-19.3115 -10.8283 -0.00465434
-15.8046 -12.6083 -0.219827
-20.6169 -11.2293 -0.484836
-15.8653 -13.0256 -1.0608
-16.0796 -11.8953 -3.56106
-14.3683 -11.9887 -1.40365
-15.5555 -11.903 -2.76064
-16.4255 -11.6085 -3.00476
-17.351 -11.4373 -1.48865
-15.3734 -11.9554 0.0778052
-15.9318 -11.7133 -0.61791
-17.9675 -10.9944 0.319076
-15.3905 -12.6961 0.855849
-17.0216 -12.7935 -0.867558
-15.6876 -12.4206 -2.7473
-16.1144 -11.8127 -2.69885
-18.339 -11.1464 -2.19594
-16.0591 -12.8305 -2.44909
-18.8676 -11.6494 -1.76708
-16.2781 -11.8371 -1.00557
-16.0871 -12.2108 -0.687652
-16.6459 -10.9375 0.329465
-20.2599 -11.1008 0.76808
-17.4617 -11.5365 -0.158382
-19.8403 -10.8725 -0.407853
-18.4303 -9.95113 0.97576
-17.1735 -11.7943 0.129037
-17.0555 -12.0631 -0.334278
-15.6669 -12.2758 0.54854
-21.1961 -11.3155 0.659371
-15.8137 -10.4369 1.42168
-15.6835 -12.4185 -3.55864
-14.5454 -13.1937 -3.01378
-14.8484 -11.814 -3.40883
-16.4935 -12.3282 -0.981168
-15.4651 -12.6007 -0.729664
-17.0489 -12.1526 -0.657568
-16.4191 -11.3917 -0.324406
-15.8481 -12.4179 -0.362071
-16.0884 -10.9324 0.420175
-19.793 -11.5971 0.859347
-18.0168 -12.1118 0.130156
-16.3126 -11.9095 1.28919
-16.064 -11.9481 -1.33061
-15.082 -12.6938 -0.581667
-16.6506 -11.7113 -1.06195
-15.6717 -12.129 -1.06948
-17.2829 -11.9145 -0.730819
-15.4942 -11.6249 -0.718258
-16.4747 -12.1956 -0.557866
-17.9144 -11.9232 0.299825
-15.9161 -10.0065 1.33884
-18.8666 -10.2635 1.30177
-16.2601 -12.1598 0.891521
-15.7228 -10.6691 0.552261
-14.9802 -11.928 -0.231484
-15.4275 -12.0903 -1.12276
-15.736 -12.6156 -1.3104
-17.701 -11.7239 0.727755
-15.6553 -12.2615 -0.151753
-18.41 -10.9919 -3.64174
-18.7683 -11.3583 -2.67675
-15.5942 -11.6369 -1.64364
-13.9724 -13.7634 -1.31691
-17.2744 -11.3888 -1.63967
-17.0387 -11.0244 -1.01437
-16.5804 -11.3733 -1.60459
-15.234 -12.4163 -0.604357
-16.8828 -11.4169 -0.538441
-19.1581 -12.2221 0.0753511
-17.4787 -11.2157 -1.31246
-16.8903 -11.8906 -0.405619
-16.4567 -12.521 -0.725276
-16.4389 -12.8314 0.556071
-20.2549 -12.1466 -1.17785
-18.0845 -10.9098 1.0294
-14.6864 -12.5419 0.422243
-14.9415 -11.2836 -3.22741
-15.7795 -12.2408 -3.16325
-18.2133 -11.303 -2.71996
-20.1985 -11.5572 -3.12339
-17.3589 -11.0153 -2.38319
-15.6196 -12.5273 -1.50625
-19.0374 -10.9295 -1.05176
-19.8113 -11.9495 -0.209405
-18.2313 -11.0064 -0.529695
-19.9897 -11.3435 -0.113892
-15.4993 -11.4775 -0.126387
-16.984 -11.8644 0.385561
-19.0515 -10.5358 1.21738
-17.378 -11.9683 0.0786551
-15.3899 -12.3661 -0.448457
-20.7941 -12.0778 1.44853
-19.1864 -11.1208 1.7778
-15.3666 -10.4496 2.45061
-13.9682 -13.6252 -3.24243
-16.91 -11.6446 -1.68059
-17.5936 -11.1139 -1.29933
-19.6405 -11.804 -0.892323
-20.1888 -11.1271 0.212271
-17.2486 -11.6021 0.76311
-16.1208 -11.7819 0.199287
-20.6711 -10.5103 1.90697
-21.3297 -11.7859 1.92709
-15.8167 -10.9629 -1.63659
-18.1452 -11.336 -0.846804
-19.1497 -11.146 0.372656
-16.0493 -12.0937 -0.86536
-18.0999 -11.4595 -0.269566
-21.159 -10.6171 1.30588
-17.5675 -11.1023 -0.357122
-19.9942 -11.2036 -3.71585
-16.4951 -11.3848 -3.06508
-20.3308 -11.3858 -1.95469
-18.0572 -11.6202 -0.884564
-17.3992 -11.3031 -0.998207
-16.1945 -11.0056 -0.625735
-18.2141 -11.1411 -0.536734
-17.1458 -12.5022 0.800975
-19.0714 -11.2211 -3.60424
-16.9711 -11.6822 -1.82675
-19.1 -10.7377 -2.5949
-14.6255 -12.8242 -2.39241
-17.9597 -11.396 0.416866
-16.5303 -12.789 -0.49131
-17.5325 -11.3652 1.26276
-15.7622 -11.9381 0.0732179
-18.6495 -12.4916 -3.78273
-14.7425 -11.2818 -3.10784
-14.6536 -11.9927 -2.65196
-17.8418 -11.7709 -1.06079
-20.2071 -10.9632 1.58678
-16.204 -9.96512 1.88603
-14.6896 -12.8216 -1.47158
-19.1504 -11.3889 0.0435556
-18.2143 -10.2315 -0.169135
-17.5929 -11.3363 -0.754242
-15.018 -12.3649 -2.67065
-15.7914 -11.3937 -3.12754
-15.0697 -13.1435 -3.40911
-18.0975 -11.9501 -0.879193
-16.0445 -11.8188 -1.25339
-17.4995 -12.1869 -0.966519
-15.211 -12.4806 -2.01147
-17.9968 -12.3378 -0.880567
-17.324 -11.7243 0.29627
-14.174 -12.8608 -1.02274
-15.3032 -12.2897 0.92405
-16.8596 -11.6227 0.203144
-16.1148 -8.99932 1.26784
-15.8238 -11.4851 -0.229547
-19.298 -11.9619 0.54337
-15.8294 -12.977 -1.28353
-14.1851 -13.1952 -3.38058
-17.6372 -12.2038 -0.199125
-14.6147 -11.9874 -2.44528
-20.8931 -10.8828 0.967035
-15.1783 -11.3633 -2.61954
-20.3062 -10.6516 -0.371169
-17.3954 -10.9188 -1.05857
-15.3626 -12.2342 -1.42198
-17.3333 -11.2178 -3.94248
-17.564 -10.9186 -3.00889
-20.0087 -9.89152 0.223289
-19.4983 -11.2154 0.490908
-20.2177 -11.7433 0.618478
-20.5136 -11.7305 0.385796
-16.8693 -11.741 -0.600102
-16.7718 -12.6009 0.200094
-14.9599 -13.7519 -0.830607
-16.3535 -12.7162 -0.304114
-15.6421 -12.3494 0.821387
-17.3663 -11.2939 -1.09748
-14.9333 -13.5135 -2.68226
-16.5531 -12.132 -0.980938
-16.6643 -11.6298 -0.858428
-15.3062 -11.2963 0.219799
-16.0797 -12.3579 -0.450886
-17.5109 -13.2815 0.0541217
-15.7041 -11.7252 -0.857247
-16.4072 -11.5661 -0.997466
-15.9213 -11.9557 -1.67343
-15.7447 -11.9931 1.25512
-17.2892 -11.5889 -1.30131
-14.9314 -12.968 -3.38675
-15.0709 -11.3062 -1.69837
-21.8922 -10.8132 1.14163
-21.3293 -10.8463 0.965371
-16.9676 -11.94 -1.20596
-16.8413 -12.2656 -2.4054
-16.9221 -11.6138 -2.62261
-15.7796 -11.498 -0.911033
-20.72 -11.9279 0.446326
-16.0185 -12.8368 -0.328429
-17.0677 -11.5004 -2.87604
-17.1027 -11.2703 -0.973295
-19.0144 -11.0429 1.00259
-17.0124 -11.143 -1.05223
-15.6595 -9.324 1.62076
-16.5703 -11.5423 0.0384567
-16.9973 -11.8041 -1.13619
-15.7646 -12.0039 -1.42069
-15.7156 -12.1378 -0.825146
-15.5086 -11.9311 0.0464668
-20.1682 -11.3144 0.388077
-17.6161 -10.8179 -1.84222
-17.8229 -10.7814 0.819229
-16.9707 -11.1092 -0.508503
-14.7419 -12.5918 -0.8452
-20.0101 -11.8111 -0.379752
-15.7597 -11.657 -2.56355
-20.5998 -11.988 0.603036
-20.6872 -10.7729 0.0847386
-18.4639 -11.1394 0.562594
-16.3559 -11.3766 -1.39927
-16.8427 -12.7179 -0.705917
-20.8795 -10.0771 0.233454
-16.3204 -11.9257 -2.07643
-15.7437 -11.652 -2.33339
-18.6968 -10.9367 -0.338378
-16.3236 -11.8591 -2.08466
-16.4834 -12.9292 -1.16956
-17.2619 -10.8877 -0.0852353
-15.0875 -11.8019 -2.5617
-15.8069 -12.0534 0.0167657
-20.8643 -10.5354 1.09299
-17.5784 -11.1579 -3.60911
-15.7588 -11.5228 -0.32632
-18.2076 -11.6152 -1.99312
-17.3941 -12.1574 -2.59876
-15.5628 -11.4633 -1.20748
-20.2835 -10.7268 1.31442
-16.1949 -11.5522 -1.42684
-17.0936 -11.3351 -2.17704
-16.2855 -11.7765 -1.5886
-21.1335 -10.429 -0.165349
-19.2863 -10.3027 0.059727
-20.5544 -11.3366 0.630649
-18.2468 -11.5756 -1.3894
-15.2894 -11.6412 -1.63871
-15.3244 -12.4484 -1.64665
-14.8901 -12.9493 -1.71777
-16.6852 -12.5257 -1.37907
-16.4978 -12.8173 -0.236423
-20.2903 -11.3869 0.365107
-19.9191 -11.6241 0.164615
-19.4506 -12.045 -1.60321
-18.5116 -11.4349 -3.23129
-17.4242 -12.7958 0.129826
-16.851 -11.3144 -1.44057
-16.3336 -11.535 -0.865986
-16.2163 -10.6872 -1.74332
-14.6576 -11.7373 -1.6932
-15.3906 -12.6865 -2.25113
-20.3329 -11.1753 0.675857
-15.5556 -11.9531 -2.14816
-15.1848 -11.6827 -2.68213
-14.7565 -12.0341 -2.59864
-15.2385 -13.0204 -2.57933
-17.6294 -11.3735 -2.15645
-19.2499 -11.5204 -1.09636
-19.7515 -11.8005 -1.59488
-16.1181 -13.1528 -0.43034
-15.9088 -11.5731 -1.72067
-15.1274 -12.2863 -0.942842
-16.2798 -12.3495 -0.864375
-15.1479 -11.6327 -1.22251
-14.0657 -12.4495 -3.5991
-19.8011 -12.1923 0.400845
-19.8665 -11.4844 0.315448
-18.5061 -11.0105 -3.59302
-18.2999 -11.311 -3.08949
-16.1041 -12.0056 -1.26253
-13.8498 -12.239 -4.10574
-14.0409 -13.5642 -2.72119
-16.4055 -11.4856 -0.61157
-15.5499 -11.6021 -1.10277
-16.9088 -11.0216 -1.39944
-15.6715 -11.7917 -1.61277
-19.1993 -10.4736 -0.989765
-18.7724 -10.5935 -2.53967
-17.3509 -12.9402 0.0446658
-16.2966 -12.0177 0.277199
-18.1195 -11.5417 -3.31888
-14.0927 -11.2404 -0.759813
-17.3353 -11.9312 -3.7121
-14.3397 -12.3827 -4.24752
-17.0315 -12.1936 0.295198
-15.0465 -11.9375 -0.715046
-15.7572 -11.269 -0.553353
-16.1178 -11.5417 -1.92366
-14.2276 -12.1561 -3.2372
-15.4679 -12.1861 0.126177
-16.3924 -11.8943 -1.33776
-15.2789 -13.192 -0.53802
-14.3421 -11.1547 -1.46077
-15.9358 -11.7786 -1.90819
-20.0113 -11.8958 0.25802
-15.4001 -11.4733 0.332797
-16.2924 -11.6601 0.912936
-15.472 -12.196 -0.126579
-16.4631 -12.1294 -2.59671
-15.1123 -12.6141 -2.77399
-20.1554 -10.0286 1.31586
-16.8753 -12.3147 -0.494847
-19.3835 -11.0846 -1.9767
-16.2803 -12.1737 -0.527299
-16.0593 -12.3575 -0.767286
-15.4099 -13.6874 -0.866962
-15.9176 -11.3997 -2.50423
-14.8183 -11.8309 0.343661
-14.6284 -13.3802 -0.378876
-16.6108 -11.8472 -2.28057
-14.9873 -11.7416 -1.66042
-15.9321 -11.9718 0.331051
-15.8609 -12.9685 -1.73059
-16.2978 -11.991 -2.40576
-15.1681 -11.7575 -0.676901
-15.8594 -12.0794 -1.82239
-16.1843 -12.4705 -0.661585
-16.3553 -11.2634 -0.856338
-16.0798 -11.5974 -1.3911
-18.3953 -11.4865 -0.517104
-19.8591 -10.9153 0.321303
-17.9733 -11.706 -0.553737
-17.8646 -11.3632 -1.1355
-17.0207 -12.3404 -0.897489
-16.3452 -11.1572 0.139656
-15.416 -12.4194 -0.0972159
-16.8755 -11.0202 -1.9324
-19.4475 -10.9275 -2.42981
-16.2159 -11.586 -1.78712
-16.413 -11.606 -2.49526
-15.5024 -12.7717 -1.10128
-15.6725 -11.4698 -1.78699
-16.0249 -11.6374 -2.11404
-20.327 -11.3989 1.85458
-17.2241 -11.6816 1.31915
-16.2488 -11.6233 0.456798
-16.4085 -11.2272 -0.447634
-18.6795 -11.3722 -0.201341
-16.4597 -12.4443 0.527595
-16.1708 -11.5144 -0.156927
-15.632 -12.1581 -1.50765
-17.776 -10.8835 -1.47188
-15.861 -11.1854 -1.89884
-15.1381 -12.0049 -2.14992
-14.3185 -11.742 -2.93917
-20.0262 -11.0831 0.505354
-15.8373 -13.2555 -1.5224
-17.703 -11.6582 0.350624
-16.4436 -12.0945 -0.304329
-14.2493 -11.7207 -3.69243
-15.3759 -11.1567 -3.50349
-14.5434 -12.0898 -3.28318
-19.8293 -11.8871 0.608812
-16.0517 -10.6613 -1.1995
-16.006 -12.0663 0.0555713
-14.9151 -12.4368 -0.903834
-16.6437 -12.4982 -1.90072
-15.6644 -12.1091 -2.13957
-17.1921 -11.2526 -1.26133
-15.6392 -11.8598 0.308221
-20.478 -12.1322 -0.0392045
-16.56 -11.793 -2.2362
-16.9207 -11.0735 -0.955206
-17.2941 -11.8309 0.83423
-18.516 -12.182 -0.358906
-20.429 -11.5499 -0.433026
-16.033 -11.4524 -0.217496
-17.2416 -11.9005 -0.874948
-17.4134 -11.7372 -1.54204
-18.9304 -11.0768 -1.58885
-14.9863 -12.0876 -0.577675
-14.7711 -12.7762 -0.749226
-15.5556 -12.2313 -0.669772
-18.28 -11.226 -2.80465
-20.3814 -11.2165 -3.33327
-18.0106 -10.4565 -3.61233
-15.726 -12.2058 -1.116
-16.6662 -11.175 -1.96936
-18.5728 -11.1429 1.16303
-16.9529 -11.7463 0.689216
-16.2153 -12.0232 0.494777
-16.321 -11.6615 -0.759684
-15.8106 -11.6881 -0.241523
-15.8799 -12.3297 0.523645
-18.8152 -11.4567 -1.77748
-16.8763 -10.7775 -1.3272
-15.1715 -12.76 -1.38305
-15.2149 -11.6947 -2.49817
-14.4206 -12.8978 -3.08666
-19.5726 -10.8543 -1.23884
-16.4409 -12.6733 -0.380732
-15.3726 -12.1935 -1.91018
-17.137 -10.9296 -1.92336
-14.994 -11.751 -2.46303
-19.579 -11.7836 0.0943355
-17.0148 -12.684 -0.312879
-15.1524 -12.4081 -1.13124
-15.9869 -11.7428 -2.47204
-16.1032 -12.3654 0.521666
-15.6086 -12.8264 -0.928707
-21.1014 -11.3436 0.574279
-15.3816 -12.5966 -1.44344
-15.219 -13.0653 -0.841047
-19.9267 -10.1669 1.13746
-21.1721 -11.314 0.684752
-17.8874 -10.7108 -0.156995
-20.0801 -10.7178 0.389495
-15.2792 -12.2577 0.488768
-16.8713 -12.3164 -0.0537643
-18.1795 -11.6416 0.998784
-19.7199 -11.4929 -0.510061
-19.1424 -10.2854 -0.335874
-19.7597 -12.6443 -0.0421073
-19.1073 -11.0446 -0.0622346
-16.3349 -12.2998 -0.42621
-15.8779 -12.1724 0.455702
-16.6145 -12.2064 -0.212102
-19.0362 -11.8835 -0.641165
-16.6438 -11.0229 -0.670659
-19.1375 -11.6804 -0.87245
-18.6177 -11.7065 -1.31115
-17.0459 -9.51779 -0.941515
-18.7181 -11.302 -1.77238
-15.854 -12.4464 -1.29398
-15.7314 -12.253 -0.892906
-17.0181 -12.166 -0.945393
-16.4223 -12.4116 0.024691
-18.6853 -10.8192 -2.08537
-15.6196 -11.7694 -1.11853
-18.5868 -11.2788 -1.94939
-14.5685 -12.5164 -1.76343
-16.1886 -12.4852 -2.21062
-17.0839 -11.6194 -2.83874
-15.8722 -12.2341 -2.44777
-14.3348 -12.4662 -2.19982
-14.9647 -11.8952 -2.98737
-13.6716 -13.6457 -3.35711
-15.2905 -12.9962 -3.74703
-15.9509 -10.6728 1.96709
-16.0973 -10.2464 0.950364
-20.7407 -10.9254 1.63926
-15.904 -10.1145 1.6261
-19.3898 -12.358 0.780771
-16.3677 -12.4461 0.38602
-15.6627 -12.2771 -0.102214
-15.9584 -12.506 -0.311787
-20.2352 -11.4557 -0.843937
-15.6963 -12.1134 -0.52678
-16.1956 -12.748 -0.789745
-19.1206 -12.3022 -1.55097
-16.3884 -12.5537 -1.67784
-14.418 -13.1523 -3.60374
-19.049 -10.2846 1.66559
-19.4429 -12.0752 -0.0528983
-15.7927 -12.3781 0.585207
-18.9569 -11.0939 -0.499615
-16.9798 -10.6062 -0.948913
-15.8974 -13.1652 -0.467223
-14.6074 -12.3676 -0.957976
-15.9563 -11.2844 -1.7995
-19.0783 -12.0209 -3.42508
-15.7002 -11.1058 -3.65929
-14.7237 -12.2361 -3.65285
-18.1171 -12.7624 1.53529
-19.8643 -11.4917 -0.665375
-16.0519 -11.0638 -0.403723
-16.4512 -12.9355 -0.908174
-17.3792 -11.5226 -0.161986
-16.2883 -11.7585 -0.423015
-15.2561 -12.84 -2.34473
-15.6594 -12.3358 -0.772968
-14.3616 -12.7424 -2.74798
-16.5697 -12.0441 -0.880533
-15.2105 -12.6016 -2.17644
-15.7528 -12.1348 -1.23456
-15.746 -11.3548 -2.43605
-15.931 -11.775 -3.89628
-15.6325 -12.9984 -3.35906
-13.6888 -13.4669 -3.51167
-14.7117 -12.8649 -2.5578
-14.3637 -12.0355 -2.03016
-16.1805 -12.1798 -3.31465
-13.901 -12.473 -2.63753
-13.7514 -12.7093 -3.598
-15.1752 -11.7413 -4.12112
-15.1004 -13.0119 -2.45432
-16.994 -11.3055 -3.04362
-14.0818 -12.8397 -2.50272
-18.622 -10.9284 -4.22155
-13.8406 -12.6426 -3.43277
-14.9058 -12.3878 -3.28897
-16.5005 -10.6656 -2.25235
-15.1038 -12.2541 -3.04543
-18.2399 -10.4544 -3.19184
-18.8184 -10.4857 -4.06344
-15.0302 -13.4397 -2.48137
-15.5096 -13.245 -2.56806
-20.1039 -11.061 -3.97084
-14.3331 -13.0688 -1.9773
-14.8669 -13.0997 -3.4025
-14.0829 -12.8914 -1.95481
-15.4723 -13.4532 -3.07141
-13.894 -12.4371 -2.85621
-17.8569 -12.2075 -3.53958
-19.5503 -10.7588 -4.01515
-18.5704 -10.9153 -1.89736
-19.5919 -10.961 -2.60231
-17.8516 -12.1684 -3.33437
-18.4576 -12.4272 -2.53156
-17.4553 -11.4929 -2.93647
-17.9313 -11.212 -2.87815
-18.4514 -10.5344 -2.61962
-18.8519 -10.6656 -2.8436
-18.5845 -10.2636 -2.59441
-19.8088 -10.9303 -1.58596
-17.9005 -11.9725 -1.90776
-18.5576 -10.6957 -3.01094
-14.0316 -13.8275 -1.98614
-14.3874 -12.2924 -1.34948
-20.0161 -10.2998 -0.998996
-19.2707 -10.8995 -2.76306
-19.2874 -9.60909 -2.75395
-17.5199 -12.0264 -2.11377
-20.6777 -10.6263 -1.95127
-17.1823 -11.0839 -2.90382
-18.0653 -10.5904 -2.19277
-19.5031 -11.1438 -2.40767
-17.1739 -12.3111 -2.22954
-17.2661 -12.0395 -0.652684
-17.0694 -10.8089 -1.91793
-20.448 -10.7077 -1.3578
-14.8101 -12.6353 -1.58829
-14.5341 -12.6631 -1.7883
-18.2842 -11.3237 -1.20875
-17.3927 -11.3129 -1.89222
-17.6975 -11.8893 -1.45636
-16.9083 -12.5286 -1.65062
-16.2109 -11.5639 -1.6515
-17.8545 -11.5886 -1.99212
-17.3593 -11.8699 -1.34053
-16.4429 -11.5211 -0.732497
-16.3104 -12.3344 -0.920433
-17.9809 -11.8968 -1.58662
-19.7909 -11.3424 -1.37308
-15.9402 -11.3468 0.046989
-17.8991 -11.8126 -0.993953
-16.2912 -11.1454 -1.17176
-15.2681 -12.7511 -0.434754
-17.1174 -11.4115 -1.48225
-20.223 -10.978 -1.35154
-20.2446 -10.3465 -0.959809
-19.6124 -11.7429 -2.13431
-15.7904 -12.5274 -0.599128
-18.5278 -11.5817 0.238699
-16.4308 -11.9496 -0.880695
-17.1074 -11.4252 0.416667
-18.1782 -12.3864 -0.800664
-16.8972 -11.6765 -0.575387
-18.5349 -11.2969 -0.0560918
-16.8998 -11.8223 -0.568021
-18.0831 -12.2108 -0.840889
-18.7453 -10.8699 -0.845486
-16.2841 -12.1702 -0.795904
-16.4067 -11.7143 0.157342
-20.8459 -11.336 -0.30443
-19.1848 -11.602 -0.800059
-20.2934 -10.7364 -0.869246
-18.961 -10.8861 -0.664604
-18.4345 -12.0368 0.607952
-19.6814 -11.349 -0.629896
-19.4562 -11.2265 -0.245843
-19.3127 -11.6092 -0.522306
-19.9729 -11.705 -0.796119
-19.4912 -12.2354 0.214742
-17.6043 -11.9874 -0.352659
-17.2953 -11.467 0.564799
-17.3765 -11.1869 0.451193
-17.1764 -11.5255 0.601884
-17.1285 -11.1286 -0.179529
-17.6388 -11.5026 0.690623
-19.7687 -12.1096 -0.449603
-19.5176 -11.1855 0.840886
-20.4654 -10.5331 0.28558
-19.7795 -11.9532 0.675541
-19.0629 -11.9467 0.526561
-19.5269 -11.5776 0.34423
-14.4379 -11.7503 -3.32771
-14.8091 -14.4499 -3.18645
-15.0605 -12.793 -3.60497
-15.7713 -11.5963 -3.41516
-14.8689 -12.6113 -3.26232
-14.1844 -12.8755 -3.54078
-14.1502 -12.9697 -3.45571
-14.4553 -12.4749 -3.27452
-14.0529 -12.3198 -2.5456
-14.9026 -12.2061 -3.25133
-14.7544 -13.1476 -3.03997
-14.5014 -10.9009 -2.09765
-14.1692 -13.2393 -2.73264
-14.8821 -12.025 -3.36747
-14.8647 -12.6987 -3.11866
-16.1992 -12.1465 -3.23038
-14.9603 -12.5959 -3.20394
-14.5028 -12.7657 -2.8362
-18.6627 -11.452 -3.30294
-18.8062 -11.2888 -3.33421
-19.2588 -10.7317 -3.83115
-18.5224 -10.9217 -3.51485
-18.9864 -10.713 -3.6084
-14.4031 -12.4014 -3.13992
-17.2414 -11.1487 -3.06238
-17.8082 -12.0777 -3.19144
-19.1784 -11.7634 -3.27671
-17.87 -10.4113 -3.37632
-19.125 -11.4094 -3.44986
-18.1291 -11.6632 -3.30186
-16.6821 -11.4126 -3.16501
-18.118 -10.573 -3.70768
-15.8499 -11.3634 -2.29469
-19.6426 -11.1226 -3.63881
-14.8797 -11.8732 -2.57643
-20.2743 -10.9997 -3.02206
-18.8064 -11.5144 -1.46859
-19.3667 -11.3049 -4.02053
-17.4726 -11.9087 -2.71657
-18.3077 -11.0889 -3.0271
-19.7319 -11.2795 -3.24627
-18.411 -11.4278 -2.48141
-16.8128 -11.4831 -1.21757
-17.4192 -12.1241 -1.95886
-19.388 -10.7276 -2.98864
-18.9174 -9.89239 -2.72483
-17.2678 -11.2318 -2.47196
-14.9539 -13.5502 -2.59852
-19.4221 -10.6358 -3.05259
-19.1504 -10.9896 -2.33966
-18.7575 -11.4694 -2.11157
-18.5134 -10.8644 -3.15446
-19.7009 -11.4464 -2.67543
-17.6874 -12.052 -1.86744
-18.4135 -11.8077 -2.45764
-18.3172 -11.3917 -2.63357
-18.0786 -10.8446 -2.64368
-15.5881 -12.2163 -1.686
-17.7211 -11.2771 -2.63693
-19.1217 -11.9553 -1.90169
-19.5835 -10.246 -1.75816
-19.8813 -10.4531 -2.64158
-20.4553 -10.3652 -1.53184
-17.899 -11.817 -2.02356
-18.9292 -11.5446 -1.63239
-15.3058 -12.7044 -1.4995
-20.7882 -10.4125 -1.79166
-20.2136 -11.0477 -1.98
-16.7424 -12.1665 -1.15887
-17.3417 -12.0269 -1.62962
-16.2167 -11.4064 -1.58898
-19.3178 -11.7832 -2.28798
-18.1058 -11.5363 -1.21774
-19.9807 -10.9787 -1.36348
-19.0626 -10.368 -2.2371
-20.1089 -10.8949 -0.665989
-16.2423 -12.0226 -0.366722
-19.5956 -11.0648 -2.13917
-15.5192 -11.4756 0.440819
-16.4244 -12.0938 -0.709726
-16.3401 -12.5733 -1.37512
-15.409 -13.2567 -0.445258
-17.6341 -10.8744 -1.36325
-19.3518 -11.4437 0.118068
-19.6928 -11.3366 -1.05054
-18.974 -12.1637 -0.684639
-16.9135 -11.3971 -0.583748
-16.1588 -12.3971 -0.523806
-15.4503 -11.8774 -1.03342
-16.138 -12.2307 -0.39082
-15.7223 -11.995 -1.12974
-15.7243 -11.9533 -0.593659
-15.8821 -12.6213 0.200085
-19.6383 -10.9643 -0.619998
-16.137 -12.316 -1.11857
-16.4234 -12.6356 0.212689
-16.3752 -12.5901 -1.36297
-16.5413 -11.1184 0.195858
-20.0653 -10.624 0.0263707
-18.6187 -11.6524 -0.617812
-17.8738 -11.3305 -0.445761
-17.8752 -11.3209 -0.147224
-20.2371 -11.5429 -0.559154
-19.4895 -11.1032 -0.243793
-19.7063 -12.1953 -0.217571
-19.4727 -12.2578 -0.266152
-18.078 -11.4398 -0.132946
-18.0015 -11.4598 0.896301
-17.5165 -11.4751 0.253552
-18.0848 -11.1414 0.309372
-15.6086 -12.7124 0.552279
-20.2311 -10.7868 -0.374636
-16.7757 -12.0021 0.615779
-19.3438 -11.1774 -0.829534
-16.4737 -11.7976 0.0574651
-18.4731 -10.8478 0.289521
-18.0313 -11.4207 0.703877
-15.0721 -11.0218 0.274715
-16.3967 -12.0505 0.841184
-16.7486 -11.4278 -0.0724672
-15.7736 -12.4258 1.00679
-14.8784 -11.6788 0.447259
-16.2395 -11.4938 0.930067
-17.0515 -10.9172 0.821543
-19.6522 -11.3988 0.657741
-19.8392 -11.3124 0.533008
-20.3759 -11.5412 0.441963
-21.826 -11.4488 0.0305577
-20.2581 -11.7591 0.285674
-21.259 -11.0952 1.6378
-19.4107 -11.8204 0.801662
-16.4067 -10.2436 1.18225
-15.5195 -10.5039 0.533823
-16.9955 -9.98539 1.32634
-15.701 -11.7367 2.21576
-16.5293 -10.2641 0.824988
-16.5179 -9.47559 0.60357
-15.7079 -9.69923 1.26045
-16.3122 -9.33436 1.76611
-16.2869 -10.3492 0.624847
-16.0591 -10.0496 1.28629
-16.2557 -11.2 1.10162
-15.8666 -9.67111 2.16148
-17.395 -10.5789 2.28227
-15.4018 -9.87734 2.2101
-15.9539 -10.2986 1.21093
-16.5175 -10.459 1.5302
-16.4092 -10.232 1.15237
-16.4246 -10.4778 0.805609
-18.9314 -11.1684 3.08431
-16.191 -9.37462 1.47724
-14.72 -13.0933 -3.47002
-15.1181 -12.7084 -3.72602
-14.0666 -12.6625 -3.04294
-15.7069 -11.6306 -2.86146
-14.309 -13.0983 -2.82315
-16.9121 -11.0394 -2.45198
-14.4081 -12.4094 -1.8861
-13.743 -12.1269 -3.10577
-18.8394 -10.946 -3.31508
-15.6618 -11.8907 -2.76052
-17.9375 -12.1343 -3.87043
-19.7048 -10.2295 -2.80199
-14.3122 -10.8752 -2.21723
-17.2088 -10.685 -1.9609
-18.7895 -11.0401 -2.61048
-13.986 -12.14 -1.98469
-18.6387 -11.1707 -3.01185
-19.0812 -11.0533 -2.85109
-19.2844 -10.2162 -3.11417
-19.7722 -11.2399 -2.75925
-16.7483 -11.5868 -2.96679
-15.2392 -12.7685 -1.79519
-16.3961 -12.1102 -1.79205
-16.6802 -11.7583 -2.31364
-19.2927 -10.929 -2.1144
-18.1399 -11.9577 -2.73433
-15.7726 -13.3468 -1.62646
-17.8022 -11.9393 -3.2426
-15.6561 -11.6958 -1.19723
-20.3356 -10.6926 -2.02828
-18.0917 -11.4399 -1.51354
-17.0262 -11.1098 -2.39182
-19.2101 -11.1191 -2.33328
-18.9925 -11.3197 -2.74803
-18.7968 -11.9228 -1.81104
-17.2091 -12.1662 -1.66802
-17.2908 -11.7791 -2.27725
-17.3033 -11.3443 -0.70326
-18.4025 -11.3437 -1.2848
-19.2913 -11.5906 -2.10174
-20.7052 -10.4992 -1.38801
-18.2283 -11.9922 -0.525701
-19.8712 -11.9323 -0.76294
-15.2947 -12.7334 -0.738313
-18.9778 -10.83 -1.12039
-17.0235 -11.9029 -1.47603
-18.6737 -12.1121 -1.7051
-16.4453 -11.3664 -0.636639
-17.5112 -11.8844 -0.226302
-16.1163 -12.2903 -0.300012
-16.4509 -10.7026 -0.376426
-17.4413 -11.7685 -0.164042
-15.3554 -11.5646 0.250069
-15.4318 -11.6542 -0.284243
-18.8789 -11.5917 -1.29388
-18.9727 -11.2776 0.306023
-16.5684 -11.8106 -0.661724
-19.418 -11.3524 -0.305721
-19.7125 -12.3667 -0.289074
-18.2468 -12.0909 0.142629
-19.1567 -10.8157 -0.0866434
-19.7679 -11.1924 -0.894127
-17.7666 -10.5381 -0.199654
-18.5924 -11.616 0.133073
-17.34 -11.3039 0.744573
-20.0576 -11.6233 0.190304
-16.5091 -11.1558 0.489605
-19.6448 -11.5227 0.921983
-18.7938 -11.7309 -0.0419438
-15.833 -11.1871 1.00022
-18.7748 -11.5434 0.971486
-19.8031 -11.921 0.939905
-16.4996 -11.9847 -0.025341
-20.041 -11.1684 0.895267
-20.0597 -11.5644 0.281617
-20.4308 -10.5194 0.861156
-20.6784 -10.2466 0.556964
-19.447 -12.1923 0.554733
-19.8896 -12.0434 0.385735
-18.5681 -11.4106 0.99151
-14.7032 -10.4726 1.32533
-16.2578 -10.5126 1.48583
-14.3738 -12.8734 -4.20501
-17.0436 -10.7381 -3.43441
-16.226 -11.6784 -3.25813
-15.5799 -11.6455 -3.76594
-16.253 -12.4615 -2.75374
-14.7093 -12.7752 -3.46961
-18.1282 -11.1581 -3.3005
-19.0551 -10.6923 -2.83134
-19.6538 -10.5399 -3.46512
-17.8557 -11.9893 -2.91285
-17.0443 -11.6933 -2.65266
-17.7497 -11.1504 -2.89259
-15.9187 -12.4577 -1.88253
-19.2865 -11.0517 -4.18556
-18.841 -10.8482 -2.11389
-19.7028 -10.2237 -2.67726
-19.999 -10.6896 -3.00577
-15.9878 -11.3988 -1.408
-18.6793 -10.696 -2.60173
-18.2782 -11.4373 -2.02564
-18.6168 -11.8798 -1.58346
-18.8066 -11.8123 -1.39551
-18.2509 -12.069 -1.51072
-19.5776 -11.1416 -1.93897
-15.4652 -11.9503 -0.90713
-17.4322 -11.8842 -1.50148
-20.1653 -11.1927 -1.02474
-19.3793 -10.8857 -1.09248
-15.8489 -12.1785 -0.781764
-15.4682 -12.7528 -0.0453913
-16.1886 -11.7025 0.219635
-15.4784 -12.208 -0.0840584
-16.319 -12.3933 -0.308974
-19.7904 -10.2511 -0.0610202
-20.1324 -11.5762 -0.880189
-19.9366 -11.4229 -0.44714
-16.6085 -12.1634 0.778662
-16.5199 -11.9112 0.428855
-17.1733 -11.7593 -0.665242
-18.2743 -10.6446 0.525591
-17.2583 -11.7993 0.664481
-18.0063 -11.9784 0.568307
-19.9307 -10.991 0.946392
-20.014 -10.0907 1.29642
-15.9363 -9.68276 2.23989
-16.9309 -10.6077 2.46191
-16.0066 -10.5439 1.2591
-15.8151 -10.7498 -2.96006
-14.5086 -12.4936 -2.80997
-17.0156 -11.6555 -3.72426
-17.5458 -11.9682 -2.68043
-13.9327 -13.0602 -2.01182
-15.7767 -12.4247 -1.5467
-15.0817 -11.6894 -2.36981
-15.8149 -12.0994 -2.82299
-15.1172 -12.0946 -2.55252
-19.287 -11.6517 -3.2029
-18.0122 -10.8873 -3.1919
-18.2655 -10.93 -2.37906
-18.9262 -11.8853 -0.780418
-16.5263 -12.0447 -1.6208
-16.2118 -12.1898 -1.06752
-17.2793 -11.6294 -1.68748
-16.2823 -11.5897 -0.700451
-16.4904 -12.0021 -0.577677
-17.1211 -12.207 0.93459
-17.4251 -11.5121 -0.238178
-19.3527 -11.1255 -1.16088
-20.5669 -11.3631 -0.716954
-19.7897 -11.8238 0.388925
-15.9819 -12.4937 0.0486929
-15.5261 -12.1785 0.277679
-19.829 -12.1273 0.302018
-15.6704 -12.1659 0.408289
-20.078 -11.4288 0.869188
-16.4027 -12.2124 -3.55294
-19.7119 -9.94079 -3.95674
-15.9333 -11.9105 -2.63461
-17.554 -10.9744 -2.46004
-19.7533 -11.1811 -2.74221
-16.7446 -11.3041 -1.79604
-16.9049 -11.8826 -1.80157
-15.6558 -12.3667 -1.56877
-15.9183 -11.4528 -1.14252
-14.8139 -12.9195 -1.37926
-17.3671 -11.1228 0.216841
-20.6519 -11.3659 0.897895
-19.8876 -11.428 1.011
-15.9042 -12.0719 -2.53602
-17.0823 -11.8366 -1.19751
-14.4499 -12.1922 -1.89224
-17.5551 -10.7207 -2.03956
-15.3195 -12.659 -1.35682
-15.9901 -12.0185 -0.697556
-17.3082 -11.5638 0.347527
-18.1852 -11.1087 0.189956
-15.9656 -11.6121 -0.102789
-19.1376 -11.4116 -0.0386735
-19.2584 -11.6647 0.316736
-14.7099 -11.8826 -2.61537
-18.3055 -11.3104 -3.20286
-14.4516 -12.8921 -2.64881
-16.801 -11.707 -1.61079
-15.9755 -13.341 -0.427286
-19.3914 -12.0336 -0.651787
-18.5952 -11.8732 -0.784342
-18.1332 -10.9118 0.532202
-16.5589 -9.90406 2.04906
-15.8904 -11.9885 -1.6006
-15.6393 -12.6002 0.491799
-17.8111 -12.5652 -1.57242
-16.9934 -12.1342 -0.751631
-14.0186 -13.1426 -0.551953
-18.7988 -10.9097 -0.703352
-16.1081 -11.5361 0.724379
-15.7613 -10.7204 -2.20901
-15.41 -11.8332 -1.2332
-15.7158 -11.2543 -1.93088
-15.1374 -13.2055 -1.84562
-16.4302 -11.5938 -1.05138
-16.738 -12.2143 -1.15555
-15.4431 -11.8041 -1.8276
-16.0284 -11.2557 0.291702
-14.3259 -12.0392 -1.5594
-19.2987 -10.8347 -2.38791
-19.6834 -9.67859 -2.44902
-18.4103 -11.8633 -2.44622
-19.0159 -11.2776 -3.01913
-18.7866 -10.7375 -3.58398
-17.9892 -11.0513 -2.51437
-18.407 -11.4712 -3.15608
-18.6868 -10.4809 -3.62692
-19.2663 -12.1301 -2.10369
-18.9218 -10.2884 -3.75615
-19.9558 -11.2543 -0.188119
-18.0161 -12.132 -3.43868
-17.4366 -11.7866 -3.02746
-17.5999 -11.1334 -3.4065
-19.0881 -11.1761 -0.936773
-18.8268 -11.7553 -2.59747
-19.1439 -11.1094 -1.92133
-18.7702 -11.7404 -2.07798
-17.8111 -11.8216 -2.99163
-20.3334 -10.7336 -1.10385
-18.3378 -12.0927 -3.00598
-18.5832 -12.1486 -3.0791
-16.3591 -11.3348 -4.15707
-18.6265 -10.9002 -2.18557
-20.0886 -10.8763 -0.6596
-20.4042 -10.7593 -0.592776
-15.8674 -10.9163 -3.46993
-19.1986 -11.6804 -1.13951
-19.7145 -11.2527 -0.467629
-19.791 -11.4856 0.00624377
-19.0649 -11.7012 -0.820425
-20.5322 -11.1073 0.00166248
-17.3205 -11.3099 -1.37458
-18.9911 -11.4492 -0.448812
-18.2326 -11.6474 -1.68975
-20.8869 -11.2336 0.608304
-17.487 -11.7009 -1.39165
-17.5709 -11.8043 -0.896889
-14.9233 -11.3548 -3.20571
-16.4632 -11.8269 -1.99664
-18.2319 -12.0565 -1.45101
-19.8702 -11.7887 1.07726
-17.7365 -11.8789 -0.598619
-17.6631 -11.5145 0.490622
-18.1126 -11.5783 0.221579
-14.1485 -12.0222 -3.05666
-18.0103 -11.9218 0.273545
-15.0927 -11.2213 -2.46222
-16.6057 -12.4431 -0.237421
-17.7442 -11.3273 0.713478
-17.7899 -11.4037 1.40702
-15.9017 -11.7643 -1.94235
-15.755 -11.9845 -1.34208
-14.3086 -13.2224 -3.05849
-17.4186 -11.2757 0.424553
-17.0455 -11.8742 -1.52392
-16.8393 -12.0154 -1.04428
-17.5217 -11.851 0.0315354
-16.8601 -12.0414 -0.95274
-16.7959 -9.95788 1.21047
-15.4964 -12.3071 -0.774127
-15.6106 -10.0965 1.76843
-17.8116 -11.3704 -0.310911
-16.1909 -10.8306 -0.651576
-15.5036 -12.4234 -0.00602391
-14.7895 -12.7856 -2.89865
-16.9199 -11.9471 0.236813
-14.7733 -12.5671 -3.06375
-14.3221 -13.1033 -2.37346
-17.4193 -11.2953 -0.687772
-17.5255 -12.1406 0.531399
-16.4872 -12.5656 0.294838
-14.8476 -12.4446 -3.61901
-15.398 -11.4394 -1.48538
-14.2847 -12.9311 -2.80944
-14.4841 -12.7704 -2.90548
-15.4505 -11.9275 -0.175636
-14.1873 -12.9685 -2.7187
-15.7903 -12.6855 -1.55663
-16.7602 -12.5051 0.154721
-14.9619 -13.1486 -2.14231
-15.4146 -12.4632 -2.94407
-16.3751 -11.3098 2.13377
-14.9301 -12.0483 -2.23204
-15.4103 -12.0742 -0.560362
-15.1573 -12.3522 -1.19301
-15.6397 -12.295 0.370424
-14.6206 -12.8996 -0.259781
-15.0726 -11.6163 0.510775
-20.1285 -11.0761 -3.11739
-20.3718 -10.3391 -2.19034
-19.4341 -10.6987 -2.79962
-19.8312 -11.5483 -3.51646
-20.3996 -12.0475 -3.33831
-19.6295 -10.3549 -1.56933
-18.617 -12.185 -4.57328
-19.4832 -11.1308 -3.47392
-20.2095 -11.4774 -1.66189
-19.6413 -10.6484 -2.60473
-18.9671 -11.033 -1.695
-19.223 -11.2431 -1.47041
-19.4424 -10.9278 -3.17008
-19.2458 -12.6121 -2.03299
-18.1665 -11.4545 -3.14455
-17.8076 -10.847 -2.56892
-17.0124 -11.3454 -2.62205
-18.2079 -11.5853 -2.39424
-17.1645 -11.088 -3.41559
-18.1297 -12.2737 -1.46224
-19.6245 -12.1111 -3.04493
-17.1501 -11.4736 -2.83486
-16.9577 -12.0237 -3.82608
-19.7933 -11.72 -2.37508
-15.6313 -10.776 -2.32339
-20.6312 -10.9944 -0.158792
-19.8015 -12.0149 -0.357004
-19.8886 -12.7035 0.0371294
-19.5633 -11.0577 -0.224546
-21.2247 -11.4945 -1.08489
-20.571 -11.0817 -0.00312275
-20.6522 -11.9343 0.7031
-20.7403 -11.27 0.163391
-19.8694 -11.0087 -0.0436259
-16.5562 -10.9803 -1.76941
-16.674 -11.7748 -2.44051
-16.0272 -11.7619 -2.77294
-15.9454 -11.178 -2.94812
-20.2573 -11.6023 0.611587
-20.2754 -11.2025 0.923912
-19.2577 -11.075 0.162119
-20.4429 -11.7872 0.773213
-19.4479 -11.8495 0.477544
-19.2094 -11.1388 0.925349
-19.4552 -11.4428 0.629293
-19.8432 -11.2795 0.247211
-20.587 -11.2892 -0.183869
-19.3056 -11.5422 0.213087
-16.5803 -12.1203 -0.759299
-17.9821 -11.1055 -0.358324
-15.0203 -12.0692 -2.47811
-17.672 -12.1624 -0.521137
-16.4541 -11.9688 -0.702231
-16.2457 -11.8378 -1.00994
-17.2844 -11.1663 0.319782
-17.2905 -11.3943 -1.27105
-16.0873 -11.6892 -1.41326
-16.8906 -10.4271 1.82491
-16.1422 -11.7757 -0.649861
-17.2899 -11.8272 0.542928
-16.2118 -10.89 1.00882
-15.9364 -10.3425 1.9253
-16.3779 -9.85437 0.0238791
-14.1 -12.1812 -3.69375
-14.2774 -12.2 -3.93326
-14.7141 -11.8997 -3.76504
-14.3413 -13.1858 -2.80968
-16.673 -10.958 1.92263
-16.7515 -12.1623 0.0986866
-14.8616 -12.9992 -3.54797
-16.357 -9.80954 1.61641
-17.2967 -12.1944 -0.50862
-16.6063 -11.5139 -0.664272
-14.8864 -12.2261 -2.44506
-15.7876 -11.9183 -0.0728178
-16.7483 -11.9214 0.45114
-14.1161 -13.6442 -3.2009
-14.9964 -12.7257 -1.72365
-17.1134 -12.2185 -0.749851
-15.1339 -12.1735 -0.727727
-13.4281 -12.1448 -1.91781
-15.5861 -10.1227 1.78058
-17.003 -12.1347 0.096898
-16.7088 -11.6703 1.10623
-14.6939 -12.4792 -0.846469
-14.4621 -11.1256 2.24531
-15.0455 -12.647 -2.77192
-16.1146 -11.8952 -1.46112
-15.6074 -10.6531 1.99444
-15.7754 -12.7341 0.306735
-15.7128 -10.3739 1.89629
-14.0645 -13.0485 -1.58371
-14.0434 -12.9314 -1.42671
-15.1512 -12.2065 -0.361636
-14.4837 -12.2571 -2.45386
-15.6947 -10.0205 1.28817
-14.3808 -12.4969 -2.30219
-16.3398 -11.955 -0.157918
-16.1825 -13.0331 -0.326401
-15.2631 -11.7252 -0.305267
-16.3418 -12.7463 -1.2725
-15.4153 -11.4234 0.00469146
-19.5764 -10.8046 -2.61235
-18.8785 -11.0055 -2.68237
-18.6504 -11.5318 -3.37878
-19.2598 -11.5638 -1.71178
-20.8591 -10.3838 -2.16511
-18.9615 -11.8501 -1.66826
-19.3762 -11.0554 -1.23841
-17.7371 -11.818 -3.11077
-18.2294 -10.8276 -1.56915
-17.025 -11.5198 -2.27261
-17.2212 -11.5888 -3.02378
-19.0629 -11.0284 -1.1278
-20.3221 -11.1236 0.0143334
-17.1453 -10.7129 -2.66162
-20.1352 -10.5547 0.92574
-19.6895 -10.871 0.0659003
-19.2656 -12.0772 0.226768
-19.5681 -11.8504 -0.464269
-16.8388 -11.4291 -1.34739
-19.0551 -10.9773 -1.05345
-19.0335 -12.6267 0.161038
-16.9253 -12.0887 -1.9229
-20.7445 -11.5713 0.35861
-17.2556 -11.9807 -2.12118
-18.9112 -10.6163 0.0862465
-19.418 -11.1315 0.732027
-19.0735 -11.164 0.923392
-17.9874 -11.3219 0.0452181
-16.0388 -11.4267 -0.56291
-17.2149 -11.395 -1.43344
-15.3372 -12.5944 -3.29087
-15.5811 -12.2779 -3.76732
-14.5657 -11.5637 -1.84254
-15.7584 -11.5786 -2.42466
-17.9931 -11.8116 -0.623787
-17.0919 -11.5501 -0.522426
-17.9823 -11.8621 -1.28272
-15.1446 -12.2718 -2.62923
-13.9822 -12.8828 -2.99375
-15.6857 -11.6615 -0.648219
-13.8478 -12.6343 -3.77896
-16.3118 -12.8122 -1.5035
-16.4689 -11.4586 1.22254
-15.3697 -11.8071 0.268636
-15.8028 -11.9669 0.384942
-14.1357 -12.6479 -0.958276
-15.8624 -10.0079 1.90699
-15.7111 -12.9264 -1.12769
-15.801 -12.7053 -0.201862
-16.0946 -12.4574 -0.0423082
-16.1207 -12.2236 0.515311
-15.4614 -12.0607 -0.0559651
-15.5986 -13.2208 -0.952532
-20.4131 -9.79103 -3.78055
-18.842 -10.4649 -3.19772
-18.7175 -10.1184 -3.29591
-19.0297 -11.6382 -2.96477
-18.8045 -11.0336 -3.0672
-19.1582 -11.4635 -2.41683
-17.5784 -10.8841 -2.54153
-18.355 -11.1849 -3.29801
-17.9101 -11.2557 -3.00964
-18.3091 -11.869 -2.55561
-17.1525 -10.648 -3.09782
-17.5727 -11.0676 -1.16718
-16.5833 -10.6304 -2.18549
-15.5308 -10.8665 -2.15157
-20.2206 -10.9815 -1.36018
-17.7768 -11.0622 -2.15132
-16.9578 -11.3407 -2.05736
-16.7871 -11.9704 -2.6034
-16.8311 -11.5725 -2.52118
-16.8432 -11.7854 -1.38977
-18.8988 -10.7906 -1.19602
-18.854 -12.1145 -0.812073
-20.0779 -10.8642 0.787082
-20.3921 -11.2708 0.828746
-18.8825 -11.0984 -0.401033
-19.6467 -11.5723 0.30028
-19.3189 -12.4316 -0.940707
-18.7105 -11.487 0.165506
-18.5246 -10.2172 -0.0997742
-19.2858 -12.7943 1.43682
-17.4877 -12.017 -0.874155
-16.3956 -12.038 -1.27492
-16.1672 -12.2486 -1.1915
-16.2963 -12.0431 -2.10374
-15.139 -11.0738 -2.8421
-15.4137 -11.7112 -2.13323
-14.5952 -11.8038 -2.05964
-16.7019 -11.3061 -1.07192
-16.2463 -11.6125 -0.249512
-16.979 -9.84193 1.31528
-15.9663 -11.4295 -1.31714
-15.9965 -12.0746 -0.839548
-15.9763 -11.4299 -0.429739
-15.7071 -11.475 0.404996
-16.1269 -11.6284 0.396054
-14.1557 -13.5533 -2.35053
-15.3586 -11.3047 -0.039683
-16.8017 -11.7923 1.13711
-14.8818 -12.5313 0.361241
-15.6979 -11.6088 -0.57606
-15.3682 -11.8868 0.719759
-18.7924 -11.3687 -2.19453
-19.9065 -11.3626 -2.37856
-17.9179 -11.1961 -3.13638
-17.9059 -11.9028 -2.98831
-19.7306 -11.0704 -1.84358
-16.0927 -11.1716 -3.37431
-18.6027 -11.4225 -1.31729
-18.4905 -11.7932 -2.23175
-20.1344 -10.8709 -0.803688
-18.5025 -11.2503 -0.350248
-20.6192 -11.3467 0.114162
-19.8304 -11.2596 -0.0890187
-18.7251 -11.9632 -1.49129
-18.196 -11.6176 -1.98982
-20.475 -11.3727 0.113393
-19.4661 -11.9704 -0.222446
-16.0492 -12.8114 -1.07169
-14.6277 -11.6287 -2.65191
-16.2193 -11.4487 -1.8395
-15.5544 -12.8261 -1.32662
-15.1664 -11.7443 -1.85415
-16.8816 -11.3205 -1.40233
-17.267 -11.523 -1.52174
-16.0879 -10.8806 -0.892719
-16.9655 -12.1468 -0.67042
-17.4133 -11.6416 0.283901
-16.4272 -11.8968 -0.549189
-16.4796 -12.6529 -0.814748
-16.577 -11.2667 -0.800304
-13.9093 -12.1348 -1.66219
-16.4304 -12.8411 -0.90683
-16.1194 -11.6879 0.0742738
-15.4688 -12.6384 0.00914351
-15.0014 -12.561 0.371624
-15.63 -11.7584 -0.405066
-19.6546 -11.2265 -1.92242
-17.7122 -12.9295 -2.16818
-16.7806 -11.5654 -2.85644
-16.6297 -10.7223 -1.76791
-17.075 -11.3945 -2.1472
-16.5234 -12.2659 -1.60222
-17.3965 -11.6047 0.437923
-16.645 -12.0737 -1.69302
-14.0732 -12.6211 -3.24214
-16.6403 -12.5352 -1.80224
-14.4981 -12.5448 -2.5705
-15.8996 -12.7705 -0.850959
-15.6208 -11.966 -0.263427
-16.4732 -10.6999 -1.37799
-17.329 -11.6358 -2.39117
-16.4778 -11.7605 -2.84396
-17.197 -11.1937 -1.33186
-17.3999 -11.2376 -0.624391
-16.192 -12.1313 0.167251
-15.6523 -11.1483 -2.85563
-16.8373 -11.1593 -2.23006
-16.7285 -11.4611 -0.540311
-17.3923 -11.6423 -0.134581
-17.1246 -12.1943 1.23721
-15.3641 -11.8549 -1.03922
-15.29 -11.7734 -0.199971
-16.2489 -11.9096 -1.81063
-20.2832 -10.6024 -2.13236
-17.4072 -12.0753 -1.05607
-15.6221 -11.8027 -1.81487
-16.2825 -12.6181 -0.0519363
-17.6797 -11.9417 -1.32191
-16.5852 -11.3731 -0.428982
-20.5675 -11.7176 0.354495
-19.0715 -11.5869 0.198716
-20.4371 -11.2035 0.943631
-19.0357 -10.8825 0.584747
-20.5201 -11.9635 -2.96273
-19.6232 -11.5194 -1.97676
-20.5441 -10.5443 -1.8388
-16.3359 -10.6937 2.16553
-19.0286 -10.7967 -1.22558
-16.1955 -11.0485 2.50259
-17.6278 -10.8008 -0.265932
-18.7762 -11.1678 0.315815
-18.0775 -10.5198 0.743659
-19.7401 -11.6668 -0.837261
-17.4853 -11.4705 0.460666
-17.8086 -11.3633 0.418515
-18.9542 -10.6549 -2.1218
-19.8635 -11.1075 -2.11172
-17.8595 -11.5703 -0.0851166
-20.0975 -9.86662 -2.43198
-17.7242 -11.594 0.283497
-19.1095 -11.997 -2.31295
-19.3363 -11.1508 -1.88544
-18.4369 -10.7181 -2.91949
-16.2207 -11.3234 1.10782
-19.0006 -11.0718 -3.06522
-18.2374 -12.1268 -1.33404
-18.9162 -11.6404 -1.57962
-19.0357 -11.8567 -3.78353
-16.7621 -10.772 -0.08114
-18.9073 -11.5444 -1.39588
-17.7245 -11.5277 -0.777759
-16.9048 -12.1372 0.695023
-17.5698 -12.1816 -0.845752
-17.289 -12.2056 -2.68113
-17.8723 -10.9919 -2.1179
-17.7385 -11.2465 -2.24759
-17.7776 -12.2532 -2.13957
-16.2727 -12.1154 0.279587
-17.2116 -10.8103 -1.63769
-18.3396 -12.0606 -2.07011
-17.4846 -11.6458 -2.28347
-17.4912 -11.7424 -1.49131
-16.5937 -12.8713 0.0102108
-16.982 -12.3464 -1.08121
-15.7604 -13.192 -1.08732
-16.1078 -12.707 -0.854452
-15.7462 -11.2156 0.357263
-15.9401 -11.9578 -0.974197
-16.8658 -13.0145 -0.464215
-15.8704 -11.4865 0.398905
-17.0541 -12.5056 -1.22353
-16.5027 -12.4252 0.166171
-16.3065 -11.7281 -0.139924
-17.2977 -11.7796 -0.249383
-16.3045 -11.832 -2.9252
-14.7405 -12.362 1.22365
-16.2128 -11.4612 -2.07794
-15.7825 -12.1085 -0.126347
-15.4996 -12.3395 -0.413518
-16.5193 -10.8644 -2.16701
-15.7683 -11.8556 -0.338491
-16.2654 -11.7473 -4.07043
-15.9458 -12.7129 -1.90798
-15.6013 -12.9678 0.416962
-16.4377 -12.6628 -1.61364
-14.8856 -12.6596 -2.05541
-15.3147 -12.3562 -1.6873
-14.4495 -12.6182 -1.62238
-14.8419 -12.3331 -2.9697
-14.9408 -13.1632 -3.58772
-14.0302 -12.1969 -2.92773
-14.3207 -12.1418 -2.67439
-15.1754 -12.927 -1.96888
-14.3294 -13.2297 -3.34153
-15.2346 -12.5137 -3.68523
-13.8388 -12.8314 -3.49259
-20.0295 -10.8901 0.19906
-19.8853 -11.8552 1.02654
-20.4128 -11.6108 0.482212
-19.8706 -11.8277 -0.621803
-19.7982 -12.0827 0.715821
-20.2233 -11.1041 0.39461
-19.9511 -11.3497 -0.356327
-20.0972 -10.1457 -1.48629
-20.9022 -10.5804 -3.4894
-19.7849 -11.4104 1.14441
-19.5483 -11.6019 -0.884487
-18.9697 -11.7942 -1.14072
-19.697 -10.4812 -2.57049
-18.6121 -12.2486 0.0134532
-16.5206 -11.0809 0.613892
-18.3313 -11.867 -0.338381
-18.8041 -10.1007 0.129281
-16.0783 -10.7406 1.00592
-16.9128 -10.4338 1.30303
-18.9112 -11.0866 -2.23012
-19.0874 -11.0607 -1.05935
-16.5793 -9.97012 1.58783
-18.7477 -11.2784 1.27906
-18.7148 -11.2649 -1.2862
-18.9339 -10.6109 -3.49574
-18.7916 -10.4505 -3.02462
-17.8821 -12.1453 0.256233
-19.45 -11.3806 -1.74013
-18.9558 -12.2199 -0.427983
-14.9799 -9.92279 1.09898
-15.917 -9.85412 1.3765
-15.0548 -9.77749 1.65633
-16.4877 -10.2346 1.89218
-18.4633 -11.5278 -2.24329
-18.6624 -10.9973 -2.59447
-18.442 -10.7322 -3.93216
-19.2442 -10.9428 -3.42552
-18.1722 -11.7462 -2.06984
-18.8136 -11.0989 -3.57924
-18.331 -11.6071 -1.40866
-18.0965 -11.3934 -2.50825
-18.1493 -11.591 -2.85452
-18.6272 -11.6945 -2.17904
-17.8886 -11.4529 -1.31991
-17.6111 -11.4784 -0.959635
-18.0698 -11.0572 -2.57438
-17.1604 -11.552 -0.36181
-17.7825 -12.0394 -3.85203
-16.9666 -13.004 -0.0707167
-16.0398 -11.818 0.470448
-16.9343 -12.5587 -0.421352
-17.7995 -11.313 -0.652997
-17.2559 -12.4047 -0.712163
-16.6481 -11.4511 -3.34551
-16.5226 -11.5643 -0.406734
-15.8055 -11.3823 0.26115
-16.1454 -11.2475 -0.707223
-15.8105 -10.4655 -2.95175
-16.3814 -12.2586 -1.06653
-16.4073 -11.2331 -1.28291
-15.4051 -12.4814 1.25073
-15.7216 -12.167 0.634514
-15.1158 -12.0854 -1.32111
-16.0415 -10.3793 -2.46606
-16.5069 -12.7136 -0.93857
-16.2618 -12.2462 -2.54339
-15.7479 -12.8784 -0.443578
-15.0341 -11.9974 -2.5633
-14.9969 -12.5437 -1.04302
-15.089 -12.2377 -3.3824
-14.3671 -12.7812 -2.864
-13.868 -12.5941 -1.82296
-14.9573 -12.9806 -3.83528
-14.1042 -12.299 -3.31438
-15.1305 -13.0163 -3.22092
-14.2781 -12.8477 -2.63037
-13.5947 -12.7923 -3.27905
-14.7649 -13.2729 -3.59383
-13.4022 -12.4533 -2.69848
-19.7726 -11.1218 0.198704
-21.1803 -12.255 0.22986
-19.5915 -12.0346 1.7519
-20.6004 -10.9937 -1.33796
-20.6907 -12.1163 0.679939
-19.1758 -11.6729 -0.946105
-18.9646 -11.6541 -0.871851
-15.2848 -11.202 0.909724
-18.4452 -11.0296 -1.3908
-18.2301 -11.6842 -3.65416
-16.8907 -11.393 -0.297629
-17.5757 -11.1429 -0.0685439
-17.9451 -11.4857 -3.74111
-17.0306 -11.8141 -0.447508
-17.6538 -11.5408 -3.98456
-17.002 -11.9515 -0.376997
-17.9643 -12.3316 -3.11782
-18.0509 -11.4819 -2.01583
-17.1627 -12.205 -1.04189
-17.3806 -12.5189 0.211368
-16.8555 -12.212 0.443066
-16.346 -12.3806 0.646449
-15.8447 -12.7524 -0.0283946
-15.6838 -11.8423 -0.549485
-15.875 -12.2728 0.486953
-14.8757 -11.5733 0.244064
-15.5065 -12.3089 -0.0220773
-15.4832 -11.9711 -0.896992
-15.6507 -11.7857 -1.17327
-16.0768 -12.6422 -0.590235
-15.285 -12.7975 -3.09326
-15.3678 -12.2793 -1.93334
-14.3389 -13.5707 -1.34926
-14.0901 -12.8039 -3.84607
-14.0565 -13.002 -2.89939
-14.8868 -12.4938 -3.20815
-20.1859 -11.4955 1.23444
-20.3266 -11.7858 0.641752
-19.9782 -11.1261 0.154559
-16.6043 -9.62736 1.1541
-19.0444 -11.1617 -0.794613
-19.1106 -11.764 -0.504607
-19.2443 -10.9604 -0.401898
-19.8001 -11.9535 0.312423
-18.1256 -11.5099 0.107519
-18.1374 -11.0864 -1.10075
