-16.577 -11.4807 0.704905
-18.0433 -11.7527 -0.718148
-17.1569 -12.2987 -0.0970511
-19.1535 -12.171 -0.270632
-20.0712 -11.8813 1.25715
-15.5312 -10.6199 1.40712
-15.3993 -10.7053 3.30565
-14.0468 -12.0225 -3.40912
-15.4461 -12.725 -3.65483
-14.538 -12.8913 -3.00183
-14.5142 -13.4738 -2.5046
-15.0288 -11.9639 -2.63283
-15.026 -11.5616 -3.17125
-15.0178 -12.3202 -1.76554
-15.5522 -12.0801 -2.26393
-19.1754 -11.1522 -2.59212
-17.5095 -12.1358 -2.00078
-16.7481 -12.2048 -2.12611
-18.8726 -11.9434 -2.0752
-19.3454 -11.0381 -2.74183
-19.1395 -11.6152 -1.24941
-15.289 -12.4315 -1.14498
-16.7853 -12.1683 -1.57758
-16.9405 -11.6054 -1.69568
-18.6564 -11.7257 -0.247702
-19.7161 -10.8287 -1.79777
-18.052 -10.8335 -0.121929
-19.9345 -11.4397 -0.514572
-20.0732 -11.2694 0.656406
-20.1811 -10.7717 0.324634
-16.1405 -10.4795 1.67976
-15.3797 -12.8525 -3.72641
-16.2264 -10.7203 -2.40458
-19.4 -11.5187 -3.04978
-19.3886 -11.7508 -3.28502
-15.0314 -12.8988 -2.5053
-16.1981 -11.6691 -2.58972
-16.7828 -11.8233 -2.31755
-17.6476 -12.217 -2.50975
-16.7537 -12.0612 -1.60792
-16.2255 -11.5596 -2.04276
-15.6914 -11.3522 -2.39735
-15.4456 -11.2429 -1.25483
-14.7021 -12.125 -1.28283
-15.2404 -12.6496 -1.17117
-15.7754 -13.0405 -0.85075
-15.6613 -12.3881 -0.270144
-19.5051 -11.1608 -0.925996
-15.1097 -13.8473 -0.977782
-15.481 -12.0075 -0.35625
-18.281 -11.4363 -0.0812027
-16.0351 -11.7066 0.0722044
-18.2388 -10.4893 0.712456
-20.0031 -11.3076 0.283384
-16.4187 -10.6004 1.30482
-19.6055 -10.7759 -3.13008
-14.3566 -12.9662 -1.88094
-16.6779 -11.2865 -2.53679
-18.0248 -11.3098 -1.61546
-16.756 -10.8517 -1.10953
-16.2192 -12.2692 0.326026
-17.104 -12.193 -0.22138
-19.2089 -12.0887 0.828822
-15.3116 -9.87917 2.11111
-16.3364 -11.8319 -1.63745
-18.0312 -11.1212 -0.15353
-18.7234 -11.0572 -0.691722
-14.4043 -12.7372 -3.07626
-15.5529 -11.4797 -1.53029
-20.9709 -11.8533 -1.69645
-18.4247 -11.541 -1.35965
-16.6733 -11.7513 -0.589407
-14.5901 -12.1556 -2.87568
-16.4579 -12.5639 -0.974098
-19.3191 -10.7335 -0.473676
-16.2599 -11.5957 -0.222316
-18.5728 -10.8835 -0.413752
-17.0672 -11.3251 -0.940389
-15.7348 -12.2787 -0.482305
-19.4744 -11.9474 0.375199
-15.6831 -11.9982 -2.12229
-15.7435 -12.307 -1.82967
-19.3281 -10.8878 -3.47603
-18.6939 -10.2609 -3.35138
-20.1358 -12.4777 -3.59741
-19.7735 -11.9231 -3.59803
-16.9358 -11.8389 -3.3652
-17.5066 -12.4882 -3.58278
-15.7069 -11.4166 -3.29979
-16.1643 -12.226 -3.58583
-18.2767 -12.5828 -3.4827
-18.7621 -10.9545 -2.40856
-19.5641 -10.737 -2.07247
-18.1992 -12.0381 -2.52087
-21.0888 -11.3612 -1.5212
-18.5094 -10.9927 -2.01753
-15.7612 -11.8288 -2.37368
-14.4909 -13.3001 -3.55928
-20.3457 -10.9694 -1.58321
-15.3175 -11.4239 -3.35296
-20.0772 -11.7736 -1.15086
-15.1165 -12.8647 -1.42235
-14.6309 -12.9149 -3.1332
-19.5675 -10.8051 -1.56753
-17.799 -11.8626 -0.452364
-16.2193 -12.7269 -1.46911
-16.3757 -12.5089 -2.12261
-19.4866 -10.83 -0.242827
-17.3687 -11.7503 -0.160841
-18.0056 -12.7547 -2.25908
-16.0078 -11.5235 -1.27649
-17.607 -12.1856 -1.67968
-18.7787 -10.8121 0.278647
-18.9048 -11.9045 -0.627167
-19.6123 -11.3498 0.426079
-20.5231 -11.2992 -0.172263
-19.9504 -12.218 -0.243274
-17.958 -11.3531 -0.130787
-16.7063 -12.1971 -1.20207
-19.691 -11.7982 -0.6181
-16.9114 -12.3255 -0.629239
-15.0682 -12.3548 -1.15708
-19.5908 -11.368 0.213468
-20.6812 -11.7662 -0.0241568
-17.5485 -11.5129 -0.25072
-19.0947 -11.2783 0.570177
-19.7744 -11.3173 0.825548
-15.7596 -12.6988 -0.491125
-19.893 -11.9583 0.846349
-16.4942 -11.6608 -0.061987
-16.1998 -11.9304 0.611944
-17.786 -12.2208 0.489743
-17.8889 -12.1212 0.88524
-20.309 -10.9957 0.351315
-15.7217 -11.8558 -0.58515
-15.7316 -11.7399 -0.478715
-16.6348 -12.9859 0.929655
-16.7572 -11.4474 0.789571
-16.1223 -10.7916 2.102
-16.5664 -10.0227 0.824188
-15.6502 -10.243 1.06924
-15.572 -9.59054 1.61151
-18.828 -10.5377 -3.50965
-18.6955 -10.8465 -4.13082
-19.862 -11.0297 -2.39349
-20.1034 -11.262 -3.23721
-18.6667 -10.3883 -1.85207
-20.0062 -11.1412 -2.2741
-18.4984 -11.9327 -2.87579
-16.821 -11.7832 -1.73224
-19.4163 -10.9692 -1.22433
-16.8719 -11.5182 -2.31772
-20.0057 -11.3069 -1.20374
-19.0126 -11.1196 -2.46698
-14.6804 -12.2779 -3.21007
-14.6279 -12.3697 -2.73013
-19.9549 -12.0337 -1.18121
-18.7107 -10.9032 -2.76804
-14.0276 -12.5159 -1.64157
-15.9466 -11.8635 -1.42154
-18.1103 -10.6174 -0.539438
-18.5492 -11.2569 0.228596
-17.2749 -11.3256 0.156437
-20.658 -11.0416 0.801258
-19.2695 -11.0708 0.104785
-16.502 -11.9067 -0.78865
-20.23 -11.6047 0.951751
-16.5966 -11.86 -1.13467
-20.5441 -10.9982 1.14147
-20.3966 -11.8095 0.67604
-20.0024 -11.5446 0.545661
-19.7644 -10.5501 0.592791
-20.4717 -12.0655 0.450801
-15.569 -12.4623 -1.0098
-18.8746 -11.9811 -0.394342
-14.935 -12.6705 -0.286596
-16.2723 -11.9143 0.554551
-19.581 -11.722 1.3558
-16.9733 -10.2999 1.90647
-14.9307 -12.8225 0.402813
-15.956 -10.5447 0.98627
-18.5588 -11.2183 -2.95639
-16.1483 -12.1678 -2.54611
-17.1657 -11.7654 -2.41707
-18.0864 -11.569 -1.69676
-15.6333 -11.3096 -2.27009
-14.1829 -12.0742 -2.69065
-15.2195 -12.5233 -2.50804
-19.0168 -11.4405 -1.3487
-16.2686 -12.1759 -2.53526
-17.3169 -11.8159 -1.94145
-16.2308 -12.3932 -1.50406
-19.2685 -12.1735 -0.855909
-20.1288 -11.1197 -0.798175
-19.7112 -11.0353 0.369946
-18.1369 -11.3742 -0.242852
-17.9082 -11.187 -0.261893
-18.4132 -11.1555 0.518114
-16.8403 -10.8308 -0.869815
-19.2799 -11.095 0.373479
-18.8046 -10.5791 1.08387
-15.906 -12.2416 -0.885828
-19.7678 -12.5507 0.607827
-16.7036 -11.8423 -0.161773
-16.2749 -12.3253 -0.451941
-17.0779 -11.5526 0.660547
-17.6448 -12.2159 0.291692
-19.8132 -11.3539 -0.0276936
-16.9046 -11.8873 0.351482
-15.5748 -12.5229 0.330416
-17.1007 -11.3935 0.793026
-15.7066 -10.3472 3.16079
-18.1903 -11.5265 -3.58814
-17.3423 -11.5472 -2.315
-15.9477 -11.8873 -1.24981
-19.4825 -11.8786 0.09001
-19.2198 -11.8804 -0.559159
-19.3123 -12.1783 -0.273144
-19.4826 -11.2092 -1.17485
-15.2675 -11.9697 -1.27683
-16.8239 -11.5918 0.504939
-16.7559 -11.7376 -0.706629
-15.9816 -11.9149 -0.615696
-15.7021 -12.0539 -0.847118
-16.0986 -11.9316 -0.792661
-14.8241 -12.7759 0.848709
-15.7615 -12.6786 -3.34174
-15.6484 -10.8562 -2.32292
-17.1957 -11.3235 -2.65308
-17.1366 -12.9453 -1.46343
-18.1347 -12.2125 -0.868826
-18.0491 -11.8469 -0.910941
-18.9038 -12.1807 -0.628629
-18.4355 -11.1801 -0.367753
-15.9546 -11.6154 -0.533885
-18.6105 -12.0843 -0.928649
-18.3796 -10.4851 0.530499
-16.8129 -12.3021 -1.37971
-14.7872 -13.0416 -0.439187
-15.5731 -12.4565 -1.46782
-16.153 -12.5153 0.00109287
-15.8689 -12.2468 -0.141961
-16.8984 -11.7191 -2.33983
-16.7687 -10.8786 -2.19313
-16.083 -11.8178 -1.81254
-19.2095 -11.7437 1.04913
-18.7442 -11.9405 0.972092
-18.2973 -11.1505 0.625258
-17.8218 -11.7595 -0.00315807
-17.2439 -12.7875 0.106832
-15.4288 -12.1676 -1.38815
-17.0807 -11.3879 -0.432435
-18.0377 -11.3454 0.456686
-15.5294 -12.6506 -1.06844
-16.9853 -11.7339 -0.228021
-15.9074 -11.1365 2.41008
-16.3144 -9.36059 1.78066
-15.7892 -12.3652 -1.74697
-16.5703 -10.935 -1.51594
-20.0054 -11.3379 -3.03544
-18.9644 -12.1358 -3.13658
-18.43 -11.0735 -1.2085
-18.9237 -11.3865 -0.911103
-17.1128 -10.9554 -2.14661
-15.7594 -11.6893 -2.64593
-18.5281 -12.1328 -2.19562
-20.2718 -10.354 1.05254
-20.8189 -12.5677 -0.0041934
-19.4811 -11.3382 0.365153
-18.9776 -12.7381 0.102177
-19.069 -11.5302 -0.502246
-19.0383 -11.2493 0.851147
-17.7179 -12.2047 -0.127229
-16.6635 -11.0288 0.0718825
-16.7571 -11.6074 -1.82165
-17.3422 -11.8177 -0.820154
-16.6316 -11.7469 0.138511
-17.0826 -10.4275 1.5431
-17.0827 -11.3354 -1.29586
-14.9779 -11.7345 -2.86985
-14.7779 -13.6257 -2.88496
-17.2805 -11.7617 0.0272124
-16.5272 -10.0859 0.934105
-14.8961 -12.9654 -3.36701
-16.7176 -11.1533 1.967
-15.2615 -11.9685 -1.21548
-15.5614 -10.7017 0.737014
-16.3834 -12.8423 0.203968
-16.3115 -9.89873 0.727606
-19.7477 -10.2247 -1.77334
-17.0874 -12.2239 -1.98227
-18.0719 -10.5212 -0.764457
-19.5849 -11.318 0.808152
-19.9699 -11.4816 0.642793
-19.1193 -11.8634 -0.599807
-18.9344 -11.6897 0.0392097
-19.1165 -11.2241 0.176101
-19.619 -10.9397 -0.608822
-19.7691 -10.949 0.301794
-15.3564 -11.6615 -2.1701
-16.2989 -12.0235 -1.19568
-15.6541 -11.5758 -3.15397
-16.613 -12.3132 -2.46939
-17.4345 -12.0372 -1.23715
-17.3279 -12.4577 -0.52738
-17.1788 -11.4611 0.658668
-16.3053 -12.9021 -0.466165
-15.801 -11.9588 -0.488876
-15.9942 -12.7127 0.168942
-15.7085 -12.5499 1.80888
-14.7527 -12.8656 -1.11928
-20.7595 -11.1893 0.340447
-18.5383 -10.1616 1.14704
-15.3058 -11.9196 -2.18997
-17.2108 -13.323 -0.954499
-15.3145 -11.8037 -2.17573
-15.6458 -11.7314 -0.414549
-17.2132 -11.302 -0.134757
-16.9443 -11.2646 1.34359
-15.5675 -12.173 -0.957422
-15.5605 -12.1964 -1.25948
-14.7541 -13.1619 -0.680951
-19.9858 -10.987 0.291777
-19.9146 -11.6348 0.0793198
-15.4652 -11.7046 -2.6671
-16.1147 -12.2044 -0.418218
-16.1137 -12.0492 -0.319293
-15.5512 -12.0017 -1.09409
-15.5114 -12.4786 0.481295
-19.2188 -11.7963 0.724535
-20.3893 -10.5961 -0.294558
-18.1245 -11.0861 0.109987
-17.7447 -12.1842 0.256898
-18.1237 -11.9993 1.31609
-16.2304 -11.481 -1.70009
-14.6315 -12.9967 -3.89708
-15.3993 -12.8827 -1.94375
-15.6134 -11.7494 0.112616
-16.6809 -12.5959 -1.67888
-14.8542 -12.1411 -1.62791
-15.9821 -11.028 -2.58605
-14.5083 -12.4493 -0.572565
-17.7376 -11.7601 -1.05819
-15.0125 -12.8565 -2.29001
-15.6542 -12.7811 -0.374608
-16.1975 -11.3796 -2.0374
-18.2085 -9.7151 2.43886
-20.4012 -11.2027 0.477154
-20.1763 -11.5766 -0.294887
-19.0651 -10.7471 -0.59243
-18.5561 -10.286 -0.761655
-18.4575 -11.5272 -0.619209
-18.4933 -10.8262 -1.73657
-16.3922 -11.0851 -2.27884
-16.749 -12.1258 -1.78736
-16.8163 -12.5659 0.124238
-17.5598 -11.7684 -0.869053
-16.5834 -11.7547 -0.0173304
-15.8851 -11.8381 0.372518
-16.0922 -11.8805 -1.19515
-16.8956 -11.6156 0.0700646
-15.7383 -11.52 -1.99702
-15.2264 -12.295 -1.99051
-16.121 -11.5499 -0.419073
-15.5728 -12.7204 -1.4653
-19.4388 -10.4093 -2.80397
-19.5908 -11.1268 -3.52883
-19.8525 -11.4025 -3.03769
-19.3243 -10.9412 -0.865833
-19.1803 -11.6365 -1.91233
-17.0186 -11.4678 -2.69269
-17.9729 -11.2131 0.323692
-17.4905 -11.8987 -1.64062
-18.2232 -12.4935 -0.014073
-16.213 -12.2287 -2.87675
-17.2299 -11.9053 -0.40078
-16.3535 -11.761 -2.25727
-15.7916 -11.7334 -1.56542
-15.8129 -11.8982 -2.30159
-15.2095 -10.8621 -1.72879
-16.6292 -11.4496 -2.0614
-15.6113 -11.9676 -1.76552
-16.6378 -12.6285 -1.01106
-14.8555 -11.7253 -2.16946
-16.6719 -12.3561 0.0150713
-15.706 -12.721 1.0431
-15.5827 -12.3515 -0.749696
-16.0637 -11.9316 0.895014
-15.842 -12.9466 0.522299
-15.1478 -12.4811 0.103657
-13.8909 -12.1042 -3.06149
-14.9379 -13.2454 -0.342781
-14.9711 -12.6647 -0.441056
-18.7454 -12.025 -0.687542
-18.6499 -10.6633 -1.63755
-17.7453 -11.4953 -3.01292
-15.83 -12.5164 -0.48672
-17.6456 -12.2652 -1.45181
-15.5454 -11.9157 -2.03292
-16.7807 -12.953 -0.912317
-15.4979 -12.4763 0.00918565
-15.1711 -11.8389 -0.513123
-19.8888 -11.7269 -1.368
-19.9078 -10.9101 -0.400358
-17.7168 -10.8762 0.964441
-17.2913 -12.4237 -2.50808
-15.8491 -11.9216 -1.78472
-15.9563 -11.7673 -0.404227
-16.1378 -12.4027 0.390485
-15.4002 -12.9557 -0.56493
-14.0569 -12.2353 -2.42244
-15.6844 -13.5029 -1.72812
-14.9605 -12.4119 -2.39293
-17.5927 -11.4641 -1.60312
-16.9779 -12.7126 -0.435919
-16.3124 -11.6328 -0.682821
-15.2844 -11.3225 -0.424512
-15.7979 -11.9178 -0.792766
-14.5146 -12.7757 -2.59291
-20.3184 -11.2861 -2.79556
-19.8435 -11.6511 -1.00602
-18.7261 -11.926 -0.613223
-17.7118 -12.0841 -2.95937
-15.919 -11.6303 0.0399464
-16.5652 -12.5376 -1.76301
-16.1034 -11.3342 -1.08507
-19.9075 -11.2 -3.67033
-16.2798 -10.1484 1.27875
-16.3115 -11.2419 2.52688
-19.3044 -11.0172 -0.677058
-19.1304 -10.4403 -3.33767
-18.6508 -11.6442 -0.819951
-15.8162 -9.53069 2.3968
-15.3599 -9.73324 2.55141
-18.6436 -11.8315 -3.10179
-18.986 -11.089 -3.72978
-18.5311 -11.3926 -4.09532
-19.0586 -10.9382 -3.05841
-17.2761 -10.9986 -0.982988
-18.0757 -12.2993 0.985811
-16.7984 -11.9081 -1.7297
-17.0221 -12.3027 -0.917406
-16.4654 -12.3165 0.222104
-16.2677 -12.5329 -1.38628
-16.3133 -12.9936 0.447758
-15.5444 -11.5371 -1.14407
-16.5008 -11.0839 -1.99762
-16.735 -11.5735 1.40157
-15.0839 -12.0467 -0.729247
-15.6004 -12.2986 -1.65905
-15.9517 -13.1475 -0.940254
-14.7864 -11.0454 -1.21276
-14.6849 -12.7923 -1.36469
-15.0607 -12.2226 -2.60199
-14.0147 -13.3566 -3.12002
-14.2564 -14.7116 -2.83189
-19.9264 -12.1248 -1.03059
-19.9665 -10.2579 -0.949368
-15.7178 -10.4722 1.96604
-17.1641 -10.9895 0.405848
-18.6429 -11.7002 -3.3303
-18.3914 -11.7661 -2.52817
-17.7356 -12.0435 -0.117967
-17.2042 -11.9559 -1.45112
-15.418 -11.4466 -3.08957
-16.3545 -12.3695 0.683861
-15.9532 -12.5576 -1.04026
-15.4059 -12.7431 -0.415876
-16.938 -11.5461 -2.34954
-15.8309 -11.946 -0.038868
-14.3972 -13.3425 -3.28902
-15.1476 -12.4374 -2.89567
-19.578 -11.2962 0.20329
-19.6115 -10.8623 -2.169
-19.7493 -11.4948 -2.25517
-18.5109 -11.6735 -1.52438
-18.1725 -11.1285 0.0297548
-19.2011 -11.0465 -2.15708
-18.5928 -11.2274 -2.83252
-17.6496 -10.9956 -3.51831
-17.2537 -12.296 -3.59016
-16.7266 -11.7781 -3.45518
-15.9497 -11.9301 -0.401512
-16.1182 -12.2153 -2.47568
-15.9527 -10.6454 -2.48918
-15.6421 -12.5073 -0.169542
-20.3633 -11.3357 -0.780962
-19.6052 -10.722 -2.43501
-18.4157 -11.1008 -1.76577
-18.4653 -12.0947 -3.51893
-16.6217 -11.5053 -1.64961
-17.2606 -12.5987 -1.95333
-16.1178 -12.2814 -0.0944195
-16.5607 -11.4465 -1.24472
-15.7441 -13.1207 -1.39889
-15.4899 -12.066 -0.992576
-20.0111 -11.035 1.16336
-17.1894 -10.1758 2.03638
-18.5765 -11.5808 -1.08679
-16.3916 -11.7761 -0.740795
-15.7345 -11.2076 -0.960928
-16.0298 -11.8174 0.0486935
-15.7285 -11.8535 -0.569799
-18.236 -11.6689 -3.1489
-14.6059 -12.7891 -0.770979
-18.5078 -11.3298 0.324424
-14.9039 -11.9142 -0.462938
-16.5387 -11.9331 -1.56369
-15.3416 -12.6335 0.500401
-16.7704 -11.7287 -0.983706
-19.7917 -10.7521 0.195479
-16.2129 -10.6749 1.33541
-18.4576 -10.5485 -0.386792
-18.2253 -11.6832 0.62953
-19.5593 -11.1689 -0.401742
-18.1497 -12.0334 1.35328
-18.0472 -12.8334 0.773428
-19.4751 -10.5314 -3.73753
-19.4166 -11.3766 -2.4239
-18.0438 -12.6616 -0.784557
-17.3933 -11.5134 0.55267
-15.6341 -12.1637 0.464997
-16.9603 -12.1111 -0.592356
-18.0339 -12.1047 -0.549318
-16.2326 -12.6787 0.373607
-15.6615 -12.3642 0.0124443
-18.8651 -11.0941 -3.08434
-19.2879 -10.8875 -2.93261
-19.0779 -10.6571 -2.79797
-17.4915 -12.0653 -1.1132
-17.4681 -11.8666 -0.598066
-18.125 -11.2435 -3.68585
-15.2755 -12.1735 1.33878
-16.5347 -11.385 -0.31145
-16.4037 -11.9273 0.374725
-15.3469 -11.9871 0.216193
-16.6441 -12.4583 -0.952597
-15.8804 -12.2487 0.046679
-16.8544 -10.9734 -2.19699
-16.7671 -11.4931 -2.07334
-16.9254 -12.2164 -1.95215
-14.6207 -12.2652 -2.04098
-13.9935 -12.4268 -1.97869
-14.7605 -12.9501 -1.7326
-20.5494 -12.2992 -0.124159
-19.2123 -11.9209 -0.527177
-19.2204 -11.4175 -1.24101
-17.6011 -11.0617 0.0870378
-18.7922 -11.7851 -1.57582
-19.7341 -11.3567 -3.57386
-18.8179 -10.9081 -3.15818
-19.5399 -10.8179 -3.39694
-17.5096 -12.0853 -1.47861
-19.4063 -9.96098 -2.29832
-15.5803 -11.8376 -0.0106821
-16.0156 -12.1472 -0.664538
-16.218 -12.4609 -0.358002
-19.0544 -11.5282 -2.77495
-17.3366 -11.4485 -1.26204
-19.0654 -11.3646 -2.29719
-18.4955 -11.4998 -2.02722
-15.5596 -12.3565 -0.336613
-17.9808 -11.3041 -3.10901
-18.369 -11.6545 -2.68892
-14.8308 -13.1596 -0.360456
-16.4393 -12.155 -2.03657
-16.2699 -11.1257 -2.52975
-14.9602 -11.2168 -0.518592
-14.5415 -13.9456 -1.6966
-14.2164 -13.0152 -1.506
-15.0655 -12.9604 -3.3159
-13.5793 -12.3674 -1.95472
-14.5806 -12.6575 -3.43476
-15.811 -9.81929 0.892965
-20.3218 -11.3238 0.595114
-19.5311 -10.6549 -0.738783
-19.7912 -12.0059 -0.0199369
-20.1769 -11.4253 -0.0736231
-19.7756 -11.2844 -1.00683
-18.5865 -11.8577 -0.198115
-19.396 -11.6993 -2.04195
-17.8223 -11.6992 1.00882
-16.1354 -11.6156 0.284371
-15.8356 -11.7211 -0.145361
-16.9708 -12.5015 -0.789872
-16.8593 -11.7207 -0.878672
-15.6557 -11.6352 -2.06352
-17.1675 -11.8333 -0.702327
-14.8582 -10.806 0.688225
-18.2365 -11.2586 -0.837337
-16.8651 -11.4125 -2.63557
-16.1346 -11.6087 -0.350833
-15.2399 -11.9066 -0.046111
-16.2697 -12.4266 -0.585476
-18.4376 -11.3033 -4.26766
-17.5227 -11.9959 -2.96103
-15.1015 -11.9475 -1.12665
-15.8825 -13.2985 -0.93507
-15.7244 -11.907 -2.40957
-16.2634 -11.921 -0.624206
-15.8397 -12.1178 -1.00475
-16.4633 -11.5395 -2.60212
-14.3682 -11.2706 -2.28578
-15.2261 -12.1586 -2.15311
-14.3167 -13.459 -1.41972
-14.4157 -13.3156 -3.11344
-13.2052 -13.5603 -2.56218
-18.932 -11.2818 -0.585582
-17.3063 -12.2061 0.164414
-19.0385 -11.2262 -1.65947
-17.559 -11.2043 -0.877725
-16.9609 -11.4344 -1.47481
-16.8828 -11.8072 -0.600001
-17.5662 -10.9962 -1.45696
-17.8878 -12.0649 -2.5497
-17.8548 -11.754 -3.68546
-18.8169 -11.1741 -2.80746
-18.2117 -11.9449 -2.85473
-15.1013 -12.4298 0.263404
-15.2972 -11.8749 -0.158407
-15.4835 -12.4184 0.733909
-15.4949 -12.127 -0.992892
-15.2622 -11.721 -1.66198
-16.811 -11.6226 -1.87016
-15.8075 -12.494 -1.46376
-15.5384 -11.9193 -2.06529
-15.8128 -10.7875 -2.90814
-14.6709 -13.4233 -1.83416
-17.2087 -11.7141 0.834619
-17.0934 -11.7711 -0.992069
-18.0058 -11.8944 -0.991828
-18.5058 -11.5477 -1.64398
-15.8526 -12.6587 -0.690104
-14.9204 -11.6176 -0.921892
-15.9947 -12.2594 -1.91324
-14.8078 -12.9706 -2.77723
-20.4765 -10.6934 -2.5463
-16.2613 -13.0233 0.664783
-17.3167 -12.1932 -0.593248
-16.5114 -11.532 -2.23652
-15.8516 -11.3338 -1.49601
-19.0801 -11.3211 0.249211
-18.2784 -11.3253 -1.119
-17.3444 -11.1416 -0.086283
-17.0139 -11.2703 -1.29904
-16.1585 -12.2133 -2.73666
-16.6352 -11.8631 -1.99467
-15.8294 -12.2142 -1.55679
-16.3661 -12.5143 -1.03162
-14.47 -11.5228 -1.87924
-16.1989 -12.1203 -0.994705
-16.5473 -10.7308 0.936025
-18.8015 -11.4085 0.225253
-16.3788 -10.2709 1.10483
-14.7051 -11.0943 1.69762
-19.1226 -11.1324 0.0464149
-18.1532 -10.6006 -0.450996
-17.3419 -11.0833 0.707009
-17.6795 -11.9195 0.760039
-18.9072 -11.2266 -0.207046
-16.9541 -11.5957 0.0189892
-17.6298 -12.1415 1.11416
-19.5659 -11.576 -1.14073
-19.6541 -12.2334 -0.198835
-20.0132 -10.3147 -0.525318
-17.8656 -12.4355 -0.163965
-19.5266 -12.049 -1.63295
-16.1151 -11.5927 -0.0932192
-17.7277 -11.4953 0.161112
-16.9862 -11.84 0.054202
-17.7009 -12.1827 -0.0908673
-17.165 -11.786 0.15173
-16.1753 -11.9268 0.127673
-16.3144 -12.0329 0.381146
-18.1649 -11.1037 -0.702229
-20.9221 -10.8428 -2.40806
-16.4422 -12.0323 0.397842
-18.4808 -11.4635 -1.2286
-18.7112 -11.6341 -1.34722
-17.5484 -11.9786 -0.409692
-19.4312 -10.8491 -2.31179
-16.5967 -11.764 -0.204581
-15.4131 -12.6392 -0.657438
-16.5687 -12.3495 -1.29397
-16.7141 -12.792 -0.775479
-20.2985 -11.4571 -2.13585
-19.0932 -11.7597 -2.51974
-17.2985 -12.0973 -2.14171
-15.5997 -12.809 -0.421099
-18.787 -10.5126 -2.49053
-18.7499 -11.3222 -2.35208
-19.2134 -10.3278 -3.01988
-18.7485 -11.3732 -2.43571
-18.1038 -10.7477 -3.89453
-18.4729 -11.0563 -2.82424
-18.658 -11.3049 -2.92243
-16.449 -12.3054 -2.24202
-17.9449 -11.4157 -3.82131
-15.0102 -11.9913 -2.11801
-19.4783 -10.4794 -2.30797
-15.0567 -13.2731 -1.86017
-17.6466 -11.5327 -3.11469
-18.1762 -11.4821 -2.71296
-16.117 -11.896 -2.10028
-18.3303 -11.063 -3.29915
-17.9957 -10.7924 -3.81039
-15.0679 -11.605 -3.10409
-15.7471 -12.4264 -3.07826
-14.8604 -11.7959 -1.97606
-15.4562 -12.2867 -3.38133
-15.0875 -12.7779 -2.81198
-15.9646 -12.7135 -2.72874
-13.9636 -13.1747 -3.90521
-14.9746 -11.9702 -3.07815
-14.6714 -12.2685 -3.41016
-14.1122 -13.6427 -3.96167
-19.118 -12.231 1.76776
-15.319 -11.4587 0.73091
-20.04 -10.7994 -0.438477
-16.1373 -10.0805 1.24545
-19.5551 -11.0095 -0.493106
-17.2464 -11.4484 0.649781
-19.7347 -11.7065 -1.53969
-16.7989 -11.8108 0.613206
-19.2743 -11.6736 -1.15506
-16.7474 -12.4416 -0.251986
-20.5127 -10.5997 -2.6737
-17.0767 -11.9033 -0.484257
-18.4238 -12.4483 -0.339687
-16.4191 -11.05 -1.19026
-18.7009 -12.0685 -2.87087
-15.92 -11.6182 -0.266208
-17.782 -11.6011 -1.14951
-17.139 -12.13 -1.56973
-19.3622 -10.5065 -2.26982
-19.6396 -10.3022 -2.68907
-17.9818 -11.9273 -1.83968
-15.822 -13.5181 -1.5441
-19.2973 -10.9816 -2.0599
-17.1162 -11.7735 -1.41565
-17.8915 -12.2794 -1.89232
-15.4709 -12.9461 0.147107
-18.8706 -10.7909 -3.43656
-19.3157 -11.5869 -3.31805
-18.3391 -11.086 -3.09308
-15.1428 -12.7224 -0.875614
-16.877 -11.4185 -1.43233
-15.5825 -12.4799 -1.92809
-16.639 -10.408 -3.35512
-17.8042 -12.5441 -2.62641
-17.7952 -12.2673 -3.15946
-16.8733 -11.6967 -3.73205
-15.7299 -12.1802 -2.79386
-16.9592 -11.9437 -2.38725
-17.3592 -11.4595 -3.90867
-14.8802 -10.6177 -1.80476
-14.9934 -11.764 -2.36135
-15.4854 -12.4533 -1.32714
-16.0804 -12.3181 -2.69465
-15.5367 -12.4832 -2.08185
-15.6083 -11.5854 -1.91725
-20.1008 -11.8699 1.64099
-19.9695 -11.4149 -0.211215
-20.094 -11.7822 -0.0198461
-16.2985 -11.8504 0.452288
-16.4533 -12.0756 -0.0545585
-18.0102 -11.0919 -1.28599
-15.5193 -12.4366 -0.618017
-20.3393 -11.1784 -2.7979
-15.8176 -11.4766 -1.27244
-20.1137 -10.2847 -3.9007
-19.1378 -11.6639 -3.99738
-16.2296 -12.3089 -1.13366
-19.276 -11.2469 -3.29159
-16.6778 -10.9889 -3.03554
-15.882 -11.1215 -1.49686
-17.0936 -11.8834 -1.92296
-17.3406 -11.7497 -3.13713
-15.4121 -11.7968 -1.44724
-14.842 -11.8372 -2.40064
-15.2488 -11.6458 -2.45515
-14.6612 -12.9588 -2.13218
-15.3316 -12.637 -2.32675
-14.6567 -12.3094 -3.37518
-17.8972 -10.784 0.903677
-18.838 -11.786 0.734584
-16.3508 -12.1001 0.819421
-15.6931 -12.1595 0.942949
-16.6135 -11.4991 -1.25265
-16.731 -11.9872 -0.235952
-18.5109 -12.2774 -1.10801
-15.4387 -11.7273 -0.110064
-16.7535 -12.421 -0.0387899
-15.0848 -13.288 -0.933575
-15.0335 -12.6959 0.209848
-16.6148 -13.2899 -0.72582
-16.1857 -11.6518 -1.56613
-17.2632 -11.4996 -2.44859
-15.2332 -12.9988 -2.16395
-15.9937 -11.6728 -2.23104
-13.5541 -12.3447 -2.24637
-16.0439 -11.0951 1.04856
-15.3825 -12.6488 -0.700193
-18.9796 -11.6615 -2.04698
-15.3845 -12.6272 -1.01458
-15.2591 -13.3184 -0.435123
-15.753 -10.9446 -1.8058
-14.9877 -11.5377 -2.37883
-15.583 -12.0389 -1.762
-16.8912 -11.9882 -1.27517
-16.4415 -12.8416 -1.94913
-14.0048 -12.9673 -3.30611
-15.3967 -12.7775 0.071688
-18.5732 -11.2148 -0.775731
-17.2587 -11.7174 0.0221763
-15.7211 -12.5366 -2.70432
-15.2478 -11.4783 -3.43955
-14.291 -12.8079 -2.39723
-18.368 -11.4992 0.685661
-14.9892 -11.5684 -1.28486
-15.8471 -12.0318 -0.516351
-15.2861 -12.2088 -1.56457
-14.9061 -11.6014 -1.9168
-14.268 -12.509 -1.81075
-15.0169 -12.971 -1.12224
-15.7378 -10.5256 1.19454
-19.7715 -11.8759 1.64573
-15.9949 -10.4052 1.48068
-15.5002 -11.2844 2.54093
-15.1882 -10.2184 1.79861
-16.676 -10.1339 1.70586
-16.1034 -10.4081 1.88936
-15.4845 -10.4789 1.74704
-15.7596 -10.0804 1.29693
-16.1145 -9.51519 0.966573
-19.8912 -12.4357 1.22644
-20.2596 -11.5615 0.60095
-19.938 -12.1174 0.752711
-19.3811 -10.5038 0.925115
-20.0511 -11.425 0.495324
-20.5151 -10.5574 1.69921
-20.2679 -11.3492 1.11571
-20.6777 -11.2437 0.380285
-17.5385 -11.5124 0.428606
-17.3958 -11.6197 0.311223
-15.8867 -12.5035 0.0609773
-18.9053 -12.9038 0.491166
-17.6881 -12.1943 0.685142
-17.2542 -12.3573 0.991942
-17.0466 -12.5328 0.371847
-17.5071 -11.2408 0.320858
-17.2182 -11.8937 0.61118
-16.8359 -11.6146 1.48468
-17.2936 -11.1474 0.663672
-20.0317 -11.1256 -0.308895
-16.1359 -10.9406 0.830578
-16.3242 -12.4734 1.12677
-19.9805 -10.9463 0.130651
-20.3391 -11.1296 0.724078
-20.2861 -11.8519 -0.142973
-16.6282 -10.3861 0.263678
-19.2311 -10.7064 0.187164
-17.9815 -11.8618 0.511016
-20.8673 -12.1555 0.945783
-17.1679 -10.3985 0.16312
-19.6009 -11.5823 -0.45873
-18.205 -11.3132 -0.206543
-19.9354 -11.2058 -0.0566961
-20.3393 -11.4038 -0.701518
-19.2982 -11.9479 -0.902144
-19.2412 -11.5182 0.119897
-20.1396 -11.7628 -0.168508
-19.8315 -11.0014 0.00864556
-20.3856 -11.3601 -0.283775
-18.4262 -10.6481 -0.581492
-18.3628 -11.314 -0.675259
-18.5563 -10.5696 -1.75517
-16.5299 -11.0314 -0.274462
-18.877 -11.3384 0.93455
-15.6892 -12.4853 0.714463
-18.3744 -11.8378 0.389862
-19.3555 -11.6962 -1.03008
-19.9179 -11.6682 0.318828
-16.4477 -11.2303 -1.28629
-19.3634 -12.3873 -1.23687
-16.5983 -11.4273 -0.440137
-17.2397 -11.3763 0.602071
-18.5327 -11.6869 -0.0326922
-17.5994 -12.3968 0.538032
-17.0663 -11.445 0.327824
-17.0178 -12.459 1.13588
-17.2466 -12.3231 -0.241752
-15.9141 -12.3972 -0.389166
-15.908 -11.7369 -0.490983
-15.7801 -11.8209 -0.476841
-16.2436 -12.335 -0.474405
-16.2422 -12.5053 -0.92159
-18.5102 -11.5826 -1.03367
-15.4581 -11.9561 -1.09985
-16.1249 -11.949 -0.704455
-16.6252 -12.153 0.343266
-16.8133 -11.7397 -0.569371
-19.1429 -11.1928 0.190993
-17.875 -11.8591 -0.58487
-16.8904 -12.1755 -0.821451
-19.7047 -11.8291 -1.09045
-16.632 -11.5596 -2.4975
-19.7644 -11.8253 -0.435383
-19.4566 -11.0514 -0.74719
-19.8164 -11.5021 -1.41537
-19.9975 -11.0252 -1.41839
-19.9626 -11.5668 -0.212144
-20.1319 -11.8704 -1.47633
-17.1267 -12.6781 -0.269201
-19.5473 -11.2251 -1.87685
-19.3858 -11.4488 -1.70937
-20.5891 -11.5286 -2.57565
-20.9417 -11.1447 -2.09402
-20.1606 -10.8386 -1.87977
-19.4872 -12.1646 -1.91163
-17.0154 -11.1788 -1.57675
-19.6045 -11.212 -1.99433
-17.6941 -11.1817 -1.68066
-15.6259 -12.7317 -1.34178
-19.5971 -10.7347 -2.08506
-18.8567 -10.9756 -2.73259
-16.8649 -12.4098 -2.37215
-18.9034 -12.2165 -2.91692
-17.9554 -11.7482 -0.932639
-17.9363 -11.8448 -1.13892
-20.3692 -11.4899 -3.03752
-18.524 -11.5184 -2.28851
-20.0132 -11.1669 -2.53134
-19.0653 -10.7879 -2.18942
-17.9226 -11.1123 -2.37219
-18.1093 -11.8679 -2.80631
-19.5593 -10.6995 -2.94316
-20.278 -9.95251 -2.37224
-19.7315 -11.5934 -3.1202
-18.1965 -11.9021 -2.30042
-19.46 -11.6138 -3.27002
-19.5714 -11.0167 -2.94498
-17.7479 -10.819 -2.9747
-18.0483 -11.0535 -2.60429
-19.758 -10.8842 -2.71949
-19.3789 -10.738 -3.24702
-18.7604 -10.8859 -2.99435
-18.294 -11.9535 -2.73924
-16.0354 -11.3163 -2.07862
-17.8144 -11.4213 -2.57279
-16.322 -10.8169 -2.95564
-19.0999 -10.3053 -3.31657
-17.4209 -12.2627 -2.56492
-19.4483 -11.6202 -3.29343
-14.6681 -12.847 -2.20094
-19.5011 -9.80241 -3.13298
-19.9571 -9.93026 -2.81599
-19.6005 -10.77 -2.84034
-19.0112 -10.8658 -2.89986
-19.2712 -11.5281 -3.2368
-19.4302 -11.3033 -2.81093
-19.1738 -11.5304 -2.89328
-18.2719 -12.8246 -2.36992
-19.1018 -11.0389 -3.3192
-19.4886 -10.9237 -3.812
-17.5187 -11.7085 -3.22439
-17.2489 -11.5615 -2.2758
-18.0728 -11.7824 -2.87042
-19.9879 -11.2906 -3.46091
-19.1775 -11.448 -3.78556
-18.8338 -10.5734 -3.40335
-18.5856 -10.9675 -4.28972
-19.666 -10.9008 -2.69298
-18.2547 -10.6844 -2.57478
-16.8297 -11.5685 -2.93837
-14.8552 -13.2586 -2.94366
-18.3614 -12.0896 -3.24606
-14.2505 -12.6388 -3.30592
-14.1741 -13.0804 -1.95828
-14.5745 -12.7193 -3.24417
-15.3494 -12.622 -3.83625
-13.923 -13.3624 -3.19505
-15.5851 -9.61295 1.2136
-15.5654 -9.70703 2.02906
-19.5058 -9.96278 1.64832
-20.0944 -11.3532 1.05712
-15.5789 -9.77198 1.01127
-19.4401 -11.139 0.88567
-15.4778 -10.2443 1.02159
-19.559 -10.5902 1.74226
-20.7874 -10.8066 -0.343924
-20.1422 -11.1671 -0.508344
-19.5284 -10.9363 0.498194
-20.7771 -11.8029 1.22338
-19.833 -11.8248 0.589304
-19.491 -11.0675 -0.0782009
-17.4235 -11.8521 0.939671
-16.3238 -12.6726 0.102685
-20.8575 -10.7676 -0.241395
-19.4993 -11.5487 0.355275
-19.6749 -11.3824 -0.214557
-18.879 -11.3012 0.635713
-16.6292 -11.8759 0.0709077
-19.7871 -11.8795 0.561435
-20.1511 -11.6114 -0.247692
-17.8492 -11.3628 -0.357449
-16.0891 -12.4954 -1.12219
-15.5675 -12.2809 0.170467
-18.8575 -11.6494 -0.716208
-17.5261 -11.5961 -0.327865
-16.4968 -12.1731 -1.24547
-16.6044 -11.7239 -0.914463
-20.1399 -11.4837 -0.802612
-16.4029 -12.2806 -0.714412
-16.4405 -11.1869 -0.4097
-18.8114 -11.4873 -1.39209
-18.7159 -12.1188 -1.29824
-15.9381 -11.2555 -0.713979
-18.1754 -10.4785 -1.25544
-16.5183 -12.4288 -0.833672
-15.2175 -12.5378 -0.857624
-16.866 -12.1038 -1.01777
-15.6961 -12.2426 -0.385363
-17.6781 -11.2379 -0.959638
-18.2099 -10.7806 -0.595289
-18.291 -12.2731 -1.12052
-17.3924 -11.8107 -0.859439
-18.1216 -11.7467 -1.98058
-16.5984 -12.0763 -0.980729
-18.7455 -11.8312 -1.50668
-19.0637 -11.6312 -1.71576
-18.1366 -12.3838 -2.03748
-16.8687 -11.251 -1.89327
-19.1291 -11.8824 -1.38775
-19.7026 -11.0006 -1.25305
-20.8253 -11.3073 -2.82572
-17.5601 -11.6134 -2.21965
-15.9434 -11.5357 -2.18356
-16.0072 -12.1633 -1.62406
-16.3318 -12.4515 -1.26499
-18.6435 -12.1527 -3.05379
-19.0398 -11.3641 -2.4605
-16.3435 -11.3448 -2.14893
-16.8769 -11.5254 -2.06605
-17.4307 -11.9476 -1.91558
-14.9482 -12.0402 -1.39638
-14.4131 -12.2513 -2.06468
-15.3694 -11.1891 -1.71619
-18.3686 -10.9432 -2.53816
-17.8001 -11.4224 -3.33605
-17.5159 -10.7107 -3.16664
-18.1027 -12.3981 -2.9889
-18.8882 -10.2312 -3.27451
-19.1349 -11.0419 -2.78598
-17.5289 -11.4104 -3.07842
-14.1418 -13.3414 -3.06435
-16.068 -11.5325 -2.59356
-14.7484 -12.5367 -3.06232
-14.1349 -14.0215 -3.59812
-15.3845 -11.3813 -2.93447
-14.4153 -12.3162 -2.49328
-13.5317 -13.6568 -3.26764
-15.7456 -10.7559 1.34917
-17.0937 -9.65845 1.62291
-16.1555 -10.7007 2.65731
-19.3438 -12.3535 0.880518
-19.3285 -11.8595 0.584763
-16.5657 -12.4175 0.505316
-18.2991 -10.5205 -0.0150515
-17.1915 -11.6881 -0.235304
-18.5675 -10.818 -0.106698
-16.7295 -13.4903 0.208402
-15.5873 -12.1489 -1.00838
-17.3936 -11.7391 -1.02847
-17.3503 -12.13 -0.408299
-17.5035 -10.3042 -0.373691
-17.3682 -11.9918 -1.07431
-17.6679 -12.2328 -0.679603
-16.7893 -10.8738 -0.349837
-18.4986 -12.4756 -1.47673
-17.3985 -11.811 -1.34294
-17.397 -11.7511 -1.68673
-18.2894 -11.4572 -0.909987
-16.9001 -12.3531 -1.44931
-19.7627 -11.6038 -2.15917
-17.4655 -11.7081 -2.05916
-16.8988 -11.5592 -1.42888
-18.1207 -10.9842 -1.51245
-16.5049 -12.3408 -2.5804
-17.8982 -11.687 -2.80803
-16.7605 -11.2868 -2.07653
-18.2117 -10.9966 -3.27577
-18.6761 -11.3439 -3.22272
-17.3963 -11.0145 -3.50541
-17.9572 -12.0445 -2.96958
-19.2201 -10.218 -3.58098
-15.285 -11.1254 -2.27316
-15.7507 -12.0036 -1.98691
-16.1122 -12.5613 -2.30917
-17.1957 -11.1027 -4.04389
-15.103 -12.9431 -2.56274
-15.9547 -12.516 -3.05729
-14.8725 -13.1347 -3.11163
-19.318 -10.0317 1.41549
-20.0721 -11.2899 0.424925
-18.4159 -10.5797 0.234692
-18.2399 -11.934 0.858821
-18.4438 -11.0377 0.461813
-15.262 -11.7811 1.29851
-15.7536 -11.7212 0.192392
-18.5393 -11.0272 -0.0572708
-18.461 -11.524 -0.980053
-19.682 -11.9124 -0.81504
-19.9262 -11.6331 -1.47341
-16.2666 -12.765 -0.795498
-17.1865 -12.2981 -0.241043
-15.223 -11.5299 -0.185781
-18.2589 -11.1984 -1.1156
-16.994 -11.9098 -0.665917
-18.7838 -11.398 -1.22426
-15.3982 -12.4682 -1.02833
-17.4752 -12.2709 -1.60186
-14.9363 -12.9684 -0.573729
-18.0316 -12.1364 -1.76381
-16.2769 -12.2699 -2.32107
-18.2596 -10.8023 -2.48295
-16.3608 -11.7965 -1.90798
-17.6081 -11.2906 -2.76129
-16.2873 -11.7684 -2.27732
-14.677 -11.6021 -1.9778
-14.3572 -12.0488 -2.34926
-17.5879 -11.8082 -2.67664
-17.0543 -11.7454 -3.44784
-14.3792 -11.3972 -2.09933
-16.3197 -11.2626 -2.49854
-17.1123 -11.4826 -3.54508
-14.7612 -11.9248 -3.57705
-14.5954 -12.8843 -1.80728
-20.1453 -12.9843 1.14402
-16.8436 -11.45 0.672642
-16.9189 -11.6676 0.456083
-19.1023 -11.1893 -0.723725
-15.1729 -11.4691 -0.382751
-19.1685 -11.8157 -1.12755
-18.1989 -10.7217 -0.641044
-15.3185 -11.1763 -0.466091
-16.8142 -11.7023 -0.695733
-18.2156 -12.0295 -0.911266
-17.3714 -11.2232 -1.67425
-14.9971 -11.8007 -1.72003
-18.2716 -10.8337 -3.12409
-16.6923 -12.6862 -1.74
-15.2406 -11.5938 -2.16912
-17.1729 -10.8128 -2.37218
-14.5742 -10.9625 -2.62484
-14.2128 -11.9399 -1.90368
-19.2805 -12.5329 1.66427
-19.2999 -11.8285 0.559099
-19.4384 -11.2911 -0.496742
-16.6063 -11.7468 0.137512
-19.8275 -10.5622 -0.547395
-16.0589 -12.1199 -0.711654
-20.3842 -11.9047 -0.416205
-15.524 -12.4782 -0.79328
-15.9699 -12.7715 -0.677156
-17.15 -11.5176 -2.11476
-14.9286 -12.914 -1.80838
-16.9299 -11.1447 -1.94976
-15.5811 -11.0986 -2.6429
-15.2834 -11.4163 -2.16075
-19.9813 -11.3552 0.617113
-19.5308 -11.3231 -0.904079
-17.5 -10.7231 -0.856234
-18.2658 -11.7457 -0.79414
-15.0255 -11.9719 -1.72201
-17.3136 -10.6456 -1.8296
-15.4607 -12.3263 -2.67173
-14.3069 -11.4159 -2.17566
-18.0345 -11.6443 -2.29564
-18.8655 -10.6215 -1.06444
-18.3573 -10.8828 -0.0350502
-16.8706 -11.6995 -1.83595
-15.4975 -11.2999 -2.47305
-16.8325 -12.5519 -1.5447
-17.0623 -11.8949 -1.47204
-16.5842 -10.3095 2.29286
-16.2948 -12.2159 -1.48977
-15.2482 -11.7218 -1.15908
-16.5922 -11.4928 -1.23283
-15.8259 -11.9985 -1.83133
-15.0395 -12.671 -1.83649
-16.024 -11.8225 -1.86236
-17.0821 -12.5405 0.708313
-18.0862 -11.5504 -1.35998
-15.4862 -12.4749 -3.50206
-14.3248 -12.1867 -2.61617
-14.8099 -13.1838 -3.31911
-13.8375 -13.1407 -1.7291
-14.9187 -12.504 -3.04883
-18.4002 -10.9131 -3.43781
-18.6152 -10.3805 -3.74379
-15.1595 -11.0632 -2.05059
-19.9539 -10.6506 -4.27807
-15.5963 -12.0888 -2.70503
-18.7907 -11.5869 -3.38688
-17.965 -11.5001 -2.89498
-17.9857 -12.059 -1.78074
-18.9525 -11.4259 -2.42703
-17.9375 -11.6038 -3.26414
-16.2926 -10.9918 -2.62405
-18.3583 -11.6662 -3.14433
-14.5256 -11.3347 -2.2971
-17.577 -10.991 -3.40119
-17.1607 -12.3321 -2.11253
-19.067 -10.7921 -2.80197
-17.4084 -12.1606 -3.07235
-16.498 -10.8245 -1.71438
-17.0217 -10.9061 -2.43725
-19.5678 -10.7307 -1.14613
-15.9246 -10.9569 -1.85256
-19.8544 -10.1107 -3.16701
-20.693 -11.3783 -2.65305
-19.2892 -11.3051 -2.84168
-14.7346 -11.2043 -2.3075
-18.0656 -10.9737 -2.30709
-18.6381 -11.2729 -2.27058
-16.4506 -11.7607 -2.10679
-17.5344 -11.5083 -1.37964
-18.6475 -11.9354 -1.36322
-15.7383 -11.4873 -0.912241
-19.8969 -11.3458 -1.98875
-15.6676 -12.3176 -0.951703
-20.4234 -10.8272 -1.55928
-19.4396 -11.3578 -1.50791
-18.5099 -11.9172 -0.880916
-20.6167 -11.3847 -1.09252
-19.7633 -10.6733 -0.726242
-20.41 -10.724 -0.440618
-17.3475 -11.9375 -1.65902
-19.5776 -11.2402 -0.67174
-19.6084 -11.1874 -0.182586
-16.1936 -12.6893 -0.297147
-19.217 -11.8519 -0.90228
-19.3676 -11.3353 -0.514527
-20.3316 -11.0354 -0.0336048
-16.7836 -11.7179 0.670449
-17.2432 -11.5504 1.18487
-16.9132 -10.9226 0.460435
-19.6841 -11.3392 -0.35314
-17.4972 -12.0876 0.315593
-17.3331 -10.8778 -0.189638
-16.4876 -11.5548 0.984287
-19.4629 -11.3196 0.29202
-20.2269 -11.8079 0.875535
-20.181 -11.8592 1.22551
-20.0529 -11.2381 0.754409
-16.2056 -11.2213 1.88253
-13.9363 -12.0135 -2.25763
-13.812 -12.6629 -3.20448
-14.6119 -13.3359 -2.89441
-16.5836 -11.0353 -3.00155
-15.4172 -11.3747 -1.95583
-19.4927 -10.5442 -2.56807
-18.935 -10.8864 -2.02315
-17.2139 -12.6281 -0.705044
-16.3841 -12.3957 -0.629017
-18.874 -11.9787 -0.863136
-16.6759 -12.9246 0.207278
-16.2643 -12.1069 0.344815
-16.959 -11.7542 -0.0653913
-19.8734 -11.1461 -0.265414
-16.2001 -9.75917 1.11208
-15.0734 -12.6936 -3.71087
-13.59 -13.6436 -2.48594
-18.3519 -12.2855 -3.86886
-17.4078 -11.7254 -3.10348
-16.7108 -11.8869 -1.57134
-15.0499 -12.338 -2.20438
-14.8665 -13.0429 -0.701927
-15.6077 -12.4036 -1.37512
-18.5725 -10.7449 -1.00644
-15.385 -13.0195 -0.483235
-17.935 -11.1179 0.84155
-18.8137 -11.1542 -1.44444
-16.4436 -11.943 0.269525
-17.4857 -12.0237 0.771685
-16.5363 -9.60222 2.02838
-14.9695 -11.1658 -2.35386
-15.9956 -10.8632 -3.54411
-17.1977 -11.5102 -1.42897
-18.1176 -10.714 -3.27092
-18.2344 -10.5635 -0.573815
-14.5735 -12.345 0.0215809
-16.0593 -12.358 0.244776
-15.7472 -12.9351 0.0869097
-18.7218 -11.4971 1.06957
-16.1406 -12.5273 -0.934193
-20.2154 -12.2598 0.693413
-15.5873 -10.0125 1.78684
-15.4653 -11.3173 -2.47075
-16.3383 -11.7237 -2.00584
-16.4027 -11.4133 -1.55822
-16.1975 -11.4861 -1.85276
-16.3452 -11.8528 -2.22079
-19.1114 -12.1166 -1.40047
-18.2581 -10.6015 -0.27005
-18.9273 -11.4353 -0.246173
-17.5639 -11.9795 -0.243465
-15.2805 -11.6085 -0.134701
-14.6503 -11.9342 -2.20084
-15.4197 -10.7449 -1.20327
-16.7308 -11.5323 0.404802
-18.7486 -11.7394 -0.333151
-19.891 -12.323 -0.510584
-16.4546 -11.5454 -0.955967
-16.7062 -11.9376 -0.276396
-15.9095 -12.2023 -1.16996
-16.1271 -12.2977 -0.81095
-17.9428 -12.001 -0.930046
-16.4349 -11.7502 0.0779322
-16.0214 -12.3327 -2.07062
-16.524 -12.1486 -0.155093
-15.4231 -12.3535 -1.27269
-15.4781 -12.5784 -0.396987
-15.3694 -12.829 -0.763074
-15.6446 -12.0946 0.177434
-19.7049 -12.0511 -3.69879
-18.9931 -11.0865 -3.37693
-15.9001 -12.5565 -2.57302
-17.2184 -12.2472 -3.69224
-17.5749 -11.8067 -3.09569
-18.4701 -10.7551 -2.91386
-15.2883 -12.8016 -2.80081
-15.9023 -11.5107 -2.41224
-17.7434 -10.8875 -1.96651
-14.3343 -13.0572 -3.44897
-15.3457 -11.9281 -4.08572
-13.6718 -13.2912 -2.58372
-15.0903 -11.3408 -3.04266
-15.5414 -11.7171 -2.8027
-16.2009 -12.2353 -1.55435
-18.4569 -11.3196 -1.40721
-16.3626 -12.654 -1.74271
-16.0038 -12.2415 -1.79125
-16.6209 -11.3593 -1.13169
-19.4715 -10.493 -0.481575
-15.7896 -12.4231 -1.29957
-19.9035 -11.2667 -0.158817
-19.0797 -12.066 0.959433
-17.95 -11.088 -1.33467
-15.5408 -11.8034 -1.41515
-15.9328 -12.4696 -0.572115
-17.9888 -12.441 0.273685
-19.6079 -11.5332 0.319174
-19.4575 -11.397 0.790144
-19.921 -11.837 0.0488487
-20.4891 -11.3553 1.36496
-20.4559 -10.8615 0.706338
-20.6204 -11.2627 0.221675
-15.715 -12.0418 0.0505005
-19.8695 -11.5295 0.123542
-19.934 -11.279 0.664379
-19.9125 -10.7145 0.768172
-17.1226 -11.6929 0.802368
-16.0033 -11.008 0.213969
-16.9877 -10.1417 0.76593
-16.1628 -10.3878 0.644921
-15.683 -9.51215 0.873974
-15.7339 -10.6523 0.765354
-17.1153 -11.5279 -3.61973
-19.5879 -10.9312 -2.64907
-18.6679 -11.3038 -3.55634
-18.4195 -12.3794 -3.04967
-16.9382 -11.4586 -3.03283
-18.1069 -11.8933 -2.7128
-17.8923 -11.044 -2.99441
-14.5155 -13.3303 -2.72812
-14.905 -13.5401 -3.39915
-16.0619 -11.6178 -1.82342
-19.0379 -11.7316 -1.39925
-14.5242 -11.9408 -0.867298
-17.583 -11.1839 -0.633386
-16.7002 -12.6845 -0.208126
-15.2282 -12.4828 -0.923635
-16.2475 -12.6462 0.612392
-19.1217 -11.3554 -0.0377734
-18.9653 -11.2989 -0.0264234
-18.052 -11.0606 -0.157228
-17.3971 -11.3446 -0.517808
-15.7852 -11.5482 0.600552
-15.659 -11.735 1.55778
-17.4381 -12.0301 -4.04834
-15.9698 -11.3521 -2.04315
-15.2208 -11.5775 -2.3673
-18.6592 -11.9876 -2.49578
-14.1733 -13.2131 -3.06921
-17.8198 -11.6011 -1.68766
-17.1225 -11.2515 -0.526721
-14.2163 -11.7869 -0.975735
-19.6389 -11.7003 0.0476317
-19.5525 -12.571 0.117264
-19.2618 -11.7591 -0.376416
-19.2931 -11.8586 -0.786027
-16.3803 -11.341 -0.1149
-17.4235 -11.3877 0.0600986
-18.6393 -11.2446 -3.09525
-15.3631 -11.9677 -1.77622
-18.8749 -12.2305 -0.326277
-19.5634 -11.2097 -0.285922
-15.6202 -11.9566 -0.632043
-16.58 -11.5978 0.296121
-16.2676 -11.7798 0.41509
-16.5892 -10.9997 -2.40949
-18.5348 -11.6741 -0.191651
-16.6539 -11.5148 0.753012
-16.7863 -11.7537 -2.82575
-17.388 -12.2109 -0.685894
-17.8034 -11.5136 -1.12169
-16.112 -9.75583 1.58097
-15.5907 -11.991 -1.78305
-16.0629 -11.4648 -1.1829
-16.8379 -11.9138 -2.56183
-15.6834 -11.6017 -1.62066
-16.0434 -12.0494 -0.452952
-15.475 -12.1796 -2.23616
-19.0456 -11.2599 -1.86817
-19.2802 -11.5787 -3.41336
-19.8651 -11.2136 -2.95057
-18.5525 -11.8257 -1.64322
-14.8842 -11.5483 -2.43861
-19.2909 -11.1171 -2.10969
-14.7667 -11.2803 -1.94626
-18.7206 -12.5931 -0.874144
-18.3974 -11.6743 -2.39131
-16.121 -10.5512 -2.00913
-16.3037 -11.2646 -1.57998
-14.7016 -13.0064 -2.97516
-16.0097 -12.0465 -1.45399
-15.6895 -11.697 -2.12158
-15.3705 -12.0574 -1.86568
-19.2077 -10.458 0.0630224
-15.4386 -11.8868 -1.67734
-16.1148 -11.2924 -1.9815
-16.7147 -12.6634 -1.66
-16.6291 -11.1511 -0.791404
-14.4626 -12.8778 -2.82654
-18.6851 -12.5527 0.0398028
-14.461 -12.7111 -2.80444
-15.8253 -12.0668 -1.75189
-16.4328 -12.0847 -0.351478
-14.3557 -13.1862 -2.59118
-16.9715 -12.1291 -0.88983
-16.5588 -12.3382 -0.420142
-17.899 -12.4797 -0.864615
-15.9583 -11.8039 -1.43074
-16.984 -10.8205 -0.0471478
-15.629 -12.7851 -0.608851
-17.531 -11.8178 0.0566851
-16.0754 -12.8564 -0.032183
-15.9137 -11.9028 0.913615
-16.6692 -12.3746 -0.583884
-15.4263 -13.1344 0.213351
-14.1353 -12.838 0.0882499
-15.9599 -11.033 1.24649
-15.3821 -12.6183 -2.40259
-17.1992 -11.634 -2.04898
-16.2956 -11.1959 -1.83684
-16.5965 -11.2742 -1.71563
-16.2917 -12.2622 -2.72719
-20.2733 -11.235 -0.222511
-20.3881 -12.2376 -0.455049
-15.0977 -12.3636 -2.8722
-16.63 -11.4508 -0.476977
-19.0856 -11.2544 0.947594
-18.6716 -11.0976 0.410398
-14.5568 -12.4205 -2.98096
-14.4269 -12.8446 -2.70109
-16.8051 -12.0779 0.485134
-16.4135 -11.8048 -1.00649
-17.3859 -11.7107 0.563494
-16.1636 -11.846 -0.867637
-15.2391 -12.5964 -1.07242
-15.1673 -12.3788 -1.45075
-15.7061 -12.6431 0.0686471
-15.3669 -13.3535 -0.380259
-15.2926 -12.0194 -0.997816
-15.2776 -10.7363 -2.94198
-17.1174 -11.4998 -1.83761
-16.941 -10.4746 -2.34943
-19.101 -11.1799 -0.48507
-19.9539 -10.7924 -0.470906
-14.2353 -12.7735 -2.83979
-19.9298 -11.8145 -0.480946
-18.4747 -12.0397 0.541787
-20.2046 -11.7002 -0.182965
-18.0232 -11.2844 0.0890443
-17.9887 -11.2481 0.952736
-17.1077 -11.9654 -0.909688
-16.5962 -12.0366 -0.0411606
-16.9195 -11.5011 -0.884743
-17.5138 -10.6082 1.38925
-14.7888 -12.4649 -2.61446
-15.9911 -13.0903 -1.28223
-17.0974 -11.3236 0.79031
-16.3682 -11.4039 -2.6318
-17.4029 -11.3571 -2.11706
-16.3412 -11.5975 -1.32487
-16.248 -11.5249 0.321936
-17.0917 -13.2029 0.085806
-16.7759 -11.3549 0.179591
-15.9738 -12.1203 -0.870667
-16.3564 -12.3982 -0.176932
-15.5361 -13.6836 0.176224
-15.9731 -11.9312 -3.17279
-17.052 -11.1107 -0.764892
-16.2355 -11.69 -1.9921
-19.5402 -11.1924 -0.142926
-15.6252 -12.275 -2.25187
-17.9491 -11.8593 -1.13974
-15.3532 -12.4097 -0.740828
-15.6125 -11.8192 0.58475
-15.601 -11.3639 -2.28366
-16.0252 -11.9347 -1.64014
-18.0011 -11.4278 -0.761526
-16.0758 -12.1287 -0.29802
-16.2297 -12.2366 -1.43624
-17.4349 -12.1285 -0.583967
-20.2491 -10.9139 -1.34576
-19.5535 -11.4577 0.599844
-16.6736 -11.1811 -2.76207
-20.9842 -11.7357 0.988104
-17.6323 -10.6325 0.460501
-16.5289 -12.928 -2.08337
-17.6659 -11.4024 -0.932523
-15.8517 -12.1025 -1.24549
-16.1042 -11.7126 -2.49422
-16.8273 -11.2829 -0.454001
-15.9562 -12.2484 -1.13386
-15.877 -12.1572 -0.57021
-17.48 -13.1524 -0.318396
-17.5231 -11.4279 -0.396848
-16.4467 -12.5764 -1.42393
-15.6557 -12.0085 -1.39824
-15.2077 -13.1394 -2.33719
-15.3868 -12.3266 1.28817
-19.5207 -10.1819 -2.64875
-18.9084 -11.2579 -2.74238
-19.7195 -11.7031 -1.00296
-20.2522 -11.7609 0.0468757
-16.6395 -11.2827 -2.22671
-15.4058 -11.8898 -2.42527
-18.8346 -11.2173 0.304198
-16.0894 -11.2047 -1.25635
-14.6836 -11.5238 -2.7879
-15.374 -10.8906 2.36391
-15.5642 -11.9769 -0.464952
-13.4424 -12.8987 -2.64377
-16.3708 -11.9871 0.883955
-15.2285 -12.788 -0.279448
-16.6181 -11.8129 0.202346
-14.687 -12.382 -0.856227
-20.1545 -11.5278 -0.738573
-17.3657 -11.2191 -1.68351
-17.0443 -10.9629 0.168055
-17.3813 -12.6879 0.422982
-16.5666 -12.6457 0.280645
-16.5388 -12.6881 0.149479
-15.3965 -12.87 -3.55077
-16.692 -11.2516 -1.20621
-14.5206 -13.0387 -2.04123
-16.2484 -11.7147 -0.983745
-16.1224 -12.1989 1.61786
-15.8408 -12.2021 0.141685
-15.4763 -12.4723 -0.791513
-19.1453 -10.9558 -1.97412
-19.3236 -11.317 -0.358495
-15.9787 -12.4474 -1.66393
-16.2589 -12.1563 -0.419756
-15.606 -12.4248 -0.165461
-14.7722 -13.0553 -1.1415
-17.0987 -11.2526 -2.35199
-14.4316 -13.4023 -2.04803
-15.9776 -11.7809 -0.103738
-16.2503 -11.0687 -1.16678
-19.7276 -10.5399 -2.82284
-19.0897 -10.8845 -1.81486
-19.9719 -11.4813 -0.519946
-19.623 -11.1309 0.267458
-18.4425 -11.1462 -3.58255
-17.8698 -11.9623 -1.16964
-16.4767 -11.1666 -3.70259
-17.0642 -12.326 -0.732665
-16.2177 -11.2771 -1.67364
-17.3035 -12.0273 -0.943636
-16.6112 -11.356 0.19715
-15.2904 -12.3685 -1.22198
-15.8371 -11.6595 -2.60464
-14.531 -11.4373 -0.780406
-15.3652 -12.7056 -0.423805
-14.3975 -13.0151 -2.68844
-14.3138 -11.8217 -3.20825
-19.1192 -11.5437 -1.12687
-18.5623 -11.6155 -1.18859
-18.6204 -13.0118 -0.641555
-17.8272 -12.614 -1.68562
-17.685 -12.0453 -1.19685
-16.1073 -12.494 -0.944454
-15.1402 -12.3585 -0.475485
-19.7382 -11.9273 -1.60588
-19.2663 -12.2051 -0.699173
-17.0704 -11.9385 -1.7586
-17.0036 -12.1453 -2.59876
-17.7421 -12.1889 -1.52533
-16.8556 -12.0355 -0.642274
-16.4126 -11.8614 -0.868892
-16.281 -11.3274 -1.5276
-16.3722 -11.5716 -1.56648
-16.0434 -11.912 -0.277223
-16.6326 -11.9009 0.62815
-16.0425 -12.3099 -1.00617
-20.1987 -11.6873 -0.209994
-18.4432 -10.7222 1.50341
-17.1793 -11.3519 -2.23166
-16.6114 -12.1021 0.1355
-17.4402 -12.7577 -1.77248
-18.4294 -11.459 -2.75478
-16.6161 -11.265 -1.07141
-15.7376 -12.792 -0.791138
-15.9701 -11.82 -0.0515515
-19.9857 -11.2869 -2.91215
-19.8694 -11.3534 0.359789
-19.5263 -10.6017 -3.921
-19.8235 -11.0987 -1.27967
-17.8365 -10.6775 -1.493
-18.3205 -11.5499 -2.42986
-16.1839 -11.9975 -2.08472
-17.9965 -12.2277 -0.566063
-17.4888 -11.7678 -0.00787299
-16.463 -12.2786 -0.491384
-16.6549 -13.1509 -0.203598
-16.5014 -12.1289 -2.8785
-16.0196 -11.4739 -0.0381543
-15.5063 -12.7273 -2.16741
-15.9446 -11.9568 -2.34449
-15.759 -12.1887 -1.92962
-20.1519 -10.7387 -0.102331
-19.0316 -10.4643 -3.53365
-19.9592 -12.1481 -0.493831
-16.6683 -10.6696 -1.90236
-15.1354 -12.5188 -0.224564
-14.4355 -13.326 -1.9522
-19.9536 -11.7921 -0.112324
-17.5842 -11.5109 0.55455
-16.7874 -11.2626 -3.74706
-16.3576 -11.5899 -0.921819
-20.1612 -11.1753 -1.36955
-19.5097 -11.6832 1.00561
-18.683 -12.0445 -1.53656
-18.5404 -11.2578 -1.06222
-18.3536 -10.7842 -1.19925
-16.6355 -12.3408 -0.490619
-15.7777 -12.2262 -0.703508
-16.7454 -11.4152 -3.57341
-16.7733 -11.2229 -1.42043
-20.2386 -10.6771 -0.71204
-19.1235 -11.5075 -2.49487
-17.5118 -11.6259 -1.26732
-16.8031 -12.626 -1.26569
-16.8661 -12.1047 -1.03777
-18.0238 -10.7289 -3.10077
-15.9076 -11.6992 0.0866188
-17.1932 -12.8777 -0.303937
-16.8378 -11.6639 -0.537449
-17.1827 -12.1608 -0.366296
-18.448 -11.6679 -3.69357
-16.7385 -12.3292 -1.19611
-15.5764 -12.0683 0.22555
-16.7707 -11.4687 -1.96785
-15.5663 -11.8372 -0.0283611
-16.2037 -11.5179 -1.58168
-15.4598 -12.6486 -0.409355
-14.7241 -12.2703 -1.55469
-18.1378 -11.1184 0.453469
-17.0451 -11.9014 -1.04799
-17.6061 -11.9176 -0.427426
-15.9079 -11.994 -1.57643
-16.6069 -10.8924 -2.27083
-15.9143 -12.0559 -0.278327
-15.6958 -12.592 -0.614388
-15.6664 -12.4774 -0.00316419
-16.0725 -11.9213 0.307057
-16.0128 -12.0547 -1.37487
-15.8772 -12.2998 0.0646512
-15.5046 -12.2982 0.334632
-18.0442 -10.8504 -2.94389
-17.2242 -11.3274 -3.11683
-17.7881 -12.8219 0.615289
-16.8078 -12.1584 -1.06058
-16.7416 -11.6173 -0.474047
-15.8261 -11.5931 -0.580909
-16.0933 -12.28 -0.932212
-15.9227 -12.4052 -0.979679
-14.1853 -13.2162 -1.51577
-16.236 -12.0831 -0.415941
-17.3461 -12.0523 -1.50626
-15.4691 -12.2523 -0.595377
-16.0404 -12.0386 -1.75873
-15.8016 -11.69 -2.08558
-16.1899 -12.0425 0.0234058
-14.349 -11.9788 -0.740558
-15.3805 -12.5949 -0.926696
-16.1584 -11.8687 -1.10678
-15.8798 -9.74507 1.82589
-19.6359 -10.5146 -1.89688
-19.9781 -10.9603 -3.7562
-17.1363 -11.3961 -1.37274
-16.1188 -12.4231 -1.41407
-14.9816 -11.8414 -1.44016
-14.9594 -12.926 -3.60261
-19.8637 -10.897 -0.593056
-18.2563 -11.6293 -2.30386
-17.1753 -11.8536 -0.796066
-16.5692 -13.719 -0.793444
-17.3737 -11.6844 -0.83979
-17.0669 -11.0869 -1.07034
-15.1993 -12.7876 -0.174308
-18.6098 -11.2862 -2.8711
-16.4472 -12.2496 0.0393836
-15.4616 -11.743 -1.0318
-16.4425 -12.8738 -0.154385
-15.3944 -12.6757 -0.412028
-17.1897 -12.2101 -1.71604
-15.4827 -12.293 -0.715486
-15.6848 -12.529 -1.09096
-15.1481 -11.6488 -0.0192331
-14.7117 -11.6237 0.519798
-15.8027 -11.3815 -2.82064
-15.1171 -12.204 -2.36801
-14.2376 -12.1979 -2.97158
-20.3781 -10.535 0.599534
-20.1479 -10.6507 -1.20301
-17.3866 -10.4635 0.44098
-18.0756 -11.465 0.0290502
-17.8356 -11.735 0.0846668
-17.2828 -11.3294 0.619532
-18.4474 -11.7674 -0.701592
-17.9598 -11.7373 -0.877321
-16.7772 -12.1063 -0.189384
-16.2815 -10.9584 -0.788371
-15.5414 -12.3007 -0.0952581
-18.037 -11.8988 -3.3759
-15.8093 -12.8977 -1.203
-15.5432 -11.7334 -2.45118
-17.7784 -11.1122 -0.607895
-18.8645 -12.0284 -2.16295
-17.2281 -11.9391 -0.0958285
-16.2397 -12.8251 -0.138171
-16.4365 -12.2846 -2.26143
-17.662 -11.6367 0.9169
-17.9828 -11.8122 0.235456
-15.7963 -12.0255 -0.706655
-16.9298 -12.2376 -1.34978
-16.5345 -12.3907 -1.60515
-15.1236 -12.3077 -0.690104
-15.3144 -11.8369 -2.99119
-15.8132 -12.3666 -1.96712
-20.6047 -11.3631 0.946345
-15.6451 -10.004 1.81076
-16.5406 -10.5226 2.00779
-17.9168 -11.5401 0.402608
-19.3119 -11.7003 -1.80436
-19.9622 -11.3885 -1.58735
-20.0975 -11.3715 -1.99839
-20.1194 -11.837 -1.78273
-19.4576 -10.8558 -1.85764
-17.2613 -12.2888 -0.744146
-17.4528 -12.129 -0.470949
-16.2565 -11.5461 -1.06822
-17.8942 -11.077 -0.0801963
-16.0752 -11.9733 0.322347
-16.4807 -12.591 -0.291413
