-17.8713 -11.3611 -1.8733
-19.0147 -10.7454 -1.57068
-18.3884 -11.2299 -1.53638
-19.3698 -10.3024 -1.53492
-18.3975 -11.3264 -1.48116
-18.9223 -11.0991 -1.2563
-18.9618 -11.1256 -1.39883
-18.4259 -11.1817 -1.2908
-18.6302 -11.3593 -1.04891
-19.1165 -11.0168 -1.35065
-18.9985 -11.0593 -1.12368
-15.6154 -12.5793 -0.725393
-16.2096 -12.2267 -0.830949
-15.2317 -13.0196 -0.751666
-15.9916 -12.5907 -0.677817
-19.0329 -11.0991 -1.00778
-18.9568 -11.2496 -0.857938
-18.7552 -11.2802 -0.997855
-15.5693 -13.0575 -0.505874
-15.9638 -12.3353 -0.376149
-16.9009 -12.2972 -0.543266
-19.3009 -11.2369 -0.729049
-19.2264 -10.9681 -1.13918
-15.1888 -13.2563 -0.297962
-16.6896 -12.1347 -0.0614995
-16.7814 -12.0115 -0.0507082
-17.8945 -11.1544 -0.220112
-17.9907 -11.3767 -0.0513504
-18.1397 -10.9454 -0.0283886
-18.1569 -11.0821 -0.101066
-16.0996 -10.7244 1.12846
-16.7607 -11.5567 -2.9727
-15.3888 -12.1561 -2.28832
-15.2906 -12.1592 -2.20177
-15.8924 -12.2121 -2.01694
-13.9441 -13.9638 -2.09688
-13.3853 -14.4023 -1.93734
-14.5343 -12.7198 -1.69138
-16.048 -11.7864 -1.48904
-15.1873 -12.5836 -1.52582
-15.9238 -12.2233 -1.31253
-15.476 -12.5875 -1.06767
-16.881 -11.9262 -1.42389
-18.7133 -11.4247 -1.35725
-19.4864 -10.3737 -1.69366
-19.3507 -10.7056 -1.57289
-19.3697 -10.5261 -1.61365
-19.2847 -10.6302 -1.59862
-18.6714 -10.8968 -1.44832
-19.628 -10.5867 -1.55846
-15.8172 -12.9076 -0.749919
-16.5075 -12.2382 -0.739869
-19.1269 -10.846 -1.02885
-16.5844 -12.3334 -0.612557
-17.4953 -11.4912 -0.4983
-18.8945 -11.2627 -0.856221
-15.8351 -12.801 -0.132868
-18.0095 -11.2514 0.148092
-17.4216 -10.8271 -4.03106
-15.3086 -12.013 -2.10603
-15.3163 -12.1498 -2.28471
-15.1617 -12.2072 -2.2319
-15.407 -12.0676 -1.97918
-17.7905 -11.2046 -2.66751
-16.631 -12.0522 -2.55996
-18.3397 -10.872 -2.33509
-14.5132 -13.0419 -1.43706
-18.8977 -10.7382 -2.10647
-17.9042 -11.3909 -1.65429
-15.0158 -12.6138 -0.947187
-18.513 -11.2388 -1.35751
-18.9035 -11.3248 -1.05318
-15.4348 -12.8615 -0.785315
-14.8522 -13.508 -0.745057
-17.1787 -11.5813 -0.566495
-16.8401 -12.1639 -0.532254
-18.1297 -10.7554 -2.57506
-14.0964 -13.0764 -1.73148
-14.2405 -13.314 -1.71429
-15.215 -12.7975 -1.57143
-18.4044 -11.1572 -2.02886
-15.4376 -12.5888 -1.22888
-15.3104 -12.5769 -1.13996
-15.381 -12.4317 -1.42451
-16.7771 -12.1154 -1.50811
-19.3925 -10.4975 -1.44662
-17.7185 -11.2439 -0.760282
-16.0193 -12.5919 -0.223491
-17.8534 -11.0886 -0.23968
-19.1768 -11.0639 -0.54349
-16.4047 -11.7685 -3.37045
-13.6566 -13.3447 -1.8272
-15.325 -13.5259 0.00105729
-16.1072 -12.2473 -1.98513
-17.6768 -11.0712 -0.719442
-16.8638 -11.9446 -1.17136
-18.386 -10.9204 0.0599402
-16.1541 -10.5426 0.973068
-15.7265 -12.7204 -0.780375
-17.7413 -11.2477 -1.09599
-17.1684 -11.5864 -1.60828
-16.7973 -11.6122 -2.07604
-18.3087 -11.1503 -1.23494
-17.5621 -11.054 -3.45573
-17.6892 -10.5815 -3.59431
-17.6517 -11.1619 -3.45057
-18.6204 -10.8831 -2.14528
-19.0562 -10.6457 -1.70119
-19.3497 -10.7711 -1.47861
-17.7379 -11.3522 -1.80375
-19.2597 -10.8702 -0.984503
-14.8311 -12.293 -2.3098
-18.6303 -11.3808 -1.15262
-19.0935 -10.9848 -0.84417
-16.7845 -11.9432 -1.74693
-17.4231 -11.3248 -0.453555
-15.959 -12.334 -1.33183
-16.1754 -12.2605 -1.13359
-14.4443 -13.026 -1.56286
-17.9217 -11.1215 -0.0991655
-14.2895 -13.2674 -1.62051
-16.8693 -11.7891 -0.283949
-17.1882 -11.7693 -0.056207
-13.4208 -14.2022 -2.12906
-15.9196 -12.9797 -0.749447
-15.9363 -12.5273 -0.686712
-16.3226 -10.6306 0.897151
-15.2798 -13.1421 -0.503906
-15.4132 -13.7628 -0.424184
-15.9161 -10.6817 1.03098
-16.1655 -10.6351 1.16149
-16.0816 -10.7215 1.12915
-16.1494 -10.9737 1.2759
-16.3478 -12.6733 0.398114
-15.638 -10.949 1.41751
-17.8329 -10.5042 -3.62407
-19.2453 -10.5579 -2.04597
-17.6602 -11.2357 -2.58236
-16.8434 -11.6133 -2.88506
-18.3946 -11.03 -1.74387
-17.5796 -11.3891 -2.07602
-18.0838 -11.3764 -1.86239
-18.1066 -11.5128 -1.84506
-18.9638 -11.0748 -1.17756
-18.2594 -11.5563 -1.31976
-15.299 -12.0475 -2.29589
-16.6784 -11.9552 -1.66424
-18.6658 -11.3176 -1.02239
-19.0772 -11.1217 -0.774511
-15.3453 -12.494 -1.5063
-15.3076 -12.4843 -1.70314
-15.8483 -12.5419 -1.26024
-18.1569 -11.2189 0.00728508
-16.3458 -12.3611 -0.742206
-16.3486 -12.2516 -0.721061
-16.9514 -11.8116 -0.437462
-15.192 -12.6706 -1.16752
-16.346 -12.4203 -0.547989
-14.7054 -13.437 -1.07083
-16.1797 -11.7708 -3.42665
-18.2476 -10.8904 -2.33027
-17.8363 -11.2162 -2.39283
-17.7464 -11.4684 -2.12145
-18.1695 -11.2576 -2.04986
-18.0316 -11.5073 -1.93435
-19.0967 -11.2976 -0.90437
-14.8558 -12.9425 -1.5019
-15.2483 -12.8693 -1.44051
-16.1199 -12.3114 -0.621766
-13.4211 -14.3677 -1.83048
-16.1 -12.1952 -0.36226
-16.6201 -12.206 -0.369734
-12.9373 -14.5641 -1.80959
-15.6951 -12.9338 -0.233664
-16.3118 -10.6586 1.3755
-16.6694 -12.0439 -2.66503
-18.3214 -11.2869 -1.70926
-18.4025 -11.2595 -1.22779
-17.623 -11.3633 -1.20809
-15.3202 -12.35 -1.94163
-17.8283 -11.0654 -0.0400161
-16.643 -12.2662 -0.749507
-16.4911 -12.2671 -0.480034
-15.4103 -13.0526 -0.957753
-15.3688 -12.9068 -0.66065
-15.1362 -13.1929 -0.865869
-17.635 -10.482 -4.09308
-18.0729 -11.1166 -2.45852
-17.1992 -11.7505 -2.49602
-16.9606 -11.1083 -1.95705
-17.0293 -11.8439 -2.39242
-17.6714 -10.9073 -0.995835
-18.9978 -11.1434 -0.878987
-16.6151 -12.1848 -1.56939
-16.194 -12.1224 -0.987027
-16.4875 -12.226 -0.609481
-16.9515 -11.9628 0.0790997
-17.2573 -11.5789 -0.621253
-17.7061 -10.9843 -1.06732
-15.1579 -12.7216 -1.76128
-15.5964 -12.4112 -1.20165
-15.1757 -12.6455 -1.1353
-15.6386 -12.1 -2.36931
-15.6364 -12.002 -2.6292
-15.7252 -12.0488 -2.4877
-16.818 -12.2892 -1.21308
-15.2011 -12.6397 -1.72172
-15.0876 -12.8166 -1.45946
-17.8618 -11.5227 -1.80922
-15.2942 -12.4851 -1.75553
-17.6659 -10.6991 -3.81264
-17.5028 -10.7093 -3.91098
-17.6008 -10.9116 -3.52087
-17.2327 -11.0167 -3.82717
-18.9911 -10.7877 -1.88054
-16.8478 -11.1391 -3.95903
-18.6752 -10.9308 -1.6267
-18.392 -11.0241 -2.14003
-17.7008 -11.1417 -0.468718
-15.8218 -12.2717 -3.41199
-17.8869 -11.2295 0.170982
-18.0419 -11.1092 0.0986562
-17.9662 -11.2527 0.284687
-17.2039 -11.6588 -0.569264
-16.7817 -11.8132 -1.2342
-16.1187 -12.0954 -1.47173
-16.3219 -10.4694 1.20157
-16.2785 -10.3895 1.12508
-15.3702 -12.5724 -1.35206
-16.137 -10.7886 1.23629
-15.9475 -10.8168 1.36077
-16.0573 -10.9738 1.23807
-15.6064 -13.0327 -1.00512
-15.4387 -12.9855 -0.49684
-15.8747 -12.7815 -0.243084
-14.0501 -13.3921 -1.30327
-15.2908 -11.2331 1.36579
-17.7205 -10.5977 -3.63234
-17.5999 -10.8005 -3.19944
-17.3406 -10.8139 -3.60839
-17.8226 -11.0669 -3.05975
-17.7286 -11.4841 -2.27636
-16.9071 -11.5846 -3.17283
-18.2334 -11.4576 -1.52842
-17.9606 -11.4081 -1.87999
-16.6169 -11.6306 -3.29826
-16.6106 -11.5434 -3.14169
-16.6946 -11.6463 -3.28575
-17.8259 -11.3065 -1.81691
-18.2893 -11.5117 -1.53986
-16.053 -11.8823 -3.45403
-18.9646 -11.2435 -0.501958
-17.08 -11.8408 -2.47224
-17.934 -10.9946 0.0235791
-16.6233 -11.9372 -1.37261
-16.8086 -11.8676 -1.49082
-15.8596 -12.2194 -2.24341
-17.1653 -12.1514 -0.791724
-16.2822 -10.5596 1.03164
-16.3156 -12.2636 -0.845082
-14.8494 -12.9107 -1.68454
-15.192 -12.6594 -1.13539
-15.3822 -13.08 -0.722497
-15.6249 -12.7888 -0.41872
-15.512 -13.05 -0.259282
-15.498 -13.3855 -0.12592
-15.7647 -10.8861 2.09679
-13.6428 -13.9214 -2.15745
-17.6581 -10.8248 -3.86456
-17.8169 -10.5538 -3.68466
-18.8838 -10.5292 -1.95312
-18.6655 -10.7814 -1.84543
-17.306 -11.2128 -2.88751
-17.7103 -11.2693 -2.77666
-16.9085 -11.3938 -3.26213
-17.8712 -11.3141 -1.91901
-18.2529 -11.4838 -1.44369
-17.7107 -11.5143 -1.48389
-17.6401 -11.22 -0.773663
-16.9945 -11.947 -1.30724
-17.3688 -11.4493 -0.387062
-15.5823 -12.4151 -1.59849
-16.5825 -12.1095 -0.269751
-16.3874 -12.4159 -0.400129
-15.4778 -12.8191 -0.462854
-15.171 -13.4741 -0.45223
-15.1312 -13.473 -0.402597
-18.0793 -10.6583 -3.10108
-17.8871 -10.9289 -2.84144
-19.0104 -10.5018 -1.892
-17.4308 -11.1909 -2.91559
-17.7975 -11.1894 -2.18628
-16.7948 -11.7774 -2.86353
-15.2059 -12.0539 -2.22979
-16.2176 -12.2451 -1.18354
-16.6211 -12.1795 -0.619247
-16.3007 -12.401 -0.842215
-16.2107 -12.3362 -0.671051
-14.0374 -12.7028 -2.08417
-15.4082 -13.0075 -0.614146
-15.5443 -12.7473 -0.458788
-15.3137 -13.042 -0.801126
-15.366 -13.0337 -0.658598
-15.7353 -12.9671 -0.29334
-15.155 -13.352 -0.187302
-16.8542 -11.1204 -3.65164
-15.9413 -12.0629 -3.03399
-16.3295 -12.2229 -0.803038
-15.6872 -12.317 -1.65159
-16.5083 -12.289 -0.559249
-15.2354 -12.5439 -1.78795
-15.5772 -12.7591 -1.07979
-15.5224 -13.1358 -0.553681
-15.233 -12.9966 -0.737675
-19.2556 -10.4271 -2.10441
-17.5358 -11.0265 -3.26749
-17.5073 -11.5714 -1.38836
-16.3338 -12.0957 -1.59354
-16.4079 -12.2141 -0.968317
-17.2297 -11.1933 -1.99888
-15.315 -13.3931 -0.164677
-17.8405 -10.8967 -0.626126
-17.8667 -11.3746 -1.96998
-16.3333 -11.8362 -1.96194
-16.4188 -10.5607 0.920398
-13.7757 -13.5164 -1.29959
-16.5163 -10.3626 0.891209
-18.4726 -10.6726 -2.96669
-18.9323 -10.7122 -1.81318
-18.8401 -10.7008 -1.75356
-17.6148 -10.8526 -4.00112
-17.8985 -11.3782 -1.93764
-17.1825 -11.1775 -3.23007
-18.0497 -11.3862 0.0642474
-17.7242 -11.407 -2.21111
-16.5653 -11.7125 -3.6095
-16.8164 -11.7311 -2.98235
-16.499 -11.7125 -3.22495
-16.8894 -11.7768 -2.46226
-17.1236 -11.6109 -0.447562
-16.3077 -11.7269 -3.40351
-17.1342 -11.962 -1.01931
-16.8822 -12.0396 -1.28438
-16.8875 -11.958 -1.03639
-16.1404 -10.7361 1.23344
-16.1031 -10.7923 1.26809
-15.9922 -10.7981 1.01513
-16.7456 -12.2897 -1.04979
-15.724 -12.2332 -3.28556
-16.4013 -12.266 -0.656995
-15.9969 -11.7559 -1.64713
-16.5419 -12.296 -0.516626
-16.124 -11.0036 1.5386
-16.0842 -11.0031 1.53968
-16.1664 -12.5976 -0.953217
-15.2051 -12.0929 -2.36723
-15.2452 -12.0083 -2.41675
-15.7622 -11.2109 1.34393
-16.2102 -12.32 0.270316
-16.0039 -12.4421 -0.391035
-15.4611 -12.656 -1.15397
-15.5182 -11.2197 1.4554
-15.9249 -12.7397 0.416198
-15.7954 -12.9486 -0.498461
-14.4649 -12.6796 -1.87987
-15.453 -13.4163 -0.254692
-14.3339 -13.4392 -1.78278
-14.2539 -13.3851 -1.12698
-13.6956 -14.0334 -2.06166
-13.5818 -14.371 -2.15187
-18.9928 -10.7779 -1.81795
-18.6913 -10.7282 -2.21931
-17.942 -10.6493 -3.58458
-18.0136 -10.7191 -3.65461
-18.1213 -10.5664 -3.79992
-17.7169 -10.6323 -3.9315
-18.4769 -10.9557 -2.23757
-17.5207 -10.8266 -3.81438
-17.3993 -10.9386 -3.2526
-17.7655 -11.045 -2.88044
-17.2131 -11.0979 -3.76698
-17.7439 -11.2891 -2.17516
-16.9462 -11.3205 -4.11061
-17.1032 -11.3259 -2.79988
-17.0556 -11.7375 -3.25112
-16.5994 -11.5732 -3.19883
-16.9157 -11.6762 -3.15766
-16.5339 -11.7874 -3.12188
-16.7788 -11.633 -2.23314
-17.0844 -11.8834 -1.30078
-16.2921 -11.7882 -3.18784
-17.1016 -12.1787 -0.976479
-16.5671 -12.0779 -1.5175
-15.9966 -10.5985 0.99978
-16.1686 -10.7403 1.31259
-16.4004 -12.1735 -1.00403
-16.0619 -11.1716 1.30738
-16.3261 -12.2672 -0.953122
-15.2999 -12.0624 -2.00511
-15.6559 -12.045 -2.12203
-15.206 -12.1121 -2.26047
-16.1969 -12.6097 -0.370296
-15.1632 -12.2135 -2.17195
-15.8405 -12.4027 -0.595243
-15.4878 -11.1843 1.41031
-16.2132 -12.4126 0.303482
-15.2386 -12.4723 -1.9193
-15.2124 -12.4335 -1.89836
-15.2551 -12.8254 -1.30366
-15.0821 -12.7693 -1.34743
-14.548 -12.5896 -2.29533
-14.5585 -12.8519 -1.48875
-15.2667 -13.2888 -0.76853
-14.5622 -12.6598 -2.02261
-15.5705 -13.6537 -0.0963032
-15.3384 -13.4365 -0.29006
-14.8176 -13.6555 -1.12607
-14.7268 -13.3222 -0.752796
-14.2293 -13.1821 -1.63462
-13.5382 -14.2136 -1.65734
-13.562 -14.3254 -1.62937
-18.8429 -10.7762 -1.95415
-18.7628 -10.8109 -2.02873
-18.645 -10.881 -2.05384
-17.9561 -10.5597 -3.86282
-18.0703 -11.0013 -2.80841
-17.6658 -11.3636 -2.67412
-17.9235 -11.4717 -1.9156
-17.6716 -11.2727 -1.19885
-17.0304 -11.6355 -2.46852
-16.9816 -11.8876 -2.44699
-16.7567 -11.7231 -2.27007
-16.2265 -10.5852 1.1839
-16.8411 -11.8189 0.112625
-16.7002 -12.339 -0.466941
-16.4684 -12.2605 -0.656652
-16.2014 -12.3229 -0.851
-16.1441 -12.5815 -0.285528
-16.2942 -12.5239 0.469678
-15.3544 -12.3841 -1.88552
-15.7327 -12.8149 -0.847207
-15.5916 -12.6728 -0.830324
-15.2948 -12.7332 -0.779835
-15.7175 -12.9328 -0.0152692
-15.2982 -12.8928 -1.09805
-15.3949 -13.0498 -0.474304
-14.8597 -12.7355 -1.43902
-14.7058 -12.9103 -1.67806
-15.3825 -13.3735 -0.184193
-13.9179 -13.8951 -2.18832
-18.7002 -11.0539 -1.90479
-17.803 -10.5766 -3.68791
-17.9438 -10.8831 -2.91578
-18.1867 -11.0206 0.0574018
-16.2748 -12.2295 -1.02461
-16.229 -12.1973 -1.07883
-16.2761 -12.2153 -1.05951
-16.0747 -12.2619 -1.03669
-16.3413 -12.1532 -0.0119966
-15.591 -12.8832 -0.637999
-15.4427 -13.2296 -0.391907
-14.6497 -13.5536 -0.602877
-18.0233 -10.8819 -2.61183
-18.1543 -11.2944 -0.111113
-17.6285 -11.2867 -2.21264
-16.9181 -11.2067 -1.82509
-16.3481 -12.449 -1.00967
-16.4999 -12.2578 -0.660521
-16.1503 -12.122 -0.967677
-15.7703 -12.9023 -0.0403018
-15.638 -12.9967 -0.816946
-15.3539 -12.9788 -0.799014
-15.432 -12.9478 -0.782297
-15.3532 -13.0856 -0.576808
-14.9448 -13.5791 -0.633777
-17.9865 -11.0113 -0.276899
-17.8531 -11.3705 -1.81827
-15.7975 -11.7146 -2.58931
-15.8138 -12.3193 -1.53723
-16.0387 -12.1332 -1.24412
-15.7845 -12.4125 -1.68823
-15.1072 -12.4858 -1.74996
-15.1771 -12.7168 -1.84506
-16.9049 -11.9818 -1.38069
-16.3354 -12.2079 -1.30277
-16.5034 -12.4147 -0.448276
-14.4113 -12.6166 -1.84237
-17.9505 -10.9553 -0.725801
-17.1649 -11.8007 -1.24967
-15.0524 -12.8045 -1.14493
-14.5705 -12.7978 -1.92931
-14.3452 -12.7395 -1.48327
-14.4117 -13.5355 -0.932757
-17.8646 -10.8123 -0.723335
-17.7357 -10.9157 -0.940515
-14.6306 -12.8283 -1.47128
-17.4102 -11.4097 -1.39199
-14.1348 -13.3862 -1.14939
-18.1952 -10.9998 -0.12528
-15.4032 -12.6329 -1.14318
-18.7476 -10.8474 -1.97527
-18.4666 -10.3906 -3.2993
-18.3923 -10.7525 -2.50246
-18.402 -10.8833 -2.92184
-18.0729 -10.6261 -3.54989
-18.1195 -11.4143 -1.98087
-16.1894 -10.6863 0.899617
-17.7294 -10.5147 -4.22575
-16.2426 -10.7649 1.46363
-17.5551 -11.3282 -1.18544
-16.2281 -10.6952 1.27119
-17.6397 -11.5924 -1.39464
-17.4709 -11.401 -2.84365
-15.9857 -10.6186 1.02993
-17.4547 -11.157 -3.05689
-17.1303 -11.1366 -1.88951
-15.9583 -10.9496 1.40204
-17.0693 -11.1403 -3.56933
-15.8569 -11.0084 1.54916
-15.7307 -11.1201 1.33455
-16.9232 -11.9467 -1.36752
-17.1126 -11.057 -3.66653
-16.935 -11.7706 -1.77977
-16.9789 -11.3474 -3.38739
-16.9951 -11.5014 -3.14408
-16.8272 -11.9789 -1.13973
-16.8549 -11.3973 -3.05524
-16.8164 -11.2243 -3.67405
-16.8899 -11.5985 -3.39662
-16.9448 -11.3616 -3.3503
-16.5838 -12.0163 -0.0762015
-16.7839 -11.7711 -1.70758
-16.8788 -11.7723 -2.71599
-16.8108 -11.5521 -2.97009
-16.5173 -12.5749 0.15821
-16.7285 -11.6785 -2.71972
-16.4239 -12.3054 -1.44129
-16.698 -11.668 -3.17897
-16.5426 -11.6209 -3.30944
-16.4597 -11.9043 -2.02059
-16.1336 -12.5748 -0.487829
-16.1442 -12.2496 -0.36869
-16.2169 -11.9968 -2.12373
-16.3861 -11.8666 -3.38008
-15.7889 -12.2201 -3.09145
-15.7056 -12.2411 -3.36631
-15.8068 -12.4393 -1.2472
-15.4573 -12.5562 -1.24107
-15.5297 -12.7957 -1.31155
-15.596 -12.7799 -0.523065
-15.3271 -12.3863 -1.95127
-15.2018 -12.9421 -0.655604
-14.5543 -12.7251 -1.90357
-14.7972 -13.6021 -1.21067
-14.262 -14.0356 -1.1534
-13.7594 -13.8925 -2.06982
-13.3081 -14.3432 -1.98405
-13.0581 -14.4932 -2.15867
-19.5072 -10.5493 -1.35981
-19.1052 -11.0523 -1.09936
-19.0486 -10.8929 -1.16869
-18.7169 -11.2025 -0.910823
-18.5534 -10.6448 -3.0723
-18.2644 -10.352 -3.22212
-18.563 -10.9221 -2.10184
-18.1328 -10.7285 -2.81685
-17.8609 -10.5028 -3.52727
-16.194 -10.5967 1.23263
-17.54 -11.0452 -3.05021
-16.2327 -10.6938 1.19591
-17.295 -11.07 -3.39211
-16.0366 -10.7487 0.778633
-16.9623 -11.1029 -1.67826
-16.1245 -10.867 1.39938
-16.9614 -11.9772 -0.279903
-17.0514 -11.3684 -2.78017
-17.0448 -11.4354 -3.09066
-16.8208 -11.5256 -3.44266
-16.781 -11.7987 -1.56721
-16.5892 -12.3391 -0.48123
-16.6235 -11.5404 -3.3378
-16.0662 -12.4712 0.485921
-16.1369 -12.0518 -1.91975
-16.2648 -11.7383 -3.4206
-16.0058 -11.9722 -1.57982
-16.0387 -12.1986 -1.54188
-15.5952 -12.5403 -1.38258
-15.484 -13.1612 -0.356151
-15.0596 -12.1974 -2.4276
-15.109 -12.7356 -1.07024
-15.2573 -12.7981 -1.70502
-15.2146 -13.0346 -0.757266
-14.9677 -12.1771 -2.48291
-14.8476 -12.2867 -2.78067
-15.025 -12.871 -1.78725
-14.6702 -12.4154 -2.45923
-14.432 -12.72 -1.79956
-14.5925 -12.5834 -2.18171
-14.3832 -12.7378 -2.18903
-14.2776 -12.9908 -1.8531
-14.0238 -12.881 -1.9773
-13.4725 -14.1734 -2.04453
-19.3072 -10.9581 -0.989636
-18.9812 -11.0629 -0.175607
-19.2092 -10.9804 -1.19397
-18.7984 -10.7716 -2.08075
-18.7066 -10.5322 -2.18215
-18.8178 -10.7311 -1.7873
-17.9271 -11.3084 -0.107864
-18.473 -10.4124 -3.34465
-18.2762 -10.7536 -2.43313
-18.4394 -10.6864 -3.32068
-18.2974 -10.5461 -2.80892
-18.1765 -11.0129 -2.42238
-18.1381 -10.9017 -2.69107
-17.5821 -10.9178 -3.15059
-17.5032 -10.9037 -3.28075
-17.5229 -11.349 -2.34762
-17.4263 -11.1322 -2.74071
-17.4855 -11.0263 -3.029
-17.0677 -11.4835 -1.52494
-16.9187 -11.9429 -0.331638
-17.1635 -11.6303 -3.23589
-17.113 -11.7727 -2.45848
-16.9268 -11.7204 -2.21922
-17.0119 -12.0099 -2.24616
-16.7772 -11.7309 -1.61728
-16.988 -11.2019 -3.64666
-16.8203 -11.6593 -2.94789
-16.4683 -11.5652 -3.46411
-16.6315 -12.0795 -0.568396
-16.5762 -12.311 -0.563348
-16.4498 -12.4396 -0.684873
-16.4555 -11.6962 -3.54997
-16.1144 -12.1223 -1.05529
-16.2106 -11.9587 -3.34967
-15.9933 -12.3799 -0.460624
-16.1833 -12.0874 -1.51075
-15.9269 -12.2094 -1.18951
-15.7749 -12.9744 -0.260624
-15.4918 -13.0872 -0.680224
-15.2608 -12.5887 -1.79371
-15.4212 -13.1271 -0.485905
-15.0947 -12.6298 -1.00728
-15.0018 -12.9678 -1.28181
-14.8539 -12.8762 -1.59351
-14.7085 -12.7073 -1.67513
-14.539 -12.7678 -1.63113
-14.1027 -13.5005 -1.30644
-13.7894 -14.0062 -1.82888
-18.983 -11.0553 -1.22738
-18.9533 -10.9598 -1.70151
-18.7908 -10.8222 -1.88118
-18.6822 -11.0565 -1.81824
-18.2396 -10.793 -2.70464
-17.9431 -10.5938 -3.32567
-18.1044 -10.7636 -3.05357
-17.9181 -11.2271 -2.36038
-15.7882 -11.074 1.40965
-17.2393 -11.9942 -1.38643
-16.7874 -11.5433 -3.17786
-15.5163 -11.1151 1.48553
-16.6877 -11.5898 -3.65317
-16.3614 -11.4647 -3.53818
-16.4791 -12.1947 -0.643224
-16.5359 -12.2048 -1.03362
-16.1263 -12.2836 -1.23109
-16.3569 -11.8285 -3.17999
-15.41 -12.2308 -2.14307
-15.3326 -13.5848 -0.161628
-13.8887 -13.971 -2.06329
-18.3155 -10.4326 -2.99395
-18.043 -10.5343 -3.52943
-18.0441 -10.9058 -3.4769
-16.2414 -10.796 0.930722
-17.0073 -11.2722 -3.87026
-16.5789 -12.2754 -0.728768
-16.292 -12.4009 0.111572
-16.1787 -12.2363 -0.971858
-16.1314 -11.9936 -2.44923
-15.544 -13.1175 -0.388262
-15.5554 -12.9948 -0.503109
-15.5135 -13.4721 -0.147958
-14.6773 -12.3115 -2.31677
-14.392 -13.0063 -1.74448
-18.9706 -10.8473 -1.30301
-17.6564 -10.9152 -0.801448
-17.8891 -11.2027 -2.13022
-17.4229 -11.4349 -0.494469
-16.161 -12.3294 -1.11821
-16.2657 -12.7389 0.546813
-14.5856 -12.7314 -2.31048
-17.6302 -10.8552 -0.702576
-17.236 -11.6175 -1.26944
-15.5272 -12.6608 -1.29741
-15.3987 -12.6874 -2.00882
-15.1961 -12.5085 -1.57852
-15.0603 -13.5066 -0.562593
-14.7458 -13.6915 -0.706661
-17.4083 -11.0596 -0.578477
-14.9901 -12.6315 -1.76707
-16.5597 -10.486 1.00592
-16.1098 -12.6207 -0.611385
-15.7156 -12.6164 -0.951759
-15.5359 -12.7894 -0.743822
-14.546 -12.7507 -1.82968
-19.3025 -10.7174 -1.18391
-18.982 -10.9174 -1.26099
-19.0915 -10.7512 -1.62075
-18.9452 -10.9819 -1.74499
-18.6253 -10.9499 -1.56609
-17.7905 -11.0132 -0.627651
-17.847 -11.0238 -0.583742
-16.084 -10.9667 1.12953
-18.7733 -10.6734 -2.51727
-18.5889 -10.7046 -2.16932
-18.1134 -11.0258 -1.77913
-17.2486 -11.5974 -0.41366
-18.1893 -10.9446 -2.40459
-18.2893 -10.6599 -2.8547
-17.4765 -11.3886 -1.1659
-18.2149 -10.5782 -2.96289
-18.3884 -10.6437 -3.18104
-18.3965 -10.4951 -3.13765
-18.4111 -10.5789 -3.32117
-18.1126 -10.8857 -2.7844
-17.1622 -11.9171 -1.21837
-18.2689 -10.5791 -3.20131
-17.9861 -10.9155 -2.58338
-18.1333 -10.6692 -3.26611
-17.0655 -12.0155 -1.1821
-17.7175 -11.6327 -2.34889
-16.208 -12.7444 0.360215
-17.6754 -11.3674 -2.53127
-16.8798 -12.0598 -1.32073
-16.5288 -12.3135 -0.785361
-16.2836 -12.254 -1.12128
-16.6838 -12.2078 -1.1881
-17.2618 -11.2534 -3.13379
-16.6683 -12.2221 -1.25042
-17.7881 -10.3396 -4.02329
-16.689 -12.1939 -1.39423
-17.2712 -11.3696 -2.88907
-16.5754 -12.0231 -1.38932
-16.2939 -12.3255 -0.83771
-17.3538 -11.1877 -3.32447
-16.7762 -11.7682 -2.65598
-15.4326 -13.0972 -0.161837
-16.73 -11.8371 -2.96142
-16.9756 -11.1158 -3.51687
-15.6698 -13.1285 -0.180455
-16.5932 -11.6729 -2.82139
-16.1866 -11.9567 -2.15241
-15.4068 -12.782 -0.69944
-15.7173 -12.0873 -3.35046
-14.6444 -13.0623 -1.64089
-19.1733 -10.6801 -1.71726
-19.0919 -10.6343 -1.53758
-18.7895 -11.2307 -1.07027
-18.9183 -11.2257 -1.09762
-18.8576 -11.0813 -1.37088
-16.3287 -10.424 0.875273
-16.2541 -10.5372 1.16141
-16.0462 -10.7371 1.20899
-18.6298 -11.2903 -1.19459
-17.863 -11.0218 -0.664799
-17.7618 -11.0033 -0.610361
-16.1146 -10.7015 1.1585
-18.9897 -10.8067 -2.37897
-16.0572 -10.7478 1.06523
-18.612 -10.9297 -2.35849
-16.0821 -10.8893 0.946995
-15.8806 -11.0416 1.24445
-17.4374 -11.0602 -0.744082
-17.5674 -11.4139 -0.421562
-17.4313 -11.3958 -0.466137
-17.0987 -11.7935 -0.176448
-18.4111 -10.9044 -2.16765
-18.1869 -10.9211 -2.39988
-18.1208 -10.5432 -2.65039
-18.5241 -10.4427 -2.82568
-17.9193 -11.3944 -1.88041
-16.6437 -11.9479 -0.0919909
-17.8949 -10.3395 -3.56499
-16.1379 -12.677 0.476512
-18.0308 -10.4447 -3.44599
-17.827 -10.7405 -3.34164
-17.6979 -10.6258 -3.65354
-17.4863 -10.962 -2.9503
-16.2906 -12.3695 -0.498085
-17.4594 -11.1143 -3.13628
-15.9859 -12.3531 -0.500123
-17.4589 -10.6324 -3.80061
-17.5242 -10.7935 -4.00299
-16.6243 -12.0605 -1.75913
-17.2417 -11.094 -3.4297
-16.2934 -12.2592 -1.19735
-15.6877 -13.1029 -0.100694
-16.7948 -11.8373 -3.09971
-17.1339 -10.8847 -4.02452
-16.6972 -11.5403 -3.27632
-15.4994 -12.8149 -0.846009
-16.9466 -11.1762 -4.08302
-16.44 -11.4549 -3.63962
-16.6786 -11.6871 -3.36105
-16.4243 -11.6121 -3.47251
-15.4381 -13.0171 -0.835977
-16.0491 -11.8052 -3.33761
-15.5759 -12.6734 -1.62241
-15.5082 -12.4189 -1.79057
-15.7207 -12.1025 -3.41477
-14.556 -13.414 -1.23511
-14.4633 -12.7204 -1.61166
-19.3925 -11.1152 -0.301742
-19.225 -11.0235 -1.07459
-19.2155 -10.6702 -1.44729
-18.5803 -11.0306 -1.53551
-15.9434 -10.9011 1.42581
-18.7521 -10.7541 -2.42375
-18.4528 -11.1927 -1.33733
-18.8966 -10.4806 -2.38123
-15.9711 -10.6185 1.04303
-16.0915 -10.746 0.870657
-18.2902 -11.0127 -1.88212
-18.2355 -11.0851 -1.85815
-18.2782 -10.383 -3.15002
-18.1326 -11.0548 -2.51982
-17.9218 -11.3833 -2.20105
-16.9865 -11.7435 -1.22873
-16.895 -11.7569 -1.50821
-16.124 -12.2901 -0.438644
-17.375 -11.2629 -2.88061
-16.5487 -12.2415 -1.66995
-16.7627 -11.7027 -2.39735
-16.8506 -11.8282 -2.39139
-16.2455 -12.168 -1.14063
-16.8036 -11.8198 -2.66174
-15.9107 -12.7949 -0.859512
-16.1422 -12.206 -1.27653
-16.1992 -11.9902 -1.97067
-15.6689 -12.083 -1.68398
-16.6275 -11.9332 -2.71084
-15.4282 -12.6371 -1.30024
-15.166 -12.7539 -1.02919
-15.2149 -13.2661 -0.792228
-15.145 -13.4568 -0.443203
-14.9609 -12.7084 -1.79633
-15.1706 -12.1859 -2.21196
-14.4481 -12.862 -2.01146
-19.3399 -10.7528 -1.24992
-16.4394 -10.5789 1.20758
-19.0285 -10.94 -1.06188
-17.9974 -10.8913 -0.110203
-17.8659 -11.1411 -0.249338
-18.5465 -11.0944 -1.81018
-17.799 -10.9772 -0.638079
-18.6892 -11.0037 -1.6638
-18.35 -11.2136 -1.56263
-18.6102 -11.2447 -1.53905
-17.6288 -11.4746 -0.593089
-17.5092 -11.2782 -0.507678
-17.2195 -11.2211 -0.452149
-17.1552 -11.7358 -0.272588
-17.247 -11.489 -0.377855
-16.85 -11.6306 -0.303935
-18.2248 -10.6296 -2.77932
-16.7951 -11.9933 -0.265796
-17.5805 -11.143 -2.58409
-16.6094 -12.3765 -0.6358
-16.4575 -12.1514 -0.525275
-16.3316 -12.3709 -0.669499
-16.8526 -11.9112 -1.63284
-16.287 -12.31 -0.584907
-17.1126 -11.7922 -2.62943
-15.9915 -12.3719 -1.01513
-16.3984 -11.9891 -1.91246
-16.0568 -12.1863 -1.09285
-15.9643 -12.1645 -1.83947
-15.1612 -13.443 -0.417002
-15.3146 -13.132 -0.839061
-15.2787 -12.7514 -1.14323
-15.2126 -12.6242 -1.85564
-15.3014 -12.0822 -2.23388
-18.882 -10.455 -2.10977
-18.3497 -11.2531 -1.64298
-17.0358 -11.4962 -0.334373
-15.5771 -11.1795 1.37835
-17.4525 -11.3913 -1.32985
-17.7696 -11.2387 -2.32441
-16.5337 -12.2899 -1.09054
-17.4072 -11.3691 -3.04828
-16.0438 -12.2582 -1.33815
-15.6082 -13.1338 -0.283887
-16.2146 -11.8247 -1.85589
-16.4854 -11.5327 -3.4638
-15.5396 -13.0776 -0.67027
-15.3605 -12.9352 -0.818298
-15.1963 -12.0154 -2.28479
-19.0129 -10.7549 -2.02138
-16.161 -10.72 1.06002
-16.0142 -10.7632 1.17088
-16.0019 -10.9068 1.4308
-17.4883 -11.6138 -1.35846
-16.1225 -12.4812 -0.386739
-17.1572 -10.8742 -3.71252
-15.4926 -12.7301 -0.968404
-16.2946 -12.2575 -2.00416
-15.2965 -12.9149 -0.882366
-14.1635 -13.4115 -1.43748
-17.2606 -11.2804 -0.484261
-15.871 -12.5273 -0.873705
-19.4394 -10.5919 -1.34282
-17.8652 -11.2625 -2.38021
-16.2307 -12.6726 0.556338
-16.6655 -11.9008 -1.23719
-15.1035 -13.5631 -0.546962
-15.1197 -12.6925 -1.85686
-19.3826 -10.502 -1.5852
-17.4781 -11.3215 -2.30766
-15.7051 -12.2299 -2.33761
-15.2024 -11.9205 -2.15992
-14.489 -12.9135 -1.78138
-16.2146 -12.6282 -0.543981
-16.0717 -12.2017 -0.182594
-16.6191 -10.3988 1.29671
-19.0996 -10.1423 -0.347834
-19.13 -10.3749 -0.433572
-19.0269 -10.4959 -0.181252
-16.2328 -10.8456 1.30167
-16.1997 -10.899 1.3972
-16.3982 -10.5665 0.971782
-16.9984 -10.4825 0.505131
-18.0311 -11.1325 -0.0304502
-19.0447 -10.9367 -0.757752
-16.1733 -10.8744 0.89442
-16.0788 -10.7884 1.05086
-19.0567 -10.9748 -0.854659
-19.1311 -10.9314 -1.08366
-19.3547 -10.7236 -1.16228
-19.5264 -10.5826 -1.38112
-18.9932 -10.9554 -1.06057
-18.924 -11.1199 -1.08144
-19.289 -10.6246 -1.40937
-18.5377 -11.4339 -1.00076
-18.9047 -11.1798 -1.16993
-18.7909 -10.8139 -1.15881
-19.172 -10.5222 -1.56147
-17.457 -11.365 -0.518849
-17.5234 -11.3951 -0.631698
-17.4437 -11.2505 -0.54024
-17.5421 -11.4561 -0.506308
-17.1109 -11.7375 -0.184501
-17.1857 -11.3646 -0.371746
-18.9757 -10.7612 -1.66857
-17.3654 -11.6312 -0.323805
-17.0718 -11.4843 -0.259046
-18.6107 -11.2621 -1.48027
-18.9541 -10.8694 -1.76484
-18.6716 -11.205 -1.10869
-16.3344 -12.3075 0.454202
-17.522 -11.4281 -0.621161
-17.5918 -11.6234 -0.384435
-17.5929 -11.3099 -0.574335
-17.7927 -10.899 -0.761032
-17.2287 -11.576 -0.303041
-16.6885 -12.1421 -0.0779077
-16.2788 -12.6362 0.242917
-18.8629 -10.7975 -1.86815
-17.2205 -11.2314 -0.682047
-16.238 -12.4325 0.204044
-18.6756 -11.1922 -1.75839
-18.5146 -10.8764 -1.86437
-19.2173 -10.5595 -2.09427
-18.7438 -10.9491 -1.78379
-19.1243 -10.575 -1.95383
-18.7557 -10.8285 -1.73936
-18.4692 -11.0175 -1.89698
-18.4553 -11.1294 -1.69364
-18.801 -10.5816 -2.17621
-18.2055 -11.3776 -1.57304
-18.5102 -10.8231 -1.83523
-18.4023 -10.8664 -1.82311
-18.2389 -11.1041 -1.89603
-17.5867 -11.4645 -1.23508
-17.934 -11.3077 -1.61311
-18.3736 -11.2152 -1.70041
-18.2 -11.1418 -1.96111
-17.6039 -11.4486 -1.26914
-16.8932 -12.2113 -1.1421
-18.3998 -11.1674 -1.94041
-18.7556 -10.4894 -2.33163
-18.0564 -11.1364 -2.03107
-16.5813 -12.2234 -0.630388
-18.1277 -11.368 -2.02936
-17.4531 -11.4844 -1.29755
-18.7258 -10.6051 -2.38084
-18.1909 -11.386 -1.79294
-18.3461 -11.1854 -2.06136
-16.2915 -12.4543 -0.301259
-18.3762 -10.9735 -2.32031
-16.2983 -12.405 -0.383427
-16.6332 -12.2451 -0.668423
-17.2907 -11.3708 -1.31122
-18.1207 -11.1875 -2.02018
-18.2179 -10.9916 -2.32789
-18.4547 -10.9383 -2.54786
-18.1216 -11.0601 -2.41387
-18.3303 -11.0459 -2.33076
-18.386 -10.8659 -2.48354
-16.0292 -12.3634 -0.496109
-16.0332 -12.2256 -0.466449
-17.0644 -11.584 -1.59732
-18.2045 -10.6928 -2.56562
-18.2221 -10.8851 -2.5483
-18.202 -11.0001 -2.41683
-17.976 -11.0207 -2.41366
-17.0726 -11.6894 -1.71761
-17.7488 -11.2328 -2.23658
-18.5259 -10.8214 -2.60044
-16.4151 -12.4409 -1.19747
-17.7359 -11.2443 -2.43902
-17.8351 -11.296 -2.28143
-17.5453 -11.6569 -2.49874
-17.6215 -11.3093 -2.34538
-17.7115 -11.2958 -2.37517
-18.5124 -10.4991 -3.04159
-17.6978 -11.1627 -2.69389
-17.9309 -11.1152 -2.60019
-18.5482 -10.4971 -3.18958
-16.7603 -11.7178 -1.77468
-18.3566 -10.6319 -2.98907
-18.1276 -10.9407 -2.87326
-15.2773 -13.1194 -0.881507
-18.1369 -10.3654 -3.1304
-17.823 -10.9924 -2.94989
-17.9674 -11.109 -2.7256
-18.4121 -10.4784 -3.16899
-17.6668 -11.3434 -2.726
-17.5845 -11.3222 -2.71597
-17.0023 -11.7022 -2.4645
-17.0407 -11.6538 -2.49854
-17.0306 -11.6057 -2.32422
-17.0076 -11.8645 -2.36338
-16.9647 -11.6539 -2.47742
-17.9895 -10.6767 -3.45016
-15.6451 -12.5406 -1.19757
-18.0222 -10.5657 -3.43408
-17.7897 -11.1442 -2.87599
-18.1969 -10.5268 -3.42915
-18.1489 -10.4222 -3.50605
-18.1534 -10.6735 -3.3598
-17.4032 -11.0311 -3.03105
-16.7494 -12.0075 -2.48392
-18.1747 -10.5463 -3.55551
-17.4409 -11.1782 -3.07417
-16.5921 -11.9916 -2.46564
-16.4646 -11.9533 -2.36454
-17.6152 -10.9843 -3.28942
-17.3553 -11.1821 -3.3121
-16.8245 -11.5658 -3.04717
-16.9583 -11.3977 -3.16622
-17.8289 -10.5662 -3.64836
-17.7119 -10.4837 -3.76112
-16.6585 -11.6918 -2.79044
-17.0201 -11.4698 -3.02604
-17.5594 -10.6605 -3.68718
-17.1312 -11.1003 -3.51903
-17.583 -10.8792 -3.85171
-17.6181 -10.4613 -3.99331
-15.1384 -12.1265 -2.32255
-17.0142 -11.0808 -3.90113
-15.248 -11.9639 -2.39738
-15.4957 -12.0645 -2.46297
-17.0048 -11.5314 -3.67743
-14.4923 -13.0667 -1.72121
-16.6211 -11.5814 -3.56339
-16.1872 -11.8492 -3.32192
-16.6915 -11.5701 -3.48294
-14.463 -12.8458 -1.73517
-16.3187 -11.7663 -2.92556
-13.9456 -14.1632 -1.88412
-15.8853 -12.1285 -3.43057
-15.6391 -12.0983 -3.50123
-15.8063 -12.1573 -3.22096
-13.7601 -14.098 -2.13959
-13.5391 -14.2432 -1.99059
-16.8383 -10.5477 1.4836
-16.7139 -10.4216 1.2992
-18.4118 -10.7822 -0.000530974
-16.1982 -10.7895 1.25797
-18.9445 -11.1866 -0.259847
-16.8708 -10.3592 0.688598
-15.9277 -10.8631 1.49274
-16.4124 -10.4178 0.966777
-18.885 -11.1111 -0.742482
-19.4078 -10.6858 -0.933121
-19.4306 -10.7748 -1.04512
-18.1757 -11.0554 -0.263028
-19.261 -10.9211 -0.955388
-19.0851 -11.1391 -0.928167
-18.6953 -11.3537 -1.00137
-18.6623 -11.3441 -0.945608
-19.4166 -10.6472 -1.551
-19.1234 -10.9043 -1.25809
-17.4648 -11.5158 -0.406339
-18.5778 -11.2314 -1.33268
-18.5656 -11.2873 -1.48359
-19.0248 -11.0736 -1.48137
-16.2547 -12.5663 0.471047
-17.0602 -11.6603 -0.108379
-16.895 -11.975 -0.0540312
-18.955 -10.5767 -1.72739
-16.8732 -12.1722 -0.0882512
-18.7026 -10.9908 -1.69308
-16.6094 -12.175 -0.274165
-19.066 -10.3896 -2.05836
-19.0634 -10.4217 -2.08661
-18.4865 -11.3006 -1.33354
-18.7295 -10.8267 -1.86062
-18.8425 -10.4913 -1.88487
-18.508 -10.9729 -1.76677
-17.7049 -11.2307 -1.06578
-16.4358 -12.1081 -0.515284
-16.2776 -12.372 -0.522307
-18.3896 -11.2347 -1.87996
-16.4531 -12.2756 -0.456687
-16.3735 -12.3312 -0.552365
-16.1533 -12.393 -0.421265
-15.6998 -13.0381 -0.12522
-15.5493 -13.0659 -0.3067
-16.6883 -11.8903 -1.26624
-15.7745 -12.3824 -0.559693
-18.1766 -10.83 -2.4397
-15.9961 -12.6005 -0.739503
-16.8175 -12.0283 -1.31482
-17.6166 -11.5259 -2.18654
-16.2086 -12.1541 -1.21096
-16.5395 -11.9644 -1.11645
-16.3176 -12.163 -1.1239
-17.8398 -11.2102 -2.296
-15.5093 -12.9664 -0.486664
-18.3949 -10.7595 -3.00542
-17.712 -11.2405 -2.6332
-18.0248 -11.0559 -2.7502
-18.5131 -10.3089 -3.12796
-17.4218 -11.3754 -2.42723
-16.7399 -12.2174 -1.44533
-18.3445 -10.5978 -3.26791
-15.2853 -12.8678 -0.877007
-17.16 -11.3407 -2.51272
-17.1037 -11.7434 -2.3251
-15.1713 -12.9379 -0.942577
-17.0996 -11.707 -2.56422
-16.9823 -11.8074 -2.33696
-18.0616 -10.4952 -3.26067
-16.7824 -11.894 -2.37097
-17.1765 -11.3871 -2.98611
-17.5821 -11.1102 -3.19449
-14.5392 -13.4947 -0.949661
-17.532 -11.0572 -3.21633
-15.9392 -12.1344 -2.18999
-15.9438 -12.1321 -2.26377
-15.5211 -12.3654 -1.72163
-14.5376 -13.4125 -1.211
-17.8054 -10.5301 -3.60282
-16.5482 -11.9611 -2.76464
-15.3785 -12.4948 -1.61422
-16.7304 -11.6206 -2.71796
-16.9259 -11.4851 -3.35725
-17.1677 -10.8306 -3.53331
-15.6617 -11.8325 -2.37735
-16.8663 -11.5951 -3.11786
-15.2501 -12.4568 -1.82203
-16.5717 -11.5361 -3.38205
-17.6053 -10.6049 -4.0473
-16.392 -11.8155 -3.30345
-15.0757 -12.5841 -2.16956
-17.2539 -10.9758 -4.02412
-15.223 -12.2253 -2.29631
-14.2855 -12.95 -1.51278
-16.9279 -11.054 -3.81828
-15.7581 -11.9513 -3.25135
-15.7442 -12.1715 -3.21054
-16.1124 -10.9727 1.84984
-18.2188 -10.4026 0.214417
-18.5403 -10.8758 0.149277
-15.8022 -11.181 1.74008
-18.3639 -11.0627 0.124541
-18.9334 -11.2863 -0.180257
-16.2669 -10.593 0.995112
-16.151 -10.4619 0.97061
-18.026 -11.2084 0.10534
-18.1583 -11.0337 0.0601339
-19.309 -10.8424 -0.904845
-15.7096 -11.0272 1.48334
-18.7692 -11.2715 -0.757662
-18.8647 -11.2793 -0.989592
-18.8809 -10.9976 -1.29138
-18.8424 -10.8135 -1.30391
-17.0549 -11.8962 -0.141492
-16.5916 -12.049 0.0953742
-16.5655 -11.9967 -0.0492433
-18.5548 -11.214 -1.36249
-18.3942 -11.2319 -1.56158
-18.939 -10.5986 -2.20824
-17.6788 -11.4419 -1.38175
-15.8716 -12.973 -0.0658964
-15.7901 -12.6562 -0.0552348
-16.1591 -12.5791 -0.508692
-16.1436 -12.385 -0.581052
-16.9376 -11.73 -1.40248
-16.8832 -11.873 -1.22292
-15.3461 -12.9278 -0.372625
-15.746 -12.4864 -0.696165
-16.6059 -12.0081 -1.36518
-17.7315 -11.2846 -2.33568
-18.1731 -10.5815 -2.80377
-18.3377 -10.5391 -3.03987
-17.9144 -10.8767 -2.89361
-16.6435 -11.9914 -1.652
-17.5589 -11.4107 -2.41494
-18.1333 -10.876 -2.98907
-14.8453 -13.3233 -0.707017
-15.8537 -12.5066 -1.62949
-16.2264 -12.103 -2.00081
-15.1396 -12.8095 -1.06963
-17.387 -11.0224 -3.18612
-16.4417 -11.6812 -2.7715
-15.7651 -11.9895 -2.3225
-15.1168 -12.745 -1.99784
-16.9255 -11.6121 -3.50045
-16.5608 -11.674 -3.05908
-14.6876 -12.838 -1.75601
-15.0432 -12.5269 -1.97583
-16.8931 -11.4288 -3.60079
-17.3355 -11.0839 -3.72699
-15.252 -12.0714 -2.12158
-17.5195 -10.7275 -4.12564
-16.1695 -11.82 -3.14428
-14.8504 -12.4192 -2.34807
-13.5401 -14.1839 -2.47203
-18.3812 -10.3064 0.310122
-16.9573 -10.5113 0.643279
-18.2732 -11.354 0.121226
-16.9029 -10.4082 0.58946
-17.8168 -11.1244 -0.40565
-18.146 -10.9715 -0.242161
-19.2295 -10.5473 -1.35245
-19.6684 -10.6417 -1.45562
-18.9003 -11.0437 -1.00967
-17.8059 -10.9542 -0.509303
-18.6838 -11.0644 -1.16448
-17.3276 -11.2721 -0.73195
-17.3072 -11.1649 -0.653147
-18.2437 -11.3565 -1.38267
-18.6614 -11.3952 -1.56416
-16.6434 -12.444 -0.481125
-18.5855 -10.7917 -2.14408
-18.0856 -11.4279 -1.91312
-15.7543 -12.9137 -0.148229
-18.4556 -10.9468 -2.19263
-17.6753 -11.4308 -1.91289
-17.9303 -11.4037 -1.78892
-17.7429 -11.1685 -2.50174
-17.4512 -11.4923 -2.36395
-15.3985 -13.0182 -1.11993
-15.2524 -12.8994 -0.75005
-16.4871 -12.0538 -1.86396
-14.7424 -13.4578 -0.866452
-15.208 -12.7591 -1.05997
-17.3319 -11.3247 -3.11492
-16.5295 -11.7708 -2.50419
-14.8815 -12.9041 -1.76172
-17.3892 -10.9184 -4.07339
-17.3812 -10.7599 -4.05914
-13.6819 -14.3322 -1.86404
-18.6114 -10.1658 0.252281
-16.0018 -12.6055 0.65239
-18.3144 -11.2421 -1.7673
-17.2984 -11.267 -1.38323
-16.4364 -12.1811 -0.566067
-16.3339 -12.4993 -0.371977
-17.8559 -11.3206 -1.87415
-17.897 -11.3485 -2.2787
-16.7145 -11.936 -1.30908
-17.7347 -11.2657 -2.25087
-15.1639 -12.802 -1.228
-14.8493 -12.7355 -1.31455
-14.1651 -13.4963 -1.31572
-14.5153 -12.8519 -1.66982
-16.6327 -11.5268 -3.77174
-17.3223 -10.7215 -3.89163
-15.4086 -11.9645 -2.58602
-17.8301 -11.2697 -0.33362
-19.0856 -10.9783 -1.19946
-16.7362 -11.8647 -0.463188
-16.5569 -12.2393 -0.40875
-15.9407 -12.7059 -0.298433
-16.0889 -12.3893 -0.621635
-16.2802 -12.3736 -0.925387
-18.0651 -10.7085 -3.13177
-15.4777 -12.7346 -1.57414
-14.5756 -13.5296 -1.06887
-15.5567 -12.5873 -1.49295
-15.0075 -12.7897 -1.38172
-15.4347 -12.5829 -1.84981
-15.9282 -11.7455 -2.27809
-16.6687 -11.6226 -2.98664
-15.8955 -11.9061 -2.32976
-14.513 -12.8199 -1.87101
-14.1379 -13.2784 -1.68188
-13.4186 -14.5532 -1.66994
-19.073 -11.1898 -1.14644
-16.4055 -12.4383 -0.0459141
-17.7301 -11.1501 -1.0816
-16.2228 -12.1193 -0.944573
-17.8742 -11.3224 -2.17783
-15.6721 -12.7707 -0.758076
-16.8465 -11.7905 -2.56336
-15.9298 -11.6686 -2.47645
-15.5762 -11.9847 -2.41237
-16.8859 -11.2882 -3.69179
-13.9836 -12.8631 -1.97046
-16.8678 -12.2256 -0.489245
-16.8478 -12.3049 -1.01522
-17.8844 -11.26 -1.89493
-18.0113 -11.2299 -1.81756
-16.0908 -12.2053 -2.02769
-17.6584 -10.8519 -3.41306
-15.4165 -12.0389 -2.54463
-13.809 -12.9639 -2.15006
-17.5576 -11.2761 -1.29566
-16.5073 -12.2201 -0.585983
-16.1489 -12.5112 -1.0783
-16.2574 -12.1198 -1.52945
-16.8533 -10.5802 0.965971
-16.6765 -12.1996 -0.417825
-15.5598 -12.5619 -1.06462
-15.0988 -12.1235 -2.10058
-16.2955 -12.6238 -0.506507
-14.7953 -12.5697 -2.23333
-16.1232 -11.798 -3.4844
-16.9751 -11.3689 -3.68245
-16.8623 -11.1887 -3.92835
-17.2847 -10.832 -4.13412
-15.2564 -12.0273 -2.22735
-17.4518 -10.7267 -4.07876
-17.6564 -10.6565 -4.1216
-16.9671 -11.4279 -3.33579
-16.8768 -11.3805 -3.40016
-16.7286 -11.7141 -3.2553
-16.8414 -11.5466 -3.52276
-16.6873 -11.7198 -2.85341
-17.5355 -10.9067 -3.47148
-16.5441 -11.9599 -2.89998
-17.4037 -10.8105 -3.30423
-15.267 -12.8101 -1.60193
-15.0837 -12.7367 -1.58549
-15.3366 -12.7231 -1.64842
-16.5938 -11.7869 -2.58115
-16.7335 -11.7332 -2.66441
-15.1929 -12.7168 -1.08948
-17.5576 -11.534 -2.61215
-16.8358 -11.7433 -2.31923
-18.0537 -10.7086 -3.01481
-17.8197 -11.1241 -2.51951
-18.3701 -10.6766 -2.58881
-18.0091 -10.9128 -2.68543
-16.1962 -12.4258 -1.14845
-17.8875 -11.3572 -2.08247
-16.2586 -12.2398 -0.467777
-16.7959 -11.939 -1.35106
-16.8162 -12.2414 -0.9797
-18.1546 -11.1392 -1.70042
-18.6325 -10.7659 -2.19412
-18.3247 -11.1828 -2.03894
-17.5995 -11.323 -1.14168
-18.4784 -10.9816 -1.9621
-16.5901 -12.2403 -0.712766
-18.4923 -10.9501 -1.75739
-18.5647 -10.9781 -1.81236
-18.5783 -11.1657 -1.70714
-18.9137 -10.8661 -1.80153
-18.7526 -10.8103 -1.67011
-17.6042 -11.191 -0.704767
-17.3366 -11.4753 -0.690133
-18.7303 -11.1691 -1.47738
-19.1068 -10.7649 -1.3714
-19.0597 -10.7039 -1.72092
-16.3209 -12.5474 0.542287
-17.0025 -11.6419 0.0346494
-17.1808 -11.7524 -0.172867
-16.7335 -12.2063 0.0944102
-16.1596 -12.7056 0.608027
-17.1963 -11.4822 -0.291166
-17.7233 -10.9164 -0.43491
-18.6802 -11.1061 -1.33557
-19.328 -10.5183 -1.59934
-19.1626 -10.7353 -1.30164
-19.0309 -10.9598 -1.24908
-19.1371 -11.0723 -0.920551
-19.4608 -10.5406 -1.17686
-19.5952 -10.7911 -1.10501
-15.8232 -10.963 1.18374
-15.9413 -11.1972 1.42661
-15.7852 -11.0292 1.52855
-18.3419 -11.1282 0.212878
-15.3057 -12.1667 -2.37236
-17.5393 -11.2894 -3.54904
-17.5321 -10.8448 -3.43607
-15.4678 -12.3 -1.81354
-15.6527 -12.6165 -1.60344
-15.0797 -12.9523 -1.61116
-15.7363 -12.5763 -1.46985
-15.1951 -12.784 -1.12862
-17.0717 -11.2851 -2.10203
-15.1539 -13.5529 -0.462615
-17.7473 -11.2075 -2.22539
-16.7609 -12.0608 -1.44978
-15.8433 -12.8057 -0.867911
-18.0796 -11.2481 -2.2024
-18.0297 -11.0904 -1.92877
-17.9745 -11.4919 -1.91799
-18.0133 -11.107 -1.89568
-18.4744 -10.9815 -2.185
-16.493 -12.5153 -0.405998
-16.8011 -12.1872 -0.791933
-16.3013 -12.4852 -0.36451
-17.5929 -11.1983 -1.23201
-18.9404 -10.7901 -2.0372
-18.2685 -11.2865 -1.51978
-18.5496 -11.1206 -1.70273
-17.8647 -11.0963 -0.839787
-17.2167 -11.6467 -0.492604
-15.6443 -12.8651 0.329586
-18.5219 -11.149 -1.33881
-17.0633 -11.7589 -0.348875
-17.1528 -11.654 -0.115894
-16.2176 -12.3463 0.243079
-16.1296 -12.5903 0.534205
-18.9023 -11.1337 -1.17984
-18.8245 -11.1032 -1.11151
-19.1363 -11.339 -1.07614
-18.0646 -11.1484 -0.375165
-19.2434 -10.9847 -0.910186
-19.3924 -10.983 -1.07265
-18.1991 -10.9443 -0.149941
-18.2899 -11.079 0.160683
-16.1231 -10.7778 1.16596
-15.8905 -11.1336 1.49822
-19.4312 -10.7216 -0.282827
-14.2358 -12.8522 -2.08681
-15.2298 -12.0361 -2.55428
-16.4704 -11.4759 -3.55902
-16.2202 -11.7349 -3.43891
-15.0803 -12.1077 -2.12938
-16.2612 -11.7419 -3.14972
-15.1539 -12.6012 -2.03208
-15.241 -12.5069 -1.89247
-14.955 -12.6855 -1.80996
-16.2826 -12.0236 -1.66937
-15.1273 -12.9452 -0.684433
-17.7504 -11.2727 -2.28403
-17.9039 -11.3391 -2.37975
-17.9978 -11.031 -2.28534
-17.7089 -11.2925 -1.64917
-17.8626 -11.4392 -1.76674
-18.0153 -11.4954 -1.80336
-18.2435 -11.3114 -1.96596
-15.7631 -12.6186 -0.191521
-16.2083 -12.4383 -0.281447
-17.6197 -11.3276 -1.23044
-17.4364 -11.1374 -1.08347
-16.9512 -11.9687 -0.436763
-19.0151 -10.8502 -1.70172
-16.3371 -12.3298 -0.0366889
-16.0124 -12.5899 0.189442
-18.5523 -11.3722 -1.28777
-19.0041 -11.1836 -0.862746
-17.8542 -11.2659 -0.153298
-16.0473 -10.5572 1.01217
-16.1346 -10.8824 1.36401
-16.5726 -11.7876 -3.62081
-15.499 -11.9708 -2.71756
-16.7537 -11.8718 -1.39994
-16.7577 -12.1107 -1.42227
-18.0445 -11.1395 -1.80944
-18.4954 -10.8549 -2.12198
-18.2111 -11.1684 -1.91543
-18.6032 -11.1057 -1.58038
-16.0591 -12.5039 0.242641
-18.9151 -11.263 -1.35113
-19.1824 -10.9794 -0.480877
-15.7614 -11.8056 -2.45662
-16.324 -11.7886 -2.00073
-17.9229 -11.0182 -2.50861
-17.9055 -11.3887 -1.96824
-17.6521 -11.2453 -1.36371
-18.3237 -11.2956 -1.43666
-17.4568 -11.5526 -0.413286
-18.8393 -11.1643 -1.29227
-19.0789 -10.9994 -1.02559
-18.3025 -11.0047 0.143196
-16.5562 -10.408 1.16198
-14.636 -12.6895 -1.69107
-18.2519 -11.1139 -1.86783
-17.8171 -11.3308 -1.3255
-16.6115 -12.2391 0.0291128
-18.8 -11.0336 -1.25208
-18.9536 -11.2328 -0.831503
-19.3563 -10.8324 -0.710736
-18.1806 -11.0494 -2.20814
-16.8791 -12.0254 -1.24717
-18.2644 -11.2441 -1.89434
-17.5093 -11.4158 -2.16153
-17.8511 -11.4826 -1.84785
-17.09 -12.0028 -1.14636
-15.8185 -12.8037 0.367992
-17.386 -10.7896 -4.09883
-17.7329 -10.6615 -3.68942
-15.8606 -12.1895 -3.26802
-17.3885 -11.3743 -2.98241
-18.44 -10.6697 -2.8746
-18.0911 -11.1615 -2.80952
-18.2766 -10.5777 -2.83725
-16.946 -11.7319 -2.33211
-16.1298 -12.0513 -2.02932
-15.1756 -12.6098 -1.84792
-15.1544 -12.5546 -1.68699
-15.2141 -12.7749 -1.41473
-18.6388 -10.6035 -2.41962
-17.4777 -11.4927 -2.14109
-18.7208 -10.5833 -2.13314
-18.4491 -10.7446 -2.0932
-15.2728 -12.8234 -1.24975
-16.6613 -11.9585 -1.62424
-17.982 -11.2153 -1.88388
-18.3183 -10.9151 -1.83083
-18.3937 -11.247 -1.73354
-16.7171 -11.818 -1.17278
-18.807 -10.8747 -1.87876
-19.4927 -10.5967 -2.02566
-18.5757 -10.8736 -1.615
-19.1153 -10.5982 -1.87329
-18.6763 -10.8013 -1.77929
-18.3403 -11.148 -1.58349
-18.7918 -10.6931 -1.37717
-16.0825 -12.7043 -0.706577
-16.3411 -12.4268 -0.780906
-18.3428 -11.4477 -1.36466
-19.2086 -10.7637 -1.51797
-17.0752 -12.1573 -0.833331
-18.5332 -11.2365 -1.48276
-18.3765 -11.2659 -1.30386
-19.6096 -10.3847 -1.61982
-18.7577 -10.9604 -1.33383
-19.4638 -10.2712 -1.4188
-16.1419 -12.304 -0.504101
-19.6351 -10.6127 -1.57147
-18.8803 -11.1079 -1.18368
-15.7519 -12.4035 -0.431663
-18.8552 -10.9909 -1.22795
-17.4342 -11.3211 -0.70384
-19.0016 -10.921 -1.1009
-19.0611 -11.1827 -0.99414
-19.0744 -11.1791 -1.26236
-19.1057 -11.1105 -1.06349
-18.0911 -11.1462 -0.295888
-16.6835 -10.3581 1.07833
-15.7489 -11.1316 1.65732
-16.6486 -10.5217 1.45252
-16.9556 -11.233 -3.8441
-16.9652 -11.1909 -3.75288
-16.5028 -11.577 -3.1972
-16.3668 -11.9755 -3.08113
-15.1015 -12.1953 -2.06402
-13.7428 -14.0565 -2.08683
-14.8814 -12.6691 -1.93744
-16.049 -12.1415 -2.28154
-14.8572 -12.7653 -1.55646
-15.2808 -12.7266 -1.7515
-17.6334 -11.0742 -2.14401
-17.1127 -11.0085 -1.84891
-18.5657 -10.9194 -1.97778
-15.7519 -12.2535 -1.21583
-17.7239 -11.1374 -1.77384
-18.5691 -10.9328 -2.01778
-18.8588 -10.8061 -1.67039
-14.9178 -13.6038 -0.707291
-18.3224 -11.2803 -1.41773
-18.4094 -11.3947 -1.51427
-18.5927 -11.0533 -1.41555
-18.6978 -11.2831 -1.22575
-18.5562 -11.0524 -1.20235
-18.973 -10.8776 -1.26772
-16.2857 -12.3996 -0.248881
-16.9296 -12.0674 -0.349651
-19.4526 -10.5483 -1.05766
-19.6517 -10.5569 -1.11703
-18.8712 -10.8873 -0.833476
-17.6405 -11.1986 -0.425748
-18.0653 -11.0488 -0.214689
-19.3963 -10.9034 -1.07504
-16.8413 -11.9825 0.331013
-15.7199 -12.8474 0.482111
-15.8159 -12.7615 0.55524
-18.42 -10.5605 0.07082
-18.1103 -11.219 0.100549
-15.5353 -11.1467 1.43225
-15.3003 -12.1414 -2.39753
-16.5582 -11.8641 -2.90775
-15.0303 -12.4408 -1.92536
-14.3309 -12.9001 -1.72024
-18.1011 -11.1435 -2.22998
-15.302 -12.7708 -1.24926
-18.018 -11.314 -1.65425
-18.4759 -11.3598 -1.39924
-18.6436 -11.1769 -1.09789
-16.3106 -12.5044 -0.558969
-16.6741 -12.0656 -0.571884
-17.1162 -11.607 -0.422653
-18.9 -11.1224 -0.9623
-16.7592 -10.5792 0.883669
-16.1013 -11.8643 -3.46104
-16.3691 -11.9922 -3.51952
-16.3693 -11.7179 -3.46125
-16.8869 -11.5126 -3.33777
-14.6302 -12.8804 -1.57101
-14.6899 -12.8281 -1.61472
-15.3611 -12.5803 -1.61658
-17.706 -11.4391 -1.96228
-16.6249 -12.1399 -1.52263
-18.0158 -11.2423 -1.81027
-16.829 -11.9645 -1.30746
-17.5902 -11.2719 -1.0445
-16.8132 -12.0007 -0.575927
-16.7846 -11.8967 -0.591829
-16.005 -12.7584 0.381001
-15.9538 -11.1542 1.50205
-18.187 -10.8797 -2.20919
-17.9892 -11.1646 -1.98123
-17.9504 -11.3048 -1.85395
-17.7653 -10.8677 -0.910154
-16.2952 -12.4418 -0.38408
-15.1096 -13.4001 -0.241228
-18.0157 -10.8479 -0.314119
-16.3015 -11.978 -1.79071
-16.1129 -12.4869 -1.31724
-17.7854 -11.1384 -0.727822
-17.0711 -11.9529 -0.532237
-15.9266 -12.3595 -1.12519
-16.1936 -10.5079 0.91642
-14.043 -13.2905 -1.44411
-16.6955 -12.456 -0.641672
-18.8264 -11.302 -1.2625
-16.2659 -11.7866 -1.92416
-15.6226 -13.0511 -0.356381
-15.8469 -13.0341 -0.0352516
-17.9438 -11.1704 -0.861872
-18.248 -10.561 -3.31857
-17.4778 -10.9711 -3.49911
-18.2686 -10.5076 -3.18584
-17.4886 -11.1495 -3.47596
-17.1993 -11.5385 -2.49556
-19.0613 -10.6559 -1.86582
-19.2295 -10.5945 -1.66661
-19.1935 -10.8833 -1.90038
-18.6408 -10.7526 -1.77347
-15.42 -12.5074 -1.70379
-15.3033 -12.7974 -1.72206
-13.834 -13.9767 -2.00865
-18.4623 -11.3463 -1.39475
-18.2007 -11.4288 -1.34159
-18.3714 -11.3423 -1.30393
-15.9562 -12.3567 -1.31808
-19.1529 -10.8636 -0.976809
-19.2445 -10.955 -1.1119
-18.8491 -11.2641 -0.975684
-17.5398 -11.2372 -0.446469
-17.4398 -11.23 -0.573998
-17.5575 -11.1974 -0.371241
-15.3647 -12.878 -0.906731
-15.374 -13.1647 -0.742449
-18.0512 -10.8131 -2.70092
-16.8746 -11.772 -2.34352
-15.1109 -12.3699 -2.09757
-18.8548 -10.8776 -1.90861
-17.6031 -11.3752 -2.16496
-18.7418 -10.614 -2.02418
-19.4895 -10.4583 -1.29946
-15.5088 -12.502 -1.75588
-15.4412 -12.5518 -1.61198
-14.9656 -12.6308 -1.79185
-16.6573 -12.1048 -1.49373
-13.8135 -14.0772 -1.91522
-15.9567 -12.1663 -1.39221
-16.3446 -12.3082 -1.07123
-17.6373 -11.1472 -0.751076
-17.5596 -11.8356 -1.01359
-15.6922 -12.5475 -1.34388
-15.2517 -12.8751 -0.977104
-19.4414 -11.1087 -0.676248
-19.0621 -11.0823 -0.704913
-19.0429 -11.2022 -0.440736
-16.5871 -12.175 -0.569482
-17.9721 -11.0759 -0.105162
-16.236 -12.4604 -0.603566
-15.6532 -12.7977 -0.574183
-18.1086 -11.1063 -0.116981
-15.7345 -13.1 -0.224147
-15.5325 -13.173 -0.0739828
-18.1447 -10.935 -2.3478
-15.0543 -12.016 -2.16899
-16.9963 -11.8549 -2.26097
-16.5716 -11.8496 -1.78915
-19.5699 -10.4585 -1.34769
-15.3559 -12.2744 -1.69633
-15.7164 -12.4443 -1.18423
-16.1963 -12.2604 -1.12246
-16.5292 -12.2083 -0.700739
-16.8106 -11.8912 -0.294665
-16.5203 -12.4513 -0.424869
-15.3584 -13.1596 -0.584954
-16.642 -11.5698 -3.24742
-18.6027 -10.756 -1.81206
-18.1871 -11.2784 -1.52678
-16.3463 -12.3964 -0.54671
-15.3984 -13.1482 -0.578982
-15.6177 -12.8521 -0.43494
-18.278 -11.2039 -1.28516
-17.652 -10.991 -0.891584
-15.184 -13.3794 -0.493553
-15.8595 -12.0807 -2.48683
-17.5984 -11.1808 -0.7646
-16.0801 -12.1094 -1.52474
-15.3745 -12.5155 -1.74828
-18.8436 -11.0259 -1.05623
-17.6388 -11.2257 -2.78991
-18.9126 -10.8645 -1.70704
-18.2851 -11.1483 -1.43088
-18.8177 -10.9444 -1.1377
-15.3639 -12.6829 -1.79666
-15.1486 -12.7774 -1.23925
-15.6507 -12.5775 -0.53631
-15.2307 -13.5494 -0.264185
-17.9243 -10.6121 -3.47541
-17.495 -10.9788 -3.64561
-18.4978 -10.7319 -2.01011
-18.1151 -11.2803 -1.84029
-18.273 -11.1883 -1.54622
-16.7673 -12.1449 -1.48899
-18.0667 -10.9276 -0.110291
-14.3633 -13.0071 -1.81541
-15.8097 -12.4749 -1.23946
-16.4266 -12.1478 -0.671441
-16.5179 -12.4806 -0.463124
-16.07 -12.3331 -0.65786
-15.3765 -12.9696 -0.467138
-15.7521 -12.9699 -0.237664
-15.7256 -13.1762 -0.173066
-18.8044 -10.52 -1.94536
-19.2833 -10.5687 -1.38281
-19.0226 -10.8567 -1.67025
-18.9008 -10.7695 -1.69003
-17.6815 -11.3033 -0.285046
-15.3515 -12.5313 -1.26511
-15.8765 -12.4413 -1.30736
-16.464 -12.2101 -0.835443
-16.1542 -12.7599 0.192298
-15.8431 -12.3526 -1.3663
-17.3641 -11.2618 -1.96709
-18.2822 -11.4289 -1.35338
-15.7418 -12.8749 -0.0519502
-17.4996 -10.6944 -3.70576
-16.0739 -11.7208 -2.17065
-17.8457 -11.1925 -0.141262
-17.7542 -11.2072 -1.22571
-16.5163 -12.6552 -0.680953
-16.057 -12.4758 -0.616017
-17.5671 -10.5867 -3.98636
-17.4885 -10.8903 -3.62162
-18.7445 -10.8585 -1.93499
-16.9022 -11.4304 -3.33217
-18.2294 -11.3845 -1.70598
