-14.5153 -13.0506 -1.35131
-17.1828 -10.8774 -4.0189
-17.4244 -10.9132 -3.80916
-15.0095 -12.9077 -1.38029
-16.7429 -11.5489 -2.65628
-16.5694 -12.0578 -1.29378
-16.3782 -12.0198 -1.1453
-15.3845 -13.1101 -0.321194
-16.6754 -12.1292 -1.12808
-17.3224 -11.4245 -1.27459
-18.6531 -10.7901 -2.05295
-17.662 -11.2039 -0.61548
-19.9018 -10.1242 -1.22416
-15.9168 -10.7951 1.40975
-16.0651 -10.9037 1.49004
-15.7999 -11.0362 1.68896
-13.4799 -14.2018 -2.21016
-15.3716 -11.7816 -4.0152
-15.1597 -12.1944 -2.15333
-16.7979 -11.2215 -3.78852
-15.9806 -11.7204 -2.8375
-16.7087 -11.7651 -2.781
-17.4121 -10.9248 -3.13945
-15.5392 -12.8623 -0.673849
-15.1186 -13.4912 -0.369598
-17.902 -11.1917 -2.55968
-16.2784 -12.4042 -0.645077
-17.4784 -11.3026 -1.34085
-18.7706 -10.7434 -1.6039
-20.0577 -10.1647 -1.23352
-13.0508 -14.6242 -1.94177
-13.2553 -14.2808 -1.98983
-15.4027 -12.117 -4.10929
-17.6166 -11.1911 -1.85893
-18.3156 -11.1409 -1.54017
-17.5995 -11.0461 -0.797635
-17.7875 -10.8121 -2.74629
-17.7777 -11.1974 -2.14074
-18.1282 -11.3023 -2.05777
-16.0768 -11.8554 -3.69899
-16.1886 -12.471 -0.793894
-17.2109 -11.3938 -1.64552
-18.6863 -10.8758 -1.60267
-14.8102 -12.5914 -1.50772
-15.5612 -12.6902 -0.698151
-14.2383 -12.9617 -1.85823
-14.8527 -12.77 -1.13974
-15.5343 -12.3692 -1.51363
-14.74 -13.3827 -0.702511
-15.5161 -12.9011 -0.80733
-17.103 -10.4752 -4.80397
-16.4477 -11.3013 -4.24476
-16.4057 -11.415 -4.33269
-16.6683 -10.9452 -4.41972
-17.0461 -10.857 -4.30279
-15.3116 -12.2044 -3.83816
-16.0635 -11.5882 -3.60962
-16.7432 -11.5506 -3.96016
-16.0146 -11.9045 -3.4653
-17.7209 -10.7487 -3.38106
-13.7758 -13.6955 -2.68019
-17.0386 -11.6477 -3.00237
-17.2492 -11.3065 -2.88376
-13.3593 -13.7344 -2.43247
-13.4984 -13.9002 -2.36449
-17.2315 -11.2907 -2.54501
-13.4184 -13.9564 -2.36924
-13.7581 -13.962 -2.21032
-17.3184 -11.4806 -2.469
-16.056 -12.1405 -2.13234
-16.3536 -11.8571 -2.14037
-15.9825 -12.0576 -2.02914
-13.5486 -14.0372 -1.92096
-14.2393 -12.9498 -1.59542
-13.4094 -14.0925 -2.16485
-13.7892 -13.9405 -1.90497
-16.4587 -11.7699 -1.88631
-18.055 -10.9408 -2.12399
-19.0145 -10.5573 -2.29159
-13.391 -14.3844 -1.90252
-18.32 -11.0048 -2.0848
-16.377 -12.2356 -1.60983
-16.9766 -11.7687 -1.45856
-18.0535 -11.1136 -1.9588
-13.8009 -14.3583 -1.40566
-18.9461 -10.7031 -1.7284
-18.4153 -11.1163 -1.79211
-19.3154 -10.7016 -1.83584
-18.6175 -10.7445 -1.69592
-15.1068 -13.0923 -1.12403
-18.8613 -10.7502 -1.91353
-17.1491 -11.7334 -1.22909
-18.8534 -10.8838 -1.67433
-19.6721 -10.4673 -1.53144
-17.7885 -10.9763 -0.998452
-19.8406 -10.2679 -1.30049
-17.3079 -11.8985 -1.21184
-20.1269 -10.2135 -1.55693
-19.7287 -10.4202 -1.20618
-20.1461 -9.8948 -0.919432
-16.4873 -12.0991 -0.627133
-16.5034 -12.0015 -0.433008
-15.8761 -12.4368 -0.329973
-17.514 -11.3188 -0.539067
-16.357 -12.1553 -0.372592
-15.2834 -12.8752 -0.710131
-15.3929 -12.8548 -0.544404
-17.3381 -11.5216 -0.478511
-15.1185 -13.2138 -0.556181
-15.3481 -12.9864 -0.468594
-16.1287 -10.5039 0.852336
-16.0567 -12.3526 -0.356483
-16.1497 -10.5944 1.1556
-15.6751 -12.8855 -0.414621
-15.5279 -12.8155 -0.47321
-16.2694 -10.5065 1.10424
-16.0381 -10.7712 1.13867
-14.9659 -13.8227 -0.395554
-15.6944 -12.7348 -0.302601
-16.3437 -10.5007 0.956188
-15.0993 -13.5661 -0.14879
-15.9178 -10.8332 1.21774
-15.4156 -13.5701 -0.48167
-16.5033 -10.6429 1.07951
-15.9159 -10.8163 1.0723
-15.7173 -12.8866 -0.127748
-15.6212 -12.8608 -0.0975573
-15.2791 -13.2603 -0.164777
-16.6816 -12.0098 0.0528019
-15.5029 -13.204 -0.0256482
-15.8863 -10.9314 1.42129
-15.6766 -11.1461 1.63426
-16.1135 -12.6039 0.463212
-15.8048 -12.9938 0.750329
-17.0577 -10.6383 -4.65762
-15.598 -11.9006 -4.16905
-16.9068 -11.1063 -4.24527
-16.5852 -11.2958 -3.96953
-17.2484 -10.7161 -3.88118
-17.4612 -10.64 -4.04489
-17.6041 -10.7899 -3.33091
-16.2869 -11.6667 -3.19937
-18.246 -10.5112 -3.14166
-17.2362 -11.3558 -3.11465
-16.4384 -11.7449 -2.68441
-18.1563 -10.9654 -2.6705
-13.9107 -13.9077 -2.0441
-13.1857 -14.3508 -2.0869
-13.9686 -14.0101 -1.95488
-13.9959 -14.1333 -1.89813
-15.1213 -12.4397 -1.42269
-16.5498 -11.9687 -1.61168
-16.8929 -12.0132 -1.4907
-13.3766 -14.3559 -1.66151
-14.6459 -13.2765 -1.31415
-19.7898 -10.0779 -1.59368
-17.4923 -11.2775 -1.1456
-18.956 -10.7638 -1.5902
-16.5965 -12.3166 -0.981671
-13.9314 -14.2642 -1.19566
-14.0231 -14.135 -1.21813
-15.3062 -12.8981 -0.84712
-16.0667 -12.3782 -0.821343
-15.854 -12.6566 -0.711665
-14.6362 -13.4748 -0.824889
-19.9122 -10.2457 -1.19925
-15.1614 -13.1839 -0.682982
-15.1766 -13.0698 -0.633623
-15.2931 -12.8705 -0.549263
-15.2439 -12.9643 -0.441103
-15.4216 -13.0972 -0.285832
-16.1736 -12.3169 -0.486127
-15.8125 -12.6775 -0.150529
-14.9908 -13.5994 -0.399914
-15.2542 -13.0933 -0.324709
-15.3055 -13.3307 -0.326866
-15.1801 -13.5089 -0.319776
-15.0337 -13.5013 -0.277121
-15.628 -13.469 -0.31527
-16.0762 -10.9506 1.38548
-16.0995 -12.5534 0.55268
-16.3178 -12.834 0.511602
-15.9374 -12.8575 0.518015
-14.0192 -12.7847 -2.27476
-16.46 -11.5984 -3.38676
-18.325 -10.6883 -3.40863
-18.5531 -10.6505 -3.25133
-15.3393 -12.0985 -2.24045
-15.3223 -12.1194 -2.08336
-16.1245 -11.9041 -2.2426
-14.481 -12.8226 -1.83335
-13.6068 -13.9588 -1.96678
-14.943 -12.835 -1.72482
-13.9512 -13.9794 -1.84235
-18.2317 -11.0086 -1.90555
-18.0519 -11.3616 -1.93022
-16.092 -12.368 -1.31242
-18.7226 -10.7739 -1.9092
-15.9431 -12.1311 -1.30399
-19.2781 -10.5099 -1.82043
-16.6357 -12.0357 -1.13074
-16.7275 -12.1722 -1.38731
-16.6718 -12.1991 -1.33036
-13.9603 -14.2212 -1.21329
-16.5889 -12.0094 -1.06487
-15.6363 -12.8898 -0.616042
-20.0015 -9.93685 -1.07624
-15.7203 -12.3331 -0.324348
-16.1108 -12.438 -0.126057
-15.1415 -13.4833 -0.0734392
-15.4447 -13.331 -0.0710803
-16.0543 -12.7652 0.637517
-16.2085 -11.7 -3.88125
-16.1096 -11.9593 -3.43212
-15.8366 -11.7698 -2.28519
-13.6243 -13.1072 -2.0278
-17.9765 -10.5721 -2.9448
-14.9055 -12.3507 -2.11979
-17.3771 -11.4146 -2.65966
-13.517 -13.9779 -2.27098
-14.572 -12.9174 -1.74825
-13.2403 -14.1288 -2.15446
-14.6332 -12.9598 -1.55398
-18.7527 -10.7547 -1.54899
-20.1166 -9.78032 -0.861585
-17.5018 -11.4283 -0.403103
-16.2455 -12.3881 -0.808439
-15.5133 -13.0969 -0.49276
-15.3762 -12.9161 -0.395561
-15.5222 -12.955 -0.396468
-16.0283 -12.9375 -0.209709
-15.6182 -13.0905 -0.0404839
-15.7375 -13.0111 0.543977
-14.8809 -11.8798 -2.75442
-14.9833 -12.1362 -2.36457
-16.7894 -11.5728 -2.92516
-13.6013 -13.1275 -1.86056
-14.4249 -13.2341 -1.68952
-14.3509 -13.0891 -1.65214
-15.3553 -12.6296 -1.1998
-13.7905 -14.1612 -1.71972
-20.0542 -10.1822 -1.53988
-20.1374 -10.0926 -1.01876
-15.445 -12.9932 -0.325313
-15.5674 -12.9361 -0.466558
-15.5488 -13.07 -0.0819014
-13.804 -13.1372 -2.46619
-14.1152 -12.7758 -1.97248
-16.1886 -12.1595 -1.91187
-14.1628 -13.4384 -1.63384
-18.7122 -10.7723 -1.73957
-16.9209 -11.7033 -1.21368
-15.9124 -12.6997 -0.529037
-15.8479 -12.8933 -0.686966
-15.8618 -12.7063 -0.210013
-15.2494 -12.3512 -1.73316
-14.7966 -12.5281 -1.6219
-17.2945 -11.7057 -1.58361
-15.2291 -12.8212 -1.14122
-15.3353 -13.0731 -0.605236
-17.0328 -11.7847 -0.579393
-17.3486 -10.6936 -3.89216
-20.0251 -10.0669 -1.27688
-14.7383 -12.0061 -2.37792
-16.3033 -11.7456 -1.97056
-14.9107 -12.525 -1.68632
-15.4413 -12.6835 -1.00886
-14.3695 -13.0277 -1.46328
-13.8066 -13.4584 -1.2027
-16.9621 -10.9205 -4.6226
-17.5897 -10.6346 -4.02083
-16.0748 -11.3131 -4.72394
-16.6519 -11.1418 -4.38446
-16.3335 -11.2508 -4.41329
-18.3304 -10.5223 -3.089
-18.5444 -10.7001 -2.96934
-16.3788 -11.3339 -4.0985
-20.0558 -10.0698 -1.35323
-17.276 -10.9337 -3.29438
-20.0351 -10.3137 -1.64696
-20.0547 -10.3925 -1.24436
-19.4629 -10.5904 -1.58317
-19.6704 -10.6995 -1.29584
-18.9877 -10.8655 -1.35419
-15.6331 -11.6459 -2.53874
-16.4233 -10.5528 1.27961
-17.7006 -11.0462 -0.767408
-16.8525 -11.5022 -2.71504
-17.7968 -10.9741 -0.724872
-16.1063 -10.796 1.01296
-15.7386 -11.7902 -2.40641
-17.5102 -11.3474 -0.738964
-15.2615 -12.0207 -2.28075
-15.9266 -10.9063 1.11017
-16.1368 -10.7498 1.22453
-15.4552 -11.9179 -2.31502
-16.554 -11.9016 -1.79091
-15.8442 -10.9534 1.15677
-16.3059 -10.6609 1.59797
-15.7602 -10.7921 1.0249
-15.1051 -12.0809 -2.22198
-17.3389 -11.7383 -0.937752
-15.8039 -10.8609 1.25015
-16.8529 -11.9395 -1.3871
-17.1126 -11.9476 -1.03786
-16.8617 -12.096 -1.00178
-15.9809 -12.2283 -1.30766
-16.1161 -12.2179 -0.732015
-15.5741 -12.5035 -1.31202
-16.3973 -12.3028 -0.553027
-14.5358 -12.7017 -1.55181
-15.7488 -12.4237 -0.323121
-15.8566 -12.8139 -0.538157
-15.5876 -12.6172 -0.581023
-16.2056 -12.4745 0.333844
-15.1747 -12.8974 -0.850339
-15.8647 -12.7453 -0.0643125
-15.7468 -12.7201 -0.218406
-15.8545 -12.7401 -0.108392
-15.5201 -12.9648 -0.227893
-13.3435 -13.8697 -2.40829
-15.7604 -12.9515 -0.0623212
-15.546 -13.0013 -0.143812
-15.6207 -13.0372 -0.0113159
-13.3791 -14.0152 -2.22234
-15.7194 -12.694 0.512856
-13.4393 -14.0171 -2.1873
-13.5132 -14.2071 -2.11749
-13.6346 -14.1051 -1.98878
-13.6265 -13.7829 -1.73197
-15.4879 -13.1741 -0.160985
-15.2984 -13.2883 -0.297484
-15.5395 -13.3393 -0.111328
-13.7997 -14.0845 -1.44968
-13.846 -14.1665 -1.34653
-14.0856 -14.2811 -1.12623
-16.3253 -10.9636 -4.7963
-17.9481 -10.5851 -3.52248
-17.6661 -10.7594 -3.08406
-17.7918 -10.7641 -3.32088
-19.9444 -10.0039 -1.66568
-16.7259 -11.1781 -3.82021
-20.1504 -10.2815 -1.29279
-20.0423 -10.2161 -1.19086
-19.7816 -10.4454 -1.44325
-18.4792 -10.8807 -1.93735
-18.504 -11.1253 -1.95067
-18.5714 -11.1932 -1.66397
-17.6643 -11.093 -0.644765
-15.8107 -11.7467 -2.42761
-15.3095 -12.091 -2.24815
-16.6798 -12.3867 -1.20638
-16.6224 -12.0095 -1.22666
-16.3857 -12.1847 -0.479448
-15.3353 -12.7131 -1.50666
-16.5619 -12.1889 -0.0872897
-14.3992 -12.786 -1.76458
-15.2191 -12.8168 -1.2
-15.6602 -12.4129 -0.630444
-15.726 -12.5121 -0.284109
-15.7397 -12.4474 -0.198519
-15.1518 -13.0804 -0.344837
-13.3145 -13.862 -2.48876
-15.3456 -12.9962 -0.287218
-15.6518 -12.825 0.591704
-15.3179 -13.3307 -0.409326
-15.4043 -13.369 -0.164859
-14.8564 -13.6617 -0.521437
-14.9315 -13.5357 -0.256053
-15.1763 -13.6589 -0.098173
-14.1586 -14.0237 -1.04758
-14.2852 -14.0977 -1.14744
-13.9875 -14.235 -1.0342
-17.8435 -10.7231 -3.66952
-18.3775 -10.4623 -3.09738
-19.9833 -10.0126 -1.7897
-19.8087 -10.2932 -1.61229
-19.0155 -10.707 -1.96059
-16.314 -11.4965 -3.69595
-18.8708 -11.0076 -1.76204
-18.5963 -10.7509 -1.82166
-15.5655 -11.9175 -4.10211
-18.5755 -10.8766 -1.61526
-18.8187 -11.0631 -1.42415
-17.5458 -11.0258 -0.635454
-15.3774 -11.9699 -2.44259
-15.2623 -12.0664 -2.19565
-16.4786 -12.1903 -0.942165
-15.3314 -12.6579 -1.45108
-13.8066 -12.9389 -2.29248
-14.4725 -12.7511 -1.85368
-14.3533 -12.7748 -1.52668
-15.5918 -12.8113 -0.844181
-13.7635 -13.5904 -2.66196
-15.4191 -12.9035 -0.443671
-16.0031 -12.6206 0.464393
-13.9243 -13.9117 -2.02251
-13.5692 -14.0678 -2.37702
-13.8822 -13.8489 -2.09016
-13.3089 -14.0919 -2.31133
-17.1249 -11.602 -2.29602
-15.5179 -11.8037 -2.42503
-17.4365 -11.2134 -0.39743
-17.5389 -11.3397 -0.729539
-17.3422 -11.2831 -0.438597
-17.2588 -11.5253 -0.533113
-15.2926 -12.4931 -1.83943
-15.8927 -12.1924 -0.932881
-16.2259 -12.2776 -0.828388
-16.4628 -12.3438 -0.57551
-13.7375 -12.8437 -1.98077
-15.1192 -13.0273 -0.827896
-15.9035 -12.5611 0.311571
-15.2988 -12.8894 -0.782751
-16.0707 -12.81 0.526108
-15.7493 -13.184 -0.0160979
-13.5075 -14.1346 -2.20575
-14.9523 -13.6237 -0.457535
-14.4302 -13.9494 -0.919605
-17.5873 -11.2679 -2.66086
-17.5761 -11.1928 -0.741576
-17.1534 -11.827 -1.37499
-16.2924 -12.1912 -0.582547
-15.4637 -12.7059 -1.12521
-16.2357 -12.3045 0.563435
-13.5324 -14.2199 -2.11968
-13.7742 -13.9531 -1.88442
-15.628 -13.2482 0.0258253
-20.1533 -10.1325 -1.50851
-17.2859 -11.3427 -1.17348
-16.8069 -11.7986 -0.273765
-15.6372 -12.606 -0.809674
-15.7425 -12.5147 -0.434025
-15.6683 -12.6123 -0.180751
-17.0967 -11.4991 -1.63935
-15.6502 -12.6005 -0.967701
-15.5824 -12.8594 -0.724564
-15.7482 -12.7673 0.493248
-19.997 -10.2709 -1.16068
-18.9253 -10.993 -1.65188
-15.6913 -12.7114 -0.872292
-15.2421 -13.2941 -0.52266
-14.9764 -12.8586 -1.1886
-15.9979 -12.6512 -0.444756
-15.3526 -12.3299 -1.64267
-15.9288 -12.5138 -0.565438
-14.1461 -13.4712 -1.32381
-20.2352 -10.361 -2.13381
-20.0275 -10.2846 -1.04928
-19.7586 -10.1502 -1.56125
-16.3022 -10.632 1.68146
-16.3581 -10.5712 1.32414
-16.313 -10.7707 1.25119
-16.026 -10.8881 1.37902
-17.3312 -11.4987 -0.390538
-16.4206 -11.1045 -4.32347
-16.5225 -12.1041 -0.57373
-15.6733 -12.4268 -0.420967
-15.6162 -12.4293 -0.853495
-15.242 -12.1283 -2.09983
-15.6942 -12.8028 0.711583
-14.5069 -12.7514 -1.70775
-19.6443 -10.3329 -1.22283
-15.9714 -11.0025 2.23362
-17.4342 -10.4065 -4.10626
-17.3166 -11.3405 -0.611973
-16.2705 -11.7389 -3.37414
-16.2578 -12.4342 -0.53929
-15.8239 -12.3799 -0.971903
-15.088 -12.1443 -2.16461
-15.299 -11.8492 -2.22404
-16.0579 -12.7472 0.530303
-15.8036 -12.8652 -0.00111969
-14.5782 -12.8517 -1.59182
-14.3496 -12.684 -1.58162
-14.3495 -12.8739 -1.63054
-14.7118 -13.544 -0.459304
-13.9016 -13.8171 -2.36936
-13.4434 -14.2615 -1.8143
-19.7447 -10.108 -1.35052
-17.4852 -11.208 -0.452285
-17.4079 -11.1405 -0.660666
-16.5685 -12.0256 -1.3343
-16.3225 -12.1658 -0.570809
-16.3033 -12.288 -0.802014
-16.0031 -12.137 -1.2972
-15.3402 -12.2171 -1.99723
-15.5985 -12.5257 -0.185115
-15.8472 -12.7502 0.473833
-15.8427 -12.6879 -0.369367
-15.5099 -12.8098 -0.430998
-15.2934 -13.0177 -0.538719
-13.8285 -13.0459 -2.42949
-13.7237 -13.7337 -2.63152
-13.6662 -14.1191 -1.27882
-20.0678 -10.2263 -0.992062
-20.1201 -10.1047 -1.31609
-18.6852 -10.9636 -1.59515
-18.4144 -10.9672 -1.91872
-17.8004 -10.4532 -3.46206
-17.4678 -11.2836 -0.634133
-17.263 -11.5505 -0.518821
-16.5885 -12.1379 -0.673301
-16.6174 -12.3935 -0.692049
-16.0149 -11.9972 -3.41943
-15.818 -11.7148 -3.6829
-15.7866 -13.0039 0.0739993
-15.7894 -13.0663 -0.178398
-14.78 -13.6485 -0.65597
-14.6804 -13.5118 -0.721477
-13.3558 -14.3916 -1.41027
-19.3934 -10.2975 -1.75579
-17.9087 -11.0579 -0.81956
-16.3911 -12.202 -0.400146
-16.1488 -12.7096 0.56433
-15.39 -12.4624 -1.56718
-15.3989 -12.9754 -0.295846
-13.7935 -14.0593 -1.98194
-16.8102 -11.3626 -1.79902
-16.1387 -12.2681 -0.49192
-15.4938 -12.6391 -0.98361
-15.8071 -12.7467 0.66802
-14.5232 -13.5576 -0.859733
-13.7202 -14.1466 -2.01558
-20.0348 -10.1161 -1.00767
-20.3001 -10.1446 -1.53343
-12.9051 -14.6027 -1.88986
-19.9518 -10.2105 -1.44799
-15.7626 -12.17 -1.70503
-16.0882 -10.6453 1.6433
-19.9807 -10.2636 -0.990828
-19.9609 -10.3138 -1.06615
-16.0136 -10.8917 1.43515
-16.1507 -10.5096 1.07069
-16.3304 -10.8258 1.33255
-16.1835 -10.6729 1.24186
-19.6995 -10.3358 -1.77238
-15.7771 -10.9271 1.39195
-15.8681 -10.8677 1.59816
-15.4999 -11.0888 1.44738
-18.768 -10.8785 -1.42877
-17.5252 -10.9916 -0.490829
-17.7283 -11.0911 -0.309626
-18.3524 -10.8945 -2.06951
-17.9764 -10.8906 -2.85122
-16.4415 -12.3723 0.332816
-16.3912 -12.4203 0.009325
-16.853 -12.3094 -0.806785
-15.8117 -12.6808 0.471648
-16.4781 -12.2929 -0.551657
-16.3551 -12.2285 -0.565405
-16.5012 -11.9603 -1.12866
-16.614 -12.0926 -0.463353
-16.4083 -12.2061 -0.447085
-16.2818 -12.6243 -0.231471
-16.5744 -12.0059 -1.7659
-17.1057 -11.2938 -2.69326
-17.2416 -10.6122 -3.88976
-16.6064 -12.1063 -1.47742
-15.9324 -12.5108 -0.261883
-17.6531 -10.2574 -4.46292
-15.7003 -12.4023 -0.364889
-15.7576 -12.3913 -0.389359
-16.1188 -12.424 -0.927342
-17.2578 -11.0925 -3.77099
-15.8666 -12.9352 -0.128398
-15.6931 -13.1542 -0.117241
-15.657 -12.793 -0.204694
-16.0472 -12.2134 -1.45544
-15.5638 -13.0005 -0.0169124
-15.6493 -13.1212 0.0430272
-15.7411 -12.3437 -1.29721
-16.9788 -11.2708 -3.91806
-16.8574 -11.2192 -3.87997
-16.7401 -11.0611 -3.87751
-16.7901 -11.454 -3.46585
-16.4609 -11.5636 -3.30891
-16.8927 -10.597 -5.14468
-15.4677 -13.2547 -0.161751
-15.5374 -12.7482 -0.470747
-16.7923 -10.7372 -4.9616
-15.4168 -13.4097 -0.265541
-15.3081 -13.3359 -0.326184
-15.2628 -12.7967 -0.438232
-16.457 -11.0712 -4.24766
-16.3203 -11.3214 -4.24783
-15.0676 -12.8397 -0.718181
-16.1336 -11.1272 -4.87971
-15.1025 -12.3088 -2.08707
-15.1213 -12.6772 -1.32141
-15.9846 -11.2011 -4.76705
-15.8284 -11.3222 -4.5312
-15.3352 -12.0454 -4.13752
-15.3074 -12.1979 -3.68402
-13.7715 -13.9239 -1.93501
-13.8685 -13.5344 -2.761
-13.5331 -13.5739 -2.72305
-13.4954 -14.1096 -1.80077
-13.4693 -14.3802 -1.62763
-13.5267 -13.9765 -2.08038
-13.4357 -14.1531 -2.1872
-13.1142 -14.5052 -1.82826
-16.0045 -10.6714 1.23662
-15.7565 -11.0095 1.60923
-19.6917 -10.2903 -1.56472
-19.4779 -10.4506 -1.45227
-19.1267 -10.6421 -1.75907
-18.9923 -10.9068 -1.63586
-17.8713 -10.8882 -0.588014
-17.364 -11.4014 -0.193949
-17.2832 -11.2431 -0.508955
-17.0873 -11.7319 -0.218374
-16.8607 -11.895 -0.0459028
-16.7774 -11.8138 0.0347803
-18.3169 -10.3903 -3.02871
-16.9067 -12.1044 -0.22931
-18.0292 -10.9157 -2.68172
-17.2034 -11.8739 -1.08969
-16.8583 -11.3659 -1.71371
-17.9322 -10.4521 -3.81129
-15.9363 -12.9497 0.587369
-16.429 -12.3671 -0.516754
-16.7981 -11.9285 -1.46347
-16.5972 -11.9881 -1.39703
-16.5064 -11.8893 -1.4838
-15.7919 -12.667 -0.311945
-15.6585 -12.3107 -0.414053
-15.5669 -12.9787 -0.18939
-15.8048 -12.167 -1.23202
-15.7242 -12.9663 -0.147802
-16.0399 -11.9328 -1.82192
-16.8888 -11.0988 -4.05357
-15.2946 -12.8657 -0.21202
-16.2399 -11.7247 -3.78858
-15.2791 -12.8991 -0.836508
-16.467 -11.2171 -4.20435
-15.0699 -12.2484 -2.16311
-15.0357 -12.1286 -2.07968
-15.9032 -11.9162 -3.43539
-14.965 -12.1748 -2.07077
-15.7088 -11.7756 -4.10505
-15.7228 -11.7229 -4.11667
-14.7917 -12.7846 -1.56121
-14.8319 -13.4717 -0.957899
-15.3778 -12.1699 -3.95254
-14.3675 -12.8652 -1.73423
-14.3091 -12.3855 -2.4322
-13.6253 -14.0896 -1.70882
-13.3819 -14.1788 -2.00697
-20.2546 -10.3858 -1.20142
-17.4137 -11.3141 -0.421936
-18.5807 -11.0248 -1.92744
-18.1973 -11.0446 -2.23669
-18.2315 -11.1007 -2.25972
-18.4191 -10.5186 -3.0462
-16.5115 -11.9436 0.167008
-16.9947 -11.7149 -1.36909
-17.7308 -10.8342 -3.45484
-16.1769 -12.3405 -0.503532
-16.4274 -12.1565 -0.885886
-16.4587 -11.9905 -1.33671
-16.0648 -12.2301 -0.155683
-17.3241 -10.7081 -4.04221
-15.9068 -12.3928 -0.195327
-15.8422 -12.7636 -0.257351
-15.7901 -12.7668 -0.101501
-15.6921 -12.8919 -0.0423605
-16.1793 -12.1473 -1.78292
-15.8509 -12.3891 -1.32937
-15.7637 -12.3463 -1.0701
-15.3819 -12.9502 -0.30654
-16.8217 -10.8057 -4.48771
-16.7005 -10.9026 -4.53838
-15.2097 -13.4286 -0.452157
-15.9618 -11.921 -3.43
-15.2453 -12.1067 -2.14918
-15.2687 -12.0979 -2.26863
-15.2307 -12.0069 -2.16305
-14.7557 -12.9139 -1.59835
-14.4453 -13.4345 -1.12336
-14.4532 -12.7816 -1.74215
-14.3238 -12.8122 -1.7263
-14.5058 -12.8404 -1.6028
-14.216 -12.4493 -2.42495
-13.3378 -14.0378 -2.28766
-12.8615 -14.358 -2.21286
-20.0412 -10.2155 -1.11451
-17.7059 -11.0001 -0.668617
-16.22 -12.6538 0.658318
-16.1413 -12.5012 0.122658
-16.8693 -11.5305 -1.41079
-15.8617 -13.0127 0.427475
-15.8175 -12.8534 0.70813
-15.8891 -12.5587 -0.244596
-15.8474 -12.5308 -0.209006
-15.873 -12.7144 -0.264842
-15.7335 -12.9499 0.0578135
-15.8027 -12.9043 -0.0514613
-16.3226 -12.0726 -1.63059
-16.8733 -10.6746 -4.37935
-15.8609 -11.8431 -2.47514
-15.4243 -12.8209 -0.438094
-16.28 -11.7273 -3.34136
-15.4934 -11.5834 -2.52271
-15.1793 -13.235 -0.89514
-15.987 -11.8358 -3.61538
-15.8846 -11.8203 -3.5819
-15.0732 -12.9279 -1.14648
-15.2495 -12.6702 -1.6269
-15.7785 -12.0606 -3.70427
-14.3277 -12.822 -1.60798
-13.9156 -12.5122 -2.59386
-14.1731 -14.0485 -1.19787
-14.2026 -13.4229 -1.65534
-13.7439 -13.4456 -1.28753
-14.127 -13.6863 -1.95749
-13.8237 -14.1884 -1.34894
-13.7103 -13.7177 -2.55391
-13.5386 -14.0626 -2.06968
-13.4332 -14.1205 -2.30809
-16.0145 -10.7324 1.26396
-19.3221 -10.3564 -1.91598
-17.7603 -11.0712 -0.668681
-18.7583 -10.9492 -1.67391
-16.9712 -11.5587 -0.302093
-16.7868 -11.8813 -0.0803332
-17.7364 -11.0636 -2.51423
-17.7932 -11.2279 -2.54693
-17.0117 -12.0359 -0.968555
-16.9699 -11.1145 -1.75803
-16.0091 -12.4934 0.385524
-17.516 -10.9552 -3.14104
-16.0138 -12.1907 -1.11214
-15.986 -12.2055 -1.04467
-17.0153 -11.1912 -3.65616
-15.355 -13.4335 -0.0475722
-15.3253 -12.9894 -0.566146
-15.1583 -13.0959 -0.755655
-14.9172 -13.546 -0.433539
-14.8442 -12.6367 -1.6314
-14.5951 -12.6558 -2.24281
-14.3749 -12.7595 -1.67092
-19.9827 -10.038 -1.50816
-17.4133 -11.478 -0.487789
-17.9939 -11.2146 -1.9028
-17.9708 -11.1176 -2.33543
-15.7484 -12.9595 -0.0803276
-15.1814 -12.8307 -0.798501
-14.7479 -13.5052 -1.05479
-14.0647 -13.061 -1.90283
-18.7001 -10.7626 -2.03022
-17.1336 -11.4899 -0.212353
-17.1071 -11.6602 -0.551346
-17.9291 -11.1828 -2.11123
-16.2449 -12.5058 0.177633
-16.5157 -12.2477 -0.669889
-15.3789 -12.8724 -0.71644
-15.0703 -12.3633 -2.13415
-15.0502 -12.5232 -1.72984
-14.0058 -13.2076 -1.70451
-14.0397 -14.049 -1.06564
-13.7062 -12.9826 -2.14701
-16.0328 -12.7994 0.551086
-12.553 -14.6162 -2.18966
-15.8147 -12.7197 -0.414292
-15.857 -12.7232 -0.733742
-14.4293 -13.3202 -1.53052
-16.0162 -12.5142 -0.833768
-15.0477 -12.7303 -1.55932
-14.2323 -13.2194 -1.9065
-15.7894 -12.5342 -0.781047
-14.9869 -12.9663 -1.03371
-14.4618 -13.7411 -0.689888
-14.5234 -13.4423 -1.00168
-13.0112 -14.3698 -1.85304
-13.1578 -14.2559 -2.10258
-13.4424 -14.2143 -2.04738
-13.4285 -14.3154 -2.03484
-13.5938 -14.0196 -2.15975
-15.4756 -12.0406 -3.95061
-15.2953 -11.9638 -4.0801
-15.5324 -11.9268 -4.01249
-16.5936 -10.7282 -4.65771
-13.8625 -14.2027 -1.43253
-15.6849 -12.017 -3.51295
-16.9273 -10.6325 -4.72384
-16.0721 -11.6474 -3.77379
-16.0659 -11.8758 -3.61618
-16.662 -11.4895 -3.82224
-15.2004 -12.5156 -1.87875
-17.1982 -11.1721 -3.88846
-15.3021 -12.4325 -1.83536
-16.8539 -11.2524 -3.42147
-15.3242 -12.6366 -1.42146
-14.6547 -13.3262 -1.15916
-15.0327 -12.8201 -1.39296
-17.7346 -10.6806 -3.95856
-15.9224 -12.0803 -2.21511
-15.5698 -12.4801 -1.35097
-18.4126 -10.485 -3.33353
-17.1579 -11.159 -1.72058
-16.1819 -12.2193 -0.907597
-15.4999 -13.3849 -0.354787
-18.5465 -10.5707 -2.85893
-16.8519 -11.8033 -1.29771
-17.3151 -11.7093 -1.26805
-15.5318 -13.1277 -0.0324166
-18.129 -11.3032 -1.9428
-15.6194 -13.0437 -0.22563
-17.2139 -11.387 -1.17433
-19.0239 -10.5473 -2.19568
-18.8902 -10.4494 -2.05762
-18.9017 -10.9449 -1.60622
-18.9085 -10.7105 -1.78533
-16.3024 -12.5663 0.394236
-17.4544 -11.2037 -0.431599
-19.0545 -10.3877 -1.88909
-18.8787 -10.8794 -1.72306
-19.3477 -10.451 -1.81721
-16.4886 -12.2646 0.00801709
-17.0477 -11.6013 -0.16464
-16.538 -12.178 0.187736
-17.3789 -11.458 -0.301663
-16.7595 -12.0009 0.21308
-19.7918 -10.4263 -1.43313
-15.774 -11.1508 1.36103
-13.7651 -13.9037 -2.00484
-13.7462 -13.9676 -1.85475
-13.9298 -14.1182 -1.42114
-15.8121 -11.7944 -3.35858
-15.0625 -12.1259 -1.95673
-16.4226 -11.6074 -3.58873
-14.3258 -14.0767 -1.05964
-16.6052 -11.5679 -3.49417
-15.0163 -12.657 -1.39245
-15.1465 -12.7663 -1.69241
-15.0831 -12.6575 -1.68686
-17.1369 -11.1873 -3.27833
-15.2727 -12.8781 -0.792831
-14.81 -13.381 -0.593623
-15.3018 -13.4027 -0.403333
-15.2499 -13.4068 -0.304385
-15.6274 -12.9044 -0.23252
-15.7198 -12.5652 -0.587805
-17.058 -11.8321 -1.49856
-16.7633 -12.1542 -1.17702
-18.3729 -11.1164 -1.96131
-17.3792 -11.4363 -1.01302
-15.7896 -12.7541 0.600559
-18.8161 -10.9208 -1.43579
-20.1749 -10.0968 -1.0887
-13.5379 -14.0819 -1.97487
-14.9619 -11.7363 -2.84682
-13.8167 -14.2613 -1.15553
-15.0725 -12.4583 -1.68582
-14.2789 -13.9337 -1.06301
-15.561 -12.5347 -1.60672
-15.9267 -12.3129 -1.14269
-18.2009 -10.6139 -2.76927
-15.8279 -12.7765 -0.229524
-18.6202 -10.984 -2.06938
-18.4881 -10.9924 -1.64627
-17.5148 -11.437 -1.00755
-16.9158 -12.0832 -0.301644
-15.9043 -12.5628 0.265673
-18.9739 -10.8115 -1.64217
-17.8133 -11.041 -0.514929
-18.587 -10.0182 0.0897136
-13.0123 -14.6298 -1.90164
-15.5156 -12.0751 -4.15249
-13.4483 -14.3556 -1.49658
-14.9313 -11.8527 -2.62732
-14.3305 -13.9229 -1.20555
-17.3345 -11.0495 -3.25508
-14.7952 -13.206 -0.68634
-17.761 -10.6286 -3.39215
-15.9856 -12.4491 -0.84134
-15.8498 -12.6989 0.332003
-16.999 -11.6542 -0.404983
-16.5151 -12.3334 0.298487
-16.3741 -10.3374 1.08233
-13.8432 -13.5974 -2.71889
-15.6716 -11.8817 -4.25351
-14.4598 -12.8127 -1.63535
-16.5755 -11.3298 -3.68792
-14.9951 -12.6235 -1.42509
-17.5019 -11.2504 -3.25273
-15.5421 -12.9159 -0.880579
-15.6123 -12.7904 -0.271161
-18.7803 -10.552 -2.20568
-17.4151 -11.1813 -0.663101
-15.8056 -12.9214 0.566049
-13.5814 -14.1147 -2.16594
-15.3116 -12.0563 -2.0229
-15.1756 -12.0787 -2.12488
-15.4447 -12.4242 -1.15418
-15.4918 -13.2992 -0.18564
-17.3773 -11.2151 -1.72524
-15.8008 -12.7847 -0.261773
-15.4262 -12.8881 -0.610366
-16.0035 -12.546 -0.204569
-17.0827 -11.8113 -0.128375
-16.0575 -10.4969 1.14458
-15.2878 -12.273 -2.09508
-15.636 -13.0785 -0.0240366
-15.1223 -12.9871 -0.887853
-17.4183 -11.1663 -0.589414
-14.2164 -13.1746 -1.68175
-14.2349 -13.2935 -1.39551
-15.581 -12.9052 -0.856132
-16.2108 -12.4744 -1.01001
-15.5578 -12.9638 -0.383646
-16.8495 -10.5567 -5.02474
-16.0061 -11.4945 -4.48495
-16.7449 -11.122 -4.28522
-16.7237 -10.9226 -4.2843
-16.8569 -10.8728 -4.3651
-13.7517 -12.8512 -2.53602
-17.2442 -10.9131 -4.07439
-16.8262 -11.2198 -3.68703
-17.3408 -10.9987 -3.66956
-14.9024 -12.2936 -2.24636
-14.6184 -12.6371 -2.2481
-13.2879 -14.2646 -2.02226
-17.8972 -10.562 -3.68911
-17.5702 -10.9325 -3.60469
-15.0202 -12.1897 -2.16222
-13.7785 -13.9058 -2.00777
-13.385 -14.2649 -2.22708
-13.63 -13.8985 -2.03702
-15.7446 -12.152 -2.25949
-17.4721 -11.0778 -3.21399
-14.4993 -12.8767 -1.7226
-17.2029 -11.1403 -3.17137
-14.6096 -12.522 -1.6212
-13.6714 -14.1117 -2.02734
-15.2332 -12.4103 -1.99011
-17.193 -11.3865 -2.96556
-15.1105 -12.6082 -1.96544
-13.4958 -14.1663 -1.54009
-15.0769 -12.4872 -1.99253
-18.4408 -10.5077 -3.30561
-18.1102 -10.4897 -3.13993
-14.9773 -12.6098 -1.51478
-14.8278 -12.75 -1.54681
-13.9984 -14.0236 -1.58873
-18.3427 -10.6214 -3.16462
-16.1189 -11.7827 -1.73994
-16.1636 -12.1184 -1.82286
-15.0361 -12.8136 -1.45757
-15.292 -12.7472 -1.44108
-16.6155 -11.9822 -1.64563
-13.9798 -14.1168 -1.29076
-15.7711 -12.2455 -1.29956
-17.2143 -11.5554 -1.51364
-18.776 -10.8146 -1.94927
-18.746 -10.9035 -1.70864
-19.3294 -10.3948 -1.98056
-15.5715 -12.7893 -0.68271
-17.3065 -11.9464 -1.08072
-15.6797 -12.6817 -0.442114
-15.4008 -12.9574 -0.46553
-14.92 -13.666 -0.376978
-16.3346 -12.3766 -0.583874
-16.1822 -12.3305 -0.477714
-15.3929 -13.2174 -0.172975
-15.6809 -12.7619 -0.280425
-15.5861 -13.0168 0.0867719
-15.6274 -13.0765 0.00700174
-15.9823 -10.5106 1.03008
-16.1348 -10.6499 1.23189
-16.5344 -12.4041 0.358129
-15.8711 -12.7427 0.534251
-16.0194 -12.7923 0.422031
-15.696 -10.9866 1.4195
-16.2542 -10.588 1.56745
-15.8113 -11.084 1.2964
-16.2067 -11.2757 -4.24233
-16.4219 -11.4189 -4.07914
-16.1491 -11.3615 -4.03283
-15.7696 -11.6984 -3.85008
-16.5924 -11.0297 -3.95092
-14.0978 -12.4489 -2.47401
-16.1425 -11.6084 -3.95754
-17.2954 -10.7841 -4.30359
-13.655 -14.0233 -2.18475
-16.3969 -11.3763 -3.25964
-17.0369 -11.3562 -3.24146
-13.2444 -14.3418 -1.97819
-13.3015 -14.1657 -1.99942
-15.3858 -12.0191 -2.45654
-13.0979 -14.0814 -1.94736
-14.4835 -13.0147 -1.54097
-13.5898 -14.1924 -1.80775
-15.0177 -12.6193 -1.61659
-16.4808 -11.8154 -1.73757
-18.0535 -11.0709 -2.45461
-15.9132 -12.459 -1.31178
-17.9324 -10.954 -2.16075
-15.9697 -12.2698 -1.34832
-16.5289 -11.9795 -1.05007
-16.8657 -12.2209 -1.05171
-16.3126 -12.3417 -0.658073
-15.2569 -13.0007 -0.578905
-15.3163 -13.229 -0.215752
-15.3483 -12.9426 -0.513982
-16.4035 -12.2949 -0.421083
-16.8358 -11.7794 -0.131429
-15.7877 -13.0576 0.0937841
-16.666 -12.2849 0.132959
-15.7313 -12.7048 0.45383
-17.3778 -10.6071 -3.82137
-13.7202 -13.4368 -2.56956
-14.34 -12.7473 -1.95034
-14.5222 -13.0446 -1.49338
-15.2381 -12.5807 -1.91363
-16.8727 -11.0873 -1.85011
-18.0662 -11.0566 -1.9279
-16.4544 -12.2081 -1.43785
-16.4157 -12.1539 -1.42464
-16.2208 -12.3986 -1.05697
-15.2837 -13.0966 -0.221354
-16.0515 -12.474 -0.215036
-20.1368 -9.89929 -1.08005
-16.2233 -10.5244 0.858581
-18.4428 -10.0224 0.0253806
-16.0956 -10.4963 1.14604
-15.7423 -10.6294 1.90344
-16.5422 -10.615 -5.08977
-16.8575 -11.162 -3.70861
-13.6567 -12.9904 -1.98031
-15.0699 -11.9949 -2.37845
-17.8341 -10.5441 -3.53111
-15.7541 -12.1007 -1.38924
-15.3737 -12.581 -1.20027
-18.2458 -10.9308 -1.83538
-18.1911 -11.2186 -1.90375
-18.9066 -10.8083 -1.72664
-18.6346 -11.0095 -1.79939
-17.7931 -10.9857 -0.75965
-19.9068 -10.0839 -1.08795
-16.1494 -12.6326 0.395947
-13.8341 -13.0533 -2.30727
-15.6342 -12.4671 -1.2698
-18.1464 -11.2359 -2.01288
-16.0431 -12.3376 -1.19178
-17.7577 -11.0828 -0.950945
-15.8966 -12.6248 -0.092019
-20.0715 -10.1453 -1.05528
-15.8977 -10.7774 1.27621
-14.2857 -12.4494 -2.40982
-15.3357 -12.3653 -2.06413
-16.1258 -11.744 -2.20783
-17.898 -11.1971 -2.51925
-15.156 -12.9039 -1.11659
-14.338 -13.5013 -0.995848
-19.9771 -9.89488 -0.960316
-14.9607 -13.2642 -0.714731
-15.4699 -12.6228 -1.08007
-16.1306 -12.5596 0.712206
-15.8251 -12.6355 -0.492755
-14.2383 -12.3038 -2.7641
-13.9883 -13.3921 -1.77635
-16.5897 -11.0996 -4.2872
-16.6459 -11.176 -4.27139
-17.3527 -11.1086 -3.09688
-14.31 -12.4493 -2.73292
-15.0972 -11.8865 -2.55069
-15.1239 -12.1974 -2.23613
-19.674 -10.3113 -1.48131
-16.48 -11.8322 -1.83287
-15.3416 -12.4826 -1.78277
-19.8905 -10.1169 -1.11188
-20.0339 -10.3065 -1.00015
-14.4009 -12.7188 -1.6186
-15.0888 -12.6745 -1.36371
-16.4534 -10.5145 1.12249
-13.2164 -14.3356 -1.9587
-15.7511 -12.4554 -0.693785
-17.1903 -11.7808 -0.130128
-15.7429 -12.3843 -0.429776
-13.6124 -14.1432 -1.41613
-13.7923 -14.151 -1.35467
-13.5818 -14.1026 -1.43972
-15.0241 -13.5785 -0.495332
-14.7178 -13.5442 -0.394515
-16.1813 -12.6321 0.646366
-15.8875 -11.8358 -4.02292
-17.3859 -11.4047 -2.67886
-15.041 -12.1253 -2.21949
-18.1556 -10.9561 -1.94619
-18.6633 -10.979 -1.82575
-16.9533 -11.5089 -1.88803
-19.988 -10.114 -1.14965
-14.3971 -12.8291 -1.62848
-17.6637 -11.3259 -0.610799
-15.9024 -12.3059 -1.32517
-15.0455 -12.8527 -1.47328
-13.6611 -14.0413 -2.29662
-13.712 -14.0068 -2.0501
-13.6795 -13.9853 -1.92477
-16.3825 -12.3477 -0.549182
-15.6526 -12.6575 -0.719025
-15.2442 -12.9314 -0.897541
-15.9835 -12.5738 -0.553263
-15.0862 -13.0495 -0.543629
-15.1724 -12.9929 -0.365752
-15.367 -12.9754 -0.592246
-15.3891 -12.7788 -0.576954
-15.1676 -13.0763 -0.67064
-15.3567 -12.927 -0.252262
-15.7218 -13.036 -0.140387
-15.5716 -12.9331 0.073605
-15.0943 -13.5201 -0.141956
-15.5812 -12.0191 -3.724
-17.3002 -11.1871 -3.10787
-18.2958 -10.7023 -2.59874
-14.2654 -12.5618 -2.5777
-14.3446 -12.5694 -2.62643
-14.1551 -12.5609 -2.4086
-15.183 -12.1532 -2.14135
-16.9859 -11.4899 -2.31256
-17.1187 -11.7064 -2.3896
-18.7983 -10.7683 -1.98879
-17.796 -11.2534 -0.556778
-16.0361 -12.31 -0.983469
-13.6006 -13.9541 -1.96255
-15.6884 -12.7749 -0.707955
-12.9773 -14.5669 -2.11559
-15.3947 -12.8564 -0.674673
-15.5167 -13.1607 -0.160557
-15.1441 -13.2691 -0.355444
-16.5732 -11.1943 -3.91843
-16.2799 -11.7933 -3.16332
-18.9314 -10.7677 -1.66832
-20.3126 -10.0894 -0.890887
-14.2555 -12.7937 -1.89282
-17.4008 -11.2315 -0.730386
-17.4871 -11.1401 -0.930682
-15.5492 -12.4543 -1.49867
-17.4322 -11.3001 -0.537105
-15.4288 -13.0046 -0.544606
-15.4288 -12.9448 -0.192781
-15.741 -13.0801 -0.0874388
-15.6834 -13.127 0.0290926
-15.5007 -13.3051 0.0248299
-14.7535 -11.9271 -2.75623
-19.8507 -10.1491 -1.47782
-14.2814 -12.8329 -1.51541
-17.611 -11.0152 -0.746207
-14.4821 -12.9334 -1.59084
-15.5045 -12.7367 -0.876089
-16.8896 -11.8213 0.10004
-15.6365 -12.7033 -0.168761
-20.2533 -10.2047 -1.04506
-14.9734 -12.6541 -1.64313
-16.9872 -11.5962 -1.64281
-20.0392 -10.219 -1.03226
-20.1554 -10.2392 -1.03182
-15.5549 -12.603 -1.53672
-15.1238 -12.9611 -1.10596
-15.1399 -12.3162 -2.13372
-14.5936 -13.7074 -1.02276
-14.8551 -12.5049 -1.43163
-14.0568 -13.4985 -1.16595
-14.0161 -14.0278 -2.02027
-17.7126 -10.337 -4.06043
-20.0927 -10.1392 -1.59816
-19.879 -10.2104 -1.47006
-16.5004 -10.9728 -4.19189
-16.9436 -11.1751 -3.79006
-18.8454 -10.8832 -1.74333
-18.8443 -10.9245 -1.36403
-16.2811 -10.8202 1.21134
-15.4138 -12.0698 -2.07054
-14.6587 -12.2647 -2.63845
-15.3063 -12.3988 -1.7124
-15.6416 -12.5265 -0.361111
-15.8485 -12.471 -0.462351
-14.4161 -12.8428 -1.56822
-15.9775 -12.6791 0.508445
-13.7442 -13.9529 -2.0341
-13.897 -14.2598 -1.49887
-19.0358 -10.7352 -1.72817
-15.0854 -12.2532 -2.23704
-15.2897 -12.2282 -1.79736
-16.6899 -12.1395 -1.30341
-15.4977 -12.9579 -0.523299
-14.86 -13.4935 -0.409293
-18.6832 -10.782 -1.74211
-18.8056 -10.8136 -1.87227
-16.4109 -10.6252 1.09916
-15.2139 -12.5302 -1.83643
-16.1088 -12.2233 -0.610917
-16.4175 -11.6827 -3.214
-17.2758 -11.2176 -0.442181
-16.2019 -12.4145 -0.688469
-14.0119 -13.4547 -1.32419
-13.6635 -14.1124 -1.90508
-20.1058 -9.82153 -0.718014
-18.7017 -10.8024 -1.81023
-15.6621 -12.6107 -0.902578
-18.0053 -11.4109 -1.81977
-14.9442 -13.0669 -1.24325
-14.3621 -13.2084 -1.40496
-15.0114 -13.3037 -0.881882
-15.757 -12.7792 -0.856533
-17.2258 -11.5689 -1.73523
-16.1675 -10.6368 1.32932
-15.9896 -10.6441 1.43294
-17.9523 -11.0244 -2.76661
-17.759 -11.0081 -2.99916
-16.0489 -11.4874 -4.46343
-17.1914 -12.0765 -1.13277
-15.9217 -11.6281 -4.11639
-16.1385 -11.9134 -3.33919
-16.1947 -12.5172 0.160209
-15.2974 -12.0338 -2.28946
-15.6579 -12.4927 -0.223038
-15.2976 -12.61 -1.41185
-15.6465 -12.7673 -0.182382
-15.6416 -12.8589 -0.103165
-15.03 -12.7939 -1.37171
-15.6283 -13.1345 0.121457
-14.3595 -12.6993 -1.66538
-14.4362 -12.7889 -1.62242
-14.4943 -12.6241 -1.61637
-14.3031 -12.6667 -1.55824
-13.669 -13.7111 -2.65645
-13.4036 -14.4127 -1.80737
-13.1703 -14.4794 -1.94231
-18.0644 -10.5049 -3.584
-17.2092 -10.5153 -4.02266
-17.5088 -10.7176 -4.04057
-17.2782 -11.2862 -2.67888
-16.7641 -12.1012 -0.106118
-16.0326 -11.8669 -3.46254
-16.542 -12.172 -1.23804
-16.4457 -12.3201 -0.714951
-16.4218 -12.1088 -0.857016
-16.2381 -12.1759 -1.12674
-16.4013 -12.454 -0.528191
-16.0812 -12.298 -1.02577
-16.2663 -12.2961 -0.786101
-15.4037 -12.1102 -2.13022
-15.7376 -12.6935 -0.667832
-15.8154 -12.6862 -0.0944884
-15.2598 -12.7914 -1.32559
-14.4294 -12.8213 -1.51731
-14.2248 -12.7387 -1.62635
-15.0259 -13.4425 -0.564489
-15.0297 -13.5503 -0.275047
-16.8546 -11.5189 -1.705
-14.996 -12.1177 -2.20119
-15.6991 -12.4638 -0.287981
-16.0164 -12.8319 0.313926
-15.3471 -12.9118 -0.545942
-14.3688 -12.7248 -1.50408
-14.0526 -12.8797 -2.52697
-13.472 -14.2216 -1.59393
-19.8671 -10.2411 -1.47843
-17.2775 -11.4031 -0.519425
-15.3362 -12.6381 -1.04528
-15.8697 -12.8422 0.177514
-15.421 -12.9897 -0.811902
-13.5037 -14.4497 -1.68668
-15.5467 -12.7361 -1.24188
-15.6571 -13.0352 -0.223414
-15.215 -12.8823 -1.17062
-15.5553 -12.9785 0.101807
-15.1409 -13.0889 -0.724327
-13.7273 -14.1001 -1.94673
-15.6618 -12.4047 -0.933596
-15.7713 -13.0113 -0.491556
-14.1985 -12.7988 -2.08019
-12.954 -14.6733 -2.18807
-14.202 -13.1571 -1.93126
-14.4452 -13.7715 -0.874546
-16.0039 -10.8368 1.37725
-19.2265 -10.6446 -1.75595
-17.7643 -11.0524 -2.83766
-16.6148 -11.9178 -0.0243443
-16.7917 -11.1735 -1.80186
-17.7197 -10.5296 -4.41897
-17.6621 -10.6411 -4.09006
-17.5412 -11.1027 -3.26154
-16.7013 -12.1458 -0.884005
-17.0717 -10.9875 -4.06875
-16.1055 -12.5718 0.475845
-16.319 -12.2225 -0.725855
-16.0229 -12.4818 -0.416957
-15.7523 -12.4185 -0.195447
-15.7863 -12.8018 -0.431201
-15.7452 -12.6096 -0.271724
-16.3378 -11.4947 -4.20816
-15.5591 -12.7857 -0.134038
-15.3339 -12.8724 -0.682765
-15 -12.1183 -2.05027
-15.1088 -12.9216 -1.27237
-14.5533 -12.5093 -2.00639
-14.8152 -13.5344 -0.986933
-14.3672 -12.9462 -1.75295
-14.5108 -12.7808 -1.51872
-14.1956 -12.7598 -1.68543
-13.8554 -13.634 -2.62199
-13.7867 -13.9638 -1.95493
-13.5623 -13.6866 -2.44715
-13.4898 -13.873 -2.09238
-18.8153 -11.0386 -1.32845
-17.3472 -11.1625 -0.496096
-17.3867 -11.5039 -0.548049
-17.084 -11.4996 -0.437288
-18.0563 -10.1509 -3.88855
-16.6024 -12.076 0.082918
-17.5128 -10.9758 -3.26939
-17.1928 -10.7435 -4.16054
-16.3798 -12.3348 0.104574
-16.5493 -12.1511 -0.63196
-16.3202 -12.1718 -0.594964
-16.6064 -11.2418 -3.51399
-16.8946 -11.6605 -2.86117
-16.1322 -12.4106 -1.01168
-15.8605 -12.3671 -1.05096
-15.9896 -11.6855 -3.3978
-15.268 -12.2138 -2.31167
-15.5166 -11.6865 -4.2179
-15.4119 -12.9191 -0.423624
-15.3142 -12.2698 -4.02514
-15.0761 -13.3116 -0.686514
-14.7697 -13.5322 -0.350459
-14.36 -12.9518 -1.66482
-14.3859 -12.8685 -1.63368
-14.4173 -12.9768 -1.66492
-14.5977 -12.6674 -1.47516
-14.5493 -13.3265 -0.989734
-14.1497 -12.622 -2.24661
-13.9113 -13.1533 -2.45703
-13.7125 -14.0743 -1.72614
-13.8062 -14.1735 -1.35798
-19.9864 -10.0969 -1.13152
-18.2469 -11.0114 -2.5551
-17.9035 -10.9799 -2.71898
-17.1824 -11.782 -1.21155
-17.2837 -10.6113 -3.98346
-16.5695 -12.1369 -0.608691
-15.7406 -12.6111 -0.321524
-15.8568 -12.2632 -1.31355
-15.4238 -13.0186 -0.336652
-15.5823 -12.8804 -0.187228
-15.789 -11.9745 -3.53332
-15.4111 -12.7082 -1.11453
-15.4551 -12.9249 -0.415628
-15.3174 -13.2012 -0.381823
-15.0923 -12.928 -0.556951
-15.0642 -13.0422 -1.30389
-15.138 -13.5631 -0.543912
-14.8418 -13.5228 -0.394286
-14.365 -12.7727 -1.6976
-14.3681 -14.0467 -1.33272
-13.8153 -12.9304 -2.36591
-13.6663 -14.0064 -2.10993
-13.4614 -14.4115 -1.69359
-20.0674 -10.059 -1.05026
-15.8139 -10.8817 1.41036
-18.7416 -11.0075 -1.52215
-17.8467 -10.9809 -0.762804
-17.0785 -11.2715 -1.54101
-17.0135 -11.4665 -1.63919
-15.8179 -12.5761 0.603162
-15.6518 -13.0605 -0.073056
-15.2892 -13.0929 -0.218449
-15.0913 -12.11 -2.14719
-15.3772 -12.9858 -0.57018
-14.9108 -12.7257 -1.53653
-15.0793 -13.3398 -0.659359
-15.0427 -13.3378 -0.477942
-15.0228 -13.6134 -0.623452
-14.4046 -12.9327 -1.52011
-15.9472 -12.512 0.294302
-15.5104 -12.4804 -0.302685
-16.0881 -12.2147 -1.63654
-15.7071 -13.0612 0.072577
-14.8601 -12.6336 -1.51092
-15.0932 -13.4492 -0.641591
-14.5975 -13.4932 -0.429398
-13.7833 -14.0911 -2.0786
-13.6594 -14.3113 -1.56419
-17.304 -11.227 -0.27352
-18.1666 -11.1601 -1.87382
-15.9282 -12.8639 -0.269688
-13.253 -14.3161 -2.05131
-14.4217 -12.7701 -1.67691
-20.0141 -10.3019 -1.2222
-15.6594 -12.7026 -1.46189
-14.2207 -13.6717 -1.53223
-15.8624 -12.6295 -0.0851813
-16.114 -10.5444 1.20002
-18.9548 -10.7528 -1.84505
-17.5881 -11.5386 -0.191227
-17.4958 -11.4875 -0.247416
-16.4577 -12.1625 0.481062
-16.1381 -12.4636 0.359753
-15.6125 -12.9383 0.0827217
-16.4907 -11.9051 -1.51621
-15.7397 -12.9441 -0.0955204
-16.1484 -12.3685 -0.895801
-15.8192 -13.0871 0.0283398
-15.7221 -12.8649 -0.447534
-16.1208 -12.1876 -1.30223
-17.0208 -11.0952 -3.38305
-16.8932 -11.4057 -3.03926
-15.3995 -12.9328 -0.515209
-15.3523 -12.8849 -0.507551
-16.8525 -11.0728 -3.83722
-16.483 -11.4577 -3.45144
-15.1671 -12.8975 -0.887278
-16.3964 -11.6416 -3.37354
-14.9598 -13.5178 -0.287714
-15.0187 -13.3746 -0.566923
-15.1904 -12.4339 -1.64205
-14.9214 -12.7694 -1.23546
-15.1996 -12.4943 -1.91962
-15.2235 -12.0002 -2.1303
-14.2272 -13.1133 -1.49534
-14.237 -12.7823 -1.5759
-14.4511 -12.718 -2.08937
-14.0805 -12.4355 -2.54823
-13.8603 -14.0709 -1.75996
-13.7676 -13.5494 -2.59894
-13.6684 -13.9045 -2.03159
-13.3673 -14.2794 -1.86927
-19.8851 -9.94447 -0.834945
-20.0444 -10.1534 -1.33918
-15.7114 -11.0263 1.40523
-17.8051 -10.9866 -0.673933
-19.0387 -10.7424 -2.03951
-17.4131 -11.5712 -0.4214
-17.4088 -11.5392 -0.525679
-18.0811 -11.2537 -2.26806
-16.0737 -12.5167 0.343907
-16.4407 -12.0583 -0.672843
-17.8688 -10.3743 -3.57426
-15.8517 -12.6712 -0.0280033
-15.7836 -12.4412 -0.47378
-15.5794 -12.9865 -0.133727
-15.4979 -13.3284 -0.00596817
-15.9579 -12.0883 -1.32894
-15.5635 -13.051 -0.341159
-17.3267 -10.7745 -4.00575
-15.2086 -13.3411 -0.582326
-15.1461 -13.0742 -0.668676
-15.1704 -12.6657 -1.34987
-15.2598 -12.4306 -1.87184
-15.0542 -12.2941 -2.49153
-14.77 -12.6097 -1.81965
-14.5007 -12.8129 -1.29518
-14.7238 -12.6133 -2.2219
-14.4187 -12.6659 -1.51793
-13.8045 -14.1496 -1.71666
-13.3716 -14.3947 -1.85274
-18.6849 -10.7664 -2.01765
-17.2827 -11.493 -0.41935
-16.8577 -11.6309 -0.266991
-18.2231 -11.0814 -2.03897
-16.4573 -12.3135 0.368187
-16.2315 -12.4665 0.14135
-18.1617 -10.8496 -2.71136
-17.096 -11.5897 -1.274
-16.6125 -12.3252 -0.340978
-15.8432 -12.4061 -0.265841
-15.8801 -12.7497 -0.0686845
-17.4964 -10.5481 -4.06913
-17.469 -10.7261 -3.98726
-15.9961 -12.1979 -1.34816
-15.7059 -12.7903 -0.66378
-17.2369 -10.6505 -4.21529
-15.4432 -12.9378 -0.315156
-15.2751 -13.0928 -0.545039
-15.7953 -11.9413 -2.32152
-15.8547 -11.9179 -2.46818
-15.1934 -12.9935 -0.612607
-15.1113 -12.9601 -0.763819
-14.8867 -12.9438 -1.01558
-15.1564 -12.1091 -2.022
-15.7293 -11.8709 -3.47601
-14.4476 -12.6354 -1.628
-14.1349 -13.9862 -1.21311
-14.0808 -12.4468 -2.28704
-13.7387 -14.0151 -2.04941
-20.1122 -10.2906 -1.22054
-17.8139 -10.767 -0.772975
-18.8881 -11.11 -1.52111
-17.5967 -10.9918 -0.679901
-18.6615 -10.7807 -1.5917
-17.357 -11.2573 -0.388388
-16.9716 -11.8696 0.204077
-16.8214 -11.7022 -0.196158
-16.111 -12.817 0.242669
-15.6473 -12.9189 -0.206086
-15.0851 -13.0442 -0.70078
-14.9852 -13.4327 -0.316906
-14.9367 -13.4822 -0.884505
-14.7683 -12.7474 -1.79716
-14.6807 -12.844 -1.59833
-20.0456 -10.4024 -1.27752
-17.8953 -11.1833 -1.84365
-15.3116 -12.4215 -1.91265
-14.8674 -13.5524 -0.558449
-15.3463 -12.2854 -1.83306
-14.5231 -12.9482 -1.58507
-14.1069 -13.3582 -1.75878
-18.95 -10.9741 -1.60431
-17.1274 -11.7124 -0.39234
-15.915 -12.65 0.57961
-14.8799 -13.2974 -0.725582
-14.4583 -12.7429 -1.66342
-20.1799 -10.1057 -1.10518
-15.727 -12.6003 -0.98488
-15.1264 -12.4506 -2.0695
-15.8887 -12.7084 -0.684101
-15.2575 -13.473 -0.24286
-14.3346 -13.2257 -1.44099
-15.5177 -12.0854 -1.742
-15.7342 -12.8729 -0.334549
-15.1019 -12.8612 -1.22117
-15.9592 -10.9541 2.13152
-16.4936 -10.5124 1.21893
-15.6153 -11.057 1.53536
-15.7437 -11.139 1.34922
-16.1171 -10.6603 1.13154
-20.1711 -10.1167 -0.97708
-20.2041 -10.186 -1.07799
-19.7143 -10.3918 -1.72616
-16.1715 -12.7004 0.505648
-17.5322 -11.2266 -0.346268
-16.3226 -12.298 0.167369
-16.4052 -12.226 0.16234
-16.0898 -12.5933 0.365761
-18.9318 -10.9352 -1.45578
-15.9087 -12.6658 0.631214
-16.306 -12.3855 0.329071
-16.0136 -12.6262 0.586852
-18.8959 -10.9435 -1.55392
-16.025 -12.7074 0.646904
-19.0151 -10.859 -1.89709
-17.3352 -11.0659 -0.668696
-17.5196 -11.1469 -0.628366
-16.396 -11.9316 0.00178488
-15.7033 -13.0462 0.56265
-18.5649 -10.9758 -1.6155
-17.6063 -11.2255 -1.16277
-18.3355 -11.0831 -1.83261
-16.5374 -12.147 -0.503535
-17.3042 -11.5149 -1.42877
-17.8583 -11.1576 -1.73023
-15.7496 -12.8821 -0.0752099
-17.8798 -11.2532 -1.98733
-15.5964 -13.0889 -0.0672509
-15.6872 -13.2117 -0.0447065
-15.7197 -13.1379 0.122739
-15.6808 -12.953 -0.0741721
-15.8258 -12.8775 -0.218249
-15.7101 -13.0446 -0.0640175
-15.7833 -12.2573 -0.246518
-16.2175 -12.3406 -0.762449
-15.8102 -12.4123 -0.473826
-15.3015 -13.269 -0.355343
-16.052 -12.3207 -1.01129
-18.1731 -10.7151 -2.75054
-16.8618 -11.5599 -1.66942
-16.9402 -11.2457 -1.93564
-18.4058 -10.5648 -3.05219
-15.5148 -12.8565 -0.534621
-15.2763 -12.8264 -0.495349
-15.2879 -12.9823 -0.622396
-15.4311 -12.8942 -0.490708
-18.117 -10.452 -3.25317
-18.0495 -10.7721 -3.15253
-15.7965 -12.4724 -1.31707
-17.0865 -11.4712 -2.63113
-16.9547 -11.4627 -2.53144
-15.7176 -12.4319 -1.17174
-17.9353 -10.6931 -3.20023
-15.5 -12.3721 -1.34115
-17.2577 -11.3039 -2.77431
-15.2057 -12.6327 -1.15923
-18.116 -10.3803 -3.81169
-16.8568 -11.7074 -2.73471
-15.3891 -12.5534 -1.14499
-16.0908 -12.1204 -1.83156
-17.1268 -11.2091 -3.18393
-14.974 -13.0288 -1.14996
-15.085 -12.3851 -1.4865
-15.3568 -12.6236 -1.5633
-15.0907 -12.7317 -1.47583
-14.9729 -12.7636 -1.33973
-16.7291 -11.5365 -3.3672
-17.5613 -10.5556 -4.247
-17.3449 -10.8062 -4.21893
-17.3153 -10.5869 -3.96776
-15.1934 -12.4949 -1.5623
-15.1438 -12.5211 -1.92478
-15.3702 -12.2057 -2.17718
-14.8875 -12.6426 -1.64383
-17.3881 -10.5535 -4.47875
-17.1705 -10.7943 -4.39039
-14.2404 -14.0911 -1.17024
-15.0312 -12.0333 -2.00471
-15.0649 -12.0946 -2.09319
-16.8108 -11.1859 -4.19069
-14.5329 -12.9702 -1.4614
-14.3349 -12.6645 -1.77919
-17.1511 -10.5647 -4.76291
-14.0292 -14.0438 -1.35631
-17.1693 -10.5566 -4.80061
-14.3538 -12.9154 -1.74734
-16.024 -11.6717 -3.7853
-14.369 -12.709 -1.70756
-14.3828 -12.6376 -1.71871
-14.339 -12.8861 -1.55151
-15.7983 -12.0185 -3.36348
-15.0439 -11.9266 -2.41899
-14.8668 -12.1171 -2.35988
-15.8576 -11.9783 -3.67064
-14.6627 -12.5307 -2.15122
-14.4078 -12.6359 -1.99671
-16.7964 -10.874 -4.79335
-13.7512 -14.0763 -1.54078
-13.7041 -14.2923 -1.40495
-16.2062 -10.9705 -4.53475
-13.6846 -14.2123 -1.66544
-16.4171 -10.9264 -4.91596
-15.8354 -11.7522 -3.98352
-16.2639 -11.3134 -4.79457
-15.5016 -11.9413 -4.05775
-15.3995 -12.046 -4.1234
-15.4367 -12.1761 -3.9539
-15.3159 -12.1602 -3.96396
-15.2618 -12.1665 -3.88408
-13.7772 -14.0968 -1.82921
-13.5031 -14.4011 -1.87606
-13.7381 -14.0143 -2.13439
-13.2878 -14.3658 -1.74817
-13.4169 -14.0193 -1.74514
-13.264 -14.2082 -1.92182
-13.5723 -13.8816 -2.27353
-13.8522 -13.0615 -2.59001
-13.4719 -13.9692 -2.27544
-12.9272 -14.5783 -2.08963
-12.9381 -14.4024 -2.11982
-15.7753 -11.0036 1.5363
-20.2006 -10.1004 -1.04397
-16.0396 -10.8157 1.14941
-19.9338 -10.4175 -1.37781
-19.5977 -10.3261 -1.69918
-19.8679 -10.1845 -1.55712
-17.3766 -11.2492 -0.625281
-16.2128 -12.5742 0.419516
-19.302 -10.3602 -1.98216
-17.4704 -11.3143 -0.435066
-17.3066 -11.3894 -0.528201
-17.4375 -11.2236 -0.494876
-18.7893 -10.9721 -1.9034
-16.9788 -11.9807 -0.444597
-18.571 -10.8251 -1.80968
-17.4153 -11.5262 -1.18757
-15.7789 -12.8919 0.184109
-18.1386 -10.7607 -2.05291
-18.3205 -11.3498 -1.80307
-15.9825 -12.6459 7.47144e-05
-16.3168 -12.3286 -0.580958
-15.9201 -12.6091 -0.36522
-18.2529 -10.8749 -2.38111
-18.1312 -11.3058 -2.07218
-15.8138 -12.622 -0.184996
-18.6359 -10.6543 -2.81961
-15.7005 -13.0354 -0.240723
-15.5177 -13.1624 -0.461616
-16.6338 -11.923 -1.40556
-18.1377 -10.5219 -2.99434
-16.4364 -12.1841 -1.25315
-15.1375 -13.497 -0.14669
-17.9498 -11.0047 -2.74097
-15.313 -13.1536 -0.357845
-15.7234 -12.7206 -0.688591
-15.0143 -13.6067 -0.306305
-15.0824 -13.7446 -0.62044
-15.0717 -13.5327 -0.38854
-15.9125 -12.2548 -1.28766
-17.1042 -11.5805 -2.40968
-15.3481 -12.8319 -0.66384
-17.2668 -11.5399 -2.5969
-17.4224 -11.1757 -2.85252
-15.3306 -12.9591 -0.754648
-15.0652 -13.0078 -0.776445
-18.0776 -10.1735 -3.66675
-14.6538 -13.5119 -0.725861
-15.1884 -12.7164 -1.50992
-14.6311 -13.5964 -1.19422
-15.3566 -12.03 -2.12962
-16.7026 -11.6077 -3.41652
-14.5435 -13.3818 -1.22581
-14.3237 -13.8548 -1.28184
-15.2393 -12.0066 -2.1594
-14.5729 -12.7113 -1.44575
-16.646 -11.2303 -3.95237
-14.5807 -12.7358 -1.88629
-15.7392 -11.8484 -3.45331
-15.8622 -12.1057 -3.32845
-15.8254 -11.9802 -3.67598
-14.7474 -12.5942 -2.23121
-15.6428 -11.962 -4.31295
-14.1707 -12.666 -2.36579
-13.7813 -13.9539 -1.96097
-13.7459 -13.9029 -2.01102
-13.6617 -14.165 -1.99678
-13.5998 -14.3974 -1.81072
-13.1103 -14.4967 -1.83856
-15.8971 -11.181 1.5466
-16.3671 -10.4943 0.7494
-15.8554 -12.7165 0.548148
-16.1785 -12.5288 -0.598101
-15.8593 -12.4151 -0.127238
-15.8319 -12.4258 -0.375916
-17.9633 -11.1758 -2.20436
-16.0306 -12.2712 -1.28349
-15.8302 -12.335 -1.33649
-15.18 -13.0391 -0.625747
-15.6607 -12.5678 -1.44646
-14.9409 -13.2371 -0.750737
-15.9694 -11.9986 -1.99256
-16.5055 -11.6578 -3.29273
-15.3824 -12.1175 -2.01597
-15.122 -12.2439 -2.009
-15.2908 -12.1449 -2.20862
-14.6328 -12.9364 -1.54809
-15.1483 -11.7441 -2.69391
-13.969 -13.8507 -2.02879
-14.0664 -13.8864 -2.12813
-13.7175 -13.2611 -1.74987
-13.2445 -14.1378 -2.16096
-13.3291 -14.0104 -2.20343
-12.9042 -14.6178 -1.99363
-16.4568 -12.2876 0.34562
-17.7989 -11.1276 -0.564575
-19.1881 -10.5223 -1.85607
-16.1767 -12.4301 0.315392
-17.6838 -11.0511 -0.851522
-16.2666 -12.2864 -0.498996
-15.7317 -12.3739 -0.226577
-17.0535 -11.7899 -1.26934
-17.9873 -11.069 -2.9761
-16.1741 -11.8767 -1.66203
-16.3903 -12.1697 -1.6447
-15.6286 -12.6744 -1.32912
-15.2778 -12.5893 -1.29066
-14.7747 -12.9109 -0.895171
-15.6109 -12.5631 -1.62325
-15.4631 -11.762 -4.02853
-13.9175 -12.6085 -2.62698
-13.7498 -13.725 -2.6502
-15.786 -12.7758 0.434137
-18.9087 -10.6724 -1.94712
-18.125 -10.9617 -1.94048
-16.6746 -12.1733 -1.17952
-15.6079 -12.7869 -0.416385
-18.0791 -11.1935 -2.52956
-15.187 -12.4998 -1.56144
-17.5026 -10.6812 -3.82757
-15.2526 -12.7181 -1.34399
-15.0573 -12.7211 -1.5309
-14.5487 -12.757 -1.52377
-15.0966 -11.8568 -2.40874
-16.7055 -10.8131 -4.64859
-14.4874 -12.6749 -2.21787
-13.5685 -14.1827 -1.34205
-14.5761 -11.8669 -2.6402
-15.6041 -11.8985 -4.09481
-13.8637 -13.6214 -2.38673
-13.8333 -12.9718 -2.55627
