-16.7418 -12.2431 -0.653924
-17.7315 -10.98 -2.5256
-17.1962 -10.9566 -3.76721
-15.6996 -12.1515 -2.8084
-17.8575 -11.303 -0.335278
-19.0438 -10.6468 -1.63176
-16.9916 -11.6846 -2.32932
-15.2388 -12.5803 -1.96628
-14.504 -13.7022 -1.37623
-16.227 -11.6946 -2.52232
-16.9601 -11.987 -0.460308
-17.2518 -11.8245 -1.36058
-17.1427 -11.6371 -0.438019
-17.4113 -11.5202 -0.589018
-16.818 -12.2555 -0.786774
-18.135 -11.306 -1.98688
-17.7647 -11.387 -2.31763
-16.6658 -10.4192 1.10096
-18.5595 -11.1526 -1.7414
-18.0244 -11.2876 -1.30068
-17.6786 -11.3524 -2.27831
-15.3651 -12.8082 -1.29052
-15.4847 -12.6186 -1.37473
-16.1595 -11.6711 -3.37341
-14.5745 -12.6183 -1.68525
-17.0293 -11.2469 -3.35516
-16.9482 -11.4702 -3.42279
-17.6285 -10.7398 -3.41273
-17.7117 -10.7579 -3.49567
-17.8356 -10.8427 -3.41152
-16.88 -11.6289 -2.8531
-18.0168 -10.562 -3.17808
-18.0975 -10.7671 -3.26383
-18.0139 -10.7969 -3.18107
-15.5068 -12.4513 -1.71777
-17.5422 -11.0537 -2.95289
-17.2629 -11.5891 -2.89146
-16.4395 -11.8674 -2.00281
-18.2624 -10.6796 -2.97745
-17.6359 -11.2483 -2.49919
-17.6791 -11.1139 -2.55874
-18.3581 -10.7303 -2.8278
-15.6203 -12.8911 -0.914478
-18.1204 -10.8651 -2.62677
-17.974 -11.2535 -2.28663
-16.3647 -12.3187 -1.21157
-18.733 -10.8345 -2.60906
-17.8751 -11.1938 -2.08483
-18.684 -10.7538 -2.34963
-16.4513 -12.0775 -1.01489
-17.5844 -11.113 -1.64697
-17.0483 -11.9189 -1.0775
-16.9368 -12.0945 -1.13596
-16.1391 -12.2937 -0.672585
-18.9423 -10.5991 -2.20709
-19.0084 -10.6055 -2.37525
-18.273 -11.031 -1.93703
-16.4281 -12.4706 -0.682677
-16.6954 -12.3094 -0.751287
-16.5178 -12.0218 -0.70201
-18.2069 -11.2879 -1.87188
-16.5338 -12.1904 -0.699975
-18.0849 -11.4211 -1.5168
-18.6427 -11.0287 -1.90617
-18.3569 -11.316 -1.72226
-19.0825 -10.5889 -1.96429
-18.8303 -10.9336 -1.53069
-18.8699 -11.0163 -1.53648
-16.8748 -12.2004 -0.304557
-16.4751 -12.4232 0.0761218
-18.6395 -11.3422 -1.16348
-19.0159 -10.9074 -1.46744
-18.8771 -10.677 -1.65778
-19.2585 -10.475 -1.6333
-16.7717 -12.1955 0.152312
-17.6076 -11.4049 -0.525016
-17.9626 -11.0482 -0.489674
-19.0406 -11.0625 -1.15638
-18.7982 -11.233 -1.04301
-19.4986 -10.8572 -1.37158
-19.573 -10.6841 -1.45362
-18.9732 -11.0529 -0.912824
-19.2524 -10.8307 -1.11491
-19.0627 -10.8165 -1.07955
-19.4602 -10.7847 -1.05263
-19.6865 -10.868 -1.00118
-19.256 -10.998 -1.04006
-18.4487 -10.8697 -0.276613
-15.5155 -11.3445 1.36994
-19.199 -11.1584 -0.623361
-19.7333 -10.6256 -0.941655
-19.2031 -11.0534 -0.17444
-18.1436 -11.0316 0.564625
-15.9529 -10.9837 2.10009
-14.4591 -12.7223 -2.27742
-15.8157 -11.9385 -2.62888
-17.8 -10.7725 -3.75171
-16.8882 -11.3322 -3.25505
-15.299 -12.4582 -1.86072
-16.9335 -11.6769 -2.48974
-17.5331 -11.4136 -2.66647
-17.4509 -11.5622 -2.3969
-18.2375 -10.6176 -3.01323
-18.1779 -10.6271 -2.95138
-16.2652 -12.3154 -1.51952
-18.2801 -10.6708 -2.57094
-17.9272 -11.0939 -2.33102
-17.7245 -11.4139 -2.21242
-17.6578 -11.4014 -2.26444
-18.4298 -10.8034 -2.55122
-18.0227 -11.4333 -2.04726
-18.4676 -10.7239 -2.20625
-16.6362 -12.0696 -0.803871
-18.5451 -11.2607 -1.14124
-19.0496 -10.851 -1.44932
-19.3096 -10.7021 -1.4855
-17.8163 -10.97 -0.583711
-17.5825 -11.3554 -0.36548
-17.934 -11.2362 -0.547704
-17.6085 -11.3734 -0.410764
-19.3542 -10.507 -1.40268
-19.2711 -10.8282 -1.22675
-19.2002 -11.093 -0.597391
-19.2235 -11.0354 -0.705508
-15.8652 -11.0405 1.40419
-18.5836 -10.891 0.0400749
-14.8504 -12.4921 -2.35334
-15.5367 -12.0905 -2.34769
-15.3476 -12.1095 -2.16231
-15.7196 -12.0068 -2.07874
-16.4405 -12.0085 -1.94037
-17.2916 -11.4429 -2.38315
-16.7958 -11.9317 -1.99043
-16.1997 -12.1278 -1.48016
-16.6588 -11.9321 -1.7303
-18.5186 -10.5977 -2.68392
-17.8932 -11.1649 -2.14858
-17.1192 -11.8014 -1.46744
-16.8358 -12.3095 -1.06922
-17.848 -11.1933 -0.986441
-17.64 -11.3106 -1.24797
-18.492 -11.1564 -1.45855
-17.6041 -11.2895 -0.710448
-19.2222 -10.7227 -1.54671
-18.9208 -10.8545 -1.71169
-18.6868 -11.2048 -1.23024
-19.1779 -10.5795 -1.52645
-19.2593 -10.7122 -1.62747
-16.2619 -12.7611 0.413762
-19.1841 -10.8398 -1.3606
-16.2869 -10.5838 0.91803
-18.9431 -11.279 -0.531104
-19.0978 -11.2416 -0.202546
-18.3157 -10.8953 0.105009
-15.8911 -11.3794 1.66061
-14.5803 -13.0855 -2.17669
-15.4884 -11.8607 -2.31314
-16.7116 -11.6165 -2.89174
-18.2623 -10.7641 -2.53979
-16.9415 -12.4449 -0.659665
-18.596 -11.1343 -1.62859
-18.8199 -11.2935 -1.50004
-17.3349 -11.387 -0.483961
-18.6201 -11.2447 -1.49145
-17.454 -11.4336 -0.445492
-18.8411 -11.19 -1.06424
-19.2988 -10.7414 -1.27859
-16.3437 -10.8058 1.10738
-16.9918 -11.6316 -3.34353
-17.0192 -11.8161 -1.56887
-17.166 -11.8513 -1.42452
-16.8156 -12.0388 -0.495303
-18.146 -10.939 -0.39682
-15.6854 -11.8287 -2.65587
-17.0252 -11.4831 -2.85547
-17.7047 -11.1816 -2.63234
-16.4307 -12.3656 -0.541147
-16.6828 -12.0422 -0.0607756
-18.0954 -11.2095 0.227421
-16.2148 -12.016 -1.77264
-15.7774 -12.4088 -1.496
-15.8511 -12.593 -1.41428
-18.0127 -10.9333 -2.34653
-18.3046 -11.0658 -2.32559
-18.4739 -11.0398 -1.8772
-18.2996 -11.144 -1.59208
-15.4923 -12.6607 -1.64992
-16.5416 -12.3659 -1.18627
-16.5566 -12.0544 -0.793943
-16.8371 -11.9554 -0.450634
-16.415 -12.3417 0.14413
-16.3611 -10.6157 0.812702
-18.4298 -11.0494 -1.74959
-16.4927 -12.5837 0.394947
-15.7277 -12.8847 -0.921531
-16.7337 -12.2475 -0.651201
-17.7522 -10.5265 -3.84206
-17.594 -10.9194 -3.21917
-17.8434 -10.9365 -3.03064
-16.889 -11.5645 -2.74884
-15.3917 -12.0088 -2.15241
-18.3674 -10.7671 -2.95219
-14.7016 -12.8453 -1.87708
-18.569 -10.5837 -2.4036
-17.5399 -11.2983 -2.35102
-18.3294 -10.854 -2.19492
-19.0201 -10.3849 -2.21292
-17.7537 -11.185 -2.16345
-19.0248 -10.548 -2.30544
-18.721 -10.6676 -2.1717
-18.6384 -10.8713 -1.71917
-17.0741 -12.0554 -1.52178
-18.9611 -10.9496 -1.63003
-16.1212 -12.5447 -0.996603
-19.0382 -10.5545 -1.55843
-16.8638 -11.9075 -1.18622
-18.793 -11.1424 -1.58092
-18.6622 -11.0539 -1.5182
-19.2181 -10.8604 -1.47464
-18.385 -11.277 -1.1731
-19.6113 -10.3477 -1.16123
-17.8385 -10.9892 -0.856608
-19.6332 -10.4297 -1.22382
-19.0753 -10.7733 -1.1605
-16.4878 -12.472 -0.716433
-16.3291 -12.4544 -0.471157
-17.6476 -11.1338 -0.681392
-17.8209 -11.2952 -0.693474
-19.263 -10.9716 -1.03021
-19.2771 -11.1602 -0.649349
-18.3395 -10.9888 -0.172606
-19.4152 -10.9449 -0.410378
-19.2902 -11.011 -0.531074
-17.1231 -10.5695 0.420205
-16.8591 -11.471 -3.25355
-17.6915 -10.8758 -3.09108
-16.9805 -11.4799 -3.11425
-18.6021 -10.5277 -2.78193
-17.7749 -11.2651 -2.27508
-17.8542 -11.3314 -2.11194
-18.5778 -10.8159 -2.20173
-17.9023 -11.3131 -2.07547
-18.3762 -10.6743 -2.15292
-19.0218 -10.5537 -2.25915
-16.7696 -12.0694 -1.4772
-18.5737 -10.8574 -1.7586
-18.6142 -11.0124 -2.04564
-19.0564 -10.3635 -1.54179
-18.7437 -10.7908 -1.6954
-19.4179 -10.7215 -1.33211
-18.7813 -11.1147 -1.41208
-16.6631 -12.2933 -0.744341
-16.253 -12.4165 -0.469873
-17.8021 -11.0492 -0.565946
-15.4424 -13.4792 -0.542088
-19.1808 -10.8122 -0.868802
-16.2704 -10.7215 0.957994
-16.8629 -11.6429 -3.35865
-16.3695 -11.935 -3.41618
-14.6633 -12.81 -1.71577
-14.7061 -12.6541 -1.84453
-17.8885 -11.2692 -2.51459
-18.8967 -10.6853 -1.97407
-17.1024 -11.8158 -1.36928
-18.2688 -11.5935 -1.45881
-18.2372 -11.2306 -1.37822
-16.7489 -11.9976 -0.837708
-19.0868 -11.1393 -0.53977
-19.137 -11.148 -0.384231
-18.3495 -11.0043 0.110318
-16.4633 -11.7927 -3.02684
-16.2481 -11.7114 -2.48669
-17.806 -11.1695 -2.62277
-17.4336 -11.3347 -2.68501
-18.0325 -11.2478 -2.03141
-15.6187 -12.5244 -1.36412
-19.1411 -10.6514 -1.84971
-17.1406 -11.9854 -1.38167
-19.6065 -10.5532 -1.46042
-18.9621 -11.0645 -1.05754
-18.7467 -11.066 -1.22199
-16.3077 -12.3308 -0.499031
-19.0211 -11.0768 -0.911867
-19.1202 -11.2307 -0.956376
-16.8539 -12.3684 -0.324886
-16.8138 -12.2385 -0.105477
-18.5016 -10.8233 0.00430405
-16.2428 -10.4602 1.01092
-18.1086 -11.1699 0.585492
-18.2598 -11.1201 0.577907
-16.4273 -11.6627 -3.43557
-14.0991 -12.7767 -2.2642
-19.1116 -11.0823 -0.373887
-16.2674 -12.6913 0.246451
-16.3287 -12.4331 0.326141
-17.2985 -11.1985 -1.91004
-16.9546 -11.9885 -0.658578
-17.1066 -11.9273 -0.42633
-16.3049 -10.5328 1.04746
-17.9934 -11.2386 -2.0401
-15.6124 -12.9718 -0.60229
-18.1335 -11.2048 0.349708
-17.8955 -11.1695 -1.97368
-15.9785 -11.8113 -2.40176
-14.3529 -12.8477 -2.06785
-16.7517 -11.4048 -3.34277
-17.9364 -11.4008 -2.00284
-18.379 -11.1864 -1.59017
-15.6258 -12.3762 -1.78398
-14.4366 -13.0528 -2.06353
-17.5833 -11.2777 -0.530757
-18.9736 -11.4593 -0.5584
-18.9064 -11.3377 -0.356232
-15.4428 -12.8949 -0.855481
-16.2744 -12.4269 -0.410196
-16.0619 -12.843 0.299781
-18.4703 -10.7237 -2.87199
-18.3423 -10.4877 -2.73912
-17.0445 -11.7238 -2.47909
-18.8449 -11.1168 -1.80187
-18.9553 -10.7088 -1.68901
-18.8583 -11.0114 -0.77174
-18.2461 -10.9015 -0.547936
-19.2721 -11.1897 -0.184009
-16.3054 -12.3366 -0.463096
-16.7508 -12.0073 0.200555
-18.2784 -10.407 -3.1698
-16.7713 -11.458 -3.19735
-16.158 -11.7389 -3.16923
-15.201 -12.7585 -1.66981
-13.2805 -14.3908 -2.30356
-16.4409 -12.2392 -1.28474
-19.0194 -11.3262 -0.808325
-16.6001 -12.3132 -0.799742
-16.8218 -12.2391 -0.365421
-15.6605 -13.5722 -0.453357
-18.5766 -10.397 -3.16246
-15.6878 -13.0191 -0.588468
-15.6566 -13.1902 -0.594516
-15.3679 -13.6247 -0.781508
-16.8602 -11.2679 -3.15982
-18.2522 -11.2127 -1.43554
-16.7967 -11.7214 -1.81359
-18.869 -10.8651 -1.30928
-14.2603 -13.5393 -1.6047
-19.745 -10.5859 -1.43612
-16.6632 -12.2294 -0.0117691
-16.2704 -11.4947 -2.18443
-16.4442 -12.6704 -0.709981
-16.2361 -12.6029 -0.831851
-14.0723 -13.025 -2.1083
-17.9342 -10.3908 -3.57225
-17.9615 -10.5929 -3.43805
-17.7825 -11.0251 -2.7361
-19.1826 -10.466 -1.72576
-16.8015 -11.6328 -2.86463
-17.1253 -11.615 -2.5075
-17.8379 -11.3542 -1.83688
-17.0038 -11.1957 -1.90914
-19.4096 -10.9457 -0.994406
-15.6481 -12.2741 -1.6754
-16.0587 -12.4167 -1.39641
-16.6493 -12.2827 -0.650367
-16.9136 -10.6033 0.960706
-16.916 -11.4901 -3.31933
-19.0429 -10.5902 -1.88422
-15.4836 -11.8847 -2.37288
-18.2032 -11.0614 -0.341005
-15.9027 -12.3 -1.69643
-15.8035 -12.4061 -1.67953
-16.218 -12.2144 -1.29717
-16.492 -12.2574 -1.1246
-16.7677 -12.2047 -0.782584
-15.8661 -13.0399 -0.143235
-18.1774 -10.7163 -2.85337
-17.7039 -11.3017 -2.68367
-17.1725 -11.6794 -2.52041
-18.3951 -11.0089 -1.34597
-14.5807 -12.8173 -1.74014
-18.1024 -11.3357 -0.0835824
-16.6747 -12.2214 -0.790372
-16.6687 -12.2199 -0.515461
-15.8437 -12.8919 -0.811133
-15.4866 -13.0866 -0.741087
-15.6718 -12.9559 -0.298352
-17.5786 -11.1667 -0.539957
-17.181 -11.8494 -0.289966
-16.809 -12.2315 -0.810091
-15.5736 -13.191 -0.659094
-18.9985 -11.0912 -1.00462
-16.3844 -12.2463 -1.81048
-19.208 -10.651 -1.96234
-15.9251 -12.3913 -1.19674
-18.0151 -11.266 -1.98079
-17.4427 -11.4065 -1.80821
-16.582 -11.7371 -2.95114
-18.0147 -10.8113 -3.35503
-18.9209 -10.6458 -1.91202
-19.0404 -10.594 -1.80324
-18.3351 -10.7258 -2.27912
-18.8382 -10.6368 -1.77869
-18.0469 -11.0702 -2.4342
-17.9883 -10.9049 -2.53381
-17.149 -11.2854 -3.3171
-17.1565 -11.2616 -2.88963
-17.8904 -11.4468 -2.1936
-15.7429 -11.8172 -2.73746
-15.4661 -11.8928 -2.29122
-16.2209 -12.2469 -0.998958
-16.2961 -12.4359 -0.634695
-15.5557 -12.8059 -0.961474
-15.5775 -12.9061 -0.761143
-15.483 -12.7807 -0.541591
-15.5958 -13.2343 -0.495693
-18.5151 -10.9484 -2.10553
-17.672 -11.2396 -3.11172
-18.3294 -11.2274 -1.83878
-16.8721 -11.525 -2.90439
-16.3613 -11.9025 -3.35547
-16.5799 -12.2452 -1.13599
-15.5657 -12.3392 -1.65049
-15.4057 -12.8547 -1.40096
-15.5858 -12.8872 -0.724305
-15.7778 -13.0316 -0.81953
-15.882 -13.1666 -0.782511
-15.5567 -12.8267 -0.633
-15.8673 -13.1128 -0.675573
-18.054 -10.5194 -3.6491
-19.1236 -10.3732 -2.01168
-19.2858 -10.4188 -1.78783
-18.8799 -10.4824 -1.90956
-18.5745 -10.7515 -2.1136
-17.8276 -11.0654 -2.50671
-15.8402 -11.9818 -3.28562
-17.9096 -11.3779 0.226987
-16.2122 -12.4847 -1.32415
-15.5498 -12.8767 -0.896736
-15.3337 -13.0165 -0.801714
-19.0038 -10.5591 -1.82826
-17.8592 -10.9465 -0.702838
-18.6976 -10.8874 -0.0204083
-16.4585 -12.2491 -1.41256
-16.4789 -12.1552 -0.669764
-15.579 -12.9883 -0.502688
-15.7046 -13.2397 -0.480288
-15.6831 -13.0294 -0.567396
-15.8532 -13.2132 -0.247788
-15.5985 -13.0339 -0.420103
-15.93 -12.9578 0.0236142
-16.4415 -12.1583 -1.06385
-18.1744 -11.0982 -1.87347
-15.7396 -12.3955 -1.2889
-15.1175 -13.4477 -0.746591
-19.1552 -10.753 -1.90767
-16.6391 -12.4298 -0.44481
-16.9753 -11.5535 -2.09434
-15.8122 -12.5306 -1.20972
-16.7555 -10.478 1.23396
-17.7858 -11.3184 -2.09024
-18.6798 -10.2887 -2.97189
-19.218 -10.7227 -1.83435
-17.8233 -10.4451 -3.92622
-19.0689 -10.6949 -2.02849
-17.9496 -10.7003 -3.22776
-18.9726 -10.7178 -1.62701
-17.6713 -10.8211 -3.54542
-18.6762 -10.698 -2.00928
-18.4742 -11.0222 -2.14507
-17.4982 -10.7994 -3.52374
-17.483 -10.8739 -3.57037
-18.115 -10.9836 -2.29421
-19.1706 -11.2835 -0.398173
-17.7899 -11.4167 -2.2382
-17.0112 -11.2159 -3.38403
-17.1651 -11.2156 -3.08348
-17.0087 -11.5951 -3.14836
-16.8322 -11.6278 -3.13962
-16.71 -11.6652 -3.44454
-17.1751 -11.7674 -2.3012
-17.136 -11.8669 -1.33826
-17.0543 -11.8162 -1.27645
-16.7712 -12.1543 -1.44793
-16.1961 -12.0605 -1.75909
-16.9203 -12.1071 -1.02382
-16.4834 -12.2188 -1.35132
-16.5974 -12.031 -1.05914
-16.3396 -12.1607 -1.29148
-16.7287 -12.3702 -0.590719
-16.4125 -10.6309 1.12103
-15.7268 -12.5496 -1.72139
-16.2691 -12.4357 -0.390442
-14.5993 -12.747 -2.1713
-16.0041 -11.3166 1.29339
-15.5363 -12.928 -0.804264
-15.6846 -12.972 -0.559294
-15.9222 -12.9153 -0.222125
-15.1675 -13.5624 -0.653711
-18.2057 -10.5676 -2.9338
-17.7562 -10.788 -3.45076
-17.9029 -11.031 -3.14962
-17.6477 -11.0432 -3.07681
-18.2989 -10.8868 -2.72809
-17.8588 -10.9458 -3.06591
-17.7415 -10.7111 -3.13448
-17.5536 -11.1218 -3.03701
-18.5249 -11.194 -1.21404
-18.0049 -11.3056 -2.15336
-17.263 -11.6125 -2.49367
-17.6517 -11.266 -0.539855
-17.9267 -11.1463 -0.0879976
-16.7524 -11.7798 -1.79049
-17.3563 -12.0909 -0.938317
-15.774 -11.8985 -1.74889
-16.2738 -12.4108 -0.322918
-16.3179 -12.5222 0.170751
-15.644 -12.8587 -1.00718
-15.7316 -12.8238 -0.622636
-15.6719 -12.7968 -0.836084
-15.7183 -13.0678 -0.717855
-15.5683 -13.0375 -0.700425
-15.3843 -13.2997 -0.380175
-15.3847 -13.4894 -0.717616
-18.344 -10.4179 -3.18156
-18.6277 -10.5518 -2.60962
-18.1444 -10.8412 -2.80072
-17.3484 -11.1617 -1.83238
-18.1558 -11.1642 -0.129169
-17.1002 -11.6787 -2.43708
-16.3012 -12.077 -1.60737
-16.311 -12.2357 -1.05173
-16.7 -11.9079 -0.910986
-16.7917 -12.2608 -0.451928
-15.8087 -12.6589 -1.03682
-16.245 -12.5326 0.21878
-15.9129 -11.0688 1.35684
-15.5651 -12.9271 -0.816108
-15.6562 -12.7932 -0.664719
-15.2224 -12.9457 -1.28213
-15.7016 -12.9553 -0.672134
-15.762 -12.8247 -0.582706
-14.9001 -13.3674 -1.152
-18.4459 -10.7776 -2.70806
-17.4775 -10.8146 -3.44165
-15.9596 -12.1934 -1.60595
-15.9199 -12.2679 -1.65551
-15.2515 -12.4131 -2.10873
-15.662 -12.9312 -0.842464
-15.6304 -12.926 -0.677668
-15.9244 -13.1736 -0.196394
-15.4015 -13.6297 -0.891578
-14.3056 -13.4442 -1.52718
-18.1782 -10.562 -3.27411
-18.3253 -10.5578 -2.72726
-18.9878 -10.6547 -1.76909
-17.8343 -10.7318 -3.4901
-18.2633 -11.2393 -1.97496
-17.2809 -12.0665 -1.10819
-16.724 -12.1121 -0.843341
-16.6402 -12.1321 -0.810255
-16.5097 -12.3267 -0.681299
-16.423 -12.4018 -1.28539
-16.4445 -12.3792 -0.844137
-15.9926 -12.9047 -0.295619
-16.2461 -11.1056 1.85321
-15.3711 -12.97 -0.60296
-15.4747 -13.0209 -0.664161
-14.3556 -13.2629 -1.66759
-19.0838 -10.5401 -2.22225
-18.9113 -10.5714 -1.91138
-17.8275 -11.0385 -0.623613
-15.921 -11.9543 -1.56807
-16.5208 -12.1569 -1.16542
-16.5285 -12.2282 -0.892602
-16.3409 -12.106 -1.28481
-16.0132 -13.094 -0.530183
-15.8058 -12.7724 -0.484257
-14.9828 -13.387 -0.91121
-15.6879 -11.9704 -2.01049
-15.6001 -12.6282 -1.16581
-16.6579 -10.4269 1.20849
-16.1269 -12.1797 -1.24598
-16.2357 -12.6263 -1.03582
-14.4057 -13.2811 -1.87498
-16.5074 -12.1139 -1.35902
-19.3389 -10.5607 -1.57677
-17.999 -10.4047 -3.74325
-18.1255 -10.8563 -2.79597
-17.5256 -10.5301 -3.49844
-17.7883 -10.8419 -3.63855
-18.2958 -11.3488 -1.01192
-17.7223 -10.888 -3.3758
-17.6648 -10.7217 -3.26973
-17.5371 -11.1464 -2.55132
-17.7721 -11.1542 -0.676692
-17.6759 -11.2046 -0.779771
-17.6725 -11.1462 -0.425587
-17.321 -11.3418 -3.27794
-16.9835 -11.316 -3.18832
-17.0813 -11.4786 -2.84146
-16.7922 -11.4441 -3.40764
-17.0111 -11.9345 -1.23175
-16.7138 -12.2316 -0.915166
-15.6294 -12.622 -1.33885
-14.7444 -12.5613 -2.37451
-14.587 -12.8914 -2.24374
-18.5808 -10.2147 -3.06697
-17.9453 -10.3813 -3.88302
-18.1003 -10.4933 -3.3758
-18.3241 -10.8152 -2.55124
-18.1906 -10.7484 -2.56123
-18.1056 -11.1969 -2.63842
-17.9499 -10.8575 -3.16869
-17.6446 -10.8485 -3.22098
-17.9116 -10.7414 -3.19647
-18.0619 -11.2522 -2.43913
-18.0856 -11.0702 -0.0990484
-17.629 -11.1448 -3.16845
-17.3022 -11.6674 -2.5292
-17.2316 -11.6713 -2.39964
-16.5499 -11.5254 -3.48057
-16.8574 -12.0672 -2.70935
-16.9014 -11.9124 -1.42819
-16.7467 -11.9874 -1.54865
-16.8728 -11.823 -1.60134
-16.1533 -10.6871 1.12403
-16.3877 -12.232 -0.960548
-15.8935 -11.0937 1.1823
-15.979 -11.103 1.24595
-15.4753 -12.9249 -1.00337
-15.4801 -13.3801 -0.362579
-18.9979 -10.639 -1.90953
-18.5039 -10.9189 -2.00581
-18.3223 -10.9357 -0.00273644
-18.1324 -11.1591 -2.13914
-17.5791 -10.8344 -3.60409
-17.9236 -11.1168 -2.70304
-18.091 -11.3431 0.264634
-17.3776 -11.3622 -2.83597
-17.4771 -11.6227 -1.21415
-16.8038 -11.4271 -3.46426
-16.7435 -11.8424 -1.82614
-16.7528 -12.1894 -0.141306
-16.483 -12.3243 -0.601321
-16.6019 -12.3545 -0.721439
-16.2038 -12.1179 -1.40803
-16.4077 -12.2065 -1.01509
-16.3051 -12.2775 -1.36906
-15.7531 -12.8371 -0.65951
-15.5504 -13.0671 -0.596619
-15.9144 -12.9877 -0.268111
-15.8338 -13.1763 -0.306034
-15.9216 -13.1718 -0.235386
-15.6966 -12.9815 -0.235992
-15.6106 -12.9326 -0.876558
-15.46 -12.9164 -1.36908
-15.1063 -12.5541 -2.01629
-14.779 -12.8159 -1.79457
-19.0995 -10.6027 -1.68188
-18.905 -10.6664 -1.46125
-18.1781 -10.4994 -2.99707
-18.6402 -10.7978 -2.38553
-18.4874 -10.9771 -1.8141
-17.4517 -11.056 -1.361
-16.9834 -11.3175 -3.67995
-16.7039 -11.8546 -1.77309
-16.7342 -12.2658 -0.53917
-16.5034 -12.079 -1.13508
-16.3314 -12.2067 -1.03834
-16.3745 -12.0775 -1.58701
-15.3568 -12.0166 -2.15805
-15.7423 -13.0477 -0.31402
-15.6423 -12.8348 -0.656814
-15.4923 -13.0051 -0.724294
-18.7862 -10.2698 -2.83739
-18.2582 -10.8517 -2.7703
-18.3857 -10.9877 -2.30634
-18.6272 -11.1746 -1.40252
-17.4738 -11.5629 -1.28202
-16.4175 -12.1567 -0.998987
-15.7076 -13.0337 -0.542122
-18.1509 -11.2038 0.277059
-16.7258 -12.0641 -1.06775
-16.6612 -12.2695 -0.661674
-17.4971 -11.7848 -1.28628
-16.3404 -11.659 -2.24061
-15.6549 -12.7379 -0.950682
-14.9412 -12.6117 -1.66183
-14.681 -12.7184 -1.72515
-14.8965 -12.6056 -2.02814
-18.1267 -10.9284 -2.60901
-18.3029 -11.2488 -2.2803
-17.6109 -11.3422 -0.405381
-17.6251 -11.1793 -2.52667
-18.0585 -11.4718 -2.26986
-17.665 -11.2322 -2.79162
-17.7725 -10.9788 -3.04541
-17.7975 -11.2864 -2.42487
-17.6639 -11.3591 -2.44284
-17.0795 -11.1834 -3.30147
-17.0163 -11.707 -1.33904
-16.9602 -11.5844 -3.12404
-16.7648 -11.9678 -1.66445
-16.5065 -12.0493 -3.20837
-16.2198 -12.7068 0.251866
-16.1034 -12.3972 -0.457354
-15.6946 -12.2553 -1.40344
-15.4439 -12.6114 -1.69664
-15.2629 -12.1435 -2.61476
-15.2134 -12.0998 -2.45694
-15.3265 -13.3323 -0.438935
-15.0339 -12.2854 -2.42783
-15.167 -12.4374 -2.3402
-14.8926 -12.1171 -2.45827
-14.7667 -12.6271 -2.42196
-14.7504 -12.6042 -2.29147
-14.638 -12.5985 -2.14702
-14.5766 -12.6609 -2.1505
-14.3161 -12.674 -2.23016
-19.103 -10.3856 -2.25576
-18.2295 -10.5703 -2.64385
-18.451 -10.8129 -2.57984
-17.9836 -11.0031 -0.724644
-18.3942 -10.5192 -3.38755
-18.2061 -10.9767 -2.61712
-18.0144 -10.804 -3.15804
-18.1068 -11.1291 -2.26009
-17.9214 -11.2954 -2.23177
-16.4315 -12.2797 -1.35449
-15.5172 -12.9241 -1.06827
-18.1411 -10.9321 -0.0612998
-18.3987 -10.8922 -2.18206
-18.5417 -11.2263 -1.41904
-18.6506 -11.1235 -1.5249
-18.39 -10.6072 -2.74113
-18.0819 -10.5071 -3.64649
-18.0499 -11.126 -2.29777
-17.5189 -11.5382 -0.420626
-17.6486 -10.9972 -3.00206
-17.128 -11.7427 -0.476057
-17.2535 -11.7627 -2.4167
-17.0736 -11.2379 -3.61828
-16.9107 -12.1198 -0.075146
-16.7713 -12.1162 -0.228684
-16.0657 -11.1507 1.47577
-16.6063 -12.2263 -0.650388
-16.7617 -12.1797 -0.695323
-16.6127 -12.2165 -0.712848
-16.505 -12.1768 -1.12954
-16.3623 -12.3016 -1.4516
-15.7723 -12.937 -0.584754
-15.4565 -12.9188 -0.569347
-14.9923 -12.7887 -1.63129
-18.8972 -10.8853 -1.68864
-18.4692 -11.0547 -1.82712
-17.7543 -11.2479 -0.64937
-17.6298 -11.3499 -0.668241
-16.7624 -12.1403 -0.0717564
-16.0857 -11.6665 -2.57332
-15.6431 -12.765 -0.338009
-15.7308 -12.8628 -0.615973
-15.2507 -13.5973 -0.595723
-14.4551 -13.4153 -1.61271
-19.0609 -10.739 -1.36537
-17.6737 -11.2004 -2.17259
-17.2607 -11.316 -1.9133
-16.5406 -12.0799 -1.2706
-15.7273 -11.1218 1.42745
-16.0131 -13.0193 -0.145623
-15.9214 -12.9814 -0.35935
-15.0222 -13.5528 -0.854991
-18.9153 -10.9635 -1.53037
-16.5202 -11.921 -1.43356
-15.7116 -12.7038 -0.995635
-15.5615 -12.4912 -2.03922
-14.4063 -13.1526 -1.80144
-17.8481 -11.2112 -0.068886
-18.0514 -11.2033 0.0785816
-18.1077 -11.2321 -1.91361
-15.231 -12.6599 -2.01995
-14.993 -12.5789 -1.62552
-15.4223 -12.48 -2.02544
-14.4438 -13.4709 -1.406
-17.2943 -11.9136 -1.19052
-19.4905 -10.8096 -0.839646
-19.1288 -10.9722 -1.60763
-18.8546 -11.0858 -1.42456
-17.9531 -10.971 -0.746631
-18.5083 -11.1385 -1.74281
-17.9695 -10.7279 -0.639198
-17.6763 -11.3238 -0.66159
-18.4938 -10.7436 -2.62114
-18.342 -10.3661 -3.12067
-18.4628 -10.7914 -2.81831
-18.2092 -10.7988 -2.54684
-18.3543 -10.6463 -2.5806
-17.7429 -11.2421 -2.29699
-17.7316 -11.2124 -2.07842
-17.8719 -11.2886 -2.17876
-17.8175 -11.335 -1.9391
-17.9129 -10.3832 -3.78839
-17.9735 -10.5271 -3.63602
-17.6823 -10.9596 -2.76753
-17.8245 -11.5353 -2.31385
-17.7765 -11.0873 -2.88037
-16.7789 -12.1511 -0.235825
-16.8359 -11.8717 -1.296
-16.5712 -12.1601 -0.869206
-17.5029 -10.78 -3.47864
-17.2017 -11.6396 -2.34774
-17.0084 -11.638 -2.73555
-16.9195 -11.7823 -2.53119
-17.106 -11.4372 -2.84908
-17.2926 -11.2096 -3.52927
-16.8647 -11.3176 -3.31183
-17.0445 -11.3983 -3.33738
-16.7626 -11.4719 -3.10497
-15.3864 -13.4348 -0.400549
-15.8647 -12.1193 -3.35687
-15.0869 -12.0848 -2.45237
-19.8632 -10.5139 -1.35707
-19.2788 -11.0435 -0.911209
-18.1608 -11.1145 0.085124
-18.2858 -11.0538 -0.0744603
-18.8022 -11.001 -1.62028
-18.4565 -10.3632 -3.20626
-18.2957 -10.87 -2.49358
-18.2442 -10.5486 -3.05956
-16.1825 -10.8423 0.819545
-18.0737 -11.0735 -2.12922
-18.0471 -11.1228 -2.46534
-18.3733 -10.41 -3.65154
-18.1442 -10.468 -3.37798
-18.0464 -10.6108 -3.30962
-17.6702 -11.1936 -2.37456
-18.1357 -10.3808 -3.56643
-16.6846 -12.1159 -0.264065
-17.2878 -11.9187 -1.49006
-17.5306 -11.2176 -3.09232
-16.4827 -12.3885 0.121587
-16.9433 -11.7406 -1.71895
-16.9469 -12.119 -1.61848
-16.5194 -12.0882 -0.652918
-17.1976 -11.5583 -2.56491
-16.6042 -12.013 -1.47835
-16.3113 -12.4833 -0.727519
-16.1839 -12.2514 -0.635333
-16.5704 -12.2834 -1.27216
-16.7708 -11.827 -2.56568
-16.6864 -11.8846 -2.86587
-16.2985 -12.0089 -1.96785
-16.1271 -11.89 -1.62999
-15.9645 -11.7772 -1.71355
-16.2086 -11.7998 -3.29113
-15.3293 -13.0593 -0.948327
-15.9039 -12.0979 -3.5404
-15.3737 -11.8041 -2.43905
-14.8687 -12.5886 -2.18496
-18.1454 -10.8763 -0.0190623
-18.7223 -11.2232 -1.5502
-18.6147 -10.9084 -2.04831
-18.2075 -11.0249 -2.19086
-18.1688 -10.7878 -2.90887
-17.8317 -11.3354 -2.20295
-17.0155 -11.8968 -0.20455
-17.1154 -11.904 -0.951881
-16.6689 -12.3522 0.210517
-17.8429 -11.0183 -3.12291
-16.7957 -12.1062 -0.233157
-16.6222 -12.2646 -0.723221
-17.4428 -10.8345 -3.49045
-16.8129 -12.0856 -1.4593
-17.0617 -11.3435 -3.12319
-16.4615 -11.9444 -1.27517
-17.16 -11.0737 -3.24056
-15.7062 -12.753 -0.579655
-15.3837 -13.2941 -0.541827
-14.5935 -12.8063 -1.9779
-19.2789 -10.908 -0.916303
-19.3075 -10.5072 -1.79287
-19.0887 -10.9763 -1.58893
-18.5563 -11.2712 -1.57071
-18.2337 -10.7421 -2.6534
-18.5239 -10.6405 -2.73847
-17.1397 -11.8562 -0.372377
-16.5885 -12.1056 -0.230833
-16.6219 -12.2932 -0.878358
-16.5585 -12.1988 -0.62474
-16.3184 -12.1398 -1.21597
-16.871 -11.5547 -3.17676
-15.852 -12.9475 -0.470039
-15.6787 -12.9253 -0.604754
-15.1149 -12.1183 -2.66379
-14.5997 -12.7402 -1.69717
-14.9088 -12.3809 -2.40674
-14.5448 -12.6297 -2.41776
-14.7114 -12.542 -2.32775
-19.6434 -10.5289 -1.04682
-18.3775 -11.254 -1.69602
-17.4829 -11.2922 -0.523662
-16.2548 -10.7558 1.12849
-17.395 -11.8788 -1.5095
-16.6538 -12.0411 0.00450211
-16.7414 -12.1803 -0.333808
-16.6655 -12.3602 -0.719573
-16.2613 -12.2412 -1.0998
-15.83 -12.5255 -1.31612
-18.0926 -11.0736 -0.0913275
-18.5739 -11.0206 -1.74458
-17.1549 -11.8841 -0.308903
-17.2278 -12.1528 -1.13777
-16.6962 -12.3772 -0.0433642
-16.1993 -12.5117 -1.37379
-16.3292 -12.4122 -1.92381
-18.0525 -11.411 -0.121815
-17.7926 -11.219 -0.539438
-16.6735 -12.2096 -0.837344
-16.7983 -11.9391 -1.72651
-16.8081 -12.4082 -0.619946
-16.9807 -12.1697 -1.4711
-14.8164 -13.4571 -1.0568
-19.5289 -10.6666 -1.16219
-18.9982 -10.8701 -1.58412
-19.2589 -10.546 -1.71781
-19.2245 -10.6263 -1.83531
-18.8955 -11.024 -1.68
-16.1584 -10.7307 1.15261
-18.7699 -11.0697 -1.47143
-18.7323 -10.8698 -1.63454
-15.8894 -11.1189 1.35119
-18.6708 -11.1105 -1.60803
-17.555 -11.4586 -0.338524
-17.8072 -11.2717 -0.582906
-18.4789 -11.0725 -1.90004
-18.7672 -10.881 -1.67675
-18.9355 -10.2858 -2.07112
-17.4196 -11.7836 -0.233049
-17.4768 -11.4456 -0.44924
-18.4658 -10.8622 -1.99345
-18.6859 -10.6158 -2.09895
-18.2718 -11.397 -1.53998
-17.0592 -12.0723 -0.187151
-18.5794 -10.6985 -2.26122
-18.3939 -10.85 -2.57107
-17.4302 -11.6328 -1.08658
-17.8884 -11.3438 -1.70283
-16.272 -12.7128 0.395102
-18.323 -11.0557 -2.24235
-18.3397 -10.569 -2.8115
-18.8004 -10.5061 -2.91597
-18.0832 -11.0727 -2.29044
-18.1438 -10.6824 -2.90501
-18.2195 -10.6932 -2.58593
-18.2268 -10.425 -2.73634
-18.4009 -10.5208 -3.02479
-18.0463 -10.8327 -2.93167
-17.8988 -11.129 -2.21625
-16.5756 -12.1596 -0.588426
-18.5285 -10.2057 -3.17466
-18.0355 -11.3008 -2.34864
-16.6961 -12.167 -0.943844
-16.5329 -12.4139 -0.63252
-18.0083 -11.0867 -2.58665
-18.0733 -10.6274 -3.16744
-17.6851 -11.3794 -2.45177
-18.274 -10.5546 -3.22678
-18.3737 -10.3379 -3.45282
-16.6084 -12.2062 -1.1794
-18.3766 -10.6297 -3.47611
-17.8524 -11.1039 -2.76091
-18.1517 -10.4404 -3.42999
-17.305 -11.2571 -2.58692
-17.8801 -10.7206 -3.26145
-17.2733 -11.5904 -2.51373
-17.9231 -10.2157 -3.59538
-18.1556 -10.321 -3.58904
-17.9362 -10.4638 -3.53247
-17.8193 -10.649 -3.46794
-16.3774 -12.2057 -1.33893
-17.9236 -10.7085 -3.75843
-16.5695 -11.9586 -2.17435
-17.6511 -11.3429 -2.96709
-17.6885 -10.6564 -3.87179
-15.7305 -12.635 -1.39371
-17.0867 -11.676 -3.12076
-15.1885 -13.5508 -0.580822
-15.5457 -12.954 -0.968167
-17.4737 -10.7862 -3.42219
-17.1496 -11.2562 -3.12584
-16.8555 -11.2992 -3.30155
-17.2237 -10.9736 -3.69731
-16.7604 -11.459 -3.20696
-16.7834 -11.6901 -3.00617
-16.6565 -11.624 -3.05745
-16.4663 -11.608 -3.42615
-16.8032 -11.4451 -3.44375
-16.6683 -11.8129 -3.17525
-16.4517 -11.7413 -3.41482
-19.6885 -10.7358 -0.914373
-17.2391 -10.6646 0.846972
-18.1848 -11.1147 -0.0342119
-19.2613 -10.8724 -1.27575
-19.2765 -10.4181 -1.67639
-19.1083 -10.6598 -1.81097
-18.8071 -11.2956 -1.11626
-18.9583 -10.9258 -1.75082
-18.6492 -11.0936 -2.01247
-18.5596 -10.93 -2.16565
-18.6341 -10.6696 -2.19347
-18.4604 -10.8086 -2.3531
-16.3256 -12.6895 0.318171
-16.6614 -12.5127 0.155683
-18.2633 -10.981 -2.30883
-18.6409 -10.4963 -2.78387
-18.2491 -11.1445 -2.40874
-18.5655 -10.5101 -2.88976
-17.2266 -11.9724 -1.11716
-17.9137 -11.2316 -1.84663
-18.0361 -11.0263 -2.37161
-17.9303 -11.4847 -2.24842
-16.9706 -11.8965 -1.40046
-17.7697 -11.3871 -2.29321
-16.9057 -11.8431 -1.27195
-16.6018 -12.2705 -0.781768
-18.0404 -10.5306 -3.35713
-17.9814 -10.613 -3.42502
-17.6547 -11.0817 -3.11017
-16.1471 -12.2591 -1.5238
-17.7753 -10.8521 -3.32322
-16.3468 -11.8352 -1.82885
-17.445 -10.9085 -3.5629
-17.0707 -11.5268 -3.04993
-17.1841 -11.3015 -3.04935
-17.5104 -10.6318 -3.69387
-17.6079 -10.694 -3.42322
-17.1674 -11.355 -2.93078
-15.9815 -12.4028 -1.44853
-17.3646 -10.9501 -3.61688
-17.1173 -11.4862 -3.36126
-16.8068 -11.375 -3.35781
-16.9865 -11.0662 -3.64467
-17.2526 -11.2251 -3.66715
-16.0708 -11.6483 -2.64507
-14.8399 -13.3723 -1.2092
-16.3799 -11.8079 -3.16157
-15.3654 -12.4304 -1.96411
-16.5482 -11.4767 -3.57343
-16.6049 -11.5665 -3.33312
-15.3509 -12.6617 -1.71943
-16.3689 -11.8073 -3.3242
-15.3815 -11.9814 -2.26821
-14.8203 -12.757 -1.76913
-14.1472 -13.9219 -1.89026
-19.4662 -11.1019 -0.723053
-18.2713 -10.9758 -0.278179
-19.3134 -10.7899 -1.47107
-18.1692 -10.9941 -0.4847
-17.9434 -11.055 -0.520674
-18.7524 -10.698 -2.01267
-17.7929 -11.0862 -0.901623
-17.5995 -11.1648 -0.693836
-18.4217 -11.2596 -1.47693
-18.5276 -11.358 -1.49862
-17.1206 -11.7109 -0.231898
-16.6869 -12.3599 0.199455
-18.1113 -10.9704 -2.43282
-18.4489 -10.8123 -2.45518
-18.291 -10.7537 -2.59981
-17.9348 -11.1299 -2.21443
-17.6243 -11.3302 -2.23972
-17.138 -11.8815 -1.38855
-17.1749 -11.1104 -1.8959
-18.2828 -10.2568 -3.53999
-16.5586 -12.1744 -0.950921
-18.1864 -10.5905 -3.24469
-15.9404 -12.9805 -0.41042
-15.7696 -13.2089 -0.482101
-17.6792 -10.9115 -3.25335
-15.4195 -13.4311 -0.533499
-15.3003 -13.0206 -0.854866
-16.56 -11.8803 -3.18264
-15.3848 -12.7769 -1.6023
-16.5335 -11.3476 -3.35861
-15.2704 -12.153 -2.45102
-15.0124 -12.1316 -2.59893
-18.91 -11.1886 -0.974642
-17.0049 -11.8071 -0.34278
-17.7483 -11.1289 -1.14105
-17.5608 -11.2815 -1.26771
-16.6601 -12.3842 -0.0638242
-18.5446 -10.4612 -3.08207
-17.6033 -11.3983 -1.60792
-18.1245 -11.1253 -2.07962
-18.0746 -10.8273 -3.04428
-16.7835 -11.4696 -3.27894
-15.4272 -12.6222 -1.8712
-15.5308 -12.1638 -2.31474
-14.9682 -12.6318 -2.24953
-19.1038 -10.7175 -1.92538
-18.6333 -11.2764 -1.47257
-18.4509 -11.2547 -1.58825
-18.6513 -10.8313 -1.96641
-18.3026 -11.0489 -1.94154
-18.1823 -11.2156 -2.28868
-17.7994 -11.3854 -2.39252
-17.9269 -11.2079 -2.39111
-17.272 -11.6532 -2.45364
-16.876 -11.9005 -2.75202
-16.4841 -12.0329 -3.07737
-15.81 -11.7344 -2.78057
-14.8782 -12.6366 -1.74695
-14.9233 -12.4392 -2.33589
-14.5472 -13.0021 -2.02193
-13.3849 -14.4589 -2.03619
-16.0329 -10.9048 1.43724
-16.4616 -12.1805 -0.936378
-16.8522 -12.1415 -1.41121
-17.0654 -11.3037 -3.5945
-15.2578 -11.8649 -2.51215
-16.9276 -11.9527 -0.227025
-18.0862 -11.2769 -1.81292
-16.419 -12.3005 -1.18979
-16.5533 -11.9583 -3.14919
-15.624 -11.8066 -2.91392
-18.0217 -11.251 -2.3388
-16.9098 -12.1315 -1.61312
-16.6299 -12.2229 -0.569264
-15.2823 -12.5778 -2.0125
-17.1063 -11.7226 -1.31177
-15.2921 -13.2335 -0.925623
-15.0919 -12.4808 -1.94413
-15.1015 -12.2328 -2.551
-15.4273 -12.0869 -2.38551
-15.5194 -11.9768 -2.11456
-15.5491 -12.0099 -2.45903
-16.9715 -11.2863 -3.2848
-17.8236 -10.6954 -3.53926
-17.163 -11.492 -2.75636
-16.4858 -11.9702 -2.11332
-16.2745 -11.9104 -1.87074
-18.1933 -10.5224 -2.93754
-17.9731 -11.1348 -2.44472
-17.7171 -11.0541 -2.31715
-18.6894 -10.7258 -2.42898
-17.5392 -11.2537 -1.49057
-17.891 -11.3516 -1.91584
-17.9369 -11.273 -1.97999
-16.661 -12.2226 -0.700018
-17.5708 -11.3059 -1.23185
-17.033 -12.1528 -0.800757
-17.6041 -11.1302 -1.12484
-17.5996 -11.3057 -1.23127
-18.9335 -10.9072 -1.70653
-18.6635 -10.9392 -1.78494
-18.7751 -10.897 -1.55921
-17.7143 -11.1915 -0.74059
-18.5731 -11.2286 -1.16462
-18.9362 -10.7195 -1.43225
-18.8194 -11.151 -1.37174
-18.9319 -11.2582 -1.32378
-19.4659 -10.5054 -1.48689
-18.7497 -11.0605 -1.36574
-19.2547 -10.6068 -1.65978
-18.9428 -10.8443 -1.38659
-17.6562 -11.2248 -0.420352
-17.7951 -11.1315 -0.641689
-17.6352 -11.35 -0.446841
-19.3028 -10.737 -1.20187
-18.832 -11.2251 -1.0654
-19.1871 -10.9344 -1.31936
-19.4427 -10.5645 -1.18177
-19.3234 -10.8114 -1.01782
-19.7688 -10.6251 -1.29285
-19.3392 -11.0906 -0.562994
-18.8305 -11.4506 -0.600201
-16.3075 -10.7781 0.976113
-19.4096 -11.1023 -0.614148
-18.4554 -10.9547 0.166791
-15.4286 -12.0205 -2.42475
-16.7831 -11.6286 -2.03816
-15.0911 -13.4762 -1.0092
-15.4783 -12.9189 -0.995817
-18.4429 -10.5084 -2.75585
-17.9909 -11.1809 -2.12962
-17.7611 -11.244 -2.18512
-18.4447 -10.8441 -2.32833
-18.2273 -11.2473 -1.99816
-18.2254 -11.3828 -1.78201
-18.0337 -11.3441 -1.78162
-18.892 -10.57 -2.12384
-16.2792 -12.3962 -0.464742
-18.4595 -11.2573 -1.54977
-18.6964 -11.228 -1.29282
-16.2377 -12.6329 0.566724
-16.2203 -12.7426 0.417553
-19.3415 -10.4886 -1.5018
-19.043 -11.3344 -1.02226
-16.4443 -10.5183 1.08706
-16.3406 -10.6885 1.13016
-17.1271 -10.5771 0.667123
-18.2092 -10.6479 -2.64564
-17.9408 -11.2669 -1.8732
-17.7349 -11.3989 -1.19914
-18.4726 -11.3863 -1.44241
-18.6851 -11.3257 -1.43265
-17.9666 -10.908 -0.787904
-16.0694 -12.6786 0.17994
-17.1956 -11.8285 -0.169015
-19.3182 -10.8348 -1.37055
-19.2765 -10.86 -1.02468
-16.7766 -11.8812 -2.79749
-17.663 -11.1492 -2.27734
-17.887 -11.1508 -2.18783
-18.0294 -11.2294 -1.94811
-18.0959 -11.2874 -1.70409
-17.7936 -11.3626 -1.35996
-18.6127 -11.2077 -1.45569
-19.3542 -10.6744 -1.53869
-16.2981 -10.5376 1.12773
-16.7348 -10.4278 1.27047
-16.4215 -11.9483 -2.11686
-17.5045 -11.1281 -1.62438
-18.0603 -11.2716 -1.74755
-17.8366 -11.1427 -0.942104
-19.3605 -11.0596 -1.14439
-18.037 -11.1624 -0.191636
-17.7629 -11.2351 -0.229349
-16.4319 -11.8412 -3.33331
-16.3346 -11.9901 -2.21305
-18.5833 -10.9251 -1.84376
-15.8282 -12.9623 -0.221155
-18.6375 -10.9315 -1.87839
-16.6874 -12.2235 -0.262926
-19.6161 -10.7434 -0.715209
-18.3999 -11.2012 0.220731
-17.8424 -11.1312 -2.07605
-16.6537 -12.2015 -1.12753
-15.6773 -12.9964 -0.611674
-16.741 -11.9571 -0.454254
-17.0557 -12.0067 -0.126115
-17.5729 -11.1546 -0.597769
-18.0646 -11.29 -2.10867
-16.3883 -12.3692 -0.0771086
-15.5161 -12.8709 -1.1137
-16.423 -12.3186 -0.73585
-16.5989 -10.3779 1.02695
-18.281 -10.9671 -1.93292
-18.1659 -10.5879 -3.51983
-17.4971 -11.0345 -3.2436
-14.9593 -12.4086 -2.36168
-16.0714 -11.8142 -2.47978
-17.4332 -11.4141 -2.81566
-18.5716 -10.4292 -3.06059
-18.4133 -10.7824 -2.85292
-17.0956 -11.7138 -2.55914
-18.1449 -11.1548 -2.25937
-18.617 -10.6828 -2.41417
-17.9755 -11.2606 -2.22484
-17.8673 -11.3529 -2.35738
-17.9113 -11.2582 -2.36187
-18.8583 -10.6523 -2.38571
-16.2563 -12.2761 -1.30764
-18.7221 -10.7016 -2.20479
-19.1722 -10.4609 -1.88786
-18.2852 -11.4674 -1.58576
-18.7344 -10.9249 -1.61118
-18.702 -11.139 -1.67841
-18.2658 -11.2924 -1.30476
-18.4854 -11.2161 -1.53823
-18.944 -10.8589 -1.59549
-18.7716 -11.1537 -1.28455
-15.9829 -12.6439 -0.303823
-19.1399 -11.1058 -1.17946
-19.2118 -10.9526 -1.14333
-17.6847 -11.2604 -0.707749
-19.6817 -10.4197 -1.37308
-19.359 -10.6959 -1.01575
-16.6704 -12.1554 -0.0246009
-16.2541 -12.5343 0.00181492
-16.3056 -12.6459 0.261852
-19.4381 -10.7094 -0.680137
-18.1514 -10.9203 0.107953
-16.4342 -10.6532 1.10198
-16.4325 -11.6679 -3.38885
-17.6849 -10.7287 -3.3118
-15.4682 -11.9388 -2.31746
-18.3693 -11.0294 -2.08198
-17.5625 -11.3109 -1.54172
-14.8776 -13.5506 -0.887357
-16.2469 -12.1784 -0.487245
-19.065 -10.6556 -1.49041
-18.5726 -11.3488 -1.27507
-18.9938 -11.0447 -0.965645
-19.4646 -10.7691 -0.761484
-18.1711 -11.0197 0.00652659
-19.1246 -11.31 -0.351268
-18.5047 -10.9099 0.0670183
-18.4444 -10.8133 0.0947158
-16.5247 -11.805 -2.88762
-18.5721 -10.8668 -2.24336
-19.3532 -10.6018 -1.56824
-16.5049 -12.3244 -0.679753
-16.4835 -12.4371 -0.669954
-18.9345 -10.9316 -1.11636
-16.0725 -12.7446 0.345699
-19.216 -10.9175 -0.766972
-18.5812 -10.2747 0.454961
-16.2583 -10.855 1.26657
-14.6509 -12.5081 -1.89831
-15.6833 -12.5019 -1.54929
-17.8289 -11.3191 -2.07873
-17.2164 -11.3275 -1.57463
-15.2599 -13.3586 -0.830201
-16.0794 -12.815 -0.264735
-19.3813 -10.767 -0.49366
-18.352 -11.3847 -1.70002
-18.8973 -10.9389 -1.36245
-18.2272 -11.1599 0.35495
-15.8928 -11.11 1.49242
-17.9754 -11.3508 -2.37321
-18.7487 -10.6916 -2.03967
-17.8203 -11.2573 -0.657629
-16.6292 -11.6408 -1.78885
-18.6591 -11.0305 -1.67022
-17.7682 -11.2438 -1.43028
-16.8859 -12.3975 -0.485522
-16.4177 -10.6257 0.746704
-15.4042 -12.3953 -1.96186
-17.7982 -11.4632 -0.964831
-17.5148 -10.8847 -3.17465
-18.6622 -10.4203 -2.87422
-19.1086 -10.5455 -1.95797
-19.1938 -10.4801 -1.52971
-19.0159 -11.0765 -1.20881
-19.2467 -11.1482 -0.588247
-19.0371 -11.3478 -0.556839
-18.1586 -10.8808 -0.243928
-18.225 -11.0953 0.327735
-17.8173 -10.7066 -3.55918
-18.7275 -10.8097 -2.25856
-17.8122 -11.2326 -2.12811
-18.5682 -11.1289 -1.52672
-17.6557 -11.4062 -0.6875
-15.9462 -12.7295 0.310801
-16.8159 -11.974 -1.90915
-19.4451 -10.7427 -1.24755
-15.9553 -11.5755 -2.84386
-17.7205 -11.3154 -0.478395
-16.689 -12.02 -0.234928
-16.1622 -12.7589 0.331017
-17.7968 -11.4212 -2.10627
-16.9012 -11.8242 -1.56395
-18.4601 -11.1496 -1.46407
-18.5288 -11.1158 -1.26301
-16.772 -12.2424 -0.684845
-15.8499 -12.4534 -1.817
-19.0435 -10.5067 -1.81409
-15.4389 -12.7468 -1.83535
-18.2461 -11.0246 -0.300512
-15.5202 -13.0736 -0.765215
-16.5055 -12.811 0.26633
-18.9834 -10.5188 -2.07157
-19.1061 -10.7942 -2.17751
-18.4742 -11.2315 -1.27768
-18.5585 -11.2907 -1.40971
-18.0753 -11.0142 -0.115776
-18.3104 -10.7835 -0.121764
-17.6964 -11.2889 -1.11165
-15.7732 -12.2611 -1.9025
-19.0688 -10.6464 -1.898
-19.0394 -10.649 -1.88924
-17.7503 -11.3386 -2.184
-17.9181 -10.9704 -0.826812
-15.9162 -13.0496 -0.0188502
-18.9178 -10.5151 -2.06159
-17.5964 -11.5733 -1.07133
-15.7379 -12.4576 -1.76573
-16.6608 -12.1472 -0.301631
-15.6288 -13.0541 -0.605626
-15.7544 -13.04 -0.237126
-15.9688 -12.9329 -0.14225
-18.9524 -10.6544 -1.87762
-19.1412 -10.6248 -2.02393
-17.6827 -11.2975 -0.269526
-18.0681 -11.0694 0.0756679
-15.6236 -13.5265 -0.56217
-19.1848 -10.5945 -1.82482
-19.0292 -10.5352 -1.97484
-18.9617 -10.7208 -1.70306
-17.8393 -11.1409 -2.74273
-16.1008 -11.8367 -3.51566
-16.0946 -12.1795 -3.36725
-17.917 -11.2785 -0.0255636
-15.6911 -12.4601 -1.79755
-15.6044 -12.33 -1.71387
-16.4815 -12.1642 -1.36001
-15.7095 -12.3994 -2.11034
-16.7256 -11.8569 -1.18627
-16.6461 -12.2118 -1.08231
-16.4861 -12.4315 -0.883988
-16.5018 -12.3355 -0.777411
-15.8291 -12.6808 -1.39342
-16.8 -12.3062 -0.719551
-15.5287 -13.0036 -0.745601
-15.6925 -12.9395 -0.561986
-16.4513 -12.1215 -1.18834
-16.5772 -12.3323 -1.17116
-15.876 -12.8433 -0.466127
-16.0493 -12.9726 -0.291539
-15.9631 -13.141 -0.220975
-15.1256 -13.3399 -1.02808
-16.8271 -11.494 -2.07906
-15.9843 -11.9147 -2.59682
-18.7791 -10.7577 0.100849
-15.4922 -13.3801 -0.473968
-16.555 -12.0345 -2.86157
-18.0683 -10.481 -3.67995
-19.0198 -10.4813 -1.93541
-18.9697 -10.5742 -1.72438
-17.5634 -11.0321 -3.29889
-18.4687 -11.0703 -1.66362
-16.9353 -11.8511 -1.56899
-16.5014 -12.1667 -1.32497
-16.4786 -12.387 -0.587241
-15.6372 -12.9895 -0.61884
-18.1484 -10.4322 -3.73942
-17.2052 -11.2958 -3.63197
-17.8777 -11.1806 -0.289016
-16.7364 -12.1948 -0.793765
-16.473 -12.3811 -0.943438
-16.4539 -10.5276 1.19234
-15.5384 -12.8049 -0.590459
-15.6122 -13.038 -0.855979
-13.4054 -14.3015 -2.50771
-18.5286 -10.6911 -2.74378
-18.3038 -10.8951 -2.65215
-17.9452 -11.1209 -2.55581
-17.8503 -11.0793 -2.50114
-16.9359 -11.4664 -3.07537
-16.5697 -12.189 -1.29976
-16.3094 -12.3785 -1.13754
-15.6444 -12.3282 -1.68644
-16.6299 -12.3281 -0.933913
-15.6456 -12.9356 -0.803605
-15.9919 -12.8974 -0.161546
-16.9092 -11.3045 -3.44702
-18.2637 -10.9809 0.0643374
-15.1083 -13.285 -0.837272
-15.1506 -13.4722 -0.898274
-15.1092 -13.3416 -0.81289
-16.2052 -10.7207 1.85274
-15.9073 -12.4987 -1.07054
-19.1053 -10.6297 -2.13026
-17.5825 -10.8696 -3.62264
-18.0348 -11.2211 -1.91256
-16.9279 -11.2302 -3.2307
-16.6125 -11.5129 -3.42641
-17.6559 -11.3714 -0.597831
-17.5333 -11.158 -0.832383
-17.3301 -12.0227 -0.703972
-15.6504 -12.9693 -0.839983
-15.6291 -12.8389 -0.592
-18.0656 -10.3987 -3.68423
-18.0005 -10.7042 -3.37299
-16.9363 -11.2785 -3.57824
-18.1705 -11.0026 0.116609
-18.0744 -11.3211 0.0840571
-16.3533 -12.129 -1.03968
-16.4678 -12.1233 -1.20785
-16.576 -12.1062 -0.569431
-16.5825 -12.1887 -0.760092
-16.7945 -12.1858 -0.53299
-15.5336 -12.9393 -0.897231
-15.5214 -13.0132 -0.978069
-15.4693 -13.1328 -0.797992
-16.0638 -12.8248 -0.235256
-18.0537 -10.7456 -2.96333
-17.2839 -10.8647 -3.51263
-17.6909 -10.9817 -2.37765
-18.4097 -11.0169 -0.201433
-16.516 -12.1023 -1.19126
-16.3368 -12.0903 -1.07469
-15.368 -12.67 -1.90957
-15.9263 -11.1941 1.34166
-14.7886 -13.326 -1.02996
-18.3672 -10.5364 -3.21546
-18.513 -10.6556 -2.80487
-19.0496 -10.5582 -1.84604
-17.684 -11.421 -1.2486
-17.8069 -11.2302 -0.528489
-16.6276 -12.4027 -0.575256
-16.6248 -12.2569 -0.957134
-14.9636 -12.5078 -1.6817
-15.5251 -12.8284 -0.774127
-15.6986 -13.1157 -0.811248
-16.1702 -12.3737 -1.54999
-15.6045 -12.8075 -0.816445
-15.6018 -13.222 -0.437109
-18.1944 -10.8892 -0.0981254
-18.1655 -11.088 -0.646871
-15.7468 -11.8234 -2.52235
-16.0257 -12.4914 -1.12282
-15.3446 -12.9604 -1.29013
-14.7129 -13.4168 -1.17686
-18.4667 -10.8102 -0.0463259
-17.6583 -10.7012 -3.59411
-18.095 -10.8726 -2.46682
-18.0873 -10.9814 -2.44259
-18.151 -10.941 -3.25435
-17.7832 -10.8054 -2.96927
-18.2321 -11.1473 -0.117994
-16.7452 -11.5999 -3.20473
-17.2126 -11.803 -2.36209
-16.5475 -11.6683 -3.38528
-16.5927 -10.654 1.3601
-15.9788 -13.1753 -0.296782
-15.543 -12.9281 -0.591236
-15.6466 -13.1443 -0.55171
-15.4419 -13.0158 -0.958935
-14.7371 -12.6451 -1.98237
-18.5125 -10.3455 -3.36129
-18.4778 -10.7216 -2.64553
-18.0087 -10.6097 -3.33579
-18.486 -10.771 -2.24223
-17.9266 -10.5759 -3.04368
-17.5452 -10.9898 -3.37383
-17.0505 -11.2166 -3.38081
-17.3797 -11.1838 -2.0837
-18.0161 -11.3002 0.0885483
-16.9029 -11.5598 -3.34506
-16.3195 -10.5897 1.08852
-16.7964 -12.3364 -0.616775
-16.4301 -12.0326 -1.23219
-16.4882 -12.2474 -0.881404
-16.4577 -10.9072 1.01092
-16.3258 -12.2788 -1.28439
-16.0424 -11.0692 1.23933
-15.969 -12.8806 -0.312999
-15.7403 -13.12 -0.196775
-15.1485 -12.7689 -1.9641
-15.6383 -13.1228 -0.777523
-15.7308 -12.9495 -0.564802
-15.5411 -12.9032 -1.03782
-15.6037 -13.1785 -0.62188
-18.6912 -10.4858 -2.67955
-18.6358 -10.802 -2.13363
-17.4395 -10.7919 -3.68611
-17.7983 -11.0717 -2.47279
-17.5508 -11.3494 -2.7735
-16.9231 -11.5701 -3.44536
-16.6849 -11.9608 -1.79209
-15.6329 -11.7957 -2.41446
-16.6597 -12.0945 -1.22184
-16.3274 -12.27 -1.01813
-16.5246 -12.4786 -0.996383
-16.0852 -11.0561 1.28424
-15.8987 -12.916 -0.506639
-15.7313 -13.0024 -0.588853
-15.8044 -13.1304 -0.473144
-18.1708 -10.8058 -2.63267
-17.7734 -10.7234 -3.2672
-18.0573 -10.8417 -0.572987
-16.6217 -12.2071 -1.00755
-16.3744 -12.1818 -1.43858
-16.46 -12.2624 -1.20097
-16.449 -12.428 -1.2366
-15.3731 -12.5263 -1.94095
-15.9059 -12.9831 -0.534423
-15.5157 -13.0696 -0.675078
-16.4385 -12.2385 -1.27741
-15.4082 -12.0031 -2.2321
-15.9588 -13.1981 -0.206781
-17.9902 -10.8495 -0.622911
-15.2157 -13.4087 -0.716581
-18.0995 -10.4226 -3.4252
-18.5051 -10.7879 -2.56989
-18.0383 -10.6169 -3.23011
-18.1195 -10.9709 -2.57591
-17.8496 -11.0101 -2.9473
-17.6167 -11.1053 -2.99911
-17.0241 -11.2569 -3.66163
-17.1576 -11.232 -3.60356
-16.906 -11.8835 -1.46262
-16.5151 -11.6898 -3.55167
-19.145 -10.814 -1.63841
-18.6231 -10.2759 -2.9215
-18.1876 -10.8338 -2.69423
-18.1483 -11.2439 -2.46534
-17.4135 -11.5538 -1.36145
-16.92 -10.5223 1.0142
-16.9614 -11.2467 -2.95348
-16.967 -12.0567 -0.0255057
-16.7539 -12.1463 -0.864487
-16.3335 -12.1889 -0.994528
-16.1915 -10.9204 1.48629
-16.4041 -12.0952 -1.20736
-16.3305 -12.4352 -0.93808
-15.989 -13.1009 -0.02404
-15.7142 -12.9411 -0.113273
-15.963 -13.0504 -0.205749
-15.5389 -12.9452 -0.56543
-15.6275 -13.2154 -0.261339
-15.5191 -12.9515 -0.946282
-15.6888 -13.0301 -0.505255
-14.935 -12.6197 -2.03924
-15.0973 -13.3007 -0.84753
-17.6842 -11.1438 -2.70652
-17.6136 -11.1515 -1.62162
-16.7749 -12.1569 -0.704387
-16.3484 -11.9913 -1.17182
-15.6562 -12.0655 -2.21821
-15.8039 -13.0471 -0.453683
-15.7597 -12.9822 -0.573824
-15.6851 -12.7647 -0.667429
-15.7271 -12.8521 -0.870887
-14.9523 -13.7072 -0.779626
-17.5709 -10.9907 -1.94753
-16.7101 -11.8839 -1.88774
-16.6469 -12.231 -1.09684
-16.5616 -12.4364 -0.636185
-15.9981 -11.6765 -2.78061
-15.4756 -12.4383 -1.89438
-15.4153 -13.625 -0.931715
-18.9538 -10.5637 -1.988
-16.6356 -12.3681 -0.917824
-16.3201 -12.2259 -1.30375
-15.6017 -11.3778 1.28997
-17.0991 -11.7673 -2.44784
-15.8854 -12.7357 -1.16423
-16.1109 -12.9014 -0.224085
-16.1761 -11.6485 -2.16391
-15.0756 -12.7246 -2.01468
-15.1052 -12.9085 -1.91936
-18.9376 -10.6809 -1.68428
-18.4838 -10.714 -2.80946
-18.45 -10.9932 -2.20854
-17.8748 -10.7962 -0.815225
-18.1036 -11.0622 -2.20752
-17.6153 -11.2988 -0.74767
-17.4588 -11.1254 -2.88988
-16.9762 -11.298 -3.57785
-16.7906 -12.1221 -1.21546
-16.5564 -12.3021 -0.9741
-16.7392 -12.0223 -0.91072
-15.5177 -11.8092 -2.39045
-15.4943 -11.9079 -2.35385
-15.0213 -12.0471 -2.55442
-19.0396 -10.4599 -1.95942
-19.1354 -10.6645 -2.05673
-18.0394 -11.1979 -2.52533
-17.2244 -11.4342 -0.335627
-17.5851 -11.0298 -3.42151
-17.5404 -11.6594 -1.23615
-17.5572 -11.5942 -1.0461
-17.0711 -11.5821 -1.77389
-16.1203 -10.8245 1.17675
-17.0181 -11.6391 -2.4838
-17.0271 -12.1461 -1.0755
-16.9819 -11.3785 -3.11821
-16.974 -11.9922 -1.62348
-16.7146 -12.2241 -1.17903
-16.5127 -12.1562 -0.962366
-15.6922 -11.1997 1.33901
-15.7103 -12.7734 -0.516686
-15.6656 -12.92 -0.574871
-18.0424 -10.6349 -2.93318
-18.073 -11.1464 -2.27835
-17.566 -11.4841 -1.44415
-17.5348 -10.792 -3.81973
-16.3272 -11.015 1.44815
-16.7707 -12.2543 -0.630012
-16.7881 -12.1519 -0.859844
-16.8292 -11.2691 -3.6249
-16.6714 -12.2111 -0.858933
-16.8061 -12.1664 -0.969156
-16.5693 -12.3948 -0.615125
-15.3691 -12.956 -1.1527
-15.161 -13.6765 -0.718081
-14.8153 -12.696 -2.15248
-19.0982 -10.6953 -1.57667
-18.9352 -10.6696 -1.77165
-17.7373 -10.9673 -0.819036
-18.0279 -11.1932 -2.20288
-16.5999 -12.1361 -0.963828
-16.5539 -12.2565 -0.555186
-16.5305 -12.3005 -0.756025
-16.3911 -12.2026 -1.3251
-18.2303 -11.0829 -0.0551083
-15.6892 -13.0975 -0.742728
-17.5259 -11.7028 -1.44425
-16.3652 -10.8705 1.00712
-15.3574 -12.7147 -0.91503
-15.3205 -13.5274 -0.714405
-16.2474 -10.6948 1.13329
-17.3112 -12.002 -1.26655
-17.2465 -12.0492 -1.23147
-16.6685 -12.2326 -0.765265
-18.3606 -11.1144 -1.84211
-18.5443 -10.8741 -2.15413
-18.5 -10.2329 -3.34992
-18.2768 -10.9127 -2.13648
-18.5182 -10.8171 -2.37476
-18.0749 -11.1304 -2.27585
-17.9428 -11.1467 -2.32892
-18.1309 -11.1988 -2.34965
-17.8474 -11.3178 -2.06808
-17.7535 -10.9807 -2.61604
-17.5392 -11.1614 -2.99776
-17.4316 -11.1295 -3.05809
-17.5605 -11.2927 -2.8288
-17.4024 -11.4073 -3.0862
-17.7523 -11.147 -3.24292
-17.6191 -11.1923 -2.85256
-17.4903 -10.9939 -3.45978
-16.6804 -12.2596 -0.549816
-16.945 -11.8632 -1.6474
-17.2267 -11.2826 -3.23535
-17.2221 -11.3608 -2.9572
-17.1124 -11.3378 -3.1406
-16.2726 -12.3098 -0.468754
-15.165 -12.0313 -2.55484
-15.1141 -12.1587 -2.69207
-19.2207 -10.4344 -1.93272
-18.8941 -10.7565 -1.65643
-18.9338 -10.7373 -1.93642
-18.5351 -11.1861 -1.49718
-16.2883 -10.85 1.04869
-17.3831 -11.7737 -1.16635
-17.8354 -10.7638 -3.00577
-17.6346 -11.1388 -2.53039
-17.7235 -10.8495 -3.24418
-17.426 -10.8765 -3.46434
-16.819 -12.1611 -1.17725
-16.6839 -12.2979 -0.458471
-16.7616 -12.0817 -0.630036
-17.1273 -11.663 -2.51017
-16.6299 -11.9698 -1.24307
-17.2659 -10.7122 -3.60078
-16.4683 -12.4832 -0.734463
-16.8008 -11.6488 -2.8637
-19.3401 -10.7776 -1.71333
-18.4362 -10.6515 -2.89589
-18.4384 -10.9892 -1.90455
-17.6958 -11.3364 -0.594614
-16.5581 -10.5501 1.01056
-17.6825 -11.5083 -0.355126
-16.2288 -10.5773 0.98971
-18.0119 -10.9228 -3.09044
-16.6293 -12.3384 -0.630468
-16.6095 -12.4342 -0.58388
-15.8107 -12.9545 -0.588895
-15.848 -12.9344 -0.629369
-19.0627 -10.5537 -1.86406
-18.0117 -10.9629 -0.835798
-17.298 -11.8031 -1.28332
-17.434 -11.4832 -2.42222
-16.6747 -12.1369 -0.702681
-16.4746 -12.3085 -0.98545
-16.4196 -12.2735 -1.33783
-15.6934 -12.8831 -0.162077
-15.6812 -12.9459 -0.706693
-17.2741 -12.0023 -1.10445
-16.4748 -12.0012 -2.00878
-15.2981 -13.5945 -0.740628
-15.3012 -12.5125 -1.99254
-18.1018 -11.1944 -0.201145
-17.9682 -10.5729 -3.06728
-16.7058 -12.024 -0.16304
-15.5621 -12.63 -1.32421
-15.501 -12.359 -1.89408
-16.6034 -12.0112 -1.57278
-16.8317 -12.0162 -1.4933
-18.2112 -11.0748 0.0145495
-18.7479 -11.0178 -1.6636
-18.0288 -10.9011 -0.830752
-18.3897 -11.2253 -1.46082
-18.6213 -10.9867 -1.9128
-18.4713 -10.8105 -2.04939
-17.7272 -11.2201 -0.548599
-17.3832 -11.4959 -0.370905
-18.2886 -10.967 -2.0467
-17.1374 -11.837 -0.257668
-17.8791 -11.386 -2.15914
-18.443 -10.6023 -3.38197
