-17.965 -11.2079 -2.19199
-17.6992 -11.3354 -2.0985
-17.6353 -11.4029 -2.28181
-16.5599 -12.0226 -0.0378217
-18.1897 -10.5901 -3.37454
-17.0263 -11.1052 -1.86639
-16.3188 -12.3267 -0.548551
-17.0738 -11.8258 -1.42952
-17.2607 -11.754 -2.24386
-17.9281 -10.5883 -3.57785
-17.1489 -11.7487 -2.44683
-17.585 -11.0231 -3.31516
-16.2251 -12.4779 -0.706052
-16.1096 -12.2192 -0.367805
-16.7992 -12.1464 -1.56337
-16.1217 -12.4043 -0.669622
-15.7707 -12.2675 -0.604084
-17.4025 -11.19 -3.51266
-16.2756 -11.9655 -3.19098
-15.8592 -11.6086 -2.65195
-14.7517 -12.7033 -2.12533
-19.5924 -10.4963 -0.957966
-18.2842 -10.8647 -0.0785702
-19.064 -10.7162 -1.6963
-18.7506 -11.2335 -1.21831
-17.8693 -11.3867 0.0998809
-18.7745 -10.7419 -2.04743
-18.4157 -11.1196 -1.84669
-18.3123 -11.1041 -2.01177
-17.4372 -11.3497 -0.585336
-18.0321 -11.168 -2.6963
-16.5832 -12.0916 -0.0690072
-17.1893 -11.8324 -1.26944
-17.4546 -11.7439 -2.33192
-16.2238 -12.5702 -0.57032
-17.1663 -11.2683 -3.52411
-15.449 -13.0921 -0.966709
-16.4996 -11.5837 -3.28348
-16.1432 -12.14 -3.18202
-15.9067 -11.9985 -3.09156
-15.4568 -11.9206 -2.13358
-15.473 -12.0217 -2.5064
-14.531 -12.7489 -1.74832
-14.6264 -12.5284 -2.2975
-18.8984 -11.2068 -1.09517
-18.992 -10.7204 -2.11971
-18.9577 -10.6566 -1.97904
-18.0712 -10.8126 -0.560335
-18.5403 -11.2242 -1.55409
-18.3299 -10.9635 -2.1128
-18.1443 -11.1361 -2.45447
-16.8672 -12.0064 -0.196638
-17.4086 -11.5338 -2.19962
-16.5243 -12.1776 -0.922924
-17.0129 -11.5188 -2.59775
-16.864 -11.602 -3.09714
-16.6317 -11.6244 -3.31694
-14.8014 -12.4053 -2.1719
-18.3682 -10.6902 0.0870806
-18.7125 -10.7551 -2.23687
-17.1118 -11.8502 -0.226469
-16.7564 -12.027 -0.191515
-16.9633 -12.2084 -0.868678
-17.6523 -11.4508 -2.0634
-17.6345 -11.0333 -3.30292
-15.7574 -12.4291 -1.08046
-17.1581 -12.0918 -0.75367
-17.1771 -11.3366 -1.95391
-15.5279 -12.353 -1.75408
-16.8882 -12.1984 -0.70726
-16.7017 -12.3954 -0.545466
-16.8971 -11.7578 -2.9088
-17.0461 -11.3222 -2.82868
-18.3195 -10.6864 -3.1221
-18.3035 -10.746 -3.10205
-18.1527 -10.7783 -2.814
-18.0523 -10.9627 -2.57475
-17.5914 -11.2821 -2.72001
-18.2094 -10.766 -2.53917
-18.259 -10.913 -2.45063
-18.2787 -10.6989 -2.47951
-18.2224 -11.05 -2.51774
-18.319 -11.0526 -2.3014
-15.9488 -12.4623 -0.732478
-18.4929 -10.9425 -2.38597
-16.1362 -12.5423 -0.562301
-18.6965 -10.8877 -2.3555
-18.4935 -10.7866 -2.10127
-18.4485 -10.8448 -2.3207
-16.1596 -12.3558 -0.46709
-18.5655 -11.0158 -1.91139
-18.6446 -10.9075 -1.86451
-18.9386 -10.963 -1.82604
-18.8103 -10.6959 -1.87987
-19.1014 -10.8024 -1.60788
-19.2263 -10.8483 -1.78779
-17.4945 -11.2777 -0.227983
-19.0256 -11.1201 -0.279529
-17.1917 -11.2987 -3.29563
-16.5144 -11.9744 -2.65349
-17.5154 -11.0819 -3.07314
-18.2417 -10.7648 -2.9956
-18.3406 -10.6908 -2.78883
-17.9973 -10.9 -2.45927
-15.2731 -12.8914 -1.10506
-17.8073 -11.3394 -2.43074
-17.5154 -11.2936 -2.30715
-17.6994 -11.3293 -2.22225
-18.4195 -10.9481 -2.39989
-18.2655 -10.7991 -2.65408
-18.2072 -11.0569 -2.48268
-18.0229 -11.1815 -2.18473
-17.013 -11.9967 -1.41369
-18.2989 -10.9498 -2.12796
-18.4287 -10.8599 -2.23181
-16.1583 -12.2522 -0.382374
-15.9094 -12.2181 -0.415276
-18.0005 -11.2349 -1.82748
-18.3513 -11.1264 -2.04124
-18.2499 -11.2329 -1.90799
-16.2197 -12.3224 -0.5937
-16.2596 -12.3985 -0.634019
-18.4669 -11.1107 -1.76876
-19.1063 -10.6069 -1.788
-18.7588 -11.3289 -1.22001
-19.3636 -10.94 -1.29898
-19.6745 -10.5426 -1.29708
-18.3264 -10.6179 -2.89763
-17.3645 -11.2898 -1.66933
-18.1718 -11.1749 -2.22876
-15.9488 -12.3671 -0.357014
-18.85 -10.5973 -2.38814
-16.1585 -12.3829 -0.47374
-16.6937 -12.4541 -0.475116
-18.8349 -10.6831 -1.92691
-19.0722 -10.7032 -2.01785
-19.0024 -10.8814 -1.47768
-18.847 -11.1397 -1.52889
-19.0852 -10.8183 -1.53899
-18.7161 -11.4511 -0.512994
-17.4209 -10.5679 0.637662
-17.9951 -10.8562 -2.91521
-17.6359 -11.1672 -2.53664
-15.3268 -12.9314 -1.0489
-17.3877 -11.3878 -2.04726
-16.9533 -11.8781 -1.44215
-16.0332 -12.4176 -0.688485
-16.6417 -12.2112 -0.310383
-18.9362 -11.3511 -1.16328
-19.1707 -11.1523 -0.760779
-18.0642 -11.1284 0.0761688
-19.6244 -10.7473 -0.979505
-15.9741 -12.1172 -1.77972
-15.4431 -12.8339 -0.963196
-16.7709 -11.8226 -1.18762
-18.8348 -10.5417 -1.98595
-16.2883 -12.2236 -0.444252
-18.6632 -10.7719 -1.92996
-16.4926 -12.2882 -0.639291
-18.8611 -10.7384 -2.19129
-16.7034 -12.0887 -0.606182
-18.4995 -11.0922 -1.80347
-18.6337 -11.3693 -1.51434
-17.4067 -11.28 -2.60142
-17.2523 -11.5282 -2.52078
-16.7911 -12.407 -0.614079
-18.8721 -10.7683 -2.11219
-18.8256 -11.1183 -1.38062
-17.2577 -11.7761 0.100632
-18.6875 -11.1091 -0.997962
-18.1585 -11.0507 -1.8622
-16.6376 -12.2034 -0.76562
-16.5407 -12.1901 -0.191683
-18.5738 -11.2705 -1.30905
-15.9919 -12.6729 0.143871
-18.9772 -10.8728 -1.40935
-16.519 -10.5357 0.702689
-15.2384 -12.1315 -2.10656
-15.333 -12.0554 -2.27049
-18.5412 -11.0078 -2.1036
-18.1464 -11.0552 -0.648541
-17.7065 -11.2628 -1.27715
-18.5403 -11.4575 -0.913991
-14.3557 -13.2955 -1.48572
-16.5894 -10.4937 1.46324
-18.2457 -10.3987 -3.01874
-18 -10.7488 -3.19682
-18.0095 -10.6709 -2.99896
-17.9782 -10.9193 -2.88214
-17.6522 -11.1695 -2.88972
-18.7059 -10.7516 -2.63007
-17.578 -11.2894 -3.01387
-16.0338 -12.0264 -3.20432
-18.6177 -10.7367 -2.18863
-18.4132 -10.8844 -2.04559
-18.2788 -11.1505 -1.97881
-18.2159 -10.9694 -2.26894
-17.4358 -11.6093 -2.3007
-16.2239 -11.877 -1.99709
-18.6057 -10.8352 -1.93438
-18.4447 -10.8635 -1.77495
-19.1693 -10.8765 -1.19779
-16.8303 -12.0329 -1.52439
-19.0986 -10.961 -1.34685
-19.1806 -10.9867 -1.13927
-16.8634 -11.9096 -1.36937
-16.1791 -12.1532 -1.19686
-16.4436 -12.4079 -1.09322
-17.5598 -11.1708 -0.693791
-16.1488 -12.3621 -0.564433
-15.992 -12.3598 -0.644239
-16.0704 -12.481 -0.663359
-16.3868 -12.3318 -0.452718
-16.0269 -12.3146 -0.666451
-16.0934 -12.3374 -0.617218
-16.148 -12.335 -0.593079
-18.1599 -10.564 -3.34707
-17.8009 -10.8822 -2.97586
-18.2803 -10.8267 -2.6836
-17.9496 -10.9753 -2.4773
-16.9819 -11.7962 -2.27639
-17.4366 -11.6523 -2.29856
-15.4804 -12.0586 -2.62491
-18.8838 -10.8263 -1.76858
-17.9684 -11.3582 -1.94322
-18.6643 -10.8533 -1.78502
-19.1917 -10.8244 -1.71499
-18.8082 -10.876 -1.71878
-15.4458 -12.5639 -1.72299
-18.8288 -11.2658 -1.24014
-18.8524 -10.9464 -1.0918
-19.5304 -10.6596 -1.1205
-18.661 -11.2769 -1.07944
-17.8748 -11.2745 -1.33782
-17.7726 -10.9873 -0.908082
-17.7071 -10.9913 -0.939059
-16.0491 -12.4828 -0.442355
-16.0378 -12.3565 -0.397288
-16.5808 -12.2772 -0.326653
-16.2876 -12.4912 -0.24211
-17.8077 -10.9524 -3.19906
-17.6417 -10.872 -3.07336
-18.4427 -11.1798 -2.55872
-18.2836 -10.9087 -2.41278
-17.626 -11.5232 -2.24467
-19.0477 -10.7137 -1.9023
-15.3565 -12.1705 -2.15963
-18.7412 -11.0336 -2.07065
-19.1055 -10.7458 -1.70467
-18.4007 -11.3238 -1.58044
-19.1529 -10.9249 -1.69103
-19.4148 -10.7051 -1.18089
-16.6626 -11.956 -1.57938
-16.865 -11.9455 -1.31966
-19.6505 -10.6461 -1.17564
-16.8208 -12.0736 -1.3744
-18.4654 -11.2028 -1.24428
-16.4048 -12.1778 -0.869219
-16.1189 -12.5108 -0.771479
-16.1781 -12.7143 -0.517098
-16.3883 -12.1949 -0.650706
-16.5066 -12.3712 -0.514635
-16.0356 -12.3438 -0.688644
-15.9903 -12.4582 -0.514202
-16.1006 -12.4124 -0.62312
-15.1386 -13.0172 -0.58893
-16.8549 -12.0508 -0.449588
-16.601 -12.3456 -0.337266
-16.8221 -11.6085 -2.88975
-18.815 -10.5767 -2.32154
-18.8456 -10.5988 -1.94159
-17.4245 -11.6013 -2.41297
-17.9477 -11.2437 -2.10362
-17.5205 -11.5833 -2.36309
-18.6477 -11.0128 -1.95276
-18.6711 -10.8699 -1.99992
-14.7313 -12.9882 -1.78758
-19.0798 -11.1015 -1.19702
-19.1104 -11.1585 -1.05244
-16.1071 -12.3971 -1.09038
-18.5232 -11.4853 -0.80951
-19.1293 -11.1403 -0.81384
-18.8101 -11.1933 -0.597179
-15.4065 -12.8674 -0.684627
-18.8012 -11.3492 -0.48674
-16.495 -12.3568 -0.378191
-16.1516 -12.5861 -0.472139
-16.3538 -12.2789 -0.295952
-17.549 -10.8444 0.406515
-16.6249 -11.603 -3.30059
-15.9501 -12.0312 -3.17346
-15.9364 -11.6755 -2.81218
-16.9835 -11.0476 -1.85972
-16.9796 -11.1986 -1.8587
-16.4951 -11.8268 -1.82823
-18.6323 -11.2096 -1.35794
-18.7301 -10.9028 -1.25648
-18.7687 -11.1124 -1.31444
-18.833 -11.373 -1.10818
-15.2014 -12.8174 -1.11739
-15.3632 -12.7013 -1.2978
-15.4941 -12.9518 -0.769614
-16.2317 -12.2352 -0.532631
-16.0637 -12.4092 -0.530721
-19.0813 -10.8523 -1.33336
-19.2559 -10.6405 -1.44194
-16.3157 -12.3086 -0.842475
-16.3127 -12.5769 0.260066
-17.6769 -11.5289 -1.9431
-19.0319 -11.0029 -1.67594
-16.0687 -12.2513 -1.88111
-17.3514 -11.175 -1.67985
-14.1149 -13.4854 -1.35328
-16.4885 -12.1259 -1.19096
-18.5004 -11.3889 -0.93464
-16.8463 -12.1141 -0.53911
-16.8201 -11.9982 -1.06536
-16.3096 -10.735 0.741419
-17.8054 -10.9529 -0.376181
-16.4148 -12.0704 -2.34084
-18.0523 -10.741 -0.585251
-15.9459 -11.9491 -2.27262
-16.2098 -12.0005 -2.67185
-18.8058 -10.416 -2.33403
-19.0621 -10.6671 -1.95252
-18.2201 -11.176 -2.16756
-16.7548 -11.4441 -3.2847
-18.8711 -11.0024 -1.30115
-16.8751 -11.739 -2.49919
-15.9579 -12.0862 -2.95642
-18.382 -10.8117 0.0789886
-17.3556 -11.3138 -0.652409
-16.0522 -12.4751 -1.01731
-16.1868 -12.3471 -0.511347
-15.2945 -13.4895 -0.221953
-16.7975 -10.5778 0.496336
-18.2534 -10.7336 -3.37478
-17.7049 -10.8364 -3.47518
-17.2399 -11.0293 -3.50215
-18.9857 -10.7496 -1.96396
-19.3966 -10.6612 -1.54174
-18.8083 -10.9619 -2.26357
-18.5883 -10.8672 -1.74485
-18.8786 -10.7338 -1.65083
-19.5393 -10.7032 -0.974611
-19.3513 -10.7993 -1.31279
-19.2303 -10.7611 -1.07217
-19.1205 -10.9997 -1.13806
-19.0794 -11.1832 -1.19942
-16.675 -11.7526 -3.18863
-18.1653 -11.4045 -1.77951
-17.4031 -11.4131 -2.46419
-17.8171 -11.0364 -0.936817
-17.8122 -11.143 -1.34192
-16.3876 -12.0601 -2.03638
-17.5105 -11.1553 -0.801228
-16.8405 -11.839 -1.38254
-17.5081 -11.277 -0.447682
-16.7761 -12.0283 -0.591548
-16.584 -12.3314 -0.311851
-16.9494 -11.8353 -0.397409
-16.0907 -12.2512 -0.411117
-16.2922 -12.4142 0.271884
-16.6258 -10.3854 0.360985
-17.4707 -10.8738 -3.38149
-18.9183 -10.7096 -1.96292
-19.0959 -10.7869 -1.86722
-18.7104 -10.9167 -2.01675
-18.1622 -10.7975 -2.3026
-18.8532 -10.7475 -1.66058
-18.3056 -11.3381 -1.66592
-17.3386 -11.5614 -2.62485
-18.9636 -11.6009 -0.629096
-17.755 -11.0403 -0.973035
-17.6614 -10.8893 -0.853844
-15.4688 -12.0356 -2.03578
-16.1318 -12.2804 -1.15798
-16.1286 -12.0965 -1.04989
-16.9966 -11.8595 -0.577683
-16.0211 -12.5465 -1.09327
-14.7351 -12.899 -1.7323
-16.2762 -12.6815 -0.757875
-15.2383 -12.838 -1.40487
-14.6777 -12.8818 -1.5292
-16.2778 -12.4199 -0.51658
-16.1154 -12.4727 -0.509789
-16.0831 -12.4159 -0.677407
-16.2701 -12.2724 -0.611926
-16.0835 -12.3428 -0.482177
-15.6163 -13.2199 -0.262916
-15.971 -13.1212 -0.0168162
-16.2636 -10.7083 0.887274
-18.7818 -10.9385 -2.08574
-19.1347 -10.9089 -1.40337
-19.0295 -10.9754 -1.29339
-17.2796 -11.4891 -2.67136
-18.6892 -10.9553 -1.35255
-17.5805 -11.3816 -2.16924
-16.8949 -11.816 -2.41741
-16.8024 -11.8372 -2.50083
-15.9149 -11.7276 -2.73277
-16.8704 -12.2333 -0.8424
-16.3931 -12.3539 -1.21923
-17.0425 -12.0118 -0.700023
-16.5735 -12.2479 -0.755336
-16.5351 -12.284 -0.699383
-17 -11.7771 -0.255546
-16.3501 -12.296 -0.342483
-16.0371 -12.3675 -0.498481
-15.2824 -12.9542 -1.01747
-16.262 -12.6805 0.290146
-18.5559 -11.052 -1.68462
-18.224 -11.3016 -1.36764
-18.6452 -11.2547 -1.21872
-18.8651 -11.3671 -1.03559
-17.4915 -11.5252 -2.3036
-15.9287 -11.9268 -2.55788
-16.1907 -11.9183 -2.04257
-16.2182 -12.0143 -2.12136
-18.1212 -10.8774 -0.163549
-16.7741 -12.0279 -1.30222
-15.4607 -12.0647 -2.30395
-16.0417 -12.0843 -1.62919
-16.6952 -11.9546 -0.236096
-15.2887 -12.8683 -0.960327
-14.1174 -13.4054 -1.49554
-15.6322 -13.0992 -0.0263625
-16.2649 -10.8136 1.1808
-18.049 -10.5477 -3.33052
-17.2672 -11.1894 -3.23078
-18.8183 -11.0432 -0.924132
-17.1635 -11.036 -1.81134
-17.5094 -11.4957 -0.614967
-17.2767 -11.6713 -2.59251
-17.2958 -11.5658 -2.32806
-17.2385 -11.5983 -1.39849
-17.4791 -11.1995 -3.3785
-17.4662 -11.2633 -1.56085
-17.7974 -10.866 -1.0687
-16.2028 -12.1949 -1.83608
-16.0087 -12.077 -2.00416
-17.0228 -12.0395 -1.19751
-15.51 -12.8742 -0.621428
-16.2433 -12.1312 -1.89185
-15.6911 -12.5201 -1.24804
-18.8901 -10.3765 -2.08013
-18.4344 -10.4117 -3.16361
-18.0898 -10.6198 -3.1386
-18.2615 -10.6416 -3.35434
-18.3003 -10.5463 -3.04599
-18.0093 -10.5759 -3.42328
-18.1466 -10.8082 -2.48735
-17.5499 -11.0555 -2.91189
-17.2921 -11.2863 -3.2145
-17.5853 -11.4858 -2.53606
-17.1128 -11.7515 -2.23001
-17.5013 -11.2343 -0.746411
-16.9078 -11.7353 -2.31628
-16.8318 -11.7362 -2.43767
-16.5919 -11.7786 -1.25512
-16.7891 -11.9463 -1.26578
-16.7998 -11.9473 0.132536
-19.329 -10.7171 -1.30767
-19.0203 -10.5195 -2.04034
-18.9815 -10.9121 -1.5411
-18.3962 -10.7336 -2.75847
-18.3477 -10.573 -2.99071
-18.3075 -10.7045 -3.08168
-18.6236 -10.813 -2.09327
-17.8998 -10.8388 -3.00375
-18.4092 -10.8996 -2.26781
-18.1973 -11.0987 -2.30058
-18.1634 -11.1587 -2.0021
-18.3734 -11.2824 -2.04124
-18.3064 -11.3474 -1.86128
-17.7379 -11.2426 -2.7182
-17.7116 -11.3097 -2.17358
-17.6366 -11.2458 -2.45728
-17.8053 -11.318 -2.15239
-17.38 -11.576 -2.71482
-16.4802 -11.7467 -3.27383
-16.6077 -11.9309 -3.20055
-16.8017 -11.9958 -1.21656
-16.6921 -11.8579 -1.45323
-16.7967 -10.4694 0.86151
-16.8692 -10.4424 0.737477
-15.8398 -12.6286 -0.744333
-16.0196 -12.4353 -0.729076
-16.0072 -12.5282 -0.766883
-16.299 -10.7743 1.12674
-19.3777 -10.7178 -1.02998
-19.2144 -10.5347 -1.90092
-18.661 -10.9125 -2.18955
-18.5379 -10.7022 -2.46184
-17.9277 -10.7775 -3.12992
-18.3616 -11.0258 -2.19253
-17.9321 -10.8486 -2.83518
-17.9511 -11.3588 -1.89829
-17.6191 -11.1613 -2.74271
-18.1944 -11.2206 -1.69519
-17.9371 -11.31 -1.72728
-17.8001 -11.249 -2.28922
-17.6036 -11.5 -2.16047
-17.4743 -11.4025 -2.27561
-17.8055 -11.0354 -0.691372
-16.7383 -11.6964 -3.10031
-17.5635 -11.3674 -0.312179
-16.4348 -11.761 -3.46021
-16.796 -10.4895 0.821522
-16.0587 -12.551 -0.755181
-16.0948 -12.5537 -0.651335
-16.195 -12.332 -0.556839
-15.3979 -11.8464 -2.34766
-15.3808 -12.1471 -2.24938
-16.0673 -12.6054 0.46906
-15.4484 -12.481 -1.54619
-15.1669 -12.7864 -1.64752
-19.3049 -10.8109 -1.1681
-19.183 -10.4538 -1.59286
-19.0203 -10.545 -1.88288
-18.7951 -10.7707 -1.4027
-18.2661 -11.0514 -2.28936
-17.912 -11.4517 -2.01861
-17.1758 -11.058 -3.64556
-17.6367 -11.5491 -2.16018
-17.8804 -10.8994 -0.910981
-18.1554 -11.2459 0.46343
-17.4207 -11.4003 -2.18701
-17.2752 -11.3129 -2.76617
-17.2486 -11.6051 -2.42253
-16.7213 -11.5525 -3.41957
-16.1915 -11.9288 -3.30972
-16.1777 -12.4404 -0.331986
-15.8942 -12.266 -0.484725
-15.4223 -12.5471 -1.2944
-15.3833 -12.5545 -1.60156
-15.1168 -12.7506 -1.69684
-16.1729 -10.7216 0.973733
-18.8536 -10.5781 -2.21404
-18.6978 -11.0671 -1.88803
-18.2027 -10.7439 -2.75164
-17.8821 -10.7776 -3.50329
-18.8723 -11.0916 -1.00799
-18.7562 -11.2207 -0.905182
-18.8547 -11.1347 -1.06673
-18.3888 -11.0757 -1.43557
-17.4214 -10.6958 -3.5185
-17.4746 -11.0004 -3.12413
-17.9075 -10.9521 -2.96767
-17.4853 -10.9053 -3.35785
-17.4436 -11.2431 -2.9744
-17.3433 -11.3643 -3.17447
-18.0405 -11.0286 -0.332349
-17.1853 -11.4569 -2.94134
-17.1855 -11.5298 -2.09323
-17.133 -12.1298 -1.34952
-17.0532 -11.7181 -0.228923
-16.725 -12.0861 -0.0733432
-15.2803 -11.9573 -2.75934
-15.4556 -12.9803 -0.892931
-19.0979 -10.5638 -1.65015
-19.1897 -10.9265 -1.35545
-18.9985 -11.0281 -1.69925
-18.1177 -10.9834 -2.26898
-17.8831 -11.2095 -2.29175
-17.8626 -11.2427 -2.34143
-17.4247 -11.3394 -0.517958
-16.9499 -11.9031 -0.0368089
-16.9868 -12.0222 -0.280468
-16.6059 -12.3043 -0.799731
-16.4276 -12.3552 -0.759555
-16.6513 -10.5068 0.865704
-16.1527 -10.858 1.45737
-19.1932 -10.6284 -1.66579
-18.8835 -10.7732 -2.07063
-18.8707 -10.6758 -2.17858
-18.0437 -10.857 -3.21205
-18.5607 -11.2852 -1.34548
-18.2394 -11.1565 -2.49495
-18.0431 -11.2412 -2.14392
-17.8809 -11.3188 -2.50928
-16.4205 -11.665 -3.50108
-17.1331 -11.8546 -1.27181
-16.5667 -12.025 -1.84249
-16.0542 -11.7794 -2.49552
-16.9442 -10.4603 0.58809
-15.4258 -12.0015 -2.19586
-17.3615 -11.505 -2.38214
-17.5804 -11.0993 -0.855605
-16.1079 -12.2479 -1.75694
-18.2486 -10.9565 -0.403676
-15.5966 -12.0575 -2.01621
-16.9255 -12.1006 -1.54575
-16.3513 -12.0842 -1.90836
-17.7364 -11.1704 -1.42444
-19.1193 -10.4987 -2.07012
-18.8708 -11.0138 -1.76989
-18.7649 -10.7833 -2.11906
-18.8843 -10.8426 -1.93716
-18.4397 -11.0981 -1.7341
-18.6663 -10.9071 -2.0473
-18.5234 -10.848 -2.18645
-18.6412 -10.7478 -2.14256
-18.3116 -10.889 -2.47373
-18.2708 -10.5532 -3.17433
-18.1825 -10.7597 -3.00934
-18.1998 -10.8696 -2.83854
-18.194 -10.6962 -3.1249
-18.0619 -10.9809 -2.57136
-18.1173 -10.7715 -3.06029
-17.9817 -10.7376 -3.11028
-18.1556 -10.4806 -3.01872
-18.0095 -10.7617 -3.06882
-18.0305 -10.7452 -2.93908
-18.0331 -10.7677 -2.91212
-17.8929 -10.8146 -3.03216
-18.1366 -10.8229 -2.89941
-17.9426 -11.2578 -2.4091
-17.8545 -11.1618 -2.392
-18.1468 -10.7035 -3.24675
-17.714 -11.5259 -2.17921
-17.6067 -11.4577 -2.50096
-18.0762 -10.7882 -3.33126
-17.5255 -10.9452 -3.33056
-17.5246 -11.2618 -3.31924
-17.464 -10.9417 -3.34299
-16.8376 -11.8826 -2.35501
-16.8029 -12.0797 -1.53672
-16.9529 -11.7718 -2.35777
-16.941 -11.6936 -2.28504
-17.1989 -11.3097 -3.2421
-17.3271 -11.2152 -3.35968
-15.9461 -12.3479 -0.652999
-15.9033 -12.6091 -0.724814
-16.6435 -11.6912 -2.98296
-15.8993 -12.4391 -0.956069
-16.6406 -11.5244 -3.14406
-16.063 -11.9458 -3.35838
-19.312 -10.7647 -1.32812
-19.2613 -10.6049 -1.46533
-19.3534 -10.7542 -1.29708
-19.1638 -10.5163 -1.88191
-18.9261 -11.158 -1.04942
-18.5833 -11.0754 -1.71087
-18.5965 -10.9405 -1.45845
-18.6 -10.8907 -1.81547
-18.7183 -10.8488 -2.20609
-18.5452 -10.9015 -2.40565
-18.5747 -10.8095 -2.11679
-18.7681 -10.5034 -2.76169
-18.6814 -10.9016 -2.2386
-18.4599 -10.6889 -2.70718
-18.4762 -11.0142 -2.48998
-18.4911 -10.8878 -2.47596
-17.8302 -10.8486 -1.0708
-18.2894 -10.6994 -2.86986
-18.4017 -10.6693 -3.21877
-17.9493 -11.2705 -2.06971
-16.8762 -10.5072 0.606137
-18.1311 -10.8517 -3.0966
-17.9886 -11.3247 -2.22929
-16.8761 -10.5142 0.748123
-18.0793 -10.5748 -3.32715
-17.8259 -11.655 -2.05329
-17.5359 -11.5368 -2.09019
-17.1456 -11.7013 -0.292913
-17.694 -11.3206 -2.72259
-16.2614 -10.7712 1.08198
-16.6153 -12.2167 -0.34728
-16.5616 -12.1582 -0.306959
-16.8305 -11.89 -1.25879
-17.0159 -11.9599 -1.23785
-16.7544 -11.8809 -1.36905
-17.1479 -11.6275 -2.50924
-16.6939 -12.1074 -0.654715
-17.3274 -11.5314 -2.77755
-17.2276 -11.6847 -2.4801
-16.7412 -12.0454 -1.53337
-16.4503 -12.3628 -0.459972
-16.1762 -12.5198 -0.623491
-16.0517 -12.4001 -0.540398
-16.146 -12.3058 -0.513792
-15.873 -12.5982 -0.650754
-15.9595 -12.3643 -0.497162
-16.7951 -11.3338 -3.52542
-16.5239 -11.8104 -3.39886
-16.4848 -11.7575 -3.21181
-15.2242 -12.8913 -1.36383
-15.1911 -12.7403 -1.59632
-19.2789 -10.6106 -1.20966
-18.6072 -11.1238 -1.71056
-18.3401 -11.3182 -1.6408
-18.4785 -10.9181 -2.33328
-18.2469 -10.8186 -2.61296
-18.1548 -10.6523 -2.655
-18.2496 -10.6211 -2.30323
-17.6761 -11.2589 -1.05275
-18.2474 -10.7769 -3.07369
-16.9232 -10.4946 0.835703
-17.9533 -11.2388 -2.21828
-17.9806 -11.3488 -2.1731
-17.9024 -11.3323 -2.08333
-18.1225 -10.5341 -2.88751
-17.7656 -11.2148 -2.28401
-17.9866 -11.1521 -2.34498
-17.8515 -10.7721 -3.29277
-17.7961 -11.039 -2.83217
-16.7718 -11.866 -0.15097
-16.9753 -11.9442 -0.12128
-16.7412 -12.2301 -0.540864
-17.0431 -11.9894 -0.65612
-17.3829 -11.725 -2.40852
-17.3089 -11.7508 -2.45983
-16.6283 -12.3914 -0.440586
-16.5126 -12.2955 -0.245862
-16.1233 -12.749 0.376611
-15.9957 -12.5367 0.625578
-17.2049 -11.1539 -3.15068
-16.341 -12.4353 -0.267769
-16.5937 -12.3525 -0.55061
-17.1349 -11.3161 -3.52073
-17.234 -11.2901 -3.37753
-16.0445 -12.4301 -0.446908
-16.882 -11.2801 -3.15773
-16.2871 -12.1768 -1.28524
-16.8495 -11.4973 -3.00383
-15.3662 -12.9465 -0.845824
-16.2073 -11.9352 -3.17316
-16.052 -12.2498 -3.22178
-14.639 -12.6654 -1.71811
-15.0446 -12.0349 -2.55913
-19.5298 -10.6933 -1.34021
-18.9652 -11.39 -0.940095
-18.7907 -11.2869 -1.1034
-18.8211 -10.4878 -2.43238
-18.9742 -10.4971 -2.37059
-18.0967 -11.1538 0.149184
-18.8146 -10.5204 -2.26963
-18.4772 -11.3155 -1.28501
-18.449 -10.9246 -2.23672
-18.5035 -11.1633 -2.15839
-18.5473 -11.4113 -1.57732
-16.7585 -10.4111 1.08871
-18.1226 -10.6516 -2.76254
-17.8477 -11.1047 -2.37513
-17.9506 -10.569 -3.26852
-17.4846 -11.5511 -2.58521
-17.5271 -11.1577 -3.09347
-16.3825 -12.343 0.201418
-16.2613 -12.6563 0.351488
-16.9315 -11.7317 -2.33442
-16.0207 -12.403 -0.450654
-15.9015 -12.497 -0.672909
-16.3449 -12.3347 -0.515965
-15.9616 -12.4001 -0.607378
-16.0201 -11.5104 -2.62486
-15.3126 -12.1186 -2.06827
-18.9763 -10.6658 -1.40361
-18.8035 -10.6478 -2.14356
-18.9915 -10.595 -2.24428
-18.212 -10.956 -0.358012
-18.6479 -11.0531 -2.27371
-17.5425 -11.1415 -0.78884
-17.2083 -11.6821 -1.50999
-16.9955 -11.8925 -1.25286
-16.9518 -11.8697 -1.45239
-16.1498 -12.5276 -0.468163
-16.4027 -12.3261 -0.667788
-16.693 -12.1767 -1.48345
-16.3822 -12.0439 -0.860194
-16.1913 -12.4648 -0.467746
-15.9846 -12.2919 -0.426887
-16.2539 -11.9004 -2.18246
-16.0301 -12.129 -3.15341
-15.4611 -12.1229 -2.7055
-19.5538 -10.9111 -1.20269
-19.2553 -10.8776 -0.698092
-19.2611 -10.9073 -1.19731
-19.0583 -10.7615 -1.59455
-18.1197 -10.8215 -0.47582
-18.5791 -10.9873 -1.91034
-18.1701 -11.1241 -0.756788
-18.3786 -10.927 -2.30869
-18.2237 -10.9519 -2.43462
-16.9811 -10.779 0.57764
-17.8677 -11.1911 -2.42857
-17.8364 -10.8429 -2.9507
-17.7101 -11.3211 -2.35571
-16.4576 -10.3407 0.721939
-17.8194 -10.8816 -3.5106
-15.9506 -12.3348 -0.758228
-16.8406 -11.5786 -3.56274
-16.2879 -11.9572 -2.92126
-19.0219 -11.1808 -0.318716
-18.5566 -10.9349 -0.0898563
-18.1465 -11.1556 -2.06616
-16.7713 -12.1602 -0.127386
-16.0244 -12.2343 -0.330909
-15.9398 -11.6573 -2.59101
-17.3539 -11.3043 -1.62332
-16.7126 -12.1304 0.0332088
-16.014 -12.0334 -1.44188
-15.4234 -11.8487 -2.66489
-18.542 -11.3585 -1.34929
-17.9336 -11.1157 -2.47411
-17.5013 -11.7737 -1.18361
-16.2769 -12.5708 -0.645483
-16.0253 -12.2956 -0.609628
-16.1884 -12.7175 -0.730035
-17.7851 -11.372 0.1991
-17.147 -11.3603 -3.24105
-17.1596 -11.31 -3.56214
-17.5106 -10.9724 -3.66826
-17.889 -10.6874 -3.43243
-17.657 -11.102 -3.10612
-17.4259 -11.2206 -3.06765
-16.6592 -12.0761 -2.28271
-18.2167 -10.7299 -3.15181
-17.4637 -11.321 -2.46323
-18.3934 -10.8515 -2.96236
-18.2082 -10.6744 -2.82192
-18.5452 -10.8195 -2.68898
-17.6479 -11.2821 -2.07442
-18.1126 -10.9095 -2.5008
-18.3526 -10.6718 -2.4101
-15.5358 -13.0317 -0.500962
-18.0673 -11.2458 -2.07921
-17.0752 -11.9853 -1.40444
-16.0987 -12.3447 -0.657665
-18.6146 -10.9778 -2.15298
-18.2775 -10.9707 -2.16728
-18.6483 -10.8941 -2.37087
-18.5541 -10.7479 -2.45132
-18.7599 -10.8466 -2.2614
-16.2917 -12.3887 -0.650205
-16.8364 -12.3709 -0.947424
-18.3303 -11.0738 -1.51127
-18.7036 -11.0974 -1.75084
-18.8073 -10.7714 -1.98161
-18.5835 -10.919 -1.59228
-16.9693 -12.0783 -0.20464
-16.5366 -12.3661 0.229704
-18.9653 -10.9661 -1.46691
-19.0605 -10.8843 -1.53195
-15.8457 -11.0488 1.00951
-19.1833 -10.7609 -1.29738
-16.7635 -11.6425 -3.24959
-16.5156 -11.8963 -2.83765
-17.7468 -10.6309 -3.47108
-16.9218 -11.3529 -3.2173
-17.7294 -10.8265 -3.31708
-17.0492 -11.8623 -2.50946
-17.3989 -11.6399 -2.41744
-17.5904 -11.2926 -2.54455
-18.1289 -11.257 -2.22955
-16.3112 -12.1003 -0.883749
-18.2352 -10.9618 -2.0586
-16.1498 -12.3463 -0.448823
-18.4849 -11.0718 -1.83757
-18.9047 -10.6794 -2.04556
-18.5953 -11.1767 -1.7813
-18.8984 -10.9474 -1.78488
-18.8558 -11.0223 -1.74669
-19.1308 -10.6605 -1.71287
-17.0556 -11.8065 -0.105984
-18.9681 -11.3376 -0.989969
-18.8798 -11.0456 -0.94592
-18.1572 -10.9747 -0.301819
-19.4141 -10.7363 -1.0713
-17.7211 -10.7746 -3.13044
-18.1636 -10.7061 -3.10746
-17.0171 -11.7269 -2.65568
-17.942 -10.7507 -2.9636
-17.0047 -11.7234 -2.54748
-18.2644 -10.6072 -2.85048
-17.9046 -11.2427 -2.45541
-15.8258 -12.4668 -1.21176
-17.9657 -11.3086 -2.30289
-16.4415 -12.1574 -1.06789
-18.6618 -10.8694 -2.30099
-18.9041 -10.7192 -2.18239
-18.9164 -10.5795 -2.09627
-18.6067 -11.2435 -1.26026
-18.7916 -11.1344 -1.3085
-18.9725 -11.0723 -1.27374
-18.8855 -10.8892 -1.36035
-19.4363 -10.7754 -1.25945
-19.4528 -10.4716 -1.28012
-17.6465 -10.8972 -3.30348
-18.0061 -10.9791 -2.68578
-17.6929 -11.2484 -2.30085
-17.7782 -11.4922 -2.26507
-17.7691 -11.3135 -2.2181
-15.9985 -12.3812 -0.465761
-18.4312 -11.1255 -1.71587
-18.8505 -10.5792 -2.04617
-18.1603 -11.2935 -1.66622
-18.5268 -11.1684 -1.39405
-18.6361 -10.8826 -1.76035
-16.4249 -12.2494 0.11583
-17.8642 -11.026 -0.431786
-18.9871 -11.1735 -0.881769
-16.5956 -10.3991 0.57562
-18.0283 -11.4009 0.244678
-15.5287 -12.0679 -2.32053
-15.8888 -12.2725 -1.34112
-17.9295 -11.2973 -1.84349
-16.2698 -12.3178 -0.174153
-17.0291 -12.0767 -0.452656
-18.8192 -10.8676 -1.72472
-17.1003 -11.5411 -0.42366
-16.5539 -12.3145 0.185155
-17.0878 -11.3961 -2.78119
-15.6002 -12.5225 -1.5588
-15.4165 -12.8958 -0.673911
-18.3169 -10.8135 -1.98044
-16.536 -12.4333 -0.318096
-17.672 -11.232 -1.30565
-17.065 -12.1861 -0.634978
-16.4508 -12.2442 -0.179398
-18.5325 -11.4168 -1.18765
-16.4576 -12.2538 0.309282
-18.5299 -10.8762 -2.20977
-17.6408 -11.0903 -0.405775
-17.3422 -11.232 -0.308109
-17.5265 -11.1177 -0.32042
-17.0579 -12.0194 -0.472854
-18.9389 -10.7414 -1.69269
-16.9571 -12.131 -0.289752
-18.3623 -11.3963 -1.44881
-17.6911 -11.1598 -2.51615
-17.2125 -11.4435 -1.50922
-16.2805 -12.6878 0.636047
-17.6395 -11.2427 -2.30006
-17.4612 -10.5132 0.767228
-17.8686 -11.2348 0.328345
-17.8976 -10.9887 -0.426625
-16.9026 -11.3817 -3.35668
-16.2673 -11.7934 -3.33148
-16.7199 -11.6129 -3.01861
-18.1824 -10.9521 -2.53606
-18.167 -11.2325 -2.20985
-17.886 -11.2221 -2.48095
-17.5401 -11.2084 -2.25219
-18.8112 -10.8815 -1.70305
-16.8973 -12.1077 -1.42477
-18.0887 -11.5215 -1.4809
-18.6875 -10.8651 -1.50666
-18.8444 -10.9711 -1.49952
-18.9677 -10.8773 -1.38166
-17.2327 -11.9119 -1.03575
-19.136 -10.8293 -1.32455
-19.0749 -10.8093 -1.08513
-16.192 -12.5906 -0.714031
-16.2112 -12.2729 -0.720865
-19.0348 -11.0068 -0.882359
-17.4093 -11.415 -0.605788
-16.0023 -12.0105 -3.04516
-16.6988 -11.7158 -2.82275
-18.2766 -10.5941 -2.9034
-17.3811 -11.4926 -2.5002
-14.6236 -12.8982 -1.58784
-18.8741 -10.9134 -1.65997
-16.917 -11.7985 -1.45992
-18.8521 -11.0493 -1.4687
-17.346 -11.5415 -1.29844
-17.6644 -10.9509 -0.94787
-16.0937 -12.3314 -0.511996
-19.5146 -10.5434 -1.01665
-16.679 -12.202 -0.395761
-16.3795 -12.3014 -0.132326
-16.6593 -12.2716 -0.414232
-16.6416 -12.325 -0.466667
-18.2976 -11.2686 0.576643
-17.0354 -11.4924 -3.05717
-16.3058 -12.0078 -3.07934
-18.3116 -10.685 -2.80089
-17.2563 -11.4617 -2.65001
-15.3888 -12.1256 -2.15504
-17.4095 -11.5263 -2.44612
-18.1116 -11.2417 -2.47487
-18.5618 -11.0112 -2.08558
-18.5832 -10.9936 -1.79226
-15.2011 -12.7128 -1.63216
-15.15 -12.7603 -1.23828
-18.6859 -11.0508 -1.32967
-19.3035 -10.8464 -1.20091
-17.7911 -10.8861 -0.675398
-16.1576 -12.1742 -0.584781
-16.818 -11.9927 -0.541538
-16.1585 -12.2119 -0.337198
-16.6169 -12.3572 -0.296094
-16.682 -12.296 -0.35457
-19.0645 -11.175 -0.448553
-18.3423 -11.1044 -0.232199
-16.6316 -11.5629 -2.94428
-18.2907 -10.789 -2.67509
-17.3803 -11.6202 -2.31179
-17.474 -11.6654 -2.28132
-17.1589 -11.4811 -2.2624
-18.7197 -10.6314 -1.93139
-17.726 -11.4748 -2.07352
-17.6119 -11.3476 -1.98199
-16.4683 -12.3743 -0.55759
-16.2933 -12.381 -0.535332
-16.1331 -12.409 -0.444023
-17.3206 -11.2011 -3.19673
-16.8919 -11.5867 -3.00256
-18.0647 -11.3774 -1.71499
-16.5524 -12.0457 -1.57834
-15.7598 -12.6404 -1.12713
-17.7823 -11.3303 -1.20752
-19.0148 -11.0153 -1.20715
-19.3335 -10.9317 -1.42756
-19.472 -10.6225 -1.16557
-19.5079 -10.4764 -0.954104
-15.8714 -12.4259 -0.517171
-17.9436 -10.674 -0.754193
-15.8761 -11.7735 -2.88916
-18.5299 -10.8334 -2.21729
-16.9233 -11.8112 -1.46267
-17.7442 -11.1895 -1.24203
-17.594 -11.1661 -0.279438
-18.0192 -11.0132 0.170273
-16.2835 -11.6812 -2.14034
-18.8545 -10.6195 -1.98948
-17.2952 -11.9162 -0.766226
-16.9662 -11.2308 -2.19075
-15.6345 -12.1591 -1.86745
-15.9898 -12.0817 -3.05293
-18.6587 -11.0268 -1.64574
-19.1309 -10.9991 -1.26687
-19.0523 -10.8671 -1.21909
-19.0413 -10.967 -0.95883
-16.6813 -12.0108 -1.67314
-15.3166 -12.5434 -1.62362
-16.3184 -12.3378 -1.18352
-17.1496 -11.3886 -0.589474
-18.429 -10.9837 -0.0205323
-16.0658 -12.6258 -0.714891
-16.195 -12.5166 -0.713378
-18.8333 -10.6985 -1.89771
-18.8772 -10.8363 -1.71011
-16.4575 -11.8318 -1.5533
-18.5824 -11.4119 -1.12478
-14.5518 -12.8342 -1.82875
-15.7684 -12.482 -0.9255
-16.0432 -12.4182 -0.828702
-16.1016 -12.3685 -0.609562
-15.8663 -12.7333 0.396413
-17.2559 -11.1822 -3.22447
-17.5637 -11.0703 -3.15975
-16.6241 -11.6332 -3.30165
-18.248 -10.9334 -2.29687
-17.6268 -11.514 -1.9874
-17.9164 -11.3507 -2.00173
-19.0511 -10.9091 -1.4506
-18.9262 -11.3072 -1.00371
-15.0013 -12.9129 -1.68749
-16.728 -12.062 -1.02384
-16.0894 -12.7192 -0.760487
-16.1229 -12.5375 -0.595166
-16.8913 -10.4353 0.902408
-19.0241 -10.728 -2.10858
-18.3958 -10.869 -2.25592
-16.8462 -11.747 -2.94497
-18.5351 -10.7676 -1.99076
-19.4173 -10.6367 -1.57522
-18.4295 -11.2662 -1.5759
-15.7146 -13.0913 -0.386735
-16.8998 -12.1412 0.106594
-16.3215 -12.6839 0.220746
-18.2665 -10.6527 -2.85731
-17.9634 -11.3612 -2.4745
-19.0324 -10.9532 -1.46538
-16.5465 -12.2263 -1.0277
-18.6033 -10.7345 -2.49929
-16.4691 -10.7651 1.19947
-17.1928 -11.0987 -1.87638
-18.3524 -11.1978 -1.85503
-15.3426 -12.6266 -1.26026
-17.1435 -12.1848 -0.348929
-16.7143 -11.368 -3.16875
-17.6366 -11.0798 -0.759656
-15.9454 -12.34 -0.59286
-16.7737 -10.4746 0.524359
-18.0515 -10.5297 -3.26653
-19.0029 -10.727 -2.38367
-18.906 -10.6774 -1.98267
-18.8575 -10.6595 -2.04567
-17.3595 -11.2084 -3.14986
-18.4579 -11.1604 -1.62403
-17.2354 -11.3258 -2.93335
-18.0713 -11.2184 -1.70915
-16.6116 -11.7828 -3.24581
-17.5887 -11.4508 -2.15495
-17.3663 -11.5713 -2.31799
-16.8556 -12.2307 -1.19566
-16.618 -12.3405 -0.436866
-16.3345 -12.4096 -0.542232
-16.3096 -12.5523 -0.373108
-14.6653 -12.7579 -1.87458
-16.2405 -12.4233 -0.500094
-16.0873 -13.0395 0.167836
-18.8475 -10.7682 -2.07449
-18.9817 -10.7792 -1.83289
-18.1039 -10.967 -2.35661
-18.4362 -10.8918 -1.92948
-18.5424 -10.9815 -1.79384
-18.0431 -11.2939 -2.113
-17.713 -11.5468 -2.04821
-16.9127 -11.7878 -2.2264
-15.4202 -12.2661 -2.31036
-18.0049 -10.9874 0.642341
-16.9801 -11.5793 -0.368424
-15.3184 -12.8125 -0.950866
-17.6565 -10.7703 -3.14377
-17.6076 -10.8907 -3.26899
-18.9327 -10.7396 -1.34691
-16.858 -11.5605 -3.36447
-18.6909 -11.2266 -0.99396
-16.8901 -11.6534 -2.73051
-14.815 -12.2734 -2.29877
-16.2284 -12.3245 -1.12291
-18.8308 -10.5155 -2.09912
-18.9767 -10.8712 -1.90729
-17.3681 -11.0239 -3.48382
-18.4513 -10.9506 -2.1949
-17.248 -11.1309 -2.93906
-18.4574 -11.0876 -1.6821
-17.5735 -11.1359 -2.50481
-19.4254 -10.9461 -0.744082
-16.8523 -11.6654 -3.13098
-16.4285 -11.6247 -3.30043
-16.4613 -12.2101 -0.863325
-16.785 -11.92 0.195511
-16.145 -12.1598 -1.2339
-15.5473 -12.5533 -1.29879
-17.5613 -10.9244 -3.3354
-18.9848 -11.1232 -1.11402
-17.3594 -11.3098 -1.67281
-17.8422 -10.7855 -0.92159
-16.4895 -12.4415 -0.439705
-15.8677 -12.5671 -0.790409
-18.2973 -11.0878 -1.87758
-18.8428 -10.7115 -1.89838
-17.4851 -10.9873 -3.20606
-17.0477 -11.4205 -2.90127
-16.9233 -11.5883 -3.36794
-16.7846 -11.5855 -3.36366
-16.3135 -11.8064 -2.89246
-16.0001 -12.5359 -0.627455
-16.0722 -12.3676 -0.718423
-14.8773 -12.0874 -2.59355
-19.0573 -10.5175 -1.83291
-18.9181 -10.5504 -2.04446
-18.7507 -10.8508 -1.8676
-17.9495 -10.6814 -3.2236
-18.4336 -11.1564 -1.84084
-17.4282 -10.816 -3.62329
-17.7748 -11.3034 -2.91343
-17.3574 -10.9528 -3.40984
-17.1883 -11.119 -3.58343
-18.2042 -11.2555 -2.13693
-17.9316 -11.411 -1.7195
-17.6059 -11.3804 -2.6805
-17.8579 -11.5228 -2.24749
-17.4263 -11.4874 -2.5918
-17.0985 -11.5865 -2.3555
-16.5277 -11.7217 -3.32871
-17.3469 -11.1641 -0.6674
-16.8012 -11.843 -1.42092
-16.5615 -12.3316 -0.915423
-15.9093 -12.2028 -1.31757
-15.3248 -11.919 -2.50443
-15.378 -11.9344 -2.37458
-16.0293 -12.5078 -0.298465
-19.2318 -10.6707 -1.73568
-19.319 -10.6607 -1.59923
-18.7198 -10.7348 -2.03407
-18.6788 -10.903 -2.16702
-18.5848 -11.2102 -1.39338
-18.3293 -10.9981 -1.8516
-17.9739 -10.8673 -0.733513
-16.7696 -11.4254 -3.08415
-16.8586 -11.4792 -2.57884
-16.9815 -11.8069 -2.57797
-16.9007 -12.2467 -0.926281
-16.2992 -12.5123 -0.484986
-15.4043 -12.1381 -2.11867
-15.2976 -12.3941 -2.08865
-14.784 -12.8551 -1.62033
-14.6842 -12.8391 -1.42355
-18.8104 -10.6513 -2.27452
-18.0779 -10.6373 -3.34221
-18.0471 -10.6427 -3.15973
-18.2838 -11.0215 -2.49138
-17.8298 -10.6929 -3.45962
-17.9233 -11.0022 -2.69747
-19.0886 -11.0179 -0.592575
-18.1375 -11.1101 -2.05877
-17.2045 -11.4661 -2.50867
-16.9847 -11.4172 -3.24129
-16.7246 -11.554 -3.2722
-17.1977 -11.7299 -2.37437
-17.0666 -11.3426 -3.35072
-17.1016 -11.9137 -0.404865
-16.4939 -12.402 -0.569582
-16.2816 -12.8963 -0.271764
-16.1966 -12.5016 0.0693727
-19.1176 -10.6302 -1.64517
-19.153 -10.7123 -1.69982
-19.1415 -10.5143 -1.90233
-18.8036 -10.7873 -2.10824
-18.8749 -10.8531 -1.32265
-17.7396 -10.793 -3.27091
-17.6072 -11.1525 -2.91487
-17.4071 -11.0379 -3.36842
-17.472 -11.1402 -2.53685
-17.686 -11.6819 -2.20621
-17.4134 -11.5447 -2.28388
-17.0485 -11.5666 -2.51663
-17.302 -11.3297 -0.413637
-17.1565 -11.7901 -0.240265
-16.3299 -12.0896 -1.38004
-16.578 -12.3276 -0.615062
-16.1209 -12.4561 0.308244
-16.5267 -10.3838 1.16435
-14.7398 -12.7966 -1.49556
-18.4626 -10.8194 -2.00803
-17.2075 -11.561 -2.45844
-18.2442 -11.1833 0.0867579
-17.2921 -11.8492 -1.45888
-15.3956 -12.7989 -1.09494
-19.1195 -10.6648 -1.5472
-18.9465 -10.7505 -1.80233
-19.2087 -10.9367 -1.4467
-16.5568 -11.6012 -3.33557
-15.9965 -12.7197 0.355776
-16.6736 -11.5949 -3.47809
-15.8223 -11.702 -2.64412
-15.0083 -12.7981 -1.65299
-18.2087 -11.1403 -2.09617
-17.0186 -11.1251 -2.18919
-15.7764 -12.602 -1.25209
-18.0447 -10.9744 -0.678182
-16.6529 -12.1644 -0.93139
-19.342 -10.6813 -1.11991
-18.6137 -10.9091 -2.18404
-18.1478 -10.408 -3.19817
-18.3762 -10.5124 -3.05614
-18.2842 -10.7951 -2.57847
-18.1197 -11.2467 -1.74346
-18.2483 -10.737 -3.04974
-18.0789 -10.7633 -3.01861
-18.0836 -10.8576 -2.95403
-17.9057 -11.1191 -2.33386
-17.694 -11.2679 -2.02957
-17.7247 -11.3794 -2.23041
-17.5144 -11.3034 -2.25679
-17.423 -11.1732 -0.821286
-17.6268 -11.159 -2.41574
-17.5118 -11.0239 -3.26201
-17.2337 -11.2034 -2.97997
-17.4239 -11.2144 -3.24655
-17.1364 -11.6718 -2.29905
-17.4015 -11.586 -2.51885
-17.0141 -11.2955 -2.78334
-17.2612 -11.65 -2.43838
-17.1324 -11.6077 -2.6319
-16.9537 -10.4777 0.813517
-16.8699 -11.4388 -3.31277
-17.1318 -11.5488 -3.19212
-16.9006 -11.9544 -2.97449
-16.9506 -12.0194 -1.54235
-16.6635 -11.7012 -3.07931
-16.2724 -12.4445 -0.0226074
-16.0782 -12.5716 -1.08403
-18.9474 -10.5707 -1.99547
-18.5657 -10.7979 -2.06216
-18.3899 -11.0836 -1.83074
-18.3132 -10.886 -2.24408
-18.3299 -10.7057 -3.09548
-18.1911 -10.6554 -3.01719
-18.3603 -11.1996 -2.01977
-17.9983 -10.7914 -3.44681
-17.9524 -10.7777 -3.23771
-18.0013 -10.6439 -3.47318
-18.0979 -11.2055 -2.39395
-17.679 -10.5973 -3.49886
-17.7344 -11.1952 -1.29795
-17.7606 -11.1801 -1.99866
-17.5185 -10.9381 -3.35328
-17.3312 -11.2907 -3.17107
-17.2155 -11.0697 -3.44519
-17.2201 -11.4967 -2.75293
-16.684 -10.6155 0.823986
-16.7085 -10.8521 0.950645
-16.9432 -11.5439 -3.02315
-16.9251 -11.2063 -3.35485
-16.7004 -11.6294 -3.33131
-16.625 -11.5238 -3.18376
-16.6131 -11.6358 -3.30996
-16.3825 -12.3588 -1.01014
-16.3438 -11.8109 -3.40135
-16.0259 -12.1637 -0.635249
-15.575 -12.0642 -2.10346
-15.11 -12.1688 -2.21334
-14.9331 -12.3134 -2.35098
-14.5675 -12.7651 -1.63952
-14.3851 -12.8484 -2.06913
-19.5478 -10.7061 -1.20411
-19.255 -10.6721 -1.52363
-18.3362 -10.6167 -2.74013
-18.0607 -11.44 -1.98904
-17.7382 -11.2874 -2.09097
-17.6986 -11.1823 -3.11063
-17.3973 -11.4374 -2.40118
-17.158 -11.5559 -2.70171
-17.0259 -11.3539 -3.1631
-16.5899 -12.0597 -1.372
-16.4634 -12.3953 -0.851005
-16.1696 -12.059 -1.00615
-16.0491 -11.8593 -1.62272
-15.5898 -12.9042 -0.863767
-14.6667 -12.9988 -1.91449
-18.136 -11.1706 -2.3282
-17.8815 -11.1976 -2.51619
-17.7207 -10.9983 -2.81203
-17.2252 -11.5361 -3.02135
-16.8693 -12.1203 0.123362
-16.5136 -11.6684 -3.37907
-16.311 -12.2484 -0.968015
-16.0324 -12.1839 -0.472748
-16.1049 -12.5376 -0.35276
-16.2216 -12.122 -3.18655
-15.0735 -12.2993 -2.43875
-14.9541 -12.4046 -2.27178
-19.0829 -10.8342 -1.62484
-18.6105 -10.8944 -2.02552
-18.2971 -11.1335 -2.00411
-17.6234 -11.2048 -0.752378
-17.4285 -11.6959 -2.33003
-17.0176 -11.8269 -1.51699
-16.5281 -12.1202 -0.0696568
-16.2333 -12.3973 -0.510783
-16.1996 -12.4786 0.459949
-15.9665 -12.7113 0.478674
-15.7047 -12.5035 -1.32559
-17.5252 -11.3368 -0.336815
-17.1051 -11.8672 -0.329585
-16.4969 -12.1423 -0.823089
-16.2847 -12.6021 0.718655
-18.4869 -10.9428 -1.91443
-18.0162 -11.0686 -2.27018
-17.8799 -11.4212 -1.97214
-13.9116 -12.794 -2.27023
-18.1896 -11.2252 -2.40318
-15.9088 -12.5922 -1.12658
-19.0227 -10.6617 -2.12912
-16.0554 -12.4573 -0.687226
-16.6511 -12.0959 -0.349579
-16.147 -12.1869 -1.86297
-15.9595 -12.1621 -1.75786
-18.7556 -11.0095 -1.61634
-17.3837 -11.0931 -0.757503
-18.2019 -10.5934 -2.7257
-18.4156 -10.9748 -2.45017
-18.3882 -10.9895 -2.2089
-18.1169 -11.0208 -2.23909
-18.4268 -10.743 -2.76287
-18.2461 -10.8016 -2.68656
-17.9219 -11.2964 -2.34814
-18.1732 -10.5045 -3.0246
-18.122 -10.6389 -3.01717
-18.1351 -11.0204 -2.50076
-18.3081 -10.6258 -3.05038
-17.9596 -11.2253 -2.34414
-17.8406 -11.5107 -2.18383
-18.1307 -10.5127 -3.2443
-18.3216 -10.4629 -3.3591
-17.13 -11.8699 -1.27869
-17.5865 -11.3673 -2.34375
-16.7212 -11.8613 -1.4341
-17.3718 -11.4767 -2.32627
-16.1291 -12.1766 -0.646516
-17.2138 -11.7179 -2.66902
-15.9975 -12.315 -0.615901
-17.3105 -10.9569 -3.16108
-16.9902 -11.6369 -2.51409
-17.3133 -11.0843 -3.40174
-16.9628 -11.4559 -3.00973
-16.8157 -11.4251 -3.00601
-17.2534 -11.1169 -3.54281
-16.4847 -11.6003 -3.00881
-16.3431 -11.9237 -3.39927
-19.4722 -10.6338 -1.11416
-19.1593 -10.8332 -1.47587
-19.0848 -10.6733 -1.9006
-18.911 -10.6872 -1.54218
-18.9692 -10.7639 -2.07867
-17.0671 -10.5283 0.700486
-16.642 -10.3202 0.782099
-17.9214 -11.1395 -2.18088
-17.2506 -11.9896 -0.956039
-18.007 -10.7434 -2.84028
-16.6149 -12.3973 -0.421763
-16.5123 -12.2523 -0.356058
-16.5803 -12.3283 -0.401033
-17.6015 -11.3366 -2.89746
-16.7893 -11.7585 -1.38649
-16.1935 -12.3625 -0.436019
-17.1905 -11.6154 -2.7152
-17.088 -11.6178 -2.78614
-16.1121 -12.4645 -0.742441
-15.9293 -12.3728 -0.853102
-16.6735 -12.0255 -2.97533
-16.843 -11.5153 -3.04578
-17.0226 -11.1888 -3.53045
-16.8773 -11.4227 -3.43902
-18.9359 -11.0324 -0.697206
-18.7748 -10.7648 -1.59739
-18.63 -10.8403 -1.66238
-18.6462 -11.1836 -1.66767
-18.7099 -10.9159 -2.15331
-16.7339 -10.4087 0.713116
-16.5553 -10.4422 1.04911
-16.4398 -12.3957 -0.232207
-16.5458 -12.2479 -0.322925
-17.5698 -11.6202 -2.33523
-16.6205 -12.2114 -0.827221
-17.4083 -11.2369 -3.06309
-16.1133 -12.402 -0.706017
-17.1711 -11.0326 -3.48487
-16.3918 -12.0568 -1.76901
-19.1716 -11.0855 -0.990502
-18.2166 -11.3917 -1.63238
-16.9802 -10.5942 0.473771
-16.7264 -10.5032 0.899032
-15.864 -10.686 2.09376
-17.2439 -11.5585 -2.42276
-16.1826 -12.4872 -0.497064
-15.4919 -12.8795 -0.686346
-15.9972 -12.0353 -3.26209
-19.2043 -10.6982 -1.60941
-18.959 -10.7363 -2.08116
-17.6328 -11.2287 -0.852516
-17.8935 -11.5034 -2.14998
-16.8478 -12.2156 -1.14451
-16.0049 -12.4483 -0.510773
-17.6389 -10.9581 -3.51077
-16.9705 -11.5917 -2.96972
-16.9468 -11.4521 -3.22857
-15.8299 -12.3378 -3.18042
-15.4479 -11.8867 -2.15132
-15.8715 -11.5147 -2.7008
-18.4289 -11.4566 -1.56665
-18.5152 -11.0627 -1.66375
-16.2232 -12.4434 0.078177
-15.0834 -12.0365 -2.33883
-16.4204 -12.435 -0.614368
-16.579 -12.1468 -0.792886
-17.304 -11.7474 -2.50073
-16.4013 -12.4114 -0.62211
-16.3378 -12.0677 -2.02906
-17.5483 -11.0884 -0.908412
-16.7208 -10.5948 1.09085
-17.608 -11.0843 -0.555313
-16.8774 -10.4417 1.28292
-16.6222 -10.3774 0.642061
-19.1876 -10.7528 -1.21695
-19.0956 -10.9401 -1.17253
-18.8575 -10.9832 -1.38689
-18.7267 -11.1702 -1.18147
-18.7936 -11.1636 -1.22353
-19.2412 -10.8929 -1.6081
-18.9658 -10.92 -1.50016
-18.5744 -11.1258 -1.33042
-18.9978 -10.7621 -1.87373
-18.7011 -11.0626 -1.72889
-18.6393 -11.0416 -1.6919
-16.5763 -12.5365 0.0912533
-18.5584 -11.1481 -1.67947
-17.0389 -12.0098 -0.356142
-18.7517 -11.0163 -1.85399
-17.0921 -12.2054 -0.44121
-19.012 -10.5905 -2.01049
-18.5479 -11.0656 -1.77146
-16.6516 -12.2932 -0.787557
-16.5443 -12.2428 -0.315548
-16.6708 -12.3675 -0.460926
-18.3965 -10.8747 -1.86687
-16.4656 -12.2904 -0.736425
-16.3579 -12.2817 -0.530351
-18.2658 -11.1824 -2.07943
-16.4998 -12.4119 -0.551413
-18.6007 -10.6089 -2.27237
-18.4893 -10.9126 -2.25418
-18.7094 -10.8014 -2.38462
-18.5617 -10.9795 -2.22155
-18.6326 -10.8752 -2.25997
-18.1591 -11.0311 -2.10264
-18.2789 -11.2062 -2.09993
-18.1113 -11.1084 -2.21974
-18.346 -10.8914 -2.23102
-18.2287 -11.0237 -2.20089
-18.0965 -11.1465 -2.0161
-18.1665 -10.9939 -2.2935
-18.2923 -10.9672 -2.00541
-15.89 -12.4725 -0.549489
-17.0151 -11.8397 -1.3953
-16.0067 -12.7251 -0.997112
-16.0331 -12.6724 -0.902942
-16.853 -11.9335 -1.44967
-17.9412 -11.3063 -2.34104
-18.3203 -10.9017 -2.39289
-16.5491 -12.248 -1.25116
-18.3575 -10.7426 -2.65395
-17.6635 -11.0457 -2.36983
-17.7231 -11.5054 -2.28174
-18.6065 -10.7223 -2.69532
-16.4536 -11.8799 -1.69543
-18.6123 -10.6885 -2.79458
-18.102 -10.789 -2.78102
-17.6858 -11.2476 -2.70461
-18.1173 -10.9146 -2.83728
-18.4149 -10.7524 -2.7575
-17.9144 -10.9538 -2.87049
-17.9576 -11.0454 -2.8843
-18.2779 -10.7323 -2.98062
-17.016 -11.7965 -2.39711
-17.8345 -11.0447 -2.88054
-15.3805 -12.7424 -1.20103
-18.2493 -10.833 -3.01822
-18.0069 -10.763 -3.22024
-18.2607 -10.7286 -3.16912
-17.2711 -11.1267 -2.88357
-17.3048 -11.2823 -3.0172
-17.4742 -11.398 -2.95621
-18.0513 -10.6612 -3.39078
-17.8445 -10.7554 -3.38187
-17.9852 -10.7608 -3.65762
-15.1967 -12.3693 -2.1989
-16.3984 -11.8617 -3.35578
-18.1684 -11.2555 0.551296
-19.4768 -10.8731 -0.904122
-16.9049 -10.4109 0.528467
-19.3924 -10.6236 -1.35079
-18.8791 -11.3375 -0.936274
-19.2131 -10.7042 -1.58158
-19.0612 -10.6034 -1.34096
-17.9034 -10.9424 -1.07327
-18.7807 -10.8864 -1.90498
-18.8047 -10.5647 -2.26585
-18.7964 -10.78 -2.22675
-16.4154 -12.3802 -0.664831
-18.5036 -10.8015 -2.31856
-18.5535 -10.9858 -2.30539
-16.1783 -12.4235 -0.487111
-16.1628 -12.4468 -0.667662
-16.2177 -12.3878 -0.69279
-18.0199 -11.213 -1.94245
-15.9745 -12.5103 -0.645575
-18.0016 -11.331 -2.14306
-18.189 -11.1321 -2.42423
-18.3816 -10.8255 -2.5244
-16.7696 -12.0425 -1.44531
-16.7437 -11.9186 -1.61278
-17.9975 -10.9593 -2.74464
-18.2723 -10.8791 -2.76632
-17.7753 -11.0904 -2.59042
-17.6546 -11.1386 -3.01716
-17.7319 -10.931 -3.30509
-16.644 -11.5824 -3.38744
-16.014 -12.1364 -3.02256
-17.2943 -10.9787 -3.53154
-16.1533 -12.1893 -3.24374
-16.3871 -11.8379 -3.32007
-16.2311 -11.9347 -3.38666
-16.6888 -10.4515 1.50233
-19.4604 -10.6903 -1.12862
-19.3425 -10.7304 -1.05238
-19.281 -10.8157 -1.28124
-19.1836 -10.7928 -1.24857
-19.2151 -10.7837 -1.32719
-17.9578 -10.9284 -0.653973
-18.5385 -11.4425 -1.29073
-18.5381 -11.184 -1.09854
-18.9954 -10.6042 -1.69691
-16.3679 -12.4122 -0.667319
-16.3396 -12.2472 -0.538135
-17.9115 -11.4446 -1.74772
-16.1232 -12.516 -0.550836
-15.9033 -12.4414 -0.404986
-16.2913 -12.2385 -0.858954
-17.8372 -11.1632 -2.15345
-17.3988 -11.4681 -2.47141
-17.9244 -10.8998 -2.86981
-16.274 -12.1777 -1.68399
-15.2779 -12.6542 -1.63474
-15.9413 -11.9849 -2.46349
-14.4032 -12.7609 -1.63111
-14.4956 -12.8513 -1.67559
-16.6386 -11.7263 -3.32491
-16.868 -11.467 -3.47899
-14.2884 -12.5542 -2.2926
-17.8536 -11.2715 -0.109886
-19.1431 -10.6275 -1.39789
-18.7176 -10.9488 -1.70213
-16.5235 -12.3639 -0.133801
-16.6114 -12.2745 -0.273419
-18.2637 -11.2313 -1.72984
-16.0079 -12.4386 -0.329584
-17.966 -10.9633 -2.66537
-17.6596 -11.291 -2.58868
-17.33 -11.7005 -2.38968
-17.3895 -11.5654 -2.44461
-14.9523 -13.1054 -0.956458
-17.75 -10.9364 -3.44891
-15.7563 -11.8131 -2.38397
-16.2308 -11.9809 -2.92044
-16.3834 -12.1061 -3.17032
-18.1027 -10.7892 0.5054
-19.293 -11.013 -0.865754
-16.8048 -10.5346 1.08044
-18.3182 -11.0559 -1.57664
-17.0856 -12.2534 -0.601894
-16.7555 -12.3978 -0.443873
-16.3982 -12.4272 -0.518503
-15.4169 -13.0712 -0.776648
-17.1178 -11.0579 -1.9767
-18.1998 -10.7537 -2.98511
-17.0815 -11.0082 -2.06863
-15.7087 -12.4839 -1.16379
-16.5472 -12.0139 -1.76696
-15.9972 -11.7766 -2.57925
-15.5563 -12.1279 -2.07554
-16.7268 -11.6707 -2.95052
-16.853 -10.225 0.969873
-18.7628 -10.7192 -1.76682
-17.9806 -11.4767 -1.33095
-17.1103 -12.2857 -0.681387
-15.992 -12.9591 -0.0478134
-16.0165 -12.3896 -0.698136
-16.2806 -12.1457 -2.10326
-17.5303 -11.066 -3.16466
-16.7646 -11.1223 -3.50586
-13.9509 -12.6376 -2.2414
-17.8842 -10.9636 -0.365051
-16.5295 -12.2901 -0.582956
-17.406 -11.3526 -1.56908
-17.5994 -11.0365 -3.59384
-18.8655 -11.1909 -1.29648
-17.2214 -12.0131 -0.440478
-17.1307 -11.2673 -2.09595
-16.9747 -11.1855 -1.89292
-17.0966 -11.3091 -2.21237
-17.8335 -11.4612 -2.10067
-17.8142 -11.4013 -2.28501
-17.5057 -11.5845 -2.30404
-14.3972 -13.2445 -1.46771
-17.8874 -11.0271 -0.555573
-17.4306 -11.3311 -0.837174
-15.9492 -12.1107 -3.14041
-16.0721 -11.5727 -2.3701
-16.9002 -11.4911 -3.00696
-17.5802 -11.3699 -3.08302
-18.0387 -10.696 -3.31157
-16.8328 -11.7616 -2.50433
-15.3069 -12.3902 -1.4887
-15.9299 -11.9982 -1.89458
-17.9729 -11.1489 -2.75979
-18.4574 -10.7899 -2.64289
-18.4767 -10.5983 -2.45045
-18.5585 -10.7153 -2.71608
-18.3533 -10.8496 -2.39829
-16.0446 -12.7152 -0.75645
-18.4785 -10.7547 -2.13245
-18.7456 -10.5618 -2.35042
-16.1097 -12.467 -0.640704
-18.3121 -11.0994 -2.03442
-18.6109 -11.1846 -1.60247
-18.6555 -10.8429 -1.69258
-17.4996 -11.1869 -0.626575
-17.8224 -11.1542 -1.04244
-18.9914 -10.8453 -1.69406
-19.0845 -10.7043 -1.66697
-17.5174 -11.1137 -0.574028
-16.6251 -12.3008 0.0459464
-16.8324 -12.1243 0.268802
-18.8853 -10.9217 -1.19869
-19.1227 -11.1403 -1.19446
-19.102 -10.8159 -1.06902
-16.5424 -10.6208 0.768518
-16.67 -11.739 -3.23544
-17.9538 -10.5067 -3.36025
-17.5546 -11.1554 -3.15604
-18.0668 -10.8612 -3.53074
-16.5635 -11.8153 -2.41524
-18.2303 -10.7946 -2.62464
-18.0968 -11.1424 -2.46658
-16.0932 -12.1889 -0.695074
-18.1181 -11.473 -1.42624
-16.6997 -12.1712 -0.244707
-18.5797 -11.2628 -1.61389
-19.1691 -10.6776 -1.97793
-19.2881 -10.8346 -1.26975
-19.2162 -10.9981 -0.986308
-19.4652 -10.4626 -1.16955
-19.6221 -10.6699 -1.1272
-14.2054 -13.3647 -1.2709
-17.1274 -11.3682 -2.62315
-17.2641 -11.3548 -2.67986
-18.2793 -10.7704 -2.80645
-17.8823 -11.2113 -2.35639
-17.9843 -11.2143 -2.06448
-18.6773 -10.9028 -1.99572
-18.7049 -10.9615 -1.48111
-18.6005 -11.273 -1.39977
-18.3868 -11.0406 -1.44876
-17.7424 -11.2417 -0.902379
-18.6991 -11.1668 -1.00638
-19.0239 -10.8892 -1.30798
-18.859 -11.1799 -0.871192
-16.1607 -10.7041 1.16619
-19.5327 -10.8912 -1.05059
-16.0287 -12.3674 -0.7897
-17.0119 -12.2557 -0.495337
-18.4169 -11.2973 -1.19428
-19.0517 -11.2812 -0.447758
-15.2053 -12.8525 -1.00986
-17.5475 -11.1355 -2.51716
-16.7726 -12.09 -1.31859
-16.6067 -12.2579 -0.138478
-18.297 -11.5583 -1.18913
-17.2098 -11.6159 -0.0903554
-16.3636 -12.3507 -0.99078
-17.8078 -10.7874 -0.813914
-17.7903 -11.2804 -2.13802
-17.8831 -11.3028 -2.14774
-14.1631 -13.0203 -2.06316
-15.174 -12.2616 -2.09304
-16.8628 -12.3446 -0.432524
-18.1412 -10.5941 -3.07195
-17.5911 -11.0863 -2.86451
-18.9247 -10.6439 -2.45013
-18.6706 -10.9169 -2.15994
-18.2987 -11.113 -1.84262
-18.8814 -10.9831 -1.83987
-19.0348 -10.8663 -1.64778
-16.2735 -12.4667 -0.472867
-18.5838 -11.1163 -1.3395
-18.7925 -11.0388 -1.25767
-19.0335 -11.0145 -1.04818
-18.9388 -10.9093 -1.2212
-19.1724 -11.0684 -0.86485
-19.0008 -11.347 -0.434857
-18.2546 -10.7211 -2.73083
-18.3064 -10.6667 -2.97469
-17.4204 -11.5674 -2.21567
-17.4961 -11.4066 -2.26447
-16.2082 -12.2414 -1.09619
-15.9321 -12.5325 -0.998632
-17.5863 -11.2133 -1.19956
-15.9179 -12.3785 -0.360144
-19.521 -10.6381 -1.37015
-16.5612 -12.3116 -0.525582
-16.5666 -12.2836 -0.455971
-16.6672 -12.2828 -0.137759
-19.1351 -11.1562 -0.345032
-15.811 -10.7749 2.01348
-17.196 -11.3237 -3.2443
-17.688 -11.4525 -1.87211
-16.1086 -12.398 -0.560949
-19.1381 -10.7936 -1.15042
-16.4748 -12.3389 -0.439892
-16.3278 -12.2011 -0.362106
-18.928 -11.1415 -0.330049
-16.8996 -10.3843 0.871219
-19.3187 -10.7634 -1.31573
-17.1081 -11.7095 -1.32599
-18.696 -11.1391 -1.23381
-17.0861 -12.1949 -0.366348
