-19.5897 -10.6704 -1.21304
-19.6899 -10.4289 -1.31294
-19.2171 -10.9135 -1.00435
-19.2647 -11.0497 -0.723943
-19.7989 -10.5996 -1.04165
-16.4313 -10.5478 0.993476
-18.29 -11.257 0.227128
-16.9686 -10.3638 0.812402
-19.6757 -10.776 -0.561016
-16.2855 -10.712 1.28616
-16.1262 -10.7511 1.05813
-16.9453 -10.5135 1.00011
-15.8685 -11.7806 -2.73885
-16.9258 -11.4451 -3.37204
-16.385 -11.7774 -3.03031
-16.8955 -11.422 -3.13978
-17.5529 -10.8214 -3.51752
-15.5308 -11.9469 -2.47079
-17.1141 -11.2723 -3.5111
-15.5243 -11.7518 -2.47746
-15.6585 -11.7784 -2.41055
-16.8557 -11.5832 -2.95651
-17.0722 -11.2586 -3.07208
-16.9702 -11.6011 -3.16311
-16.3179 -11.8067 -2.61731
-14.9142 -12.6415 -1.58514
-17.2579 -11.1865 -3.28119
-17.6152 -11.1295 -3.11944
-17.0174 -11.4609 -2.94188
-17.9868 -10.6831 -3.35851
-17.1513 -11.3378 -2.71637
-15.076 -13.4056 -1.12994
-17.8922 -11.1 -2.68209
-17.4707 -11.5726 -2.52162
-18.4889 -10.6746 -2.90381
-18.1787 -10.7755 -2.81375
-18.0765 -11.1454 -2.59698
-18.2301 -11.0069 -2.6584
-15.1014 -13.4708 -0.935523
-17.787 -11.414 -2.26244
-17.4367 -11.558 -2.32058
-17.2734 -11.0807 -1.80133
-15.748 -13.0243 -0.85127
-17.8123 -11.302 -2.05903
-16.2262 -12.1474 -1.3363
-18.5103 -10.7459 -2.31158
-17.8881 -11.2452 -2.32992
-18.2972 -10.9963 -2.36164
-16.324 -12.5744 -0.806886
-16.5748 -12.3807 -1.04529
-17.1763 -11.7478 -1.44439
-16.2398 -12.0313 -0.703224
-16.1223 -12.3524 -0.6072
-16.2926 -12.498 -0.723574
-18.3629 -11.2717 -1.6741
-16.5584 -12.2312 -0.593707
-18.2524 -11.2999 -1.72038
-19.075 -10.4408 -2.03162
-15.8994 -13.3065 -0.0876596
-15.9802 -13.1363 -0.0910381
-16.5595 -12.287 -0.382414
-19.0411 -10.5198 -1.72251
-17.0544 -12.0626 -0.426159
-18.3751 -11.2345 -1.1826
-19.0669 -10.7934 -1.4262
-16.1818 -12.5989 0.287947
-17.6471 -11.1644 -0.403609
-19.0859 -11.0564 -1.17761
-18.6912 -11.2549 -1.06857
-19.1497 -10.8501 -1.17336
-19.3576 -10.8217 -1.15646
-18.9593 -11.4612 -0.734063
-19.667 -10.5792 -1.32825
-19.2092 -10.9531 -0.766985
-19.0595 -11.0193 -0.887278
-16.308 -10.9147 0.808991
-19.3926 -11.0113 -0.69315
-19.8013 -10.5991 -1.06099
-18.4076 -10.9463 0.0454911
-18.9435 -11.2051 -0.517531
-16.4844 -10.7767 1.09847
-16.9933 -10.493 0.780655
-19.2039 -10.9644 -0.468424
-19.6831 -10.6949 -0.422042
-16.9976 -10.487 0.780987
-15.1576 -12.2777 -2.46078
-14.7193 -12.6965 -2.07473
-15.4814 -12.0339 -2.54742
-15.5407 -11.7953 -2.46243
-17.251 -10.991 -3.47072
-16.3017 -11.8673 -3.22015
-17.3402 -11.2888 -3.22987
-15.9302 -11.9373 -2.05647
-18.1266 -10.6498 -3.35093
-17.7609 -10.9114 -3.27297
-15.5835 -12.277 -1.74037
-17.8661 -10.6116 -2.99989
-16.0697 -11.8173 -1.69163
-15.4513 -12.7843 -1.15623
-18.3816 -10.7083 -2.66715
-14.9808 -13.3675 -0.952225
-15.7741 -12.8421 -1.03029
-17.8156 -11.4401 -2.41562
-15.6021 -12.7756 -1.16331
-17.9304 -11.2481 -2.34712
-17.4063 -10.9977 -1.91033
-17.7603 -11.3067 -2.33312
-15.6014 -12.9758 -0.838046
-15.3437 -13.3777 -0.522993
-15.6293 -12.9216 -0.515315
-17.8324 -11.5568 -1.69312
-16.5553 -12.2386 -1.12392
-16.7568 -12.228 -1.0919
-18.1187 -10.9765 -2.13166
-16.4089 -12.1574 -0.881507
-16.6337 -12.1177 -1.0491
-18.513 -11.0215 -1.96573
-18.6436 -10.7787 -2.04154
-18.6951 -10.6789 -2.03359
-17.5176 -11.6074 -1.22892
-16.4403 -12.4208 -0.601332
-17.219 -12.1785 -0.977006
-17.6419 -11.327 -1.31391
-17.081 -12.1003 -1.09213
-18.4089 -11.0478 -1.55434
-19.1782 -10.6268 -1.93846
-18.4076 -11.1364 -1.52201
-19.4434 -10.4248 -1.70952
-16.7425 -12.2361 0.182757
-17.6274 -11.5916 -0.368983
-19.4912 -10.5171 -1.55086
-19.8109 -10.4698 -1.40424
-19.7063 -10.4133 -1.15338
-19.1265 -11.0599 -0.910955
-19.6339 -10.77 -0.871316
-19.7422 -10.5389 -1.11902
-19.3468 -10.8747 -0.874807
-19.7274 -10.7467 -1.07971
-19.0685 -11.284 -0.498584
-16.1165 -10.8357 1.22274
-16.9768 -10.2813 0.98281
-14.8494 -12.4921 -2.32694
-16.1399 -12.0194 -3.08656
-16.8456 -11.5488 -3.2487
-16.889 -11.4448 -3.20272
-15.5039 -11.9185 -2.10197
-14.6429 -12.6944 -1.74485
-17.0846 -11.6345 -2.82344
-18.0948 -10.5825 -2.92689
-16.0978 -11.9172 -1.76276
-16.9728 -12.0981 -1.52592
-15.4442 -13.6098 -0.662892
-16.4611 -12.1981 -1.10244
-17.6203 -11.0737 -1.6049
-16.4949 -12.5683 -0.847107
-17.0489 -12.0485 -1.04424
-18.6394 -10.8649 -1.80346
-16.8194 -12.2121 -0.622096
-18.6395 -11.0693 -1.3736
-18.8516 -10.8348 -1.42374
-18.6723 -11.4194 -1.22069
-18.5138 -11.1726 -0.999689
-17.1579 -11.6979 -0.317899
-19.4085 -10.481 -1.73906
-17.9714 -11.4161 -0.187697
-19.7008 -10.3646 -1.12381
-16.7659 -10.5703 1.1327
-15.7418 -11.7893 -2.62533
-16.3725 -11.9321 -3.0129
-17.0722 -11.7241 -2.96601
-18.227 -10.7071 -2.92625
-17.7522 -11.2457 -2.34337
-15.5449 -13.0013 -0.837085
-17.9719 -11.2054 -2.34477
-18.6017 -11.0077 -2.0391
-16.6478 -12.0794 -0.770977
-16.5358 -12.2715 -0.513451
-18.7605 -11.4429 -1.55457
-16.7329 -12.0118 -0.121422
-18.5956 -11.2564 -1.45066
-19.2515 -10.3528 -1.76104
-18.8079 -11.2576 -1.26746
-18.9748 -10.8653 -1.33486
-19.1546 -10.9508 -1.11408
-18.0594 -10.7807 -0.431077
-19.7331 -10.8623 -0.893591
-19.0831 -11.2168 -0.52328
-15.878 -12.1595 -2.30588
-18.2612 -10.911 -2.93305
-16.2375 -12.5332 -1.06963
-18.2815 -11.3006 -2.04435
-17.3581 -11.724 -1.07992
-19.1709 -10.6256 -1.63953
-17.3113 -10.4537 1.15111
-15.3611 -12.3139 -2.1674
-16.1355 -12.4673 -1.14471
-16.441 -12.2332 -1.10963
-16.4383 -12.3627 -0.641362
-16.4033 -12.5403 -0.740748
-17.8398 -11.4508 -1.33226
-18.4051 -11.3017 -1.28473
-16.5047 -11.8716 -1.78423
-15.4119 -12.0891 -2.12785
-18.0694 -11.4081 -2.07193
-18.1095 -10.7525 -0.29995
-19.0146 -11.069 -1.11656
-16.1084 -12.1335 -1.69215
-14.7092 -13.579 -0.993529
-17.8917 -10.7088 -0.690971
-18.2804 -10.8159 -0.109011
-16.6578 -10.5698 1.05764
-16.7414 -12.2178 -0.625207
-16.8359 -10.3649 1.23118
-18.0459 -11.0758 -0.572856
-18.4052 -10.4794 -2.986
-17.8731 -10.6373 -3.3111
-18.3356 -10.7251 -3.09056
-18.1841 -10.5701 -2.83529
-17.71 -11.2103 -3.07115
-18.2411 -10.6663 -2.98721
-17.7408 -11.1633 -2.84894
-17.2887 -11.5337 -3.04782
-19.4681 -10.5395 -1.77591
-16.9157 -11.422 -3.37057
-18.8923 -10.5039 -2.07548
-18.369 -10.9464 -2.21291
-18.7583 -10.7395 -2.02822
-16.7887 -11.461 -3.25103
-19.2932 -10.5186 -1.83514
-16.1181 -11.8964 -3.38775
-18.8473 -10.6869 -2.08778
-18.1757 -10.863 -2.32359
-17.9338 -11.1933 -2.54993
-18.2539 -11.2022 -2.33786
-19.6984 -10.3755 -1.48624
-18.6426 -10.7657 -2.12025
-18.6065 -11.0089 -2.21417
-16.5286 -11.7624 -2.83822
-17.0852 -11.7681 -2.7712
-19.7782 -10.209 -1.18978
-17.6957 -11.3104 -2.23768
-17.6042 -11.3509 -2.321
-17.8196 -11.4263 -2.22845
-19.2906 -10.7808 -1.28838
-19.1845 -10.891 -0.807238
-17.1911 -11.669 -1.29578
-15.6153 -12.7007 -2.03053
-16.259 -12.3335 -1.14374
-16.1577 -12.5176 -1.37006
-16.9476 -12.0434 -0.812458
-15.9419 -12.2146 -0.986988
-17.3652 -11.6841 -0.268654
-17.1097 -11.827 -0.561871
-17.0532 -11.5547 -0.413549
-16.1946 -12.6761 -0.703374
-16.0532 -12.308 -0.750456
-16.5098 -12.3615 -0.64933
-16.2105 -12.4033 -0.467051
-16.5977 -12.2441 -0.239695
-15.6977 -12.9047 -0.546488
-15.4806 -13.3584 -0.433958
-16.4292 -12.5147 0.348965
-16.3324 -12.4191 0.156302
-18.4135 -10.3063 -3.22659
-18.1199 -10.5919 -3.55645
-18.7889 -10.2839 -3.06045
-17.7216 -10.6431 -3.49565
-17.586 -11.023 -3.58641
-18.348 -10.8898 -2.85675
-18.1128 -10.6186 -2.79648
-18.4339 -10.6141 -2.78252
-17.7655 -10.8449 -2.80975
-17.1254 -11.2 -3.31289
-17.0453 -11.3305 -3.37309
-19.1157 -10.5228 -1.83296
-18.3544 -11.02 -2.31218
-19.3701 -10.2836 -1.56039
-17.0437 -11.2509 -3.01347
-19.3357 -10.4913 -1.78152
-19.1932 -10.4688 -1.8748
-19.1808 -10.5846 -1.87979
-18.8761 -10.6704 -1.80741
-17.3694 -11.5639 -2.6331
-19.5262 -10.4564 -1.45725
-18.2411 -11.0399 -2.13141
-18.1233 -11.0372 -1.92427
-19.1035 -10.7588 -1.59973
-17.4848 -11.3781 -2.17302
-18.9753 -10.6615 -1.65481
-18.7928 -10.904 -1.61698
-19.2487 -10.876 -0.989529
-15.682 -11.8557 -2.32873
-18.5996 -11.1002 -1.22601
-18.9119 -11.2684 -1.14533
-17.3226 -11.4508 -1.43635
-16.9768 -11.9574 -1.65764
-18.8287 -11.3339 -0.870064
-16.9374 -11.9275 -1.59855
-17.9823 -10.9947 -0.6893
-16.7207 -12.0653 -1.68776
-15.9157 -12.1875 -1.59627
-17.7414 -11.2018 -0.799915
-16.9929 -11.844 -1.36845
-17.2049 -11.9122 -1.03324
-16.4609 -12.0607 -1.27336
-16.3176 -12.3344 -1.20086
-17.5005 -11.3515 -0.496052
-16.1285 -12.1648 -1.14031
-18.6007 -10.8706 0.29297
-16.7865 -12.3324 -0.649867
-16.2863 -12.6478 -0.714764
-16.2116 -12.3902 -0.590419
-16.2878 -12.3431 -0.615962
-16.7878 -11.9167 -0.0135507
-15.75 -13.0633 -0.650791
-16.8142 -12.2039 0.0306105
-16.6745 -11.9758 0.0971402
-16.795 -12.2907 -0.143046
-15.4933 -13.4133 -0.623361
-15.4582 -13.4261 -0.512891
-15.423 -13.5551 -0.467194
-15.4341 -13.2265 -0.435386
-16.8904 -10.5245 0.790168
-16.1498 -12.4781 0.451811
-16.336 -10.8892 1.34495
-18.5139 -10.2662 -3.30185
-18.6291 -10.5617 -2.8688
-18.3258 -10.5327 -2.92613
-18.537 -10.7639 -2.74727
-17.6903 -11.0253 -3.15014
-17.9444 -10.9189 -3.10621
-17.6213 -11.1088 -3.03447
-17.1426 -11.2273 -3.17068
-17.3604 -11.2647 -3.12832
-16.9142 -11.4738 -3.11414
-18.1857 -10.8755 -2.35747
-18.2941 -10.896 -2.36451
-17.2403 -11.4216 -2.8834
-19.1077 -10.7001 -1.99724
-18.4108 -10.7442 -2.17609
-19.1057 -10.4545 -1.76778
-19.7789 -10.1737 -1.42208
-18.2273 -11.0076 -2.0508
-18.6431 -10.8846 -1.81024
-19.6198 -10.4722 -1.24324
-16.5251 -11.8469 -3.15185
-18.7002 -10.9836 -1.85832
-18.5995 -11.2013 -1.78119
-17.6087 -11.5116 -2.29875
-18.5381 -10.9926 -1.83248
-17.8819 -11.3415 -2.22601
-19.2349 -10.8242 -1.7626
-18.5761 -11.0518 -1.46467
-18.8077 -11.2584 -1.18639
-15.4855 -11.838 -2.19444
-17.893 -11.2156 -0.956856
-17.1402 -11.7369 -1.52958
-17.563 -11.6977 -1.09676
-17.4799 -11.7152 -1.08169
-14.4238 -12.3759 -2.35809
-15.7238 -12.4402 -1.58061
-17.5094 -12.0807 -0.867484
-16.4187 -11.9988 -1.43621
-16.6239 -12.1628 -1.23793
-17.6718 -11.3973 -0.571937
-16.7793 -12.0612 -0.866184
-16.1313 -12.5302 -0.964306
-18.2075 -11.2405 0.0945503
-16.9997 -12.0771 -0.601806
-17.0361 -11.8495 -0.506725
-16.1906 -12.6504 -0.830733
-16.0165 -12.6416 -0.910246
-16.3987 -12.2911 -0.58956
-16.2928 -12.3555 -0.350449
-16.7859 -12.1823 -0.337508
-15.5471 -13.3124 -0.630793
-16.4098 -12.3864 0.293753
-16.0371 -11.128 1.12673
-17.8297 -10.5706 -3.2042
-17.4654 -10.7866 -3.01201
-18.9895 -10.5886 -2.12102
-18.2768 -10.7975 -2.49867
-17.0647 -11.3711 -3.20145
-19.5613 -10.6454 -1.4957
-18.1831 -11.2094 -2.2362
-19.2129 -10.6933 -1.67729
-19.7308 -10.1974 -1.3526
-17.4131 -11.505 -2.27998
-17.9196 -11.2636 -2.34199
-17.7556 -11.4432 -2.10422
-17.6908 -11.3043 -2.17818
-17.1924 -11.8099 -2.45089
-18.3393 -11.4054 -1.67174
-17.4091 -11.0262 -1.92445
-18.5004 -11.2311 -1.30968
-18.5405 -11.185 -1.49216
-18.5887 -11.0853 -1.30575
-19.5921 -10.8035 -1.01864
-15.7688 -11.8501 -2.31109
-19.1642 -11.1197 -0.99782
-15.2523 -12.0219 -2.40558
-15.762 -12.0912 -2.19999
-17.8401 -11.0833 -1.12187
-17.3817 -11.5925 -1.44416
-18.9729 -11.3923 -0.921225
-18.1174 -11.1481 -1.14742
-18.7959 -11.3561 -0.883643
-19.4882 -11.1028 -0.416754
-17.0231 -11.8353 -1.27175
-17.1073 -11.8257 -1.30335
-16.5917 -12.0742 -1.55043
-19.1191 -11.1896 -0.592143
-19.2285 -10.993 -0.526144
-17.9436 -11.1731 -0.666875
-16.4836 -11.951 -1.40691
-16.991 -12.0142 -1.27405
-16.5719 -12.0995 -0.680382
-13.6728 -14.2919 -2.24359
-16.5384 -12.4715 -0.451162
-16.2857 -12.3417 -0.570772
-15.9932 -12.278 -0.780961
-16.1766 -12.3678 -0.64042
-16.8515 -12.2158 -0.381836
-16.724 -12.1616 -0.298535
-16.4458 -12.5073 -0.235455
-15.6471 -12.8149 -0.866756
-15.6966 -12.6786 -0.374434
-15.8089 -12.98 -0.403578
-15.7212 -12.9443 -0.415494
-15.5771 -13.5852 -0.220781
-16.0212 -12.9696 -0.0887735
-17.9228 -10.9392 -3.42362
-17.7421 -10.84 -2.86693
-17.2265 -11.5361 -2.9229
-16.7986 -11.4869 -3.22184
-17.1045 -11.3831 -2.95148
-18.1508 -11.07 -2.23075
-16.2246 -12.0203 -3.1111
-17.8176 -11.1843 -2.29355
-17.6082 -11.3406 -2.38668
-17.7025 -11.4731 -2.26261
-17.9682 -11.5279 -1.90667
-19.2127 -10.8934 -1.27564
-19.4163 -10.9514 -0.764602
-15.8923 -11.9283 -2.32282
-15.4629 -12.1107 -2.27079
-15.5325 -12.0548 -2.3263
-15.4511 -12.1525 -2.1295
-16.9191 -11.9995 -1.62822
-18.1039 -10.7779 -0.428212
-16.8972 -12.1218 -1.41246
-18.2156 -10.9686 -0.573953
-15.4959 -12.549 -1.87635
-16 -12.3571 -1.58872
-18.2928 -10.9628 0.00395738
-18.5203 -10.8384 -0.0268927
-16.5353 -12.2888 -1.11205
-16.5755 -12.1151 -0.848976
-16.3812 -12.1543 -0.851166
-16.8406 -12.1787 -0.685841
-17.0718 -12.1786 -0.770522
-17.0925 -12.1573 -0.631409
-15.663 -12.7836 -0.9967
-16.8673 -12.326 -0.166157
-15.9272 -12.9375 -0.485855
-15.4112 -13.0095 -0.705505
-15.9146 -12.9462 -0.551061
-18.117 -10.7451 -3.25144
-17.0129 -11.4668 -3.02918
-18.9721 -10.704 -2.09903
-18.5551 -10.7785 -2.1102
-19.4552 -10.614 -1.23629
-19.729 -10.6565 -1.12396
-16.0785 -11.7598 -2.57574
-15.9932 -11.9076 -2.67761
-18.4973 -11.1465 -1.76436
-19.2193 -11.1974 -0.753461
-17.0758 -11.8886 -1.52474
-14.8877 -12.3689 -2.3498
-17.8124 -11.1689 -0.711086
-15.3753 -12.4755 -1.43456
-18.8225 -10.5597 0.0478329
-16.508 -12.4051 -0.908162
-14.3638 -13.4741 -1.67495
-15.9244 -12.8461 -0.614384
-15.7598 -13.0647 -0.467528
-16.425 -12.4309 0.171494
-16.8267 -10.3188 1.20995
-17.4069 -10.7657 -3.63676
-16.7453 -11.2375 -3.61932
-16.511 -11.7711 -3.28522
-17.9398 -11.0556 -2.52629
-17.7306 -11.3961 -2.16687
-19.043 -10.826 -1.48209
-17.6346 -11.4023 -2.31249
-18.9469 -10.8614 -1.20731
-18.5936 -11.3333 -1.3373
-16.4416 -12.0861 -1.85352
-16.8513 -12.0295 -1.70446
-16.4025 -12.261 -1.79056
-16.4793 -12.1773 -1.19697
-17.5664 -11.3191 -0.257684
-18.2487 -11.1586 -0.0419774
-15.3712 -12.42 -1.52718
-16.9391 -12.1249 -0.0620369
-18.0977 -10.5605 -3.24913
-16.6917 -11.6077 -3.37231
-18.8128 -11.0532 -1.27313
-17.3254 -11.7011 -1.28419
-18.3645 -11.0894 -0.116833
-18.122 -11.2051 0.498295
-15.8225 -12.8046 -0.58125
-15.4162 -13.601 -0.592834
-16.4074 -12.115 -0.00108986
-16.1979 -11.065 1.54099
-16.5973 -11.6523 -3.66164
-17.4751 -11.4156 -2.47333
-17.1814 -12.0416 -1.28483
-18.3918 -10.9432 -0.233139
-16.0978 -12.3886 -1.15924
-16.2159 -12.4142 -0.935318
-16.5635 -10.7755 1.12132
-15.761 -11.9474 -2.58684
-15.541 -12.4168 -1.86
-17.319 -11.9832 -0.624137
-16.456 -12.548 -0.496026
-16.2101 -12.1824 -1.88634
-18.1471 -10.9286 -0.391286
-16.292 -12.1445 -1.83159
-15.9356 -12.1396 -1.74399
-14.7927 -13.1102 -1.83885
-18.4046 -10.4428 -3.07059
-18.423 -10.4822 -3.0898
-18.5106 -10.4119 -2.93211
-18.3626 -10.647 -3.04579
-18.2252 -10.618 -2.78583
-18.583 -10.9454 -1.70311
-18.2586 -10.8033 -2.38728
-18.0981 -10.7329 -2.93354
-19.4139 -11.2019 -0.315126
-18.9544 -11.0443 -0.927362
-17.6348 -10.7426 -3.44639
-17.7991 -10.7287 -3.5381
-17.697 -10.8161 -3.19739
-18.4989 -11.5041 -1.24168
-17.4444 -11.0962 -3.45769
-17.8414 -11.1632 -2.44741
-17.8098 -11.2305 -2.18985
-17.1158 -11.3202 -3.43313
-17.113 -11.2311 -3.56028
-17.022 -11.2624 -3.46575
-17.6279 -11.47 -2.3285
-17.2983 -11.1973 -3.18333
-17.2426 -11.5172 -2.70752
-17.0793 -11.3893 -3.10314
-17.2807 -11.7158 -2.4208
-16.7211 -11.5675 -3.46934
-16.2516 -11.7474 -3.00787
-16.986 -11.6705 -1.28855
-16.0572 -12.0648 -3.4069
-16.6514 -12.2035 -1.20283
-16.3343 -12.1412 -1.23611
-16.8783 -12.3889 -0.350407
-16.407 -12.1233 -1.32554
-16.2819 -12.5868 -1.15058
-16.2383 -12.7627 -0.946155
-19.5232 -10.1895 -1.35512
-19.597 -10.5409 -1.46543
-19.2912 -10.4465 -1.74747
-18.6728 -10.4167 -3.13831
-19.1087 -10.7137 -1.80896
-18.547 -10.402 -2.95107
-18.5725 -10.2772 -3.14876
-18.5918 -10.493 -3.02832
-18.4558 -10.7461 -2.69624
-19.1842 -10.8498 -1.03099
-19.2209 -10.7482 -1.78631
-18.4693 -10.7537 -2.3277
-18.5473 -10.8395 -2.26196
-17.8205 -10.5439 -3.70845
-19.2126 -11.0958 -0.311267
-18.5693 -11.0115 -2.01971
-18.7171 -11.195 -1.21364
-17.9081 -10.8759 -3.09492
-18.6999 -11.4792 -0.844192
-18.3198 -11.1571 -2.4089
-17.8683 -11.0018 -3.05344
-18.5034 -11.5386 -1.16473
-18.2306 -11.1959 -1.94906
-17.8107 -11.2139 -2.38999
-17.6484 -11.3128 -2.39936
-18.0047 -10.9603 -0.859553
-17.3677 -11.0385 -3.35458
-17.0284 -11.0955 -3.09807
-18.0798 -11.0386 0.041316
-17.8239 -11.0738 -1.32975
-17.974 -11.2808 -1.38356
-17.6648 -11.1566 -0.725555
-17.4281 -11.6275 -2.53801
-17.5526 -11.66 -2.66349
-17.3611 -11.4781 -2.46516
-16.9303 -11.507 -2.94456
-16.9551 -11.5318 -3.06314
-16.5966 -11.3023 -3.69051
-16.4938 -11.7188 -3.47556
-17.3677 -11.6513 -0.98122
-17.0901 -11.6184 -1.33232
-17.1418 -11.9087 -1.40278
-17.0098 -11.9897 -1.19553
-17.3953 -11.6041 -0.224217
-16.8016 -11.7915 -1.67577
-16.885 -10.4132 0.889403
-16.7999 -12.1465 -1.33175
-17.0196 -10.4312 0.877852
-17.0186 -11.9573 -0.107399
-16.9567 -12.4155 -0.758031
-16.5697 -12.1464 -0.774691
-16.4004 -12.1088 -1.45957
-16.8205 -12.2024 -0.131697
-16.7029 -12.0661 0.313203
-15.779 -12.104 -1.80618
-16.2443 -12.3487 -0.560455
-16.0985 -12.4249 -1.06445
-16.2217 -12.5859 -0.789176
-16.1508 -12.4617 -0.721974
-16.2438 -12.307 -0.602135
-14.7037 -12.9422 -1.81382
-19.6458 -10.5227 -1.22674
-19.0928 -10.6177 -1.84697
-19.3927 -10.6648 -1.01297
-19.3104 -10.7678 -1.07525
-19.8787 -10.7189 -0.603587
-19.1967 -10.703 -1.642
-18.948 -10.8573 -1.58086
-19.4787 -10.8519 -0.391704
-18.0301 -10.4358 -3.70208
-18.8253 -10.7821 -1.89173
-18.1792 -10.5194 -3.38393
-18.0189 -10.4789 -3.45418
-18.5619 -10.8878 -2.32663
-18.8565 -10.982 -1.19676
-18.7923 -10.9373 -1.56879
-18.1366 -10.673 -2.94109
-18.8193 -11.1853 -1.27389
-18.4191 -10.9945 -1.94811
-17.847 -10.8191 -2.72416
-17.7629 -10.825 -3.1499
-17.9003 -10.9818 -3.13682
-17.5854 -10.9214 -3.42984
-18.6455 -11.3407 -1.3823
-17.2665 -10.8215 -3.26219
-18.0423 -11.1674 -2.17759
-17.4957 -10.9915 -3.26588
-17.7019 -11.1921 -2.13466
-18.022 -11.2308 -1.10782
-17.4853 -11.3269 -2.37025
-17.5792 -11.2108 -0.590922
-17.6842 -11.2189 -0.465975
-17.4666 -11.7968 -0.977518
-17.1779 -11.8479 -2.2492
-17.3214 -11.5802 -0.315061
-17.2754 -11.6287 -0.43599
-16.3541 -11.9458 -3.2803
-17.0503 -11.9633 -1.05301
-16.8328 -10.4723 0.823558
-17.3393 -11.8057 -0.00769855
-16.6671 -12.3106 -0.758218
-16.4107 -12.1523 -1.15551
-16.822 -12.408 0.156734
-15.7787 -12.3423 -1.63216
-16.2858 -12.4297 -0.486298
-16.1525 -12.5326 -0.716578
-15.5708 -12.393 -1.82619
-15.3691 -12.6988 -1.47593
-15.8035 -12.9722 -0.672352
-15.4961 -12.956 -0.938368
-14.8228 -12.6304 -1.81347
-15.3136 -13.4643 -0.421684
-14.8805 -13.3714 -1.50623
-19.5175 -10.6084 -1.59443
-19.5286 -10.6729 -1.3616
-19.2167 -10.829 -0.960771
-17.9188 -10.4992 -3.24989
-18.7411 -10.8451 -1.62202
-18.2331 -11.1835 -2.45827
-18.1418 -10.872 -2.37729
-17.6069 -10.8813 -3.2417
-18.7988 -11.2439 -1.3723
-17.3174 -10.8825 -3.38026
-17.7171 -10.9647 -3.01299
-17.681 -11.1547 -2.74004
-17.7884 -11.1328 -3.08944
-17.5262 -11.0451 -3.07926
-17.4738 -11.0261 -2.85598
-17.8028 -11.4527 -2.06612
-18.0324 -10.8813 -0.860277
-17.7125 -11.3392 -2.35385
-17.4977 -11.5176 -2.6135
-17.7836 -11.0965 -1.07701
-16.8032 -11.343 -3.65655
-17.2239 -11.1006 -1.65549
-17.0634 -11.5382 -3.05382
-17.0139 -11.7817 -2.1939
-16.9416 -10.5522 0.801996
-16.6067 -12.2319 -0.860082
-15.7098 -12.914 -1.14557
-16.1744 -13.0756 -0.0442384
-15.6819 -12.9375 -0.922677
-14.977 -12.6212 -2.39111
-15.3932 -13.4595 -0.607814
-13.7154 -14.3104 -2.10403
-19.6016 -10.4963 -1.24529
-19.4869 -10.8927 -0.971506
-19.2045 -10.9642 -1.23037
-19.1761 -10.8786 -1.28662
-18.0675 -10.6639 -2.97828
-18.6462 -10.8077 -1.65234
-19.1131 -11.0647 -0.589169
-18.8321 -10.9913 -0.854947
-17.675 -10.5569 -3.49552
-17.7211 -10.6508 -3.66786
-18.6228 -11.403 -1.45484
-18.0753 -11.2946 -2.20383
-18.0085 -10.9237 -0.28071
-18.3127 -10.8939 0.0973828
-17.8526 -11.3412 -2.41721
-17.8591 -11.3936 -2.13796
-17.7677 -11.1974 -2.21739
-17.4166 -11.41 -2.34272
-18.4475 -11.2026 0.606307
-17.4631 -11.377 -2.54002
-16.8559 -11.1981 -3.34637
-16.9227 -11.4251 -3.06315
-16.9636 -11.4105 -3.20424
-17.4977 -11.5714 -0.313589
-17.112 -11.7835 -1.41625
-17.3364 -11.6507 -0.267884
-16.8802 -11.8262 -1.6823
-16.3383 -11.8228 -3.1981
-16.5668 -11.9707 -1.23233
-16.6885 -10.3743 1.37476
-16.9578 -10.5514 1.47099
-16.1633 -12.3316 -1.29013
-16.6902 -12.3972 0.0176468
-15.8715 -12.003 -2.20034
-15.6302 -11.9266 -2.28892
-16.207 -12.163 -0.582469
-16.3976 -12.3205 -0.412524
-16.1126 -12.3305 -0.738071
-16.1982 -12.701 0.481469
-16.0679 -13.096 -0.277693
-16.0726 -13.0722 -0.00243986
-15.7193 -12.9934 -0.34721
-15.4296 -13.5751 -0.735736
-19.4956 -10.54 -1.33886
-19.3473 -11.0136 -1.42094
-18.452 -10.8287 -2.24288
-19.0258 -11.0486 -0.673033
-18.2403 -10.9941 -1.89047
-18.6089 -11.08 -1.35807
-17.3894 -11.3967 -3.0201
-18.5078 -11.0659 0.514313
-17.7554 -11.1069 -0.676159
-16.7645 -11.3488 -3.62891
-17.3801 -11.777 -1.2614
-17.2611 -11.8998 -0.393151
-16.8635 -10.471 0.600082
-16.804 -11.9976 -0.148445
-16.7904 -12.1724 -0.808504
-17.0291 -12.0677 -0.213155
-16.7117 -12.3395 -0.759151
-16.2303 -12.2712 -1.39311
-16.5868 -12.3965 -0.582712
-16.7448 -12.3701 -0.51804
-16.8334 -12.3022 0.302891
-15.5759 -12.6384 -0.673112
-15.6885 -12.9371 -0.588187
-14.8807 -12.5501 -2.3455
-18.666 -10.8615 -2.08325
-18.1544 -10.7472 -3.15917
-18.7183 -11.0942 -1.57382
-17.8312 -11.3381 -2.24299
-16.9528 -11.4195 -3.47134
-17.5814 -11.8586 -1.18796
-16.0777 -11.5341 -2.68567
-16.6958 -12.0947 -1.04401
-15.5915 -11.9412 -2.26913
-16.259 -10.7849 1.07624
-15.2866 -12.7738 -1.72329
-18.0326 -11.0954 -0.91267
-17.8874 -10.8627 -0.878713
-17.802 -10.8636 -0.829122
-16.4063 -11.4194 -3.44367
-16.363 -11.7535 -2.24243
-16.1644 -12.195 -1.72823
-18.2487 -10.6853 -2.85328
-17.2607 -11.549 -2.31229
-15.4319 -12.9329 -1.79669
-19.028 -11.205 -1.1068
-17.9711 -10.8518 -1.05014
-15.7269 -11.7033 -2.60485
-15.864 -11.8914 -2.69977
-16.0438 -12.3722 -0.957402
-18.0563 -11.0006 -0.561961
-16.6433 -11.9019 -1.95402
-16.9548 -12.1237 -0.733164
-15.5926 -11.8517 -2.31565
-15.7807 -11.9982 -2.76577
-15.3407 -12.7111 -1.26884
-14.4434 -13.6533 -1.2396
-15.4682 -12.207 -1.94367
-16.7641 -10.6235 1.09905
-19.6242 -10.1851 -1.28921
-19.5688 -10.4923 -1.43442
-19.3173 -10.7572 -1.02585
-19.3724 -10.3962 -1.87545
-19.0898 -10.7926 -1.14077
-19.2229 -10.7725 -1.61854
-18.6717 -11.0595 -1.06485
-18.8692 -11.0133 -1.10034
-19.1645 -10.3838 -1.82169
-19.0387 -10.8237 -1.6483
-19.2685 -10.4247 -2.20528
-18.6134 -10.8681 -1.70405
-18.9826 -10.8606 -1.89507
-19.0208 -10.7834 -1.95472
-18.6522 -10.7322 -1.86029
-18.6972 -10.5076 -2.13862
-18.901 -10.8063 -2.33014
-18.5651 -10.7857 -1.99025
-17.8702 -11.0506 -0.603287
-18.7505 -11.0303 -1.71838
-18.7181 -10.8691 -1.95638
-18.8362 -10.4821 -2.64448
-18.5473 -11.1876 -1.84591
-18.5344 -10.7959 -2.40404
-18.1549 -11.2812 -1.34932
-18.6867 -10.7179 -2.37516
-18.2546 -11.0586 -2.07621
-18.4971 -10.8495 -2.29827
-17.2703 -11.623 -0.280281
-18.2404 -10.9579 -2.32711
-18.1334 -11.0394 -2.32936
-18.4776 -10.7605 -2.64813
-18.3846 -10.6344 -2.88835
-18.3175 -10.7535 -2.65267
-18.5798 -10.5591 -3.05311
-18.3858 -10.5885 -2.92289
-18.0968 -10.9468 -2.47968
-17.1722 -12.1394 -0.440884
-17.963 -11.062 -2.32209
-18.3275 -10.3349 -2.95332
-18.1093 -10.7092 -2.85195
-18.4031 -10.7173 -3.0012
-18.0841 -10.9909 -2.51942
-18.2136 -10.7159 -2.7183
-18.0503 -10.9287 -2.57289
-17.9034 -11.4067 -2.1406
-17.9672 -11.1995 -2.21686
-18.2379 -10.4456 -3.02672
-17.8655 -10.8109 -2.43623
-16.9818 -12.0123 -0.54638
-18.0785 -11.0939 -2.53205
-18.0312 -10.8594 -2.70996
-16.7498 -12.3247 -0.41993
-17.0196 -11.9674 -1.2315
-17.5889 -11.4871 -2.35145
-17.7837 -11.3495 -2.43553
-17.6498 -11.4201 -2.45218
-18.216 -10.3682 -3.4574
-17.5394 -11.4432 -2.19592
-17.6425 -11.62 -2.28119
-18.0894 -10.6126 -3.50308
-17.5512 -11.4048 -2.3104
-18.1505 -10.6762 -3.18742
-17.4151 -11.3617 -2.4926
-17.6693 -10.7565 -3.18692
-17.6414 -11.0332 -2.97906
-16.0663 -13.1739 -0.202977
-15.9065 -13.1524 -0.110628
-17.1214 -11.6624 -2.24682
-17.1168 -11.6986 -2.38121
-17.478 -11.3356 -2.90569
-17.2945 -11.6693 -2.38422
-16.1991 -12.24 -0.51422
-17.5791 -11.2105 -3.22196
-16.3769 -11.9973 -1.25079
-17.0118 -11.743 -2.72244
-16.9309 -11.702 -2.80641
-17.4282 -11.0173 -3.39407
-17.3373 -10.7455 -3.52163
-17.6403 -10.8789 -3.67931
-16.2077 -12.2826 -1.18913
-17.1783 -11.6162 -2.90187
-16.9338 -11.597 -2.85884
-15.4122 -13.4779 -0.483382
-16.7814 -11.6952 -2.9626
-16.3401 -11.933 -2.04368
-16.7212 -11.552 -3.14624
-16.8584 -11.565 -3.10659
-16.5208 -11.8131 -2.99062
-16.1635 -11.953 -2.34882
-16.6019 -11.7783 -3.18531
-16.4301 -11.8795 -3.34297
-16.0594 -11.7877 -3.20664
-15.5904 -11.9115 -2.57875
-16.0159 -12.0087 -3.22754
-16.0749 -11.957 -3.45471
-15.9728 -12.2058 -3.4226
-14.944 -12.811 -1.69168
-19.2662 -11.1412 -0.329329
-19.2749 -11.0944 -0.283294
-19.4409 -10.3013 -1.3074
-19.5231 -10.5518 -1.39368
-19.4028 -10.525 -1.35893
-19.4861 -10.4079 -1.79688
-19.0464 -10.9305 -1.15828
-19.1783 -10.9934 -1.27549
-19.1626 -10.7411 -1.44472
-19.0851 -10.5886 -1.86791
-18.9749 -10.9123 -1.33591
-18.8346 -10.8327 -1.6196
-18.8384 -10.9192 -1.67512
-18.8456 -10.9571 -1.69913
-18.8862 -10.7218 -1.97762
-19.0044 -10.8054 -1.8733
-18.8213 -10.9222 -1.75216
-18.3674 -11.3923 -1.42469
-18.4585 -11.3403 -1.35393
-18.7975 -10.2454 -2.4803
-18.6351 -10.7337 -2.03071
-18.1559 -11.2409 -1.44211
-18.4208 -11.0299 -2.07202
-18.1957 -11.1378 -1.81116
-18.4243 -11.0348 -1.81454
-18.3503 -11.2601 -1.74257
-18.5287 -10.94 -1.94909
-18.1785 -11.1024 -2.15272
-18.5648 -10.4832 -2.43126
-18.4076 -10.3159 -3.04637
-18.2554 -10.9169 -2.20133
-18.3185 -10.8626 -2.20666
-17.7234 -11.6587 -1.19207
-18.3979 -10.7822 -2.52278
-18.441 -10.2999 -3.20663
-17.9579 -11.1658 -2.13082
-18.4088 -10.6544 -3.03131
-18.1113 -10.7324 -2.76861
-18.0466 -10.9635 -2.58678
-17.3365 -11.1475 -1.4094
-18.2134 -10.9403 -2.80133
-18.2697 -10.6583 -2.77285
-18.3337 -10.8974 -2.88628
-17.8204 -11.07 -2.59338
-17.8801 -11.1015 -2.65935
-17.6091 -11.3285 -2.53206
-16.8446 -12.2018 -0.784982
-17.8092 -10.8415 -3.01592
-17.2075 -11.8446 -1.30768
-18.1679 -10.5233 -3.67142
-17.756 -11.3882 -2.67301
-17.0339 -11.8868 -1.54761
-16.905 -11.9608 -1.12151
-17.7773 -11.2453 -2.97736
-17.5328 -11.0599 -2.68452
-16.5209 -12.1104 -1.6273
-16.7274 -11.8844 -1.61529
-17.2441 -11.5133 -2.83881
-16.5652 -12.2022 -1.11242
-17.2489 -11.4585 -2.83738
-17.1834 -11.4243 -2.75994
-16.1791 -12.2647 -0.630578
-17.7063 -11.0307 -3.30599
-17.4635 -11.0318 -3.37042
-17.5103 -11.0137 -3.44284
-17.688 -10.9577 -3.41425
-17.1731 -11.5269 -3.03456
-16.995 -11.4168 -3.00342
-15.8448 -12.9605 -0.786265
-17.0364 -11.0983 -2.98645
-15.5627 -13.4962 -0.307137
-15.5128 -13.5364 -0.340536
-15.3315 -13.4838 -0.448219
-15.8163 -12.8451 -0.903169
-16.9394 -11.362 -2.94822
-16.2057 -11.9582 -1.84867
-16.8987 -11.467 -3.33034
-16.7662 -11.4018 -3.2513
-16.9953 -11.4674 -3.34503
-16.5976 -11.5453 -3.25946
-16.8395 -11.6216 -3.40516
-16.4276 -11.9592 -3.11083
-16.4555 -11.5882 -3.0696
-16.3109 -11.8527 -3.33121
-16.1941 -11.91 -3.00072
-14.8753 -13.527 -1.25841
-15.7875 -11.7883 -2.46065
-15.9791 -11.9537 -3.55491
-15.9517 -11.9009 -3.307
-19.8002 -10.799 -0.416772
-19.7616 -10.5341 -0.931358
-19.6988 -10.5354 -1.13577
-19.3933 -10.8388 -1.11874
-19.4296 -10.5399 -1.46357
-19.4543 -10.5336 -1.54659
-18.7226 -11.4699 -0.474565
-19.1559 -11.1136 -0.730345
-18.9624 -10.8673 -1.43863
-19.1798 -10.7085 -1.54383
-18.9219 -10.7213 -1.54472
-18.876 -10.9387 -1.50018
-19.0615 -10.622 -2.19461
-16.9539 -10.625 0.739974
-16.7894 -10.6765 0.875128
-17.4454 -11.2319 -0.547855
-18.7076 -10.9436 -2.07218
-18.8295 -10.5966 -2.31818
-16.4661 -10.6852 1.2032
-18.5278 -10.8735 -2.30837
-18.2411 -10.9322 -1.83361
-18.3895 -10.8454 -2.45455
-17.2719 -11.4551 -0.257942
-18.2343 -10.9515 -2.20884
-17.471 -11.3315 -1.34072
-17.6355 -11.3958 -1.40639
-17.9914 -11.3697 -2.2382
-17.207 -11.9059 -0.900315
-16.967 -12.0287 0.0475489
-18.4292 -10.6091 -2.99486
-16.5206 -12.4227 0.0967933
-17.8688 -11.3165 -2.15551
-16.7868 -12.2143 -0.518887
-17.9021 -11.088 -2.90752
-16.6588 -12.654 -0.27338
-17.4485 -11.4648 -2.32042
-17.0585 -11.8757 -1.62034
-17.384 -11.4685 -2.44728
-17.354 -11.6885 -2.52175
-17.295 -11.3204 -2.59079
-17.577 -11.0875 -3.0246
-16.4915 -12.2386 -1.17695
-17.298 -11.9289 -2.31878
-16.1326 -12.4167 -0.625749
-16.1738 -12.3476 -0.672209
-17.7347 -10.4453 -3.71897
-16.3687 -12.2342 -1.29648
-17.4013 -11.1549 -3.1122
-17.4426 -10.9707 -3.45041
-17.5192 -10.8492 -3.54232
-17.5451 -10.8601 -3.69354
-15.8169 -12.8086 -0.808885
-17.1235 -11.3389 -3.40676
-15.6991 -13.0328 -0.802841
-15.5878 -12.8391 -0.848645
-16.8259 -11.4126 -3.27576
-15.5461 -13.3802 -0.52486
-15.463 -13.5551 -0.497771
-16.7715 -11.3909 -2.96835
-16.6942 -11.4777 -3.07854
-16.9899 -11.5791 -3.22774
-16.3972 -11.6592 -3.25789
-16.3081 -11.6252 -3.39579
-15.9808 -11.9624 -3.28159
-15.7722 -11.9253 -2.72261
-15.7836 -11.7823 -2.71193
-15.8338 -11.9083 -2.20465
-15.9033 -11.9228 -2.71497
-19.5852 -10.7493 -0.836753
-19.245 -11.0821 -0.537331
-19.2538 -10.8414 -1.211
-19.6415 -10.5623 -1.32535
-19.2685 -10.914 -1.07944
-19.3363 -11.0949 -1.25616
-17.4432 -10.6856 0.761772
-18.2119 -10.8961 -0.0564875
-18.2175 -11.0835 0.0852406
-18.9333 -11.4542 -0.89936
-19.073 -10.6432 -1.85896
-18.7479 -11.4245 -1.07653
-19.0003 -10.7701 -1.8378
-18.5774 -11.3313 -1.16376
-18.8458 -10.6254 -2.29188
-18.9383 -10.4909 -2.18148
-18.3546 -11.1576 -1.56957
-18.575 -10.9412 -1.50068
-18.4794 -11.1313 -1.39226
-18.4388 -11.2874 -1.64826
-18.6863 -10.5831 -2.36411
-17.8259 -11.4984 -1.15876
-16.8676 -12.0667 -0.0114336
-18.1693 -10.9709 -2.27451
-18.072 -10.914 -2.5818
-18.3608 -10.664 -2.52549
-18.2964 -11.0025 -2.41553
-17.1878 -12.0123 -1.01705
-17.7347 -11.4063 -2.25372
-17.6459 -11.517 -2.10207
-17.7868 -11.5393 -2.30883
-17.5679 -11.157 -2.32558
-16.976 -11.8819 -1.46981
-17.6554 -11.498 -2.37687
-17.6761 -11.4288 -2.30605
-16.8083 -12.1385 -0.703527
-17.2464 -11.1713 -1.77974
-17.3688 -11.1051 -1.76844
-17.2039 -11.0865 -1.77674
-16.5946 -12.1309 -0.75374
-17.5862 -11.4272 -2.49705
-16.6913 -12.0352 -0.911491
-16.7581 -11.9181 -1.07646
-17.3025 -11.5752 -2.54846
-17.4351 -11.2713 -2.64852
-17.4056 -11.4478 -2.8229
-16.9357 -11.6417 -2.30721
-17.506 -11.1882 -3.10826
-17.1051 -11.7409 -2.36993
-16.1662 -12.1968 -1.06355
-16.3383 -12.3305 -1.23363
-17.517 -11.0223 -3.26407
-17.2752 -11.2077 -3.21168
-15.6447 -12.937 -0.441899
-16.9006 -11.2157 -3.26444
-17.0581 -11.3564 -3.26989
-16.3545 -11.6732 -2.25854
-16.9498 -11.3231 -3.20744
-16.8328 -11.5121 -3.26168
-16.595 -11.5133 -3.35684
-16.762 -11.657 -3.12667
-16.0988 -11.6952 -2.39722
-15.7828 -11.7623 -2.08817
-19.5587 -10.4401 -1.3289
-19.1471 -11.0593 -1.09717
-17.0121 -10.4414 0.855312
-16.7481 -10.4657 0.513008
-17.9183 -11.1774 -0.479315
-18.5073 -10.8035 -2.09201
-18.4543 -11.1326 -2.17763
-18.7342 -10.6301 -2.53682
-18.4549 -10.5997 -2.64596
-18.4347 -10.7022 -2.86936
-17.5602 -11.4279 -2.24686
-17.8001 -11.3059 -2.52042
-17.8275 -11.4433 -2.18865
-16.5812 -12.3289 -0.4867
-16.3419 -12.5251 -0.539869
-17.8429 -10.858 -3.04147
-16.5949 -12.3374 -1.03736
-16.5059 -12.2696 -0.404088
-17.5186 -11.185 -2.67485
-16.2212 -12.2961 -0.699932
-16.0519 -12.411 -0.617539
-16.4479 -12.0724 -1.3203
-17.2946 -11.6365 -2.84413
-16.6544 -11.9142 -1.77733
-16.2834 -11.9231 -1.81226
-15.376 -13.5074 -0.712613
-15.4962 -12.8034 -1.18858
-15.6903 -11.9906 -2.03823
-15.4914 -12.3806 -2.00092
-15.7347 -11.656 -2.79002
-15.401 -11.8222 -2.4798
-14.886 -12.424 -2.29495
-14.7074 -12.684 -2.15745
-14.054 -12.9925 -2.16403
-19.316 -10.2971 -1.59655
-18.9779 -10.8834 -1.04257
-19.0563 -10.7868 -1.53416
-18.7949 -11.3012 -0.857908
-17.8898 -11.3623 0.22163
-17.6849 -11.3024 -0.172758
-18.7701 -11.2544 -1.11493
-17.6642 -11.2701 -0.634145
-18.4929 -10.6683 -2.53645
-16.252 -10.293 0.686121
-18.2778 -11.1999 -1.9581
-17.6602 -11.209 -2.20105
-18.0183 -10.847 -2.4736
-16.4385 -12.7434 0.315051
-17.6957 -10.9167 -3.38019
-15.9511 -12.9309 -0.655335
-15.6431 -13.0829 -0.948392
-15.4152 -12.9163 -0.916391
-16.8325 -11.4792 -3.39054
-16.3795 -11.7774 -3.04943
-16.3164 -11.849 -3.03258
-15.7964 -11.8064 -2.76167
-15.0655 -12.5264 -2.48706
-13.7476 -14.0173 -2.12849
-18.72 -10.7548 -0.149078
-18.1021 -11.004 0.380289
-18.1092 -10.9264 -0.45995
-15.8367 -10.797 2.13218
-18.0175 -11.1495 -1.06809
-18.487 -10.6974 -2.63054
-17.6009 -11.1983 -2.63441
-17.7128 -10.8723 -2.75676
-16.1931 -12.3184 -0.672794
-16.7817 -11.4375 -3.23277
-15.537 -11.8593 -2.28564
-15.4069 -11.9987 -2.40039
-17.8816 -11.0469 -1.11983
-18.4186 -10.3237 -2.58657
-17.1497 -11.9164 -0.480597
-16.1233 -12.2138 -1.39357
-16.9101 -11.3715 -3.0806
-17.009 -11.2322 -3.49121
-16.8447 -10.2795 1.29761
-18.2982 -11.1954 -1.33915
-17.9614 -11.0449 -0.776138
-18.0696 -11.0287 -2.32657
-18.3889 -10.3916 -3.35132
-16.7946 -12.1662 -0.815419
-16.7163 -12.0396 -1.15311
-16.5286 -12.2183 -1.19803
-15.9383 -12.6116 -1.13555
-16.137 -11.6977 -2.47161
-16.3991 -11.6202 -2.77536
-15.192 -12.7916 -1.50895
-14.6505 -13.4285 -1.45027
-18.3391 -10.8645 -0.319323
-16.017 -11.9848 -2.61778
-16.4627 -12.0892 -1.98557
-16.2963 -12.126 -1.69436
-16.7434 -10.6091 1.22901
-16.6251 -11.8167 -2.90747
-18.061 -11.3228 -0.260999
-17.0234 -11.3345 -3.39845
-17.6349 -10.6375 -3.60619
-17.0667 -11.2589 -3.33115
-14.7441 -12.8248 -1.91912
-17.5809 -10.7384 -3.42874
-17.081 -11.4992 -2.71188
-17.6507 -11.0701 -3.03189
-18.2803 -10.5033 -3.39558
-17.7884 -11.0483 -3.05121
-18.3559 -10.4624 -3.10042
-17.6178 -11.1398 -2.91401
-18.3722 -10.4245 -3.06063
-18.4807 -10.4328 -3.26441
-17.8622 -10.8848 -2.80174
-17.5439 -11.1853 -2.46706
-17.4819 -11.2285 -2.54684
-17.32 -11.7686 -2.31539
-18.2009 -10.5304 -2.79161
-18.046 -10.8236 -2.92549
-18.6144 -10.2834 -2.99279
-18.5481 -10.682 -3.09949
-18.2615 -10.8797 -2.75851
-17.6769 -11.2693 -2.52684
-18.2249 -10.7458 -2.7751
-17.7748 -10.8874 -2.59562
-18.0889 -11.0177 -2.66984
-17.8799 -10.979 -2.60137
-17.9794 -10.9593 -2.577
-17.5137 -11.3611 -2.48965
-17.5848 -11.2931 -2.3357
-17.6155 -11.324 -2.25849
-18.1837 -10.8931 -2.53214
-17.9606 -11.0991 -2.41106
-16.2918 -12.2954 -1.23929
-16.4657 -12.3619 -1.1801
-18.4617 -10.6608 -2.2782
-18.155 -11.055 -2.18785
-18.4161 -10.975 -2.16673
-16.9896 -11.8771 -1.31681
-18.6509 -10.8059 -2.17765
-18.3556 -11.1185 -1.94048
-19.2446 -10.5432 -2.23551
-19.0683 -10.2951 -2.25023
-18.2997 -11.1622 -1.81062
-18.9943 -10.8953 -1.9367
-19.1655 -10.5193 -1.88629
-18.9134 -10.7566 -1.68559
-18.7994 -10.7796 -1.46657
-18.7372 -11.311 -1.38028
-19.2545 -10.7697 -1.6365
-16.2951 -12.5206 0.24307
-19.2928 -10.6975 -1.46245
-19.0489 -10.9104 -1.12178
-18.6737 -11.2343 -1.12717
-19.2042 -10.7243 -1.413
-19.5771 -10.6357 -1.45272
-18.6923 -11.203 -0.84528
-19.4416 -10.8327 -1.1232
-16.4702 -11.971 -3.19579
-15.5926 -11.9784 -2.34938
-17.9421 -10.826 -3.29176
-17.464 -11.2895 -3.0549
-18.6303 -10.2865 -3.14573
-17.4682 -11.5757 -2.40736
-17.2296 -12.0061 -2.27049
-18.2997 -10.6608 -2.64517
-18.3964 -10.6007 -2.63127
-18.0324 -11.1247 -2.45998
-17.921 -11.0629 -2.3412
-17.9151 -11.1267 -2.2645
-17.9989 -11.2767 -2.06453
-18.4688 -10.7819 -2.2933
-18.3579 -10.8973 -2.42956
-18.694 -10.6237 -2.33901
-16.221 -12.5474 -0.78859
-18.4582 -10.7333 -2.09466
-18.7866 -10.8049 -2.17562
-16.1771 -12.4174 -0.614976
-16.3748 -12.4688 -0.689781
-18.279 -11.0655 -1.90495
-18.8721 -10.7455 -2.07352
-19.0031 -10.4563 -2.14631
-18.8263 -10.7028 -2.11548
-15.9927 -13.0001 -0.184009
-18.61 -11.1703 -1.67624
-18.8078 -10.8192 -1.624
-19.1115 -10.8768 -1.74001
-16.8047 -12.0926 -0.0639115
-19.1161 -11.1254 -1.25087
-18.7515 -11.2617 -1.31965
-19.4238 -10.731 -1.41022
-19.0779 -11.2537 -1.19371
-19.605 -10.577 -1.13412
-19.2981 -10.887 -1.19527
-19.3424 -11.0298 -0.877524
-19.6874 -10.801 -0.787441
-16.2686 -11.8214 -3.68651
-17.2117 -11.506 -2.75058
-17.0744 -11.6966 -2.66922
-14.8925 -13.5243 -1.32873
-17.9072 -11.1057 -2.49821
-17.6473 -11.3701 -2.43452
-17.6771 -11.5976 -2.38229
-16.7051 -11.8674 -1.65723
-16.1902 -12.5661 -1.09029
-18.9331 -10.4944 -2.59112
-18.4972 -10.79 -2.36264
-18.9026 -10.4567 -2.11534
-18.8196 -10.9035 -1.53221
-18.8717 -10.9139 -1.57162
-16.831 -12.1562 0.0325199
-17.7193 -11.3494 -0.43511
-19.5312 -10.5983 -1.51287
-15.9806 -11.3434 1.35867
-19.4088 -10.9265 -1.03092
-19.754 -10.6819 -0.911247
-19.3316 -10.9829 -0.696523
-19.6136 -10.5316 -0.816846
-17.407 -10.7904 -3.66404
-15.6784 -11.8056 -2.63779
-16.9481 -11.5419 -3.13501
-18.3374 -10.4687 -3.20112
-16.4637 -11.7819 -1.48086
-17.8268 -11.231 -2.25497
-18.1966 -10.9326 -2.22521
-18.0592 -11.2836 -2.21253
-18.0441 -11.2631 -2.18251
-18.3468 -11.0941 -1.91305
-18.1243 -11.2658 -1.97156
-16.7374 -12.2593 -0.727656
-19.2143 -10.6602 -1.80909
-17.0375 -12.0508 -0.336904
-16.6606 -12.173 -0.433111
-18.7704 -11.0712 -1.26762
-18.9162 -10.954 -1.32046
-19.49 -10.5157 -1.23557
-19.4856 -10.8172 -1.15232
-19.1007 -11.1817 -0.78888
-18.3458 -11.1067 -0.100653
-19.1486 -11.3293 -0.262541
-19.5412 -10.9528 -0.204446
-15.5985 -11.8268 -2.67137
-16.9959 -11.521 -3.378
-15.5 -11.9886 -2.33907
-14.6631 -12.8653 -1.84853
-17.5224 -11.0672 -3.19157
-16.924 -11.7035 -2.81211
-17.9788 -10.5818 -3.24554
-17.3482 -11.5364 -2.57154
-17.4607 -11.3449 -2.43797
-18.5835 -10.5674 -2.975
-18.4719 -10.5509 -2.78415
-17.6459 -11.2441 -2.28902
-15.7132 -13.0262 -0.940745
-16.4335 -12.3478 -0.656101
-16.1514 -12.2573 -0.689562
-16.801 -12.3597 -0.594893
-18.184 -11.1854 -1.64384
-18.6548 -11.1969 -1.74417
-18.6451 -11.1604 -1.51152
-18.632 -11.2723 -1.24171
-16.256 -10.779 1.15686
-19.067 -11.3403 -0.369809
-16.8843 -11.1635 -3.30169
-15.606 -11.9434 -2.37945
-17.7786 -11.1033 -2.62896
-17.9908 -11.4122 -2.25571
-16.6332 -11.9202 -1.75069
-17.8738 -11.2017 -2.40806
-16.9859 -11.9492 -1.5822
-16.5648 -12.3465 -0.680254
-19.0728 -10.6267 -1.82931
-18.5488 -11.2731 -1.27567
-16.7006 -12.4346 0.00863387
-17.2767 -11.7848 -0.390996
-17.2386 -11.4554 -3.06756
-17.0661 -11.417 -3.00574
-16.4362 -12.0672 -1.21954
-17.3507 -11.7142 -1.37351
-18.3115 -11.096 0.530918
-17.3831 -10.4484 1.33863
-15.6958 -11.9765 -2.8963
-16.6933 -11.6634 -3.35615
-17.8895 -11.3558 -2.19782
-16.8338 -12.091 -0.553367
-18.9902 -10.9316 -1.05294
-17.6196 -11.1496 -1.664
-17.1763 -12.1152 -0.52382
-16.7327 -12.2346 0.0693033
-17.9853 -11.3095 -2.26611
-17.1051 -12.1179 -0.663899
-16.6196 -10.5886 1.2712
-16.5614 -10.4565 0.661882
-17.6991 -11.0674 -3.33804
-17.2961 -11.2932 -3.10808
-16.866 -11.1294 -3.21564
-18.1699 -10.9192 -2.73427
-17.4714 -11.4234 -2.78186
-18.0098 -11.0036 -2.44822
-18.4192 -11.0838 -2.25871
-18.3253 -10.9667 -2.32688
-18.2835 -10.9465 -2.29316
-17.6571 -11.3162 -2.2571
-17.6603 -11.3629 -2.28973
-19.4074 -10.7784 -1.96077
-18.0356 -11.2883 -2.07961
-15.6456 -11.7939 -2.36803
-15.3809 -11.8423 -2.17888
-18.9181 -10.8209 -1.53003
-15.2727 -12.7257 -1.96096
-16.9413 -11.9714 -1.64518
-16.8754 -11.9017 -1.59418
-19.1687 -10.7773 -1.03177
-18.5991 -11.2081 -1.15967
-19.3072 -10.8119 -1.01685
-16.8967 -11.7831 -1.46711
-19.6587 -10.7008 -1.13574
-16.9845 -11.7915 -1.38989
-16.9792 -11.7834 -1.20267
-17.5242 -11.6124 -1.11519
-16.4777 -12.1864 -1.21434
-18.8181 -11.3047 -0.834356
-17.6705 -11.2033 -0.711155
-17.2465 -12.035 -0.877068
-17.8855 -11.1718 -0.591612
-17.6313 -11.0903 -0.518598
-19.5187 -10.9709 -0.344333
-17.4536 -11.3304 -0.473799
-17.0167 -12.1049 -0.765798
-16.1103 -12.3424 -0.602745
-16.3127 -12.3884 -0.781821
-16.4519 -12.5645 -0.578759
-15.6496 -12.9386 -0.737072
-15.5422 -13.5368 -0.527281
-16.9488 -11.7985 -0.017493
-16.4324 -10.8386 1.31958
-18.2338 -10.6318 -3.37522
-16.9805 -11.3766 -3.44254
-16.991 -11.3741 -3.40646
-16.806 -11.4906 -3.32136
-16.5349 -11.7705 -3.04254
-18.5037 -10.6899 -2.30674
-19.2396 -10.5798 -2.20231
-18.0211 -11.1267 -2.25141
-18.1201 -10.8863 -2.38698
-18.3846 -10.9688 -2.1316
-18.8152 -10.7009 -1.81051
-19.269 -10.6155 -1.781
-15.7146 -11.8283 -2.18697
-15.2687 -12.414 -2.15871
-19.526 -10.5452 -1.54534
-18.5145 -11.1226 -1.53664
-16.6288 -11.8947 -1.72093
-15.6948 -12.4285 -1.86036
-19.4611 -10.6101 -1.1228
-14.7506 -12.8318 -1.66907
-18.7685 -11.3131 -1.13928
-17.9089 -11.0738 -1.04867
-14.8299 -12.8649 -1.51928
-17.5936 -11.5858 -1.06808
-18.8727 -11.1765 -0.979234
-19.0307 -11.037 -0.520126
-17.6872 -11.1311 -0.759423
-15.8805 -12.3777 -1.17254
-17.8016 -11.2056 -0.740536
-16.7184 -12.1579 -0.839429
-16.6751 -12.2212 -0.786905
-16.3412 -12.2901 -0.55003
-16.1064 -12.3779 -0.759952
-16.6112 -12.2938 -0.625964
-16.1663 -12.3084 -0.524509
-15.6888 -12.9646 -0.483638
-16.6492 -12.1507 -0.368453
-15.5455 -13.4166 -0.505126
-15.5086 -13.4414 -0.317653
-15.5966 -13.4636 -0.462504
-17.0654 -10.568 0.735058
-16.2863 -10.9042 1.08614
-16.5295 -10.7895 1.23059
-16.6224 -10.1631 1.56307
-18.1479 -10.4538 -2.71728
-16.91 -11.5449 -3.26841
-17.361 -11.1274 -3.15531
-16.4428 -12.0076 -3.31504
-16.4718 -11.9193 -3.05102
-18.551 -10.8141 -2.38174
-17.3596 -11.3527 -2.54157
-17.5248 -11.3454 -2.22683
-18.4937 -10.9226 -1.90466
-17.8083 -11.154 -2.18154
-17.9786 -11.3159 -2.34675
-18.3742 -11.0573 -1.68025
-14.5971 -12.9097 -2.02652
-19.5741 -10.4641 -1.41672
-16.9062 -11.8299 -1.85821
-15.9502 -12.4388 -1.59858
-14.7881 -12.78 -1.85584
-18.9713 -11.0525 -1.09488
-19.1295 -10.8924 -1.30702
-14.7923 -12.6182 -1.59001
-19.4037 -10.9975 -0.766981
-19.6007 -10.7807 -0.901286
-14.2922 -13.2471 -1.72069
-18.8546 -11.2225 -0.810217
-19.6085 -10.9042 -0.61961
-19.5626 -10.8159 -0.667247
-16.0549 -12.5941 -1.09443
-17.6247 -11.2042 -0.523053
-18.9366 -11.4452 -0.30433
-16.893 -12.1253 -0.574992
-16.3606 -12.5491 -0.781635
-16.1399 -12.341 -0.562665
-15.7393 -12.9878 -0.805013
-16.6907 -12.288 -0.397735
-16.77 -12.2227 -0.264419
-15.9484 -12.7946 -0.548073
-16.791 -12.2723 -0.379696
-15.7303 -12.9836 -0.718653
-16.6266 -12.1137 -0.437551
-15.4559 -13.5802 -0.230098
-16.1364 -12.9748 0.337969
-16.3156 -10.7357 1.03493
-16.2246 -11.8775 -3.23634
-16.9364 -11.3716 -2.84264
-18.1958 -11.1353 -2.28323
-17.5985 -11.2308 -2.28813
-17.6882 -11.4849 -2.21888
-17.5886 -11.4352 -2.26778
-17.9707 -11.2699 -2.05871
-17.967 -11.0195 -2.1322
-15.4558 -12.0504 -2.32161
-19.0828 -10.6351 -1.57708
-19.209 -10.6587 -1.54242
-19.6284 -10.5066 -1.35349
-18.8897 -10.8143 -1.28261
-19.1844 -10.5879 -1.33312
-14.8598 -12.6383 -1.78252
-14.7427 -12.7622 -1.7116
-17.0709 -11.8669 -1.47543
-19.6705 -10.5842 -1.07733
-16.5155 -12.3354 -1.22432
-15.4217 -12.6287 -1.0797
-15.5153 -12.757 -1.06325
-16.7057 -12.2491 -0.870919
-19.2105 -11.097 -0.299349
-16.7507 -12.3905 -0.743072
-16.5211 -12.2638 -0.651461
-16.348 -12.2679 -0.544727
-17.2781 -11.7776 -0.267472
-15.2559 -13.5194 -0.577815
-17.0393 -10.3297 1.01999
-17.428 -11.0578 -3.26069
-17.6105 -11.1246 -2.97053
-17.1772 -11.4047 -3.19867
-17.9505 -11.04 -2.41502
-18.452 -10.9406 -2.02373
-17.5715 -11.2902 -2.3879
-17.6686 -11.4304 -2.24992
-18.6082 -11.1085 -1.29152
-17.2417 -11.7404 -1.42564
-16.3451 -12.1646 -1.26459
-19.3983 -10.8675 -0.976146
-15.5632 -12.7401 -1.33255
-16.6642 -12.1276 -1.16602
-14.3214 -13.404 -1.48887
-14.6151 -13.3863 -1.37072
-16.3112 -12.2713 -1.05181
-16.5836 -12.2336 -0.855853
-16.8838 -12.2519 -0.846189
-17.4821 -11.354 -0.483376
-15.9738 -12.5237 -0.592491
-19.0587 -11.2647 -0.270662
-16.7489 -12.1955 -0.289357
-15.9538 -12.9126 -0.516801
-17.0078 -12.1475 -0.498763
-18.4905 -10.8452 0.382263
-16.653 -10.3684 1.26457
-17.4245 -10.9641 -3.11128
-16.7492 -11.4998 -3.34836
-18.3845 -10.6251 -2.76044
-18.6132 -10.5813 -2.72516
-17.4811 -11.3471 -2.41609
-17.0651 -11.6819 -2.32948
-17.6713 -11.401 -2.24018
-19.4866 -10.7753 -0.963161
-16.9058 -11.8896 -1.21887
-14.2727 -13.378 -1.69388
-15.6966 -12.6164 -1.31501
-16.3123 -12.3403 -0.42492
-18.1571 -10.9364 -0.0111098
-18.6721 -10.8183 0.134454
-17.5074 -11.191 -2.6544
-17.5706 -11.4295 -2.27758
-19.2108 -10.5951 -2.01179
-15.4238 -11.9223 -2.31284
-16.4843 -11.9718 -1.83458
-19.1616 -11.1696 -0.392364
-17.1096 -12.0524 -0.398998
-17.2025 -11.9219 -0.219816
-17.1643 -11.4882 -3.01435
-17.5705 -11.5837 -2.26698
-17.9325 -10.9169 -0.990184
-16.7837 -12.2805 -0.571526
-18.7074 -10.5561 -2.02836
-18.2883 -10.9881 -0.39906
-15.365 -13.3781 -0.479167
-15.7077 -11.8133 -2.72507
-16.5892 -12.1188 -1.99027
-15.7409 -12.0206 -1.86142
-15.2883 -12.5381 -1.68415
-16.9961 -12.1449 -0.493413
-16.7571 -10.6865 1.23852
-14.4624 -13.2365 -1.60942
-18.0138 -11.2456 -2.01637
-17.9298 -10.487 -3.42275
-18.0114 -10.8656 -2.76211
-18.2797 -10.8406 -2.39936
-18.9593 -10.6917 -1.76324
-18.8242 -10.7526 -1.71256
-16.8344 -11.3505 -3.52684
-18.9861 -10.7376 -1.22075
-17.035 -11.3756 -3.17882
-16.9876 -11.3378 -2.84662
-19.3114 -11.2097 -0.637018
-17.8997 -11.2926 -2.06846
-17.0159 -11.3928 -2.7463
-16.9903 -11.3837 -2.88282
-17.8399 -11.5079 -2.13945
-17.2605 -11.4277 -2.98257
-17.0882 -11.4593 -2.69198
-17.2442 -11.4921 -2.72345
-16.3921 -11.7633 -3.29323
-18.6874 -11.4055 -1.06259
-16.9532 -11.6926 -2.84508
-16.5454 -11.872 -3.1898
-15.9228 -12.0422 -3.5501
-15.9544 -12.0749 -3.29336
-15.8716 -12.2646 -3.51867
-16.8298 -11.4679 -1.94097
-16.4185 -11.7214 -2.01857
-17.8408 -11.0595 -0.512866
-17.757 -11.7904 -0.99047
-16.1826 -12.0183 -2.48427
-17.073 -11.9939 -1.7108
-17.0758 -11.9688 -1.49467
-17.0664 -11.7845 -1.25553
-16.5118 -12.2654 -1.24262
-16.858 -12.0102 -0.61667
-16.988 -12.3286 -0.642244
-16.2448 -12.3409 -1.22876
-16.5917 -12.1542 -0.619071
-15.7361 -12.5394 -1.38882
-16.9367 -11.9027 0.136662
-16.2254 -12.62 -0.60583
-16.2961 -12.3311 -0.570872
-15.4602 -13.7117 -0.54892
-15.4456 -13.2139 -0.420414
-16.381 -10.8449 1.07767
-16.5256 -10.7249 1.574
-18.0897 -10.4217 -3.30086
-19.4434 -10.3207 -1.58349
-19.1924 -10.465 -1.81722
-17.8449 -10.8526 -3.17855
-19.5631 -10.7221 -1.36326
-17.7495 -10.9905 -3.1604
-17.6514 -10.8798 -2.92439
-17.9515 -10.976 -2.80336
-17.7571 -10.9779 -3.03971
-18.9962 -10.7553 -1.56477
-17.2224 -11.1442 -3.44291
-18.6735 -10.9297 -1.72114
-17.471 -11.0943 -2.94915
-17.8518 -11.1521 -2.70263
-19.5038 -10.7273 -1.1955
-17.0027 -11.3534 -3.25178
-17.126 -11.3625 -3.03404
-17.0938 -11.5878 -3.17481
-17.9517 -11.3413 -2.44206
-17.8803 -11.3459 -1.99487
-17.0554 -11.6364 -2.41553
-16.6697 -11.8037 -2.99117
-17.9437 -11.0001 -0.954309
-17.866 -10.8981 -1.24897
-17.2053 -11.89 -2.35629
-18.0756 -11.1796 -1.07696
-17.6953 -11.7 -1.30824
-15.9716 -11.8442 -2.69966
-17.1414 -11.7392 -1.39075
-17.0809 -11.873 -1.20563
-15.5725 -11.9106 -2.46746
-17.2754 -12.1382 -0.921928
-15.1514 -12.2003 -2.6614
-17.533 -11.4134 -0.261774
-18.2108 -11.1325 0.684377
-15.6653 -12.3953 -1.39983
-16.6153 -12.4918 -0.43467
-16.2757 -12.3213 -0.740837
-15.1674 -12.7151 -1.78404
-16.2606 -12.3845 -0.567564
-14.7461 -13.0988 -1.66653
-15.7188 -13.1081 -0.25389
-15.5513 -13.5954 -0.305769
-15.6071 -13.5241 -0.462961
-16.2846 -10.6378 1.18992
-16.0092 -11.1006 1.39618
-18.9813 -10.512 -2.25351
-18.6412 -10.5239 -2.41434
-18.2685 -10.4988 -2.89362
-19.1221 -10.622 -1.82363
-18.3889 -10.7177 -2.72853
-19.2981 -10.5406 -1.33518
-19.4615 -10.4969 -1.54099
-19.2129 -10.5563 -1.61416
-17.6511 -10.8666 -2.74185
-17.5016 -11.0556 -3.13952
-17.5788 -11.0314 -3.08976
-17.6234 -10.943 -2.9564
-18.5494 -10.8592 -2.16516
-17.7143 -11.0458 -3.0056
-17.0708 -11.1574 -3.45723
-19.3084 -10.8409 -0.97646
-16.5929 -11.5899 -3.28239
-18.1802 -11.1509 -2.05399
-17.0351 -11.5755 -2.92145
-17.1074 -11.6003 -2.7747
-17.5625 -11.5301 -2.22377
-17.4026 -11.586 -2.45797
-18.1715 -10.8704 -0.71674
-18.1142 -10.803 -0.805158
-17.7002 -11.6753 -1.47364
-17.3856 -11.7407 -1.2115
-17.6215 -11.3064 -0.67225
-15.6587 -11.7677 -2.44123
-16.1559 -11.9817 -1.57133
-15.3937 -12.1251 -2.21385
-17.0209 -12.2908 -1.09007
-15.9042 -12.2767 -1.88871
-16.8739 -12.37 -0.626559
-16.668 -12.1807 -0.589727
-16.773 -12.179 -0.327324
-16.2679 -12.2908 -0.689208
-16.2341 -12.3912 -0.443987
-16.554 -12.3705 -0.334177
-16.263 -12.3411 -0.459738
-15.4174 -12.6732 -1.12907
-14.0536 -13.1555 -2.22665
-15.813 -13.0633 -0.313851
-15.9478 -13.0468 -0.16226
-13.9291 -14.3798 -2.02008
-17.9194 -10.9021 -3.1178
-19.5527 -10.294 -1.47858
-18.6436 -10.7615 -2.17322
-17.337 -11.2428 -3.45394
-17.8759 -11.1874 -2.70444
-17.0787 -11.3683 -3.01191
-17.2265 -11.382 -2.97074
-18.4148 -11.0023 -1.51933
-17.8427 -11.245 -2.15641
-17.6097 -11.2388 -2.11863
