-18.2077 -11.3492 -3.13085
-17.2045 -11.0362 -2.52635
-16.9716 -11.1604 -2.56411
-18.3918 -11.3248 -3.38574
-16.5917 -11.4899 -2.50609
-16.278 -11.5102 -2.47258
-19.9723 -10.5618 -3.91606
-15.1086 -12.6701 -2.49953
-14.9515 -12.8618 -2.42272
-19.3276 -10.4676 -3.90865
-15.0601 -12.7752 -2.65795
-19.6743 -10.4869 -4.17542
-18.5609 -11.0979 -3.64931
-19.3808 -10.806 -4.17518
-18.2441 -11.168 -3.86695
-18.1504 -11.233 -3.97971
-18.0786 -11.3712 -3.82874
-17.9818 -11.317 -3.88004
-17.9013 -11.307 -3.82737
-15.2387 -12.6927 -2.75808
-14.9298 -12.8916 -2.94506
-15.3485 -12.5965 -3.04122
-14.7019 -12.7911 -2.90146
-14.9137 -12.5048 -2.80195
-14.7951 -12.6311 -3.04738
-15.297 -12.415 -3.21104
-15.9032 -11.7232 -3.28247
-15.1847 -12.4655 -3.26214
-14.46 -12.8698 -3.37793
-14.5323 -12.7063 -3.37664
-16.555 -10.4695 1.50955
-21.6928 -10.9941 0.889953
-16.9921 -10.3699 1.27762
-21.4994 -11.2022 0.439978
-21.359 -11.0016 0.0342715
-21.5799 -10.9573 0.284159
-18.7311 -11.1791 0.0749913
-16.921 -12.077 0.419697
-21.2023 -10.9336 -0.339214
-18.7193 -11.2743 0.275009
-18.5913 -11.2909 0.118603
-18.7404 -11.1768 0.220889
-20.5467 -11.3489 -0.54213
-18.1011 -11.7465 -0.00904965
-20.3619 -11.1411 -0.51514
-18.9057 -11.4435 -0.467156
-16.5429 -12.2337 -0.0011446
-20.0989 -10.9365 -0.888205
-19.9888 -11.5571 -0.67568
-16.8642 -12.063 -0.0605842
-17.4762 -11.86 -0.426862
-16.964 -12.0015 -0.414063
-20.2946 -11.0754 -1.16423
-19.9421 -11.4496 -0.986265
-16.7967 -11.9827 -0.289203
-20.8652 -10.9822 -1.39537
-16.6 -12.3365 -0.440897
-16.4905 -12.3938 -0.729134
-18.1945 -11.5633 -1.01083
-20.5374 -10.6931 -1.71997
-17.8868 -11.7496 -0.980318
-15.938 -12.5937 -0.626785
-20.134 -11.0941 -1.62476
-16.2736 -12.3214 -0.707597
-16.8872 -12.0378 -0.799373
-15.8615 -12.655 -0.834349
-16.0045 -12.8017 -1.11779
-15.9653 -12.6018 -0.87836
-17.4226 -11.6471 -1.21437
-19.099 -11.3726 -1.7125
-16.5177 -12.0227 -0.930179
-19.3263 -11.3832 -1.81918
-19.6681 -11.084 -1.94516
-16.5013 -12.1358 -1.03821
-16.2642 -12.096 -1.16255
-20.8503 -10.3319 -2.31051
-15.7393 -12.4415 -1.33881
-16.7445 -11.8466 -1.75011
-15.8792 -12.5056 -1.78974
-17.3337 -11.24 -2.16033
-19.1366 -11.2508 -2.78928
-15.8773 -12.2738 -1.82036
-15.5706 -12.6496 -2.01987
-17.2498 -11.1795 -2.22741
-16.1836 -11.6446 -1.91626
-19.4072 -10.8657 -3.24888
-16.3566 -11.6624 -2.32183
-18.2407 -11.1675 -3.21088
-18.2244 -11.453 -3.08763
-18.3652 -11.316 -3.40275
-16.6786 -11.5759 -2.5576
-18.4616 -11.2285 -4.05271
-16.2075 -11.4556 -2.90312
-15.3355 -12.5564 -2.85735
-15.3391 -12.4958 -2.90906
-15.1841 -12.717 -2.96421
-14.9897 -12.9203 -2.84896
-14.5447 -12.8561 -3.06833
-16.6058 -10.6769 1.53843
-17.5283 -10.1641 1.07585
-16.5174 -12.0988 0.38657
-17.3044 -12.0046 -0.521869
-16.8736 -11.8026 -0.189947
-16.9444 -11.7994 -0.430124
-19.8853 -11.2702 -1.15087
-17.5194 -11.7007 -1.16951
-17.3468 -11.6956 -1.30088
-16.296 -12.1653 -0.986372
-17.1747 -11.8593 -1.49731
-16.0793 -12.2734 -1.21718
-17.8237 -11.4102 -1.80499
-18.9014 -11.2369 -2.75496
-17.2862 -11.3332 -2.05882
-17.0196 -11.369 -2.16599
-17.2741 -11.3261 -2.27343
-16.2109 -11.8752 -2.02042
-17.4566 -10.8921 -2.71478
-15.5559 -12.518 -2.8361
-15.6696 -12.5813 -2.89677
-15.3975 -11.884 -2.588
-14.8925 -12.5538 -3.26432
-15.0198 -12.4598 -3.25421
-14.3907 -12.9016 -3.30376
-17.2459 -11.8829 0.482118
-19.111 -11.2011 0.303105
-21.0063 -11.0526 -0.288221
-16.9721 -11.927 0.331267
-19.1455 -11.0864 0.00797121
-17.4124 -11.8053 -0.363939
-16.8132 -11.7207 -0.322216
-18.5458 -11.5751 -0.712635
-20.2406 -11.1629 -1.83629
-17.9077 -11.3668 -1.40865
-18.0047 -11.714 -1.35513
-17.0698 -11.952 -1.41639
-16.7731 -11.7591 -1.49766
-16.0854 -11.9085 -1.36449
-17.2021 -11.8357 -1.67745
-18.2509 -10.9864 -3.82868
-16.1059 -11.3149 -3.22796
-15.6453 -12.3171 -3.4699
-16.4844 -12.1305 0.24783
-20.7549 -11.1029 -0.495811
-19.9846 -11.1243 -0.81847
-18.0688 -11.8175 -0.823703
-16.6602 -12.0683 -0.600959
-20.109 -11.3183 -1.40987
-16.8263 -11.6403 -1.76713
-20.2647 -10.6243 -2.74164
-16.7348 -11.8719 -1.57426
-16.637 -11.8085 -1.81819
-16.1799 -11.6787 -2.00336
-17.2667 -10.9873 -2.48763
-19.8537 -10.4774 -3.80765
-16.4232 -11.5687 -2.65222
-14.8402 -12.7155 -2.39903
-16.9006 -10.8249 -2.89282
-18.3605 -11.1598 -3.8573
-15.6712 -12.2606 -3.17112
-15.8994 -11.6328 -3.24563
-18.5199 -11.3031 0.20249
-18.878 -11.3618 -0.92528
-20.0199 -11.3329 -1.5085
-17.0876 -11.7367 -1.39592
-16.2703 -12.1465 -1.50601
-15.8512 -12.4219 -1.41433
-21.6748 -10.9729 0.468104
-18.743 -11.2758 -0.0269449
-20.2316 -11.3526 -0.602755
-16.6985 -11.9911 -0.158469
-18.9055 -11.2273 -0.997119
-17.3834 -11.8707 -0.782838
-16.3365 -12.2751 -0.736807
-17.0513 -12.0327 -1.45224
-15.7583 -12.4354 -1.43061
-16.7942 -11.6134 -2.03876
-15.4235 -12.3133 -1.82452
-15.1638 -12.5102 -2.77794
-19.3914 -11.0997 -0.203046
-16.1293 -11.9125 -1.62021
-19.8034 -10.8913 -1.11638
-16.5208 -12.0397 -1.20447
-16.0329 -11.869 -2.24044
-16.7531 -12.1927 -0.722136
-14.8223 -12.5693 -3.21925
-16.4213 -11.4767 -2.78952
-19.2879 -10.6685 -3.63001
-18.2733 -11.3663 -3.29799
-18.479 -11.3419 -3.34186
-16.1564 -11.7914 -2.22382
-19.416 -10.9235 -2.68428
-16.7557 -11.7726 -1.46126
-19.9306 -10.5817 -2.77877
-20.3685 -10.8169 -2.31871
-20.6696 -10.5439 -2.08989
-18.1288 -11.4111 -1.60381
-20.8026 -10.8251 -1.85664
-16.2661 -12.4308 -0.747655
-20.1186 -11.3733 -1.21258
-16.9237 -11.6512 -0.269325
-18.8085 -11.1037 -0.415618
-20.7502 -10.9786 -0.557263
-21.0837 -11.0413 -0.521546
-19.0237 -11.049 0.0616748
-16.8236 -11.8883 0.139875
-18.9369 -10.8592 -0.0187699
-18.2626 -11.4884 0.100076
-16.4137 -12.202 0.433586
-18.4935 -11.35 0.0788871
-18.6414 -11.3724 0.302126
-16.2432 -10.5616 1.57223
-17.3733 -10.2362 1.41519
-15.2099 -12.8672 -3.00847
-20.0629 -10.5831 -3.1653
-16.118 -11.7278 -1.931
-18.8822 -11.1854 -2.96174
-19.0734 -11.0587 -3.10971
-15.8039 -12.573 -1.42638
-20.417 -10.5619 -2.41719
-19.9925 -11.422 -1.2179
-16.6161 -12.1107 -0.255463
-17.3001 -12.0491 -0.410842
-20.3058 -11.2905 -0.552692
-16.7301 -10.4318 1.2605
-21.598 -11.0656 0.633755
-14.5972 -13.0817 -3.16991
-14.8296 -12.4907 -2.8373
-18.3925 -10.9637 -3.88479
-15.5778 -12.3913 -2.79892
-18.61 -11.2731 -3.19358
-16.0735 -12.6872 -1.15485
-15.6029 -12.5433 -1.40713
-16.8884 -11.8878 -0.777392
-18.8799 -11.3771 -0.865115
-16.8325 -12.1403 -0.171927
-17.5428 -11.8806 -0.370825
-16.97 -11.9636 0.235499
-19.0345 -11.1069 0.0143992
-18.6328 -11.3659 0.232113
-15.5116 -12.2615 -2.28042
-15.6319 -12.0984 -1.90184
-16.8631 -12.0092 -0.410447
-17.2974 -11.8531 0.420467
-16.0916 -12.5851 -0.532706
-20.1569 -11.4471 -0.840624
-17.968 -11.7928 0.0477051
-16.8094 -11.9401 0.457157
-16.6558 -11.9489 -1.60731
-17.2356 -11.7327 -1.09354
-16.6932 -12.0403 -0.361884
-16.4402 -12.4489 -0.400538
-17.1592 -11.9046 -0.736117
-16.4731 -12.0459 -0.712357
-17.2952 -10.2286 1.7176
-15.8718 -12.648 -2.07573
-20.4756 -10.5435 -3.69397
-18.4451 -11.1188 -3.42509
-20.5155 -10.3597 -3.32231
-19.486 -10.9207 -3.16607
-18.7952 -11.0718 -3.32359
-18.5175 -11.3636 -3.17924
-18.8675 -11.2176 -3.07839
-18.44 -11.1734 -3.1593
-17.0943 -11.2597 -2.56446
-16.5848 -11.47 -2.53438
-19.3367 -10.9242 -3.01267
-20.4004 -10.6794 -2.96644
-15.2595 -12.6406 -2.86208
-14.9343 -12.5689 -2.95525
-14.9053 -12.9263 -2.76371
-16.7587 -11.6642 -2.00917
-20.6491 -10.5931 -2.22122
-15.2221 -12.7745 -2.48797
-20.0062 -11.0614 -2.36294
-16.5908 -11.6355 -2.10349
-19.3735 -11.0624 -2.09739
-16.7735 -11.665 -1.95647
-20.6476 -10.8059 -1.74534
-19.9801 -11.0209 -1.72073
-20.6597 -10.7978 -1.69498
-16.4211 -11.7767 -1.59128
-17.3278 -11.4382 -1.26351
-17.3787 -11.6405 -1.07445
-18.3391 -11.725 -0.936826
-20.3393 -11.2513 -0.505032
-20.9255 -10.7295 -0.494056
-21.0643 -10.7942 -0.437647
-16.9889 -11.8273 -0.524496
-20.5704 -11.3466 -0.283716
-21.0791 -10.8387 -0.200756
-16.3185 -12.2484 -0.488637
-18.7463 -11.2195 0.226426
-16.9892 -12.0652 0.335204
-16.837 -10.3808 1.26089
-15.7908 -12.1767 -3.61341
-20.2494 -10.7194 -2.90206
-20.0656 -10.683 -3.06336
-16.2607 -11.5228 -2.57653
-20.2217 -10.7139 -2.91742
-16.0142 -11.6607 -2.00908
-16.6646 -11.6648 -1.79415
-19.7027 -11.0794 -1.58083
-16.4306 -12.0601 -1.39404
-17.5907 -11.6741 -0.940269
-20.0739 -11.1366 -0.981914
-18.1508 -11.6367 -0.65678
-18.8753 -11.2443 -0.390435
-16.8037 -11.9258 -0.656862
-17.4132 -11.8712 -0.217702
-18.3966 -11.2154 0.1991
-16.2657 -12.1669 0.476111
-17.6627 -10.9664 -2.91007
-17.0235 -11.3711 -2.13694
-16.0021 -11.9713 -2.07932
-17.7212 -11.5994 -1.70999
-20.66 -11.185 -0.564005
-19.2288 -11.3377 -0.314358
-19.2095 -11.0786 -2.93175
-16.8901 -11.6903 -0.35455
-16.3533 -12.2982 -0.66578
-17.526 -12.0486 -0.31205
-21.5596 -11.1145 0.743848
-16.1275 -11.7322 -1.16881
-17.0018 -12.0175 -1.41929
-19.1826 -11.4239 -0.0653826
-21.5755 -10.9751 0.639551
-16.4754 -12.1673 0.356907
-15.9037 -11.6123 -2.46305
-16.4283 -12.018 -1.35946
-16.1281 -12.3776 -1.2974
-18.0646 -11.5677 0.126167
-16.442 -11.873 -1.39298
-18.8009 -11.1965 -1.1488
-18.9784 -10.6031 -4.18254
-19.7791 -10.583 -3.42539
-20.6447 -10.6134 -2.39943
-15.5371 -12.4099 -3.6408
-17.2323 -11.4286 -2.10844
-18.6916 -11.4448 -2.14276
-14.3546 -12.8878 -3.32975
-17.0957 -11.6581 -1.8613
-16.8401 -11.624 -1.88732
-21.1222 -10.8809 -0.406376
-17.0296 -12.0433 -1.42007
-18.274 -11.8836 -0.932286
-21.2005 -10.9883 0.1557
-15.0653 -12.7355 -2.11048
-18.3316 -11.878 -0.645512
-18.7563 -11.2228 -0.0972682
-16.7373 -11.9641 -0.91135
-16.2912 -12.0819 -1.09195
-18.3197 -11.3018 0.0470937
-18.4169 -11.296 0.145887
-17.2434 -11.9496 -0.184028
-17.0558 -10.2561 1.20939
-15.7924 -12.6722 -1.16548
-17.605 -11.7597 0.330983
-16.3837 -12.2659 0.276763
-16.5206 -12.0894 0.484591
-20.1441 -10.4285 -4.34502
-18.8134 -10.9153 -3.7722
-17.1017 -10.9213 -2.95215
-17.1003 -10.7801 -2.80768
-18.971 -11.2307 -2.39295
-16.1861 -11.8372 -2.33152
-18.9565 -11.4163 -1.55991
-14.6803 -12.8261 -3.12636
-18.6714 -11.1903 -1.36619
-15.2737 -12.7036 -2.79021
-19.8363 -11.2125 -1.09659
-20.5244 -11.0292 -0.486046
-19.6532 -11.4933 -0.897523
-19.4913 -11.4756 -0.951173
-18.1163 -11.6983 -0.92833
-20.4709 -11.2129 -0.214368
-16.8619 -12.0625 -0.916768
-21.7214 -10.9558 0.842151
-16.3598 -12.2946 -0.85925
-17.2916 -10.265 1.38988
-16.9985 -10.3934 1.44257
-16.5513 -11.7391 -2.0267
-17.9072 -11.6142 -1.46593
-17.1795 -11.8984 -1.42867
-19.3004 -11.1438 0.00490976
-15.1539 -12.7335 -2.09864
-15.9118 -12.4209 -1.7136
-18.663 -11.3558 0.252255
-17.6321 -11.9601 -0.497597
-16.8425 -10.2683 1.22577
-16.3801 -12.4117 -0.0744896
-16.7061 -12.2504 -0.0286652
-17.262 -11.3664 -1.89179
-19.9344 -11.302 -1.1644
-17.4757 -11.4741 -1.25028
-17.8165 -11.585 0.296688
-16.5916 -12.0159 -0.316666
-16.9481 -10.3375 1.43083
-16.3803 -12.0775 0.475688
-17.0438 -11.0217 -2.98066
-16.9494 -12.0447 -0.905128
-16.6541 -12.3015 -0.20389
-16.5449 -11.3258 -3.13173
-18.7904 -11.5042 -0.80508
-16.7651 -11.9989 -1.00808
-17.418 -11.3263 -2.05951
-16.4712 -11.9661 -1.42509
-16.9314 -11.8236 -0.575361
-19.1552 -11.137 -2.21573
-21.4931 -11.0798 0.195616
-21.7863 -10.9808 0.536947
-16.3496 -11.4518 -2.39808
-16.1241 -11.6545 -2.70102
-18.9365 -11.0718 0.219708
-16.9748 -11.7259 -1.73542
-18.0714 -11.7154 -1.10958
-16.7447 -11.7445 -1.74045
-18.5038 -11.3885 0.17869
-17.3017 -11.8137 -0.914928
-16.234 -11.9851 -1.50774
-16.6783 -12.0452 -0.835497
-16.9227 -11.8226 -0.516623
-16.3374 -12.0062 -1.21214
-16.5219 -11.9423 -0.691092
-16.5919 -12.2295 0.117818
-17.1939 -11.3274 -2.39536
-20.5395 -11.1335 -0.49323
-15.1173 -12.4975 -3.08219
-16.2033 -12.4256 -0.218787
-17.7783 -11.2394 -2.11758
-20.56 -11.2704 -0.161808
-19.1087 -10.9639 0.00951995
-16.6012 -12.3866 -0.416262
-16.7705 -12.0516 0.364102
-21.8433 -10.8247 0.931026
-19.4227 -11.7248 -0.60507
-17.3583 -11.6341 -1.06876
-18.1383 -11.1373 -2.46827
-15.8069 -11.5936 -3.09626
-18.6543 -11.1826 -0.976876
-21.4 -11.1286 0.67473
-16.6804 -11.957 -1.89482
-16.565 -11.8227 -1.9153
-16.7333 -11.8691 -1.43491
-16.3762 -11.5635 -2.25867
-16.45 -11.9975 -1.58161
-15.8542 -12.0521 -2.09346
-17.0472 -11.5046 -1.63851
-21.679 -10.9882 0.400714
-18.2429 -11.3632 -3.68525
-18.776 -10.956 -1.12361
-17.9923 -11.7979 -0.867832
-17.7541 -11.8294 -0.971055
-17.6232 -11.7495 -0.807406
-17.3059 -11.7192 -1.08322
-16.7616 -11.6211 -1.70466
-16.1598 -11.749 -2.25684
-16.5613 -12.2625 -0.448732
-15.6759 -12.4194 -0.965413
-21.6034 -10.8747 0.260583
-19.0167 -11.4394 -2.42382
-17.0338 -11.3513 -2.33086
-17.5649 -11.8851 -0.305991
-16.4192 -12.3983 -0.290407
-18.9942 -11.3825 -1.71032
-18.9819 -11.1802 -0.117047
-16.8965 -11.8949 -1.43299
-16.7509 -11.8309 -1.44412
-16.3333 -12.5241 -0.140157
-21.7929 -10.8507 0.668409
-16.4122 -11.4075 -2.58058
-17.083 -11.7949 -1.35227
-20.574 -11.2194 -0.593926
-16.8089 -11.7408 -1.06316
-16.0321 -11.6831 -2.15687
-16.211 -12.474 -0.73366
-16.945 -12.0024 -0.912482
-17.0834 -12.2287 -0.413212
-20.7153 -10.5616 -2.32179
-19.5515 -10.6185 -3.6665
-18.7703 -10.94 -0.960082
-18.6467 -11.4143 0.0894545
-17.419 -11.64 -1.49087
-17.0605 -11.5416 -2.18611
-16.833 -11.8302 -0.693825
-16.4565 -11.8793 -1.70866
-16.2928 -12.1341 -1.12077
-16.3953 -12.2496 -0.604345
-16.4154 -12.2988 -0.406319
-21.612 -10.9326 0.26307
-20.0207 -10.8418 -1.58215
-19.3 -10.6605 -3.84291
-17.7389 -11.7904 -0.902796
-17.5503 -11.8219 -0.612184
-16.9191 -11.7087 -0.453634
-16.3834 -12.2789 -0.129369
-19.6249 -10.6864 -4.30108
-18.545 -11.2017 -3.02626
-21.6398 -10.9287 0.054487
-20.5369 -11.3536 -0.341481
-17.5286 -11.5372 -1.6115
-16.5362 -12.0333 -1.65641
-15.4632 -12.5726 -2.65803
-16.0422 -11.8025 -2.36114
-17.3711 -11.866 -0.192836
-16.0827 -12.5193 -0.527541
-16.8995 -11.9291 -0.668953
-20.6858 -11.1246 -0.269057
-20.2005 -11.3335 -0.388911
-19.5365 -10.7885 -3.51265
-17.4938 -11.9865 -0.524319
-17.52 -11.9942 -0.69787
-16.8136 -11.8416 -0.315413
-16.8216 -11.9583 -0.449802
-16.7004 -12.1906 0.441262
-16.8447 -11.7094 -1.76713
-17.1531 -11.4934 -1.72742
-16.4401 -12.552 -0.599027
-16.3945 -12.4229 -0.277764
-16.4306 -12.351 -0.621967
-16.4789 -12.011 -1.56847
-21.9446 -10.9094 0.512842
-20.5674 -11.1001 -0.386192
-18.8202 -11.1153 0.121271
-18.7182 -10.9788 -1.12472
-18.6736 -10.8524 -1.12019
-17.241 -12.0217 -0.27814
-18.3288 -11.2336 -3.42302
-16.8263 -12.0214 -1.26246
-16.5398 -12.024 -0.174854
-16.5518 -12.2345 -0.251668
-20.0551 -11.4314 -0.572129
-20.1804 -10.6913 -2.62211
-17.3971 -11.793 -0.541393
-17.5312 -11.7521 -0.767341
-17.3269 -11.6616 -1.1729
-15.7993 -12.732 -0.8329
-15.7689 -12.7266 -0.886786
-15.2021 -12.491 -3.20647
-20.4823 -11.4337 -0.414046
-17.0282 -11.4703 -1.98016
-15.3864 -12.8616 -1.60289
-14.3886 -12.8273 -3.26225
-16.8868 -11.7532 -0.941873
-16.8381 -11.9009 -1.13526
-18.6922 -11.207 0.0896893
-20.5414 -10.7312 -2.11449
-17.6009 -11.7968 -0.337839
-17.4509 -11.9464 -0.422048
-17.6473 -11.7781 -0.620142
-18.5963 -11.0497 -3.93596
-16.8688 -11.6154 -1.86686
-16.7251 -12.0198 -1.86891
-18.0266 -11.2115 -3.75419
-16.5866 -11.7068 -1.81207
-16.6437 -11.8966 -1.75152
-20.6162 -11.0124 -0.279506
-18.6858 -11.2383 0.386305
-16.9069 -12.2632 0.346583
-18.9025 -11.17 -3.22199
-16.5431 -12.2918 -0.296019
-16.4212 -12.215 -0.350515
-18.542 -11.4284 -3.25193
-16.3153 -12.1897 -0.700209
-16.0202 -12.4852 -0.716418
-16.0533 -11.7901 -2.09359
-18.6118 -11.2865 0.228626
-18.4623 -11.1889 -3.27127
-16.8192 -12.1324 -0.94751
-18.4649 -11.1982 -3.08209
-16.4724 -12.4917 -0.209207
-16.3668 -12.4172 -0.395244
-16.3264 -12.4395 -0.540885
-17.0337 -11.329 -2.21509
-18.7858 -11.1981 -0.0614779
-20.2006 -10.7176 -2.9829
-16.5772 -12.1635 0.243071
-16.0862 -11.6763 -2.26345
-15.7541 -12.6647 -1.19454
-16.5819 -10.13 1.99253
-18.279 -11.7332 -0.685069
-16.8384 -12.0065 -1.43033
-16.5569 -11.8414 -1.42841
-16.718 -11.9693 -1.82697
-16.6135 -11.9954 -0.0955323
-16.915 -12.1167 0.269373
-18.7433 -10.8603 -1.29496
-16.5332 -12.1792 0.57221
-17.2898 -12.0626 -0.422447
-16.6191 -12.2913 -0.205361
-16.5162 -12.3148 -0.220235
-16.4854 -12.3508 -0.29669
-16.4108 -12.3191 -0.571829
-19.4262 -10.9697 -2.73794
-16.1913 -12.4043 -0.451246
-16.3296 -12.221 -0.90862
-19.6633 -10.2824 -4.21184
-16.732 -11.6972 -2.02303
-16.5136 -11.8064 -1.58331
-16.3513 -11.8779 -1.7326
-15.8421 -12.5827 -0.875506
-16.6234 -11.7762 -2.28946
-16.4968 -11.6714 -2.45458
-15.5486 -12.8518 -1.8938
-16.0217 -11.5255 -3.17098
-18.6261 -11.111 0.0300915
-17.5509 -11.7988 0.20763
-17.5489 -11.8151 0.0466012
-16.8767 -12.0498 0.450749
-17.9338 -11.7748 -0.65694
-17.2561 -11.8267 -0.286215
-17.5038 -11.7897 -0.859322
-18.1561 -11.7564 -1.05277
-18.0239 -11.871 -0.969034
-16.664 -12.0106 -0.483378
-17.4618 -11.6129 -1.17014
-16.5912 -12.2245 -0.409722
-17.0848 -11.8507 -0.923419
-19.2198 -11.1903 -2.89378
-16.938 -11.7079 -2.06115
-17.7435 -11.319 -3.04865
-15.9065 -12.484 -1.76768
-16.1423 -11.7417 -2.10582
-16.3498 -11.7536 -2.2011
-16.1408 -11.692 -2.26493
-15.6057 -12.6769 -1.87726
-18.6086 -11.5239 -0.53815
-16.5611 -12.0509 0.296212
-17.5819 -11.6887 -0.641868
-19.4172 -10.8719 -2.84498
-16.615 -11.9195 -0.773037
-18.4085 -11.2657 -3.07127
-16.192 -12.54 -0.917147
-17.1384 -11.3054 -2.33798
-21.5715 -11.0302 0.487169
-16.3157 -12.0156 -0.640834
-15.7396 -12.5718 -1.15999
-18.41 -11.3915 0.20697
-18.8364 -11.201 -1.15196
-17.0038 -12.0091 0.465119
-16.7797 -12.0477 0.357932
-16.7722 -12.1219 0.428283
-16.432 -12.1482 -1.1857
-16.0473 -12.6602 -0.892004
-15.2374 -12.8479 -1.88516
-15.9483 -11.7682 -3.05206
-16.9788 -11.9731 -1.0394
-16.9124 -11.8231 -1.37073
-17.0008 -11.3844 -1.90486
-16.6744 -11.6252 -2.05886
-15.6669 -12.6256 -1.38596
-16.2191 -12.4411 -0.935695
-16.8771 -12.0111 -0.647675
-16.9029 -12.0545 -0.850826
-16.2613 -12.1346 -1.3229
-16.9426 -12.0701 -0.20164
-17.0201 -12.0301 -0.43649
-16.3028 -10.5041 1.32295
-21.1119 -11.1067 -0.375065
-20.73 -11.2062 -0.0313135
-18.6299 -11.3501 0.0460221
-16.8849 -11.8077 0.368121
-18.4308 -11.6775 -0.451444
-16.864 -12.1164 0.221605
-18.7781 -11.0158 -1.26638
-18.5204 -11.695 -1.02892
-16.8699 -11.6281 -0.37158
-16.601 -12.1387 -0.32224
-16.2644 -12.6777 -0.126387
-20.6179 -10.5899 -2.48903
-17.5048 -11.5752 -1.23928
-16.4467 -12.1024 -1.1113
-15.9415 -12.5879 -0.90845
-19.8148 -10.8002 -2.86478
-20.3216 -10.3634 -3.48156
-15.8057 -12.6337 -1.02612
-19.422 -10.8287 -3.18734
-17.0444 -11.5216 -1.8049
-16.8928 -11.792 -1.77581
-16.6304 -11.964 -1.78137
-16.7479 -11.6796 -2.07739
-17.1642 -11.355 -2.46084
-17.0656 -11.2684 -2.12059
-18.4641 -11.1346 -3.14421
-15.1757 -12.8037 -2.46325
-17.2393 -11.8485 0.585405
-18.0188 -11.5542 0.196623
-20.1787 -11.0712 -0.975787
-19.6441 -11.3319 -0.856866
-16.8056 -11.9953 0.272149
-17.3613 -11.8144 -0.348984
-16.7773 -12.2765 -0.153631
-16.6302 -12.0048 -0.0789688
-16.5018 -12.1238 -0.574111
-17.353 -11.6837 -1.1536
-20.2368 -10.7058 -3.10862
-19.0635 -11.254 -2.62119
-16.1948 -12.3142 -1.09207
-18.8751 -11.2384 -2.38518
-19.4713 -10.9607 -2.82866
-16.3545 -11.8349 -1.98052
-16.6848 -11.707 -2.16314
-15.9734 -12.4613 -1.79943
-16.1248 -11.7191 -2.07472
-16.2988 -11.5377 -2.14517
-16.3634 -11.521 -2.27309
-15.5982 -11.9717 -2.27761
-15.2473 -12.6276 -2.76667
-18.0179 -11.4871 0.242477
-16.5586 -12.1329 0.3698
-16.755 -12.1535 0.341569
-19.9223 -11.2328 -0.738362
-16.5625 -12.0807 0.329501
-16.8929 -11.9816 -0.356955
-18.0003 -11.6787 -1.64107
-19.8342 -10.911 -2.52671
-20.2166 -10.5088 -3.29803
-15.747 -12.6473 -1.29386
-15.5549 -12.4347 -1.43408
-16.0265 -11.8454 -2.01429
-18.6685 -11.2567 -0.071095
-20.311 -11.2006 -0.515455
-20.173 -11.1652 -0.810374
-16.7927 -12.1108 -0.266875
-15.9355 -12.1826 -1.22238
-17.388 -10.0821 1.02618
-19.0661 -11.0731 0.0235992
-16.8315 -12.1132 0.114974
-20.6708 -11.1359 -0.603513
-15.8908 -12.6427 -1.28116
-16.9487 -11.4838 -2.50696
-15.4512 -12.1014 -1.84706
-15.9301 -11.8266 -2.62682
-16.0632 -11.6156 -3.16514
-17.8734 -11.5067 -1.59011
-16.6917 -12.1091 -0.573284
-16.6803 -12.0555 -0.927675
-18.6122 -11.1783 0.15554
-16.6207 -12.2324 0.590128
-17.0823 -12.1169 -1.10205
-16.1246 -11.9032 -2.2276
-16.2573 -11.6533 -2.31099
-18.7934 -11.1922 -2.67968
-16.9278 -11.8266 -2.14195
-19.1124 -11.3592 -2.27046
-16.8842 -11.7884 -1.33904
-16.8565 -11.9057 -0.535074
-17.4064 -11.7223 -0.221672
-21.0706 -10.9263 -0.358976
-17.9915 -11.6209 -0.0194536
-20.6024 -11.0809 -0.397354
-19.0845 -10.8267 0.19032
-18.1016 -11.5165 0.110786
-16.7056 -12.1481 0.179496
-16.4595 -12.224 0.408304
-21.7063 -11.069 0.566578
-16.6175 -10.5381 1.57556
-15.2788 -12.5134 -3.25585
-15.2333 -12.6943 -2.89057
-15.8256 -11.4847 -2.831
-16.5137 -12.1304 -1.08885
-16.3244 -12.233 -0.984194
-17.001 -11.9498 -0.519693
-16.7587 -12.0235 -0.265567
-16.6326 -12.2825 -0.271499
-17.2127 -11.7656 -0.0975739
-20.313 -11.3834 -0.152095
-18.9429 -11.2694 0.0289602
-17.0006 -12.0093 0.617183
-16.7796 -11.8416 -1.40648
-15.8033 -12.5551 -1.12286
-17.4155 -11.6897 -1.15484
-16.4142 -12.201 -0.727717
-17.6081 -11.7948 -0.772187
-16.1458 -12.3929 -0.521213
-16.9309 -11.908 -0.419209
-18.4617 -11.4435 0.116904
-16.4896 -10.4694 1.45922
-19.8091 -10.4831 1.31612
-17.1486 -11.9207 0.329201
-16.9115 -11.6777 0.307605
-16.5323 -12.0405 0.176429
-16.7325 -11.9144 -1.18525
-16.8564 -12.1442 -0.847921
-18.8027 -11.5273 0.0206656
-16.9371 -12.1985 -0.70892
-18.819 -11.0216 -3.37902
-18.9906 -11.1551 -2.93573
-15.9633 -11.7107 -2.07119
-15.0139 -12.9615 -2.25994
-17.256 -11.5715 -1.47423
-18.5385 -10.9958 -1.14835
-17.307 -11.6156 -1.29128
-16.2452 -12.1962 -0.980953
-18.0443 -11.6292 -0.881796
-19.8165 -11.5423 -0.673515
-18.7068 -11.3039 -0.627664
-17.4556 -11.9026 -0.386616
-16.7993 -12.1863 -0.380052
-16.5842 -12.4445 -0.121673
-20.8854 -11.2984 -0.452415
-18.9926 -11.0419 0.23327
-16.2609 -12.2839 0.396233
-15.5931 -11.4338 -2.86225
-16.0898 -11.5405 -2.81221
-18.2706 -11.3636 -2.84802
-20.0998 -10.8757 -3.05032
-17.8806 -11.3609 -1.99512
-16.0493 -12.5301 -1.02378
-19.794 -11.2487 -0.94456
-20.0361 -11.4309 -0.767615
-18.8799 -11.2433 -0.492752
-20.3776 -11.2855 -0.433344
-16.5814 -12.0107 -0.266008
-17.6383 -11.8888 -0.140155
-19.2443 -10.929 0.210898
-17.1822 -11.945 0.179569
-16.6396 -12.11 0.118911
-21.5866 -11.1798 0.923979
-20.3097 -10.6677 1.3024
-16.4327 -10.417 2.15796
-14.8752 -12.8154 -3.18329
-17.8909 -11.3694 -1.75812
-18.0382 -11.3534 -1.60658
-19.9902 -11.2304 -1.37105
-20.3192 -11.2908 -0.380916
-17.91 -11.5793 0.24962
-17.199 -11.8202 0.201861
-21.6068 -10.8434 0.998047
-21.6758 -11.0648 1.00851
-16.653 -11.5493 -1.92832
-18.8291 -11.1112 -1.23423
-19.0615 -11.1347 0.103339
-16.8203 -11.9186 -1.24247
-18.8988 -11.3539 -0.501494
-21.6729 -10.9953 0.675371
-18.1935 -11.6136 -0.627694
-20.1532 -10.4149 -4.29258
-16.5432 -11.3031 -3.00591
-20.8116 -10.7425 -2.23182
-18.7984 -11.0879 -1.16766
-17.6017 -11.5417 -1.19222
-17.7924 -11.5574 -0.988114
-18.3067 -11.3731 -0.0180078
-17.6544 -11.8661 0.299557
-19.6161 -10.7664 -3.48367
-17.2734 -11.036 -2.6743
-19.9578 -10.6811 -2.93318
-15.193 -12.7925 -2.27506
-18.7902 -11.4647 -0.561505
-16.5861 -12.4312 -0.332643
-17.6328 -11.7106 0.525558
-16.6396 -12.0601 0.292564
-18.5727 -11.3129 -3.8698
-15.7229 -11.4337 -2.76046
-14.9921 -12.4923 -3.05076
-18.5311 -11.6315 -0.686845
-21.4703 -10.9569 0.94965
-16.6665 -10.2436 2.03314
-15.353 -12.2525 -1.92692
-20.1323 -11.2539 -0.676232
-18.9354 -10.9301 -0.0436738
-18.6634 -11.2643 -0.870144
-15.3304 -11.9285 -2.77412
-16.0618 -11.7116 -2.3468
-15.3316 -12.5623 -3.37717
-18.7601 -11.202 -1.12
-16.7635 -11.8197 -1.4217
-18.1851 -11.7443 -0.964906
-15.2481 -12.6947 -2.37397
-18.1521 -11.8426 -0.873185
-17.8562 -11.6201 0.19116
-15.6739 -12.648 -0.899663
-16.5263 -12.1886 0.531712
-17.6225 -11.8227 -0.172484
-16.9007 -10.0959 1.33929
-16.395 -12.1341 -0.42908
-19.1954 -11.2537 0.0674254
-16.4398 -12.402 -0.633827
-14.5189 -12.8717 -3.24285
-17.6079 -11.784 -1.02022
-15.1664 -12.6225 -2.28587
-21.6322 -10.8665 0.796669
-15.5464 -12.0562 -2.05501
-20.589 -11.0228 -0.672999
-18.6309 -11.2419 -0.905269
-15.9978 -11.8858 -1.94255
-18.1901 -11.1343 -3.72836
-18.7909 -11.1469 -2.55211
-20.6259 -10.8396 -0.442238
-20.5667 -11.154 -0.237495
-21.3169 -11.1405 0.195704
-21.5987 -11.1078 0.505
-17.4678 -11.7462 -0.86243
-17.5843 -12.0366 -0.18756
-16.2373 -12.5201 -0.805923
-16.6088 -12.2994 -0.611977
-16.5883 -12.1742 0.413514
-17.9598 -11.5146 -1.35401
-15.4416 -12.6012 -3.22739
-17.9031 -11.8408 -0.751307
-17.4093 -11.7363 -0.899248
-16.3673 -12.0485 -0.452896
-16.5959 -12.3316 -0.208672
-18.4679 -12.0083 -0.405035
-16.9459 -11.8014 -1.1388
-17.0674 -11.7685 -1.16853
-16.4188 -12.1207 -1.03285
-16.8738 -11.9814 0.424361
-17.7859 -11.3328 -2.08071
-15.2811 -12.6439 -2.98574
-15.3942 -12.0242 -1.96025
-21.8605 -10.9409 0.634841
-21.7256 -10.8864 0.74904
-18.0065 -11.6444 -1.33487
-16.8359 -11.8126 -2.11572
-16.8738 -11.7052 -2.04892
-16.7722 -11.7961 -1.18417
-21.668 -11.0937 0.430398
-16.931 -12.1095 -0.875865
-17.1583 -11.3245 -2.38674
-18.4017 -11.2747 -1.22735
-20.3426 -11.1823 -0.11358
-17.5145 -11.551 -1.15398
-16.5645 -10.097 1.98694
-17.42 -11.7174 -0.730143
-17.5631 -11.8396 -0.564919
-16.5058 -12.1052 -0.927248
-16.3807 -12.1946 -0.800496
-16.5553 -12.1958 -0.236421
-20.6767 -11.1858 -0.213404
-18.1788 -11.3484 -1.54304
-18.676 -11.1458 0.257531
-17.0819 -11.6804 -0.944219
-15.8838 -12.5775 -0.668986
-20.4493 -11.2748 -0.700528
-16.5049 -11.7364 -2.09766
-21.6374 -11.1043 0.664819
-21.6039 -10.9216 0.461494
-19.122 -11.0508 0.129916
-16.9141 -11.746 -1.22308
-16.9741 -12.1882 -0.924272
-21.6502 -10.7597 0.462661
-16.8927 -11.7237 -1.90015
-16.2541 -11.6051 -2.12878
-18.9313 -11.0778 -0.924497
-16.6519 -11.7802 -1.95869
-16.9469 -12.147 -0.848006
-17.5465 -11.5768 -0.756434
-15.3923 -12.0076 -2.15357
-16.4328 -12.2917 -0.223972
-21.665 -10.8545 0.48665
-18.2463 -11.1066 -3.73218
-16.4689 -12.0642 -0.630296
-18.6434 -11.3132 -1.35293
-17.7304 -11.4151 -2.37638
-16.1239 -11.6461 -1.94588
-21.5705 -10.8967 0.611363
-16.3661 -11.6567 -1.98754
-17.2065 -11.3077 -2.05679
-16.9117 -11.8333 -1.22514
-20.8402 -10.9713 -0.477445
-20.4754 -10.9841 -0.317119
-21.5025 -11.0032 0.176562
-19.4136 -11.2723 -1.67896
-16.3936 -11.8717 -1.5577
-16.3603 -12.0313 -1.63542
-15.4575 -12.8592 -1.72335
-17.2744 -11.8955 -1.16447
-16.7155 -12.2018 -0.892979
-21.5451 -11.02 0.352627
-20.5559 -11.2399 -0.393344
-20.1072 -11.2028 -1.66198
-19.3427 -10.9582 -3.1248
-17.6097 -11.9726 -0.665903
-17.4418 -11.6568 -1.02046
-16.8868 -11.7811 -0.565625
-16.8634 -11.6697 -1.26029
-15.6707 -12.0029 -2.0399
-15.5469 -12.8015 -1.81519
-20.6976 -11.1858 -0.128567
-16.3851 -11.9628 -1.63692
-15.723 -11.9651 -2.26521
-16.0099 -11.6693 -2.33417
-15.8741 -12.1271 -2.40714
-17.1691 -11.6602 -1.59723
-20.0782 -11.1119 -1.54858
-19.9476 -11.0606 -2.2702
-16.6034 -12.4589 -0.351373
-16.4444 -12.0233 -1.07481
-16.1959 -12.2554 -0.801579
-16.5704 -12.0182 -1.42648
-15.9216 -12.3804 -0.918003
-15.0509 -12.5656 -3.06183
-20.6044 -11.3617 -0.298954
-20.4284 -11.258 -0.432334
-19.3287 -10.8736 -3.18483
-18.5011 -11.2368 -3.15096
-17.0658 -11.8695 -1.0435
-15.0527 -12.5047 -3.10508
-15.5525 -12.3333 -2.3076
-16.849 -11.8537 -1.12297
-16.1702 -11.6667 -1.89842
-17.2663 -11.6366 -1.16869
-15.7499 -12.184 -1.60125
-20.0537 -10.8992 -1.51231
-19.7226 -10.8099 -2.43243
-17.7387 -12.077 -0.236892
-16.9379 -12.0274 0.369458
-19.2459 -11.0006 -3.09362
-16.0879 -12.1135 -0.383819
-18.0216 -11.3116 -3.8527
-15.0922 -12.54 -3.18672
-17.65 -11.8651 -0.44351
-16.3694 -12.2641 -0.235636
-16.4836 -12.0919 -0.393522
-17.011 -11.3263 -2.19028
-14.7817 -12.6412 -2.94279
-16.1709 -12.5506 -0.278698
-16.9455 -11.9127 -1.08
-15.6353 -12.6486 -1.17694
-15.5319 -12.089 -1.60108
-16.4034 -12.0043 -1.49991
-20.4907 -11.3114 -0.483148
-16.7561 -11.9256 0.39939
-16.919 -11.9396 0.411675
-16.4051 -12.1809 -0.661332
-16.2863 -11.7515 -2.28939
-15.2702 -12.5944 -2.90508
-21.4996 -10.7437 0.908594
-18.4804 -11.7524 -0.518442
-19.6463 -11.0767 -2.15632
-16.6489 -12.2919 -0.234673
-16.5783 -12.3163 -0.331322
-15.9994 -12.7507 -1.03418
-16.108 -11.6471 -2.21178
-16.3092 -12.1107 0.360707
-16.017 -12.7751 -0.407738
-17.1521 -11.338 -2.3452
-15.9655 -12.3334 -1.06368
-16.709 -12.0845 0.434438
-16.6924 -12.2574 -1.15813
-16.888 -11.7146 -2.07906
-16.5583 -11.9772 -0.315669
-15.817 -12.1005 -2.00555
-17.0393 -11.8338 -0.960656
-16.6804 -11.737 -1.48283
-16.379 -11.941 -1.38547
-20.2814 -11.2502 -0.387957
-20.4784 -11.1618 -0.272276
-18.5103 -11.4123 0.0704086
-18.694 -11.0671 -1.17334
-17.0018 -11.9735 -0.447357
-16.7833 -11.8869 -0.218499
-16.6112 -12.1542 -0.321453
-17.8802 -11.4461 -1.59541
-19.8029 -10.8585 -2.66596
-16.6328 -11.7747 -1.77427
-16.7 -11.6483 -2.24099
-15.9738 -12.403 -1.66802
-16.143 -11.6112 -2.09825
-16.2059 -11.6704 -2.18744
-21.5306 -10.9437 1.03016
-17.9274 -11.6314 0.498244
-17.239 -11.8162 0.392776
-17.5313 -11.7478 -0.299003
-18.8851 -11.096 -1.13805
-16.9749 -12.0011 -0.174923
-16.7854 -11.8835 -0.274287
-16.0197 -12.4348 -1.14658
-17.4745 -11.1143 -2.1601
-16.1084 -11.6907 -1.98208
-15.9712 -11.7404 -2.17436
-15.6922 -11.7633 -2.47162
-21.4695 -10.8811 0.731978
-15.9352 -12.6369 -1.37687
-18.631 -11.2785 0.0916514
-16.8547 -11.9801 -0.314319
-15.4104 -11.6228 -2.91656
-15.8469 -11.5077 -3.22721
-15.6613 -11.7254 -3.1935
-20.4734 -11.415 -0.393288
-16.7604 -11.5665 -1.38191
-16.7317 -12.1316 -0.224753
-16.0148 -12.5937 -0.548651
-16.9635 -11.9617 -1.48933
-15.7493 -12.1113 -2.02172
-18.664 -11.2727 -0.934771
-16.4549 -12.1935 -0.154643
-20.672 -11.3265 -0.450059
-16.7091 -11.9453 -1.72018
-17.5015 -11.359 -1.10973
-17.9691 -11.6274 0.391654
-18.6301 -11.4588 -0.0526795
-20.61 -11.2162 -0.614562
-16.8411 -11.7536 -0.391383
-18.0599 -11.7311 -0.946554
-18.0261 -11.6839 -1.19856
-19.68 -11.0217 -2.06312
-16.1221 -12.4304 -0.695767
-16.1964 -12.306 -0.803235
-15.906 -12.5164 -0.940863
-19.0487 -11.1304 -2.6872
-20.3543 -10.631 -3.33609
-18.7564 -10.9945 -3.09518
-16.0106 -12.2885 -1.66474
-16.7785 -11.5682 -2.15093
-18.7006 -11.2853 0.396646
-17.4959 -11.7627 0.309096
-16.6231 -12.1254 0.346924
-17.3637 -11.8391 -0.428734
-16.5517 -12.2094 -0.156482
-16.4976 -12.3487 -0.118002
-19.5891 -11.0795 -2.27549
-16.9367 -11.5485 -1.732
-15.9863 -12.4204 -1.49216
-15.6936 -11.9704 -2.353
-15.0983 -12.6203 -3.09798
-20.4225 -10.9152 -1.29795
-16.7283 -12.3366 -0.320299
-15.9368 -12.4877 -1.07057
-17.1205 -11.1898 -2.25909
-15.8368 -11.7974 -2.3638
-20.0562 -11.3838 -0.723436
-18.2557 -11.8587 -0.673877
-16.0629 -12.292 -1.28681
-16.9483 -11.4839 -2.25243
-16.8734 -12.0777 0.316435
-16.0406 -12.5931 -0.934268
-21.6597 -11.094 0.554556
-16.0819 -12.3075 -1.37455
-15.719 -12.48 -1.42211
-19.9548 -10.5358 1.26047
-21.6997 -11.0666 0.572417
-18.9837 -11.0072 0.153172
-20.5837 -11.1538 -0.11169
-16.3834 -12.2214 0.40249
-18.0257 -11.628 0.0875227
-19.0531 -11.1668 0.180128
-20.4757 -11.2613 -0.394985
-20.4368 -10.9565 -0.358028
-20.3189 -11.5493 -0.452195
-19.7808 -11.304 -0.692703
-17.3401 -11.9808 -0.377335
-16.3209 -12.5477 -0.120089
-16.8453 -12.0898 -0.301363
-19.8343 -11.3946 -1.15326
-16.9242 -11.6969 -0.533345
-19.7637 -11.3415 -1.18825
-18.8468 -11.1304 -1.23527
-18.535 -10.6668 -1.12
-19.8283 -11.1079 -1.65836
-16.4281 -12.1514 -1.13216
-16.3401 -12.1563 -1.03871
-17.9372 -11.6614 -1.41186
-16.5161 -12.1576 -0.871964
-19.5897 -10.9373 -2.36445
-15.9233 -12.3125 -1.32468
-19.0184 -11.2556 -2.27301
-15.3282 -12.7549 -1.86721
-16.668 -11.841 -2.18925
-16.8645 -11.6422 -2.34058
-15.8302 -12.0337 -2.32914
-15.0853 -12.6349 -2.62596
-15.3045 -12.4277 -2.90875
-14.8364 -12.8295 -3.21331
-15.7098 -12.3577 -3.58129
-16.5295 -10.4065 2.06236
-16.958 -10.3301 1.33396
-21.5941 -10.9108 0.970375
-17.1472 -10.216 1.44458
-20.567 -11.4866 0.0942549
-17.0048 -12.103 0.430826
-16.5223 -12.3336 -0.130133
-16.6738 -12.2452 -0.266209
-20.6157 -11.0289 -1.21862
-16.0824 -12.4591 -0.79019
-16.4716 -12.2552 -1.00987
-19.2224 -11.4833 -2.01249
-16.6019 -11.9801 -1.86085
-15.0959 -12.657 -3.20285
-19.9108 -10.4125 1.38263
-20.4647 -11.3614 -0.280196
-16.6879 -12.2548 -0.0747672
-19.8935 -11.1705 -1.10926
-17.4735 -11.4673 -1.12596
-16.132 -12.663 -0.828614
-15.7006 -12.4908 -1.18699
-16.9987 -10.9956 -2.61063
-19.3855 -10.9541 -3.90249
-15.8991 -11.509 -3.26055
-14.8397 -12.5807 -3.2727
-18.0896 -11.9109 0.151569
-20.1985 -11.2775 -0.692064
-16.7447 -11.8071 -0.304019
-16.9094 -12.1399 -0.863524
-18.5404 -11.2958 0.0318674
-16.5959 -12.1867 -0.321739
-16.2715 -12.2565 -1.40171
-15.9516 -12.4308 -1.22584
-15.1402 -12.5745 -2.8434
-16.7498 -12.0791 -1.02368
-16.0589 -12.2782 -1.52064
-17.0123 -11.469 -1.85667
-16.7405 -11.7575 -2.04476
-16.0921 -11.6776 -3.22775
-15.6615 -12.4387 -3.39694
-14.7416 -12.8042 -3.25791
-15.5083 -12.4486 -3.14481
-15.0961 -12.4651 -2.86357
-16.3206 -11.5205 -3.03926
-14.8309 -12.6324 -2.91453
-14.7661 -12.684 -3.09881
-16.1226 -11.4345 -3.17424
-15.1284 -12.711 -2.90235
-16.7988 -11.2207 -3.01781
-14.7772 -12.7965 -2.78408
-18.4309 -11.0676 -3.81927
-14.6865 -12.7435 -2.94735
-15.2901 -12.5314 -2.95773
-17.1091 -10.8882 -2.70243
-15.4656 -12.4581 -2.85788
-19.2301 -10.6599 -3.63253
-19.3358 -10.6621 -3.79938
-15.4323 -12.7301 -2.71326
-15.5531 -12.6763 -2.74047
-20.4581 -10.3893 -3.85333
-15.0357 -12.8241 -2.43405
-15.1629 -12.7909 -2.73347
-15.0638 -12.7651 -2.43681
-15.2703 -12.8719 -2.6469
-14.9302 -12.6919 -2.54787
-18.4751 -11.3813 -3.35033
-19.7612 -10.6282 -3.61454
-19.3136 -10.8573 -3.06832
-20.1203 -10.5722 -3.32546
-18.4659 -11.4514 -3.03652
-18.5951 -11.5125 -2.86703
-18.445 -11.3029 -2.93015
-18.5654 -11.2317 -2.92292
-19.8321 -10.5774 -3.03802
-19.4588 -10.8047 -2.99642
-19.336 -10.7695 -2.92418
-19.6572 -10.8739 -2.74095
-17.989 -11.1502 -2.3008
-19.166 -10.9514 -2.89655
-15.158 -13.0463 -1.92134
-15.2847 -12.7331 -1.78072
-20.5877 -10.4295 -2.51557
-19.117 -11.128 -2.62984
-20.1881 -10.4071 -2.77145
-17.8596 -11.5434 -2.10729
-20.2397 -10.7171 -2.51547
-17.7892 -11.3483 -2.24528
-19.0404 -11.0556 -2.33052
-19.7165 -11.0061 -2.41778
-17.8547 -11.6167 -1.97399
-17.8912 -11.5851 -1.64477
-17.8287 -11.3349 -1.85029
-20.7113 -10.5898 -2.20822
-15.7338 -12.4623 -1.4468
-15.6619 -12.4731 -1.47896
-19.3361 -11.1837 -1.94429
-17.9305 -11.461 -1.71649
-18.0479 -11.5602 -1.6444
-17.8403 -11.7242 -1.67479
-17.7142 -11.5339 -1.64923
-18.0664 -11.4956 -1.73873
-17.9669 -11.5693 -1.60388
-16.9592 -11.7435 -1.28509
-16.9357 -11.9096 -1.31996
-18.2431 -11.5144 -1.63958
-19.8941 -11.1231 -1.80797
-16.9511 -11.7568 -0.965511
-18.1236 -11.532 -1.31923
-16.8995 -11.6947 -1.14262
-16.7183 -12.1167 -0.981865
-17.5992 -11.571 -1.25603
-20.263 -10.9825 -1.62464
-20.7692 -10.6514 -1.56866
-20.1947 -11.1207 -1.74593
-16.7536 -12.0174 -0.77936
-18.2402 -11.6873 -0.831683
-16.9236 -11.8913 -0.83099
-17.652 -11.6429 -0.683131
-18.5524 -11.6531 -1.01747
-18.321 -11.5224 -0.909642
-18.3351 -11.549 -0.671538
-17.6504 -11.7465 -0.681482
-18.6662 -11.6118 -0.883708
-18.8257 -11.3294 -0.858246
-16.5104 -12.3028 -0.406346
-16.7463 -12.1389 -0.232236
-20.8584 -11.043 -0.847886
-19.9088 -11.4078 -0.735252
-20.926 -10.8725 -0.803141
-19.707 -11.3487 -0.572582
-19.6342 -11.6015 -0.313471
-20.4246 -11.1945 -0.587481
-20.1278 -11.3117 -0.47806
-20.0952 -11.3953 -0.517374
-20.8517 -11.1364 -0.619676
-20.3642 -11.4614 -0.273695
-18.2238 -11.5407 0.0313623
-18.3542 -11.3966 0.298493
-17.623 -11.6478 0.345001
-17.8584 -11.6105 0.353956
-17.5604 -11.6376 0.233672
-18.6347 -11.3383 0.353102
-20.7602 -11.3641 -0.150381
-20.3093 -11.3651 0.161446
-21.2019 -10.9522 0.147387
-21.0805 -11.2424 0.232779
-20.382 -11.5958 0.661574
-20.5297 -11.4942 0.623438
-15.27 -12.2455 -3.41079
-14.6764 -13.1319 -3.1853
-15.4287 -12.4491 -3.4153
-15.827 -12.0942 -3.43488
-15.4056 -12.4173 -3.33289
-15.0701 -12.6023 -3.24213
-14.877 -12.6997 -3.14804
-14.8566 -12.6468 -3.09325
-14.9521 -12.5409 -2.97089
-15.108 -12.5134 -3.1125
-15.3277 -12.5974 -3.11878
-15.9983 -11.3002 -2.75225
-14.8779 -12.7952 -2.92981
-15.062 -12.5129 -3.05259
-14.9449 -12.7208 -2.97474
-16.6668 -11.3837 -3.05328
-14.9332 -12.7298 -2.94887
-15.1554 -12.6175 -2.9307
-19.3015 -10.8738 -3.64767
-19.1959 -10.8976 -3.5554
-19.9045 -10.4965 -3.78665
-19.1336 -10.8338 -3.56983
-19.9409 -10.4657 -3.68775
-15.0313 -12.6807 -2.64401
-18.2251 -11.2214 -3.22067
-18.6072 -11.2952 -3.27628
-19.0291 -11.1571 -3.31811
-19.1842 -10.7053 -3.38684
-19.8518 -10.725 -3.4951
-19.1632 -11.003 -3.34052
-17.9855 -11.3665 -3.05454
-18.5196 -11.085 -3.19354
-16.0862 -11.6258 -2.19335
-20.1412 -10.5901 -3.43665
-15.9144 -11.721 -2.23206
-20.5595 -10.445 -3.35606
-18.607 -11.359 -2.66391
-19.9956 -10.6935 -3.44179
-18.3432 -11.4427 -2.88633
-18.5879 -11.2259 -2.9597
-20.1426 -10.6724 -3.27821
-18.8918 -11.1846 -2.90639
-17.2008 -11.2932 -2.06061
-17.3474 -11.4071 -2.22071
-20.0354 -10.5942 -3.13012
-19.9573 -10.4512 -3.00802
-17.8423 -11.0762 -2.36449
-15.3909 -12.9162 -2.17651
-19.9384 -10.6649 -3.01777
-19.3022 -11.0421 -2.64908
-19.2538 -11.1331 -2.60294
-19.1638 -11.0223 -2.78589
-19.2904 -11.1906 -2.679
-17.9694 -11.3892 -2.1096
-19.1075 -11.2704 -2.50492
-18.8344 -11.3334 -2.38781
-19.0615 -11.1002 -2.42481
-16.455 -11.9538 -1.67743
-18.7485 -11.2998 -2.36676
-19.546 -11.2253 -2.31307
-20.3304 -10.5526 -2.36545
-20.5775 -10.5111 -2.56462
-20.6428 -10.5361 -2.32217
-18.8988 -11.4184 -2.07393
-19.6569 -11.122 -2.08598
-15.6871 -12.5471 -1.38172
-20.3883 -10.7193 -2.15349
-20.5027 -10.7616 -2.17535
-17.0398 -11.8646 -1.38721
-17.9279 -11.6206 -1.65924
-16.9903 -11.7368 -1.44063
-19.7682 -11.2169 -1.98906
-18.3721 -11.4411 -1.48627
-20.659 -10.7796 -1.6967
-20.4582 -10.6572 -1.83453
-20.7223 -10.757 -1.54409
-16.8496 -12.0047 -0.838204
-20.2375 -10.957 -1.72742
-16.0903 -12.3412 -0.5819
-16.9228 -11.9088 -0.832842
-16.607 -12.2151 -0.951434
-16.3813 -12.3939 -0.747901
-17.6361 -11.5421 -1.04152
-19.7546 -11.308 -1.06995
-20.5985 -10.9561 -1.2773
-19.7338 -11.4594 -1.08565
-17.0148 -11.7266 -0.551581
-16.3402 -12.5225 -0.543073
-16.2018 -12.4168 -0.623533
-16.9026 -11.8874 -0.478701
-16.2786 -12.4308 -0.643155
-16.5018 -12.1958 -0.457089
-16.5471 -12.3447 -0.294145
-20.0892 -11.1849 -0.879147
-16.7576 -12.0982 -0.49707
-16.7224 -12.3297 -0.237655
-16.7925 -12.1525 -0.52785
-17.4221 -11.7486 -0.299719
-20.6877 -10.9217 -0.766874
-20.0247 -11.2814 -0.839335
-18.6442 -11.5445 -0.500231
-18.9124 -11.2876 -0.395163
-20.9862 -11.0157 -0.760287
-20.1071 -11.2754 -0.516022
-19.9064 -11.6029 -0.470416
-20.2167 -11.4965 -0.474073
-18.6563 -11.2755 -0.00451735
-18.3987 -11.4043 0.253295
-17.7996 -11.6081 0.176917
-18.8075 -11.1574 0.112104
-16.9446 -12.084 0.316495
-21.1125 -10.9203 -0.325884
-16.6951 -12.1345 0.369318
-20.2012 -11.3286 -0.322455
-17.6913 -11.6593 0.201559
-19.1388 -11.0064 0.144344
-18.9825 -11.1761 0.261908
-16.4698 -11.9211 0.412978
-17.2326 -11.9253 0.460156
-17.297 -11.7895 0.286439
-16.6314 -12.2094 0.54831
-16.5871 -12.0027 0.455754
-16.7772 -11.9898 0.541282
-17.5395 -11.6272 0.492036
-20.3549 -11.3917 0.120251
-20.4683 -11.3562 0.188677
-21.0781 -11.206 0.189348
-21.3697 -11.1767 0.0968045
-20.868 -11.3817 0.402946
-21.438 -11.1156 0.646105
-20.6414 -11.4644 0.546636
-16.9392 -10.3188 1.21971
-16.7894 -10.3883 1.19553
-17.1104 -10.2687 1.33873
-16.9251 -10.6243 1.51877
-17.3097 -10.2142 1.26925
-17.2301 -10.0861 1.25194
-16.8522 -10.2404 1.40979
-16.7074 -10.2812 1.53202
-16.7121 -10.461 1.29581
-16.5789 -10.4525 1.43911
-17.2873 -10.4229 1.39846
-16.9615 -10.2385 1.65865
-17.3028 -10.4025 1.6708
-16.8856 -10.2858 1.69569
-16.9248 -10.3803 1.49158
-17.0235 -10.4158 1.54625
-16.7488 -10.4664 1.48919
-17.0285 -10.4062 1.41236
-19.9017 -10.6058 1.66012
-17.0635 -10.1491 1.8634
-14.748 -12.7916 -3.27481
-15.6624 -12.3231 -3.52952
-14.6746 -12.7219 -3.05031
-16.2084 -11.4364 -2.93211
-15.0981 -12.6699 -3.006
-16.9703 -11.0603 -2.91629
-15.2802 -12.5069 -2.7174
-15.0495 -12.4971 -2.91896
-18.9408 -10.93 -3.5881
-16.4011 -11.5681 -2.61387
-18.4211 -11.3911 -3.41447
-20.1538 -10.399 -3.34792
-15.7905 -11.5401 -2.13144
-17.2402 -11.1182 -2.23279
-19.0576 -11.0603 -2.89807
-15.1119 -12.6663 -2.08168
-19.4431 -10.9075 -3.02728
-19.4678 -10.9071 -2.98342
-20.1089 -10.4808 -3.09076
-20.4735 -10.5623 -3.06768
-16.9808 -11.579 -2.27764
-16.4027 -11.9807 -1.97145
-16.645 -11.8379 -1.97285
-16.9591 -11.6433 -2.11937
-20.0367 -10.701 -2.70927
-19.0243 -11.2835 -2.67421
-15.6202 -12.9056 -1.88196
-18.5913 -11.4384 -2.68176
-16.5947 -11.7474 -1.77635
-20.3362 -10.6357 -2.63469
-18.621 -11.4238 -2.17754
-18.334 -11.4017 -2.27018
-19.9628 -10.844 -2.45544
-20.3875 -10.7097 -2.55796
-19.0389 -11.4523 -2.04242
-18.5671 -11.5872 -1.95377
-18.1795 -11.4736 -1.70201
-18.8224 -11.409 -1.56132
-19.1211 -11.3391 -1.6906
-19.6341 -11.2405 -1.90692
-20.7968 -10.6323 -1.86291
-18.1844 -11.7166 -1.14286
-20.2362 -11.1887 -1.48289
-16.311 -12.3043 -0.794447
-19.8467 -11.0908 -1.41091
-17.6146 -11.7118 -1.07199
-18.5213 -11.6519 -1.26576
-17.4129 -11.6605 -0.860293
-18.2043 -11.6958 -0.810338
-16.8907 -11.9095 -0.447701
-16.9038 -11.6279 -0.340737
-18.1455 -11.8031 -0.473546
-16.8988 -11.8313 -0.187839
-16.5985 -12.0263 -0.251644
-19.7512 -11.4403 -0.820498
-19.0278 -11.3117 -0.319456
-16.8663 -12.1071 -0.281604
-20.1507 -11.2846 -0.601757
-20.2709 -11.461 -0.606724
-19.671 -11.5874 -0.358514
-20.2751 -11.1529 -0.380737
-20.639 -11.1128 -0.519457
-18.9851 -10.9201 -0.0504871
-18.9182 -11.2599 0.0883958
-18.2374 -11.3982 0.271883
-20.4178 -11.3855 -0.145876
-17.5894 -11.5775 0.28269
-20.6901 -11.2414 -0.0153818
-19.2183 -11.1788 0.0793142
-16.9759 -11.8242 0.517962
-18.839 -11.3329 0.389552
-20.4243 -11.475 0.163274
-17.4481 -11.7522 0.402496
-20.9981 -11.1395 0.273569
-20.6169 -11.3812 0.213056
-21.1859 -10.9837 0.308549
-21.1945 -10.9342 0.252369
-20.5641 -11.5058 0.283945
-20.5526 -11.5781 0.481533
-20.2303 -11.4927 0.647476
-16.1159 -10.5912 1.33525
-16.8008 -10.4731 1.4668
-15.1295 -12.5483 -3.42954
-16.6766 -11.1446 -3.0821
-16.6934 -11.2677 -3.07439
-16.5896 -11.2542 -3.16397
-16.1256 -11.6302 -2.72655
-15.1107 -12.6636 -2.98948
-18.395 -11.1209 -3.56044
-19.8604 -10.5297 -3.58588
-20.3525 -10.2965 -3.74642
-18.3043 -11.399 -3.23479
-18.1292 -11.3678 -3.14402
-18.5725 -11.1238 -3.21595
-16.1723 -11.8388 -2.10241
-20.0298 -10.6275 -3.43792
-18.8111 -11.1382 -2.78368
-20.1056 -10.5104 -3.03137
-20.4873 -10.4562 -3.13592
-16.7617 -11.6354 -1.83326
-19.6332 -10.9195 -2.2783
-19.1109 -11.2753 -2.0889
-18.9833 -11.4728 -1.9804
-19.1025 -11.465 -1.75025
-19.0333 -11.5217 -1.75524
-20.0911 -10.9805 -1.90022
-16.3545 -12.0488 -1.0594
-17.4942 -11.6986 -1.28441
-20.8064 -10.7745 -1.66109
-20.5435 -10.7985 -1.57612
-16.4227 -12.2236 -0.681133
-16.6045 -12.2159 -0.251318
-17.4361 -11.8298 -0.296416
-16.4366 -12.3263 -0.137775
-16.6317 -12.3549 -0.18767
-20.4376 -10.9741 -0.543525
-20.8074 -11.1204 -0.692908
-19.9901 -11.4363 -0.50688
-17.5301 -11.8827 0.204474
-17.1468 -11.9055 0.276547
-18.4818 -11.3401 -0.0520067
-19.1175 -10.973 0.212777
-17.9675 -11.6143 0.332937
-18.8606 -11.364 0.346336
-20.6222 -11.2808 0.351831
-20.8768 -11.0069 0.434273
-17.0377 -10.1519 1.424
-17.1683 -10.4319 1.71969
-17.3104 -10.2421 1.54405
-16.3929 -11.1968 -2.94785
-15.1795 -12.5724 -2.89115
-18.1681 -11.2459 -3.62064
-18.189 -11.4508 -3.15353
-14.9641 -12.8189 -2.40374
-16.0813 -11.841 -2.08864
-15.8646 -11.7178 -2.21608
-16.1323 -11.8065 -2.23613
-16.0423 -11.7847 -2.1652
-20.1405 -10.7818 -3.06306
-17.9644 -11.0578 -2.48446
-19.2414 -10.9873 -2.63769
-19.5529 -11.3231 -1.65269
-17.0354 -11.8707 -1.34584
-16.3953 -12.1625 -1.05726
-18.089 -11.6229 -1.24534
-17.4269 -11.7612 -0.681171
-16.8839 -11.9233 -0.411404
-17.5274 -11.9879 -0.141377
-18.0804 -11.7975 -0.394323
-20.133 -11.2251 -0.786332
-21.0544 -11.0128 -0.634699
-20.5819 -11.2732 -0.355909
-16.6798 -12.1664 0.219184
-16.7614 -12.0433 0.292599
-20.3423 -11.5151 -0.119673
-16.6241 -12.1478 0.443044
-20.7904 -11.2462 0.136426
-16.9944 -11.153 -3.0983
-19.8976 -10.3615 -3.82522
-16.1584 -11.6914 -2.31148
-17.2578 -11.1728 -2.38414
-20.2858 -10.6441 -3.01116
-16.6374 -11.689 -1.95428
-17.0565 -11.6468 -2.01816
-16.8528 -11.7496 -1.95271
-16.8061 -11.7888 -1.21104
-15.8707 -12.6257 -0.996622
-18.5832 -11.2053 0.113035
-21.0274 -11.2324 0.308001
-20.9638 -11.2704 0.539751
-16.2965 -11.7113 -2.31313
-16.8923 -11.7545 -1.84504
-15.4938 -12.3385 -1.54774
-18.0043 -11.19 -1.82499
-15.8476 -12.4904 -1.38576
-16.8935 -11.8886 -1.25305
-17.9576 -11.6308 0.10556
-18.7178 -11.1775 0.0476304
-16.9366 -11.8633 0.157976
-19.0069 -11.2163 0.0420155
-19.2221 -11.1976 0.119188
-15.8008 -11.7456 -2.49933
-18.725 -11.1343 -3.30674
-15.1618 -12.3582 -2.2813
-17.043 -11.4147 -2.14068
-16.8839 -12.1493 -0.84805
-19.846 -11.412 -1.10175
-19.7171 -11.437 -0.889662
-18.6179 -11.219 0.227226
-17.065 -10.2684 1.55326
-16.7513 -11.8766 -1.4672
-16.7158 -12.2047 -0.108643
-17.6143 -11.52 -2.20504
-17.8256 -11.6531 -1.4355
-15.7935 -12.7135 -0.57453
-19.0481 -11.0919 -1.00532
-16.7814 -11.9836 -0.00865792
-16.9786 -11.1769 -2.21669
-16.3481 -11.8755 -1.56247
-16.6999 -11.6945 -1.75634
-15.8864 -12.5927 -1.41022
-16.4901 -11.9625 -1.2595
-17.3497 -11.9754 -1.0977
-16.2685 -11.6388 -2.10811
-16.9954 -11.6697 -0.302189
-15.5388 -12.4263 -1.64521
-20.2132 -10.5099 -3.18335
-20.0669 -10.3896 -3.07686
-20.0406 -10.8668 -2.7254
-19.2426 -10.9049 -3.48509
-19.3797 -10.774 -3.39609
-19.0552 -10.8967 -3.17449
-18.8148 -11.0529 -3.56654
-19.0939 -10.8317 -3.40624
-20.0603 -11.0396 -2.33014
-18.9306 -10.8841 -3.35929
-20.5816 -10.8717 -1.47649
-18.6399 -11.3041 -3.3294
-18.2374 -11.2891 -3.45334
-18.3906 -11.1944 -3.27186
-20.1711 -11.0009 -1.48456
-18.6892 -11.3614 -2.89443
-19.2964 -11.1458 -2.3089
-18.6671 -11.3688 -2.79873
-18.4666 -11.3845 -2.952
-20.6033 -10.8942 -1.28414
-18.9687 -11.3742 -2.59461
-18.5599 -11.4644 -2.98198
-17.0561 -11.004 -3.08844
-19.0328 -11.1704 -2.34032
-20.902 -10.907 -0.742615
-20.7291 -10.9877 -0.69925
-16.5629 -11.1454 -3.08215
-20.0804 -11.2824 -1.03314
-20.5902 -11.1372 -0.463195
-20.4513 -11.264 -0.37054
-19.8253 -11.4027 -0.851004
-20.5764 -11.2204 -0.339972
-17.8419 -11.4075 -1.94527
-19.7821 -11.3891 -0.721248
-18.0718 -11.4806 -1.87677
-21.2572 -11.1846 0.441103
-18.1599 -11.4796 -1.58374
-18.1714 -11.5058 -1.49439
-15.7136 -11.4143 -2.87608
-17.7776 -11.5598 -1.71886
-18.7283 -11.5535 -0.992184
-20.5879 -11.4705 0.482471
-18.4856 -11.5689 -0.927121
-18.8981 -11.1554 0.0917159
-18.9913 -11.1994 0.161344
-15.5014 -12.1943 -3.40171
-18.7771 -11.3242 0.0943918
-16.0306 -11.5627 -2.23419
-17.9865 -11.7889 -0.662948
-18.6369 -11.278 0.297586
-18.6638 -11.3042 0.448932
-16.8301 -11.7856 -1.5078
-16.7245 -11.8407 -1.41506
-15.1814 -12.6059 -3.27191
-18.3761 -11.3553 0.269759
-17.212 -11.8019 -1.27629
-17.8513 -11.8668 -0.776358
-18.2 -11.5186 0.102543
-17.0235 -11.8704 -1.11957
-17.3876 -10.1701 1.42465
-16.7499 -12.0233 -1.06778
-16.8628 -10.2788 1.37062
-17.9572 -11.523 0.0310694
-16.8873 -11.6616 -0.76678
-16.7561 -12.0012 -0.64856
-15.1045 -12.6521 -2.97185
-17.4984 -11.9165 -0.280793
-15.071 -12.6206 -2.99474
-15.1863 -12.717 -2.68599
-17.8856 -11.5488 0.095119
-17.7493 -11.7805 0.255152
-17.5292 -11.8737 0.212454
-14.9139 -12.6668 -3.08703
-15.9664 -12.1489 -1.51125
-14.8236 -12.8052 -2.85805
-14.6699 -12.7775 -3.02383
-16.7215 -11.9021 -0.305399
-14.7966 -12.8204 -2.8315
-15.92 -12.429 -1.59392
-17.5001 -11.9176 0.292103
-15.1887 -12.8237 -2.43815
-15.2508 -12.6816 -2.57943
-17.137 -10.5357 1.97604
-15.7584 -12.3347 -1.57723
-16.2539 -12.214 -0.736732
-15.868 -12.5199 -0.999801
-16.394 -12.3514 -0.158395
-15.8784 -12.6238 -0.515201
-16.4895 -12.0471 0.476537
-20.3324 -10.5481 -3.33739
-20.7221 -10.3717 -2.80009
-19.9752 -10.5714 -3.32454
-19.7068 -10.8054 -3.63075
-20.4388 -10.8347 -2.99072
-20.347 -10.579 -2.33357
-19.2442 -11.0897 -3.6059
-19.607 -10.8843 -3.18875
-20.5236 -10.8367 -2.13607
-19.5814 -10.8179 -2.93575
-20.4953 -10.7699 -1.75467
-20.5156 -10.8469 -1.70133
-19.8552 -10.8903 -2.52492
-19.3056 -11.3403 -2.72007
-18.3034 -11.2185 -3.49987
-18.3942 -11.1088 -3.24112
-18.2536 -11.2538 -3.14495
-18.5158 -11.2916 -3.06682
-18.134 -11.2098 -3.34082
-19.0615 -11.3608 -2.40555
-19.3402 -11.3191 -2.64706
