-20.0651 -10.6753 -0.0924462
-17.3167 -11.6326 -1.32398
-20.3383 -11.077 0.189304
-18.8365 -11.5942 -0.217006
-20.187 -11.2986 0.861804
-15.8029 -12.6378 -1.46444
-17.4277 -12.0894 -0.516497
-18.6811 -11.1756 0.683448
-16.1309 -12.5109 -0.828584
-18.1122 -11.3754 0.457782
-16.9592 -12.24 -0.125983
-19.1815 -11.7282 1.19353
-18.1694 -11.6562 1.23164
-18.4454 -11.6044 1.57638
-18.1897 -11.4607 1.51257
-18.9078 -11.3715 -2.06478
-17.0512 -11.6317 -2.31905
-18.7883 -11.4987 -1.4667
-19.1107 -11.3028 -0.885979
-17.8993 -11.8814 -0.950792
-19.2304 -11.4693 0.0747848
-16.2818 -12.4244 -0.820159
-18.6562 -11.0524 0.749906
-19.7265 -11.552 1.02673
-17.4829 -11.8884 -0.00244928
-18.3309 -11.3585 0.749106
-16.9426 -12.2295 0.0761056
-17.1257 -12.0939 0.0677463
-18.4066 -11.3158 1.18079
-16.9767 -12.1387 0.552416
-17.6357 -11.6058 -1.42902
-19.3594 -11.4337 0.199783
-19.331 -11.5689 0.171447
-17.557 -11.8998 0.150078
-19.2012 -11.7044 -0.107133
-19.203 -11.3459 0.0173033
-19.4722 -11.4528 0.0818125
-17.93 -11.5549 0.358782
-18.5973 -11.3811 0.95743
-18.5907 -11.2106 1.44727
-18.3737 -11.3744 1.61191
-17.3772 -11.5696 -2.25773
-19.0247 -11.4874 -0.605785
-15.7293 -12.8727 -1.188
-16.3848 -12.5001 0.183711
-17.9819 -11.7813 -0.460114
-17.5453 -11.6133 -1.55155
-19.1617 -11.5434 -0.59913
-15.199 -12.1322 -3.02282
-19.569 -11.548 0.431516
-18.5208 -11.2016 0.805609
-19.9537 -10.9163 -1.15111
-18.935 -10.888 -2.2699
-18.6773 -11.2385 -2.5129
-18.4171 -11.3299 -2.65222
-19.1963 -11.1675 -0.94136
-19.1713 -11.3699 -1.04681
-19.1979 -11.4963 -0.846015
-17.43 -11.2835 -2.37282
-18.4773 -10.8783 -0.872413
-18.897 -11.627 -0.594052
-19.3034 -11.328 -0.197599
-17.0293 -11.2639 -2.28561
-19.5159 -11.4909 0.0571466
-17.944 -11.6735 -0.913827
-19.2095 -11.8084 1.10095
-17.12 -11.912 -0.892321
-17.1598 -12.1064 -0.51678
-17.4838 -12.0417 0.0398288
-17.0203 -12.1822 -0.656866
-16.2123 -12.2967 -1.16258
-16.1732 -12.3571 -0.99677
-16.0527 -12.5947 -1.01962
-15.8795 -13.0786 -0.826749
-15.9694 -12.6823 0.245005
-16.538 -10.4364 1.76059
-20.2834 -10.5475 -1.30947
-20.2397 -10.627 -1.22423
-19.5157 -11.0593 -1.73631
-20.1778 -11.0157 -0.170605
-20.138 -11.2264 0.165349
-18.3126 -11.5622 -2.76092
-18.2394 -11.5878 -2.37903
-17.8915 -11.5256 -2.67076
-20.373 -11.175 0.939213
-19.9995 -11.2129 0.556497
-19.3389 -11.5166 -0.532582
-16.8069 -11.3626 -2.34403
-16.9978 -11.5483 -2.13879
-17.6606 -11.656 -1.13715
-17.8418 -11.9511 -1.04438
-19.3459 -12.0289 0.949184
-16.4658 -11.9949 -2.0036
-16.6546 -11.9332 -1.67715
-18.3241 -11.324 0.261624
-15.9216 -12.0457 -2.54245
-18.2308 -11.3217 1.04864
-16.2192 -12.1548 -1.45711
-16.6057 -12.5221 -0.797305
-16.7913 -12.0179 -0.305329
-17.1435 -12.2138 -0.009112
-16.0288 -12.907 -0.749998
-16.6058 -12.3911 0.342513
-19.0486 -11.5344 -1.00648
-19.8813 -11.2333 0.299588
-17.0925 -11.59 -2.25423
-18.5756 -11.3034 0.175437
-17.6357 -11.6167 -1.39508
-19.1677 -11.6913 0.246303
-17.4004 -11.5692 -1.29225
-16.6306 -11.8535 -1.75012
-17.2915 -11.9096 -1.00078
-17.2333 -11.9902 -1.08321
-18.6595 -11.2383 1.58398
-17.2907 -12.1306 -0.0116827
-16.3646 -12.4989 -0.861598
-16.0883 -12.5418 -0.789673
-16.0089 -12.5725 -0.835626
-20.0137 -10.4871 -1.72244
-20.2333 -11.1013 -0.242415
-17.1254 -11.5067 -2.30074
-19.1521 -11.6073 -0.18496
-19.4718 -11.5415 0.716454
-17.0531 -11.9915 -0.70447
-17.2186 -11.9072 -0.81651
-16.0339 -12.0085 -2.41365
-17.4303 -11.8663 -0.76847
-17.2312 -11.9803 -0.453767
-17.2118 -12.1758 -0.319009
-14.5346 -13.1575 -3.71995
-16.0694 -12.5185 -0.990615
-16.1232 -12.6745 -0.712493
-16.1328 -12.7291 -0.500639
-19.3474 -10.9933 -2.01519
-20.2423 -11.2956 1.24908
-17.1864 -11.9629 -0.778079
-17.2084 -12.155 -0.603594
-17.2981 -11.9872 -0.408739
-16.1603 -12.4624 -0.960288
-16.4268 -12.3074 0.333563
-16.4341 -12.3635 0.389285
-19.141 -11.4761 -0.684487
-19.3625 -11.6112 0.0384788
-19.442 -11.3568 0.205381
-17.3916 -12.036 -0.784956
-18.3657 -11.5904 1.0102
-16.1351 -12.4913 -1.21067
-18.4286 -11.3642 0.846486
-17.1445 -11.4457 -2.25121
-19.3136 -11.6098 -0.371919
-18.3388 -11.5837 1.02333
-16.9315 -12.2412 -0.512357
-18.9015 -11.0696 1.35078
-16.1948 -11.9195 -1.63075
-19.4413 -11.2376 -0.747565
-17.1457 -11.9754 0.108794
-20.3951 -10.621 -1.22342
-19.994 -11.2297 0.0787577
-19.8018 -11.543 0.819658
-19.2296 -11.4366 -1.10878
-18.9238 -11.4115 -0.908482
-18.5282 -11.5 -1.38475
-18.0763 -11.3257 0.439791
-18.0441 -11.4441 0.563411
-17.3035 -11.8322 -1.06785
-17.1194 -11.8897 -1.12159
-16.9335 -12.0752 -0.00934691
-16.7653 -12.1205 -0.567053
-16.5597 -12.0968 -0.609154
-16.1125 -12.3886 -0.711029
-15.7287 -10.882 1.29056
-15.8218 -11.0822 1.43322
-20.207 -10.7029 -0.965064
-19.5532 -10.7781 -2.52039
-20.2101 -11.0232 -0.0509843
-19.7866 -11.0245 -1.63762
-19.6502 -10.9792 -1.33
-20.0411 -11.2384 0.0263909
-19.5596 -10.9516 -1.65966
-20.0133 -11.2526 0.0976112
-19.1098 -11.1319 -2.45084
-19.4511 -11.2036 -1.021
-19.3635 -11.1886 -0.865991
-19.4193 -11.6167 0.0369633
-18.312 -11.3305 -2.81077
-18.5017 -11.3218 -1.42234
-18.3926 -11.5881 -0.555257
-17.8005 -11.8145 -0.846559
-16.8511 -11.4209 -2.37175
-16.8485 -11.5487 -2.23342
-17.2743 -11.8876 -0.660596
-17.2475 -11.8788 -0.696909
-17.0392 -11.9025 -0.921101
-17.0503 -10.6141 1.44772
-16.965 -11.7115 -1.73643
-17.3284 -12.1364 -0.424684
-16.8405 -12.0883 -1.20042
-16.5768 -12.0363 -0.731627
-16.7266 -12.0646 -0.622533
-16.704 -12.3122 -0.384548
-15.7216 -12.1435 -2.69758
-16.6503 -12.2566 0.206256
-16.2178 -12.4845 -1.071
-15.9633 -13.1814 -0.682489
-14.7015 -13.1789 -3.10314
-14.6561 -13.3476 -3.64299
-19.555 -10.6469 -2.13274
-20.1661 -11.0933 -0.24006
-19.4985 -10.6979 -1.70011
-19.6831 -10.8805 -1.55289
-19.272 -11.0816 -1.2391
-18.8524 -11.3765 -2.10985
-18.5745 -11.277 -2.45704
-19.1608 -11.6685 0.354944
-18.6339 -11.2144 0.513746
-18.0001 -11.4335 -2.62127
-18.1849 -11.4135 0.456087
-18.294 -11.5747 1.59825
-17.91 -11.9455 -0.805287
-17.8835 -11.8916 -0.788959
-17.585 -12.1885 -0.67069
-16.7884 -11.8712 -1.68745
-16.8905 -12.1792 -0.303591
-17.0802 -12.311 0.223224
-16.2795 -12.0758 -2.05211
-16.392 -12.3267 -1.69732
-16.6861 -12.1033 -0.386661
-16.2379 -12.2911 -1.80791
-16.2504 -12.3907 -1.10973
-16.2504 -12.5598 -0.896728
-16.4401 -12.3618 0.258566
-15.9537 -12.4475 -1.26272
-15.9295 -12.7932 -1.01626
-20.078 -10.4222 -2.18498
-19.5428 -10.9465 -2.33093
-20.0491 -10.9097 -1.10255
-20.0132 -10.7456 -1.18739
-20.5303 -11.1112 0.582439
-19.2499 -11.1172 -1.19978
-19.4906 -11.6431 0.662707
-19.6548 -11.7479 1.23909
-18.5837 -11.5612 -1.58537
-17.7746 -11.5515 -2.91766
-17.3053 -11.9498 -1.18396
-17.227 -11.8601 -1.2262
-17.3642 -11.9345 -0.261696
-17.0068 -12.0812 -0.359353
-17.0172 -12.1058 -0.290786
-16.1912 -12.5862 -0.941612
-16.1835 -12.5315 -1.03987
-16.1002 -12.724 -0.931892
-19.7719 -10.7638 -1.26161
-19.8846 -10.8224 -1.18481
-19.1378 -11.1256 -2.02562
-18.5801 -11.1246 0.237895
-17.2252 -11.827 -0.858239
-17.2021 -12.1114 -0.742088
-17.1483 -11.9658 -0.919691
-17.1618 -12.0291 -0.694555
-17.29 -12.2179 -0.214211
-16.8817 -11.8641 -1.64748
-17.0626 -11.9942 -0.988922
-17.2213 -12.0229 -0.32668
-16.4079 -12.0572 -1.84664
-16.2734 -12.3396 -1.00718
-16.1003 -12.722 -0.827742
-16.151 -12.5942 -0.765027
-20.2715 -10.9136 -0.72982
-19.1089 -11.0805 -0.867714
-17.3864 -11.9012 0.0225323
-17.5663 -11.7819 -0.273256
-17.2187 -11.8806 -0.685254
-16.4029 -12.0667 -2.14092
-18.8958 -10.9573 -2.22656
-17.4798 -11.419 -2.26451
-15.8045 -12.8661 -1.54379
-20.1303 -11.1116 -0.0457041
-18.5666 -11.0636 -1.07088
-17.7785 -11.7709 -1.21305
-16.8712 -12.3078 -0.436865
-16.0152 -12.114 -1.75868
-15.7891 -13.194 -0.824642
-18.6281 -11.3424 1.1609
-17.9977 -11.7081 -0.847993
-17.0132 -11.6765 -1.5776
-15.5283 -12.5947 -2.13731
-18.8629 -11.1914 0.129543
-20.254 -11.1906 -0.0977977
-20.0819 -10.8431 0.152224
-19.667 -11.1997 -0.293773
-19.62 -10.6398 -2.06794
-19.3147 -11.4739 -0.327613
-19.2685 -11.4901 -0.21097
-18.4814 -11.3845 0.531798
-18.9495 -11.3845 -1.03148
-19.1328 -11.2091 -1.45044
-19.0046 -10.8706 -2.48285
-19.0466 -11.0645 -2.68865
-18.9392 -11.0942 -2.43416
-19.0568 -11.0598 -2.25072
-19.0601 -11.1621 -2.25136
-19.0612 -11.1217 -2.2948
-18.9259 -11.4319 -2.06203
-18.6511 -11.3966 -1.98585
-18.805 -11.0584 -2.40484
-18.6207 -11.2776 -2.56872
-18.6169 -11.2774 -2.39643
-18.3174 -11.5273 -0.201924
-18.626 -11.5098 -1.61858
-18.3576 -11.7359 -0.396018
-17.0419 -10.779 1.54735
-17.8626 -11.6378 0.495025
-18.4314 -11.3448 -2.68331
-17.7762 -11.9592 -1.03682
-17.9156 -11.475 -2.94479
-16.6507 -12.0588 -1.41739
-16.7864 -12.0184 -1.21874
-16.4027 -12.336 0.304422
-16.0506 -12.5247 -0.994769
-15.7605 -12.9168 -2.00797
-15.6556 -11.9652 -2.95017
-20.358 -10.9399 0.575409
-20.2625 -11.0586 0.282773
-19.96 -10.82 -0.190038
-19.7853 -11.0462 0.0133714
-19.9901 -10.6747 -1.01672
-19.712 -11.0849 -0.100219
-19.6282 -11.4927 0.437733
-19.8502 -10.7918 -1.2773
-19.521 -11.5936 0.37284
-19.6908 -11.0787 -1.08613
-19.5225 -10.6528 -1.73088
-19.2178 -11.4982 0.11095
-19.3915 -11.2481 -0.864184
-19.2751 -10.9044 -2.05897
-19.0162 -11.6822 -1.12724
-18.907 -10.9605 -2.23564
-18.1917 -11.6279 0.540812
-18.0586 -11.2346 0.336925
-18.7453 -11.1815 -2.23601
-18.276 -11.5025 0.274103
-18.6857 -11.2081 -2.50397
-18.6263 -11.1918 -2.60688
-18.5681 -11.3989 -2.49998
-18.0767 -11.7608 -0.739141
-16.4645 -10.8708 1.49389
-16.2545 -10.9368 1.34694
-16.3046 -10.7316 1.18715
-16.971 -11.4331 -2.53196
-16.8098 -12.2755 -0.411563
-15.7922 -10.8902 1.31987
-16.4725 -12.2242 0.228146
-16.1981 -12.7478 -0.274719
-16.129 -12.6012 -0.964019
-16.1555 -12.2834 -1.47635
-16.1246 -12.036 -2.08455
-20.207 -11.4664 1.32493
-20.0104 -11.1795 -0.114431
-19.9729 -10.7009 -2.1276
-19.4899 -11.783 1.58012
-19.4655 -10.9331 -1.04446
-19.6246 -10.877 -1.85923
-19.3822 -10.7078 -1.64371
-19.2788 -11.7627 0.197997
-19.535 -10.982 -1.7513
-18.4673 -11.2077 0.562602
-18.3571 -11.4685 0.746631
-18.416 -11.1406 -0.942041
-18.0706 -11.3873 0.389744
-18.1025 -11.3476 0.300543
-18.5497 -11.1584 -2.3741
-17.0968 -10.5074 1.61059
-16.8468 -10.5082 1.89148
-17.3577 -11.7045 0.438022
-18.2485 -11.6514 -2.60946
-17.7784 -11.6712 -0.933187
-17.7344 -11.8794 -0.93973
-17.7163 -11.6519 -1.17261
-17.4165 -12.0641 -0.358125
-17.0276 -12.2607 0.292082
-17.2408 -11.5274 -1.40452
-16.9426 -11.84 -1.11937
-15.8188 -10.9714 1.42078
-16.3254 -12.4198 0.428219
-16.1541 -12.5676 -0.967438
-15.832 -12.1079 -2.04281
-14.9527 -13.1501 -3.12152
-19.9 -10.854 -1.04678
-19.7878 -11.1049 -0.710491
-19.5475 -11.3536 -0.284321
-19.4993 -10.9592 -1.61368
-19.4759 -11.1405 -1.32848
-19.1357 -11.0978 -1.2787
-19.0047 -10.6712 -2.43631
-18.9438 -11.598 -1.82833
-18.9993 -11.153 -2.09311
-18.1947 -11.6138 1.09608
-18.2026 -11.3776 0.327482
-18.5455 -11.5046 -1.39205
-18.4562 -11.7944 -0.274989
-17.7034 -11.626 -1.10923
-17.7273 -11.6176 -1.5824
-17.0466 -11.9905 0.336245
-17.3701 -12.1277 -0.34473
-17.2481 -11.9811 -1.11736
-16.4292 -12.4286 0.196139
-16.2734 -12.7091 -0.961736
-16.3206 -12.6825 -1.25696
-16.1006 -12.5619 -0.961169
-20.1902 -10.7026 -1.0047
-20.033 -10.6471 -1.38932
-20.0037 -10.6001 -1.65963
-19.9204 -10.8553 -1.01187
-18.5553 -11.1083 0.580341
-19.0646 -10.9429 -2.40525
-18.1807 -11.5071 1.19316
-18.5749 -11.5156 -1.65337
-16.923 -10.6286 1.53385
-16.7685 -10.643 1.31475
-17.322 -12.0337 -0.656
-17.2296 -12.0301 -0.849287
-17.1137 -12.219 -0.360815
-17.0226 -12.2127 -0.623481
-16.2051 -12.6397 -0.610784
-16.217 -12.3767 -1.2286
-16.1581 -12.4656 -0.836437
-15.888 -12.0704 -2.11243
-16.0777 -13.0527 -1.24433
-15.8038 -13.0161 -1.52824
-20.1834 -10.9435 -0.317666
-20.1742 -10.6374 -1.65625
-19.7906 -11.2602 -0.121222
-18.4527 -11.1233 0.367219
-18.3268 -11.8102 -0.278532
-17.4763 -11.4555 -2.2851
-15.8762 -12.9105 -1.47493
-19.3696 -11.1433 -1.32507
-18.4902 -10.9899 0.300574
-16.6301 -12.1222 -2.08201
-16.0898 -12.2535 -1.65067
-16.0979 -12.2177 -1.83248
-15.7626 -12.7448 -1.68527
-17.1662 -11.5293 -2.03779
-16.5498 -12.5521 0.430167
-20.1866 -11.1736 0.022109
-18.4348 -11.2825 -0.223137
-18.2706 -11.6376 1.06716
-18.1267 -11.5121 -2.1512
-17.2577 -11.4703 -2.47404
-18.4498 -11.2319 0.361384
-17.3019 -12.0967 -0.0953479
-15.7887 -13.0082 -0.933223
-16.8843 -11.6188 -1.93819
-16.7513 -10.5176 1.39669
-20.4903 -10.9656 0.910491
-19.8293 -11.2781 0.194179
-19.7478 -11.2259 -0.186716
-20.3075 -10.641 -1.16369
-18.3743 -11.3394 1.08165
-20.176 -10.5055 -1.34808
-20.0207 -10.8137 -1.38021
-19.2837 -11.5661 -0.0508697
-19.9336 -10.5391 -1.42603
-19.9556 -10.6406 -1.69789
-20.0448 -10.5501 -1.81419
-17.1375 -10.5622 1.47746
-19.7756 -10.7098 -1.90006
-18.1978 -11.293 0.215902
-19.984 -10.7222 -2.04035
-19.7885 -10.566 -2.06891
-18.9853 -11.3591 -0.519604
-18.0333 -11.4829 0.34175
-19.2313 -11.1809 -1.18107
-19.5375 -10.9483 -1.83437
-19.1564 -11.1632 -1.31795
-18.2515 -11.7865 -0.152379
-19.4407 -10.6173 -2.09847
-19.2663 -11.1288 -1.75512
-18.9924 -11.2397 -1.46914
-17.6028 -11.8701 0.571191
-18.9818 -11.1893 -1.9054
-15.9998 -10.8006 1.46119
-18.9252 -11.1301 -1.87211
-16.0675 -10.6245 1.3068
-19.0239 -11.1523 -2.13129
-19.0268 -11.0676 -2.29349
-18.4405 -11.5303 -1.70967
-18.7644 -11.3282 -2.18414
-17.4114 -11.7153 -0.0522009
-19.0093 -11.0696 -2.71172
-18.9584 -11.2542 -2.09493
-18.4709 -11.2717 -1.81905
-18.7589 -11.2012 -2.27274
-18.4895 -11.5362 -1.43661
-18.7644 -11.1421 -2.3636
-17.8793 -11.7928 -1.15758
-17.417 -11.8266 -0.274658
-17.8414 -11.9813 -0.985688
-18.9949 -11.1214 -2.49908
-18.6286 -11.209 -2.32281
-16.994 -12.1052 -0.68273
-18.3954 -11.3257 -2.58912
-16.3316 -12.4158 0.291561
-16.2923 -12.5249 0.286153
-16.2568 -12.5884 0.468015
-18.314 -11.4365 -2.67532
-18.2796 -11.3914 -2.64398
-17.8603 -11.5528 -2.98364
-17.8539 -11.3394 -3.09753
-17.3413 -11.4337 -2.22954
-16.8316 -11.4648 -2.53922
-19.418 -11.7501 1.37267
-20.0224 -11.1104 0.107178
-19.9674 -11.1109 0.194333
-19.5708 -11.5181 0.435685
-19.6498 -11.4815 0.473668
-18.2479 -11.5382 1.49839
-19.8187 -11.3023 -0.481234
-18.5074 -11.202 0.494693
-19.4938 -10.8958 -0.990177
-19.5447 -10.9606 -0.941086
-19.21 -11.2868 -0.640526
-19.7647 -10.633 -2.039
-18.3182 -11.4246 0.327695
-19.4562 -11.0664 -1.54449
-18.0592 -11.3869 0.431269
-19.1292 -11.3583 -1.22961
-19.0368 -11.5062 -1.00344
-19.1043 -11.6223 -1.01126
-19.1933 -11.3538 -1.02693
-19.2296 -10.5822 -1.90049
-19.5614 -10.6424 -1.82457
-19.1774 -11.3438 -1.30051
-18.995 -11.4372 -1.31694
-19.569 -10.9063 -1.96927
-19.6286 -10.805 -2.10467
-19.28 -11.0085 -1.94786
-19.61 -10.6866 -2.45406
-17.5152 -11.9403 0.49275
-17.3706 -11.8849 0.449789
-16.3336 -10.7633 1.40037
-17.9444 -11.7974 -0.490343
-18.9131 -11.2725 -2.23127
-18.7952 -11.1633 -1.96021
-18.9904 -11.2121 -2.24527
-17.662 -11.8293 -0.724073
-16.863 -12.1617 0.441621
-15.5578 -10.9477 1.58122
-17.6144 -11.6945 -1.1424
-15.9036 -11.047 1.37209
-15.7907 -10.8071 1.36195
-17.2264 -11.9665 -0.433327
-17.1217 -11.8803 -0.822569
-17.1145 -12.1066 -0.696571
-17.1577 -12.0724 -0.873756
-18.1268 -11.5951 -2.4068
-17.4638 -11.7492 -1.46595
-15.9711 -12.9968 -0.237859
-16.8989 -11.3434 -2.5437
-15.7062 -12.864 -0.647153
-15.71 -13.0347 -0.930364
-20.2086 -11.3479 0.775487
-19.537 -11.6811 1.24435
-20.3317 -10.9303 -0.524918
-18.7097 -11.2079 1.12863
-20.3247 -10.4697 -1.29869
-20.3732 -10.3906 -1.31151
-19.8866 -10.8727 -1.07296
-18.4083 -11.3579 1.07585
-18.5704 -11.2515 0.923286
-19.4213 -11.3588 -0.123654
-19.6258 -11.1852 -0.69637
-19.7156 -11.1843 -0.609142
-19.1673 -11.2168 -0.00749257
-20.2377 -10.4056 -1.52623
-19.7334 -10.8702 -1.2703
-19.3332 -11.1973 -0.999162
-19.6026 -10.9068 -1.71796
-19.1562 -11.3098 -1.03125
-19.0603 -11.3391 -0.834753
-19.7321 -10.7649 -2.02988
-19.5674 -10.6135 -2.16747
-19.5791 -10.7642 -2.12445
-19.5239 -10.9966 -1.95968
-18.44 -11.5243 -0.54354
-19.4508 -10.6495 -2.03723
-19.1618 -10.9732 -1.88826
-19.1871 -11.1957 -1.70836
-18.8522 -11.2524 -1.47922
-18.2038 -11.3899 -1.00631
-16.1873 -10.6073 1.28471
-17.8721 -11.8683 -0.871091
-15.8687 -10.8511 1.41599
-17.7151 -11.7176 -0.934659
-16.6475 -12.0995 -0.319864
-18.2645 -11.1639 -2.54355
-16.6581 -12.0306 -0.705076
-16.3192 -12.4207 -0.224818
-16.1079 -12.7554 -0.408969
-16.9428 -11.4608 -2.0223
-15.9358 -12.5522 -0.917451
-15.9026 -12.4628 -1.04143
-16.0354 -12.4605 -1.1437
-15.9135 -12.039 -2.54189
-15.8881 -12.2009 -2.17781
-15.6982 -12.7114 -2.05598
-18.6186 -11.1721 1.50919
-18.6122 -11.0953 1.0183
-18.3828 -11.5127 1.23013
-18.6259 -11.2862 0.910257
-19.2277 -11.4638 -0.00014735
-19.9178 -10.6508 -1.49492
-18.1989 -11.8604 1.26034
-19.734 -10.5951 -2.1772
-19.0805 -11.3127 -1.22545
-17.4516 -11.6824 0.271835
-15.7794 -10.853 1.62297
-18.7412 -11.2447 -2.6765
-17.0907 -12.1583 -0.693674
-15.4118 -11.2329 1.20253
-17.1309 -12.0134 -1.08472
-17.2949 -11.893 -1.25381
-16.2569 -12.5441 -0.749539
-16.0223 -12.8449 -0.657381
-16.2896 -12.463 -1.11268
-16.2082 -12.4688 -1.28006
-19.791 -11.4489 0.825623
-19.8354 -11.155 -0.405131
-19.2972 -11.5189 0.114584
-20.0756 -10.7694 -0.988262
-19.5198 -11.375 -0.321454
-16.6765 -10.6109 1.69362
-18.2886 -10.9907 -0.83089
-16.1689 -10.7833 1.20055
-17.3871 -11.9663 0.0873535
-17.906 -11.8856 -0.522496
-17.2857 -11.9294 0.282024
-17.076 -11.9795 0.431818
-16.9374 -12.0708 0.471142
-16.9958 -12.0782 0.280752
-18.7508 -11.1633 -2.28131
-17.7587 -11.8624 -1.04356
-18.5196 -11.2589 -2.27292
-17.6282 -11.7413 -0.892581
-18.6384 -11.089 -2.49151
-17.4377 -12.0745 -0.691176
-17.1593 -12.1264 -0.906259
-17.638 -11.1316 -2.11538
-17.0987 -11.173 -2.41092
-16.2422 -11.8538 -2.67433
-16.0861 -11.8199 -2.47061
-16.0227 -12.0834 -2.61853
-15.3553 -12.4825 -2.39902
-19.0162 -11.3747 -1.03462
-17.631 -11.8133 0.346242
-17.4936 -11.8636 0.311718
-18.1585 -11.6761 -0.585225
-17.6466 -11.8565 -0.874263
-17.2818 -12.0999 -0.14335
-18.5538 -11.1327 -2.57701
-17.1946 -12.0749 -0.336965
-17.3954 -12.1467 -0.725733
-16.6105 -12.5559 0.376586
-16.2179 -12.6573 -0.598482
-16.2881 -11.7901 -2.77371
-19.6955 -10.9892 -1.13587
-18.0126 -11.2726 0.374603
-17.4973 -11.7717 0.0466658
-17.3774 -12.244 -0.415054
-16.5846 -12.4713 0.262826
-17.2541 -11.2889 -2.36851
-16.8752 -11.9965 -1.9919
-18.8755 -11.1318 1.17177
-19.8197 -10.9616 -1.08438
-18.3329 -11.5133 0.922437
-18.5735 -10.924 -0.856575
-17.4211 -11.9556 -0.561796
-17.0164 -11.9221 -0.91899
-17.552 -11.3494 -2.41986
-16.574 -11.8175 -1.43955
-15.256 -12.7883 -2.43413
-17.1026 -12.0937 -0.494746
-17.1695 -12.1438 -0.25458
-16.1543 -12.6007 -0.947551
-17.1881 -12.0406 -0.524241
-17.0633 -11.534 -2.21908
-16.0384 -12.1871 -2.09799
-16.7424 -10.578 1.71897
-17.0391 -11.629 -1.86439
-20.2943 -11.197 0.909668
-20.1677 -11.2586 0.987024
-20.4438 -11.0212 0.594702
-20.205 -11.3459 0.437221
-19.6152 -11.5169 0.894774
-19.6854 -11.5915 0.893171
-19.9464 -11.2357 0.376818
-16.5415 -10.5525 1.61041
-19.6841 -11.2512 0.323148
-18.5119 -11.4972 0.973665
-19.8659 -11.0716 0.109502
-20.1624 -10.946 -0.447769
-19.288 -11.5853 0.367079
-18.5403 -11.1627 0.577229
-19.6753 -11.3748 -0.231938
-18.2924 -11.2664 0.388859
-18.0027 -11.5532 0.477672
-19.761 -11.0188 -0.783225
-19.3311 -11.3088 -0.622354
-19.6441 -11.1547 -0.704027
-17.5785 -11.6941 0.496345
-20.1419 -10.707 -0.792744
-20.1157 -10.5391 -1.00962
-19.9536 -10.766 -0.948887
-19.6185 -11.2331 -0.77819
-20.1797 -10.8211 -1.25234
-19.3336 -11.4382 -1.04957
-20.0113 -10.7878 -1.38231
-19.1745 -11.3298 -1.21405
-19.3381 -11.1573 -1.14519
-19.0659 -11.5683 -0.875846
-19.0465 -11.4984 -0.916827
-19.2233 -11.36 -1.05108
-17.358 -12.145 -0.18926
-19.3295 -10.8095 -1.77241
-18.048 -11.7264 -1.01927
-18.6647 -11.4146 -1.41371
-18.5717 -11.4104 -1.31536
-19.9382 -10.4551 -2.29882
-19.3339 -10.8878 -2.01436
-16.6714 -12.0438 -0.461481
-19.3758 -10.7915 -2.26244
-16.6816 -12.0405 -0.705665
-19.2479 -10.8209 -2.3009
-19.8478 -10.5921 -2.38062
-19.2145 -10.7759 -2.23046
-19.3918 -10.8182 -2.23521
-19.384 -10.8039 -2.28021
-19.5118 -10.7753 -2.34092
-18.659 -11.1425 -1.94523
-18.9912 -11.3055 -2.23596
-18.9884 -11.1997 -2.05543
-18.9723 -10.9621 -2.20333
-18.8298 -11.0912 -2.30719
-19.0605 -11.022 -2.3553
-18.8564 -11.0496 -2.21744
-18.8774 -11.1495 -2.15519
-16.1831 -12.6495 -0.92325
-18.8113 -11.3007 -2.52995
-19.0009 -10.9279 -2.49765
-18.505 -11.2996 -2.55525
-18.4866 -11.0643 -2.58703
-16.6148 -11.9787 -1.86244
-16.1333 -12.166 -2.05317
-20.0462 -11.4243 1.09953
-19.8094 -11.5264 1.32396
-20.3927 -10.9631 0.362189
-19.9549 -11.3446 0.129274
-20.2762 -10.8476 0.0121179
-19.9763 -10.9205 0.0453539
-19.4905 -11.5118 0.330144
-16.8712 -10.539 1.25787
-20.0978 -10.9287 -0.408095
-19.7588 -10.8798 -0.576461
-17.9111 -11.5118 0.692189
-18.3097 -11.2417 0.428388
-19.563 -11.1097 -0.502106
-19.6839 -11.1267 -0.535784
-18.0607 -11.4974 0.43084
-20.0416 -11.0761 -0.706422
-19.8363 -11.0122 -0.636521
-19.836 -10.9804 -0.795148
-19.5175 -11.2708 -0.722341
-20.1141 -10.7356 -0.907727
-19.9797 -10.6713 -1.01953
-19.7731 -10.8745 -0.905937
-19.6864 -11.0669 -0.687527
-20.2123 -10.5926 -1.16185
-18.3277 -11.5067 -0.206745
-20.0923 -10.5436 -1.32348
-19.8611 -10.7903 -1.23455
-19.6832 -11.2572 -0.988755
-19.7912 -11.2505 -0.889219
-16.7613 -12.3461 0.289796
-19.2087 -11.4814 -0.754966
-19.7509 -10.8595 -1.44214
-20.011 -10.5981 -1.59758
-19.9688 -10.4124 -1.46813
-20.1128 -10.6234 -1.67623
-20.3326 -10.3709 -1.54218
-20.1781 -10.4894 -1.50411
-20.0174 -10.5141 -1.4721
-18.1219 -11.7869 -0.441352
-18.0304 -11.7749 -0.646733
-18.9684 -11.4014 -1.1524
-18.4927 -11.0753 -0.745762
-20.043 -10.6132 -1.80431
-19.2545 -11.1039 -1.49402
-17.3685 -12.2305 -0.143655
-20.1571 -10.4393 -2.10734
-18.9695 -11.3005 -1.53525
-17.0453 -12.2189 -0.475694
-18.7033 -11.2667 -1.46783
-19.2625 -11.0106 -1.89257
-16.7138 -12.0629 -0.193736
-18.9206 -11.3158 -1.73439
-17.0641 -12.049 -0.609252
-19.8779 -10.3729 -2.3487
-19.8126 -10.5189 -2.21365
-18.4934 -11.4842 -1.48788
-16.5842 -12.2697 -0.620438
-19.3021 -10.8242 -2.29671
-17.1834 -12.0073 -0.950959
-17.2652 -11.8813 -1.07506
-18.8567 -11.1624 -2.08714
-18.7658 -11.4531 -1.84157
-19.029 -10.9405 -2.32673
-16.1645 -12.6621 -0.8229
-17.6135 -11.5386 -1.6426
-18.554 -11.3259 -2.27433
-16.2223 -12.7301 -1.133
-16.9101 -11.9739 -1.39482
-18.823 -10.9699 -2.75262
-15.6371 -12.8717 -1.07825
-18.5592 -11.0702 -2.68015
-16.8447 -11.8877 -1.99822
-18.1438 -11.3879 -2.69041
-17.0486 -11.4739 -2.17823
-16.4608 -11.8108 -1.99264
-16.1441 -11.9668 -2.13013
-15.918 -11.8552 -2.61986
-15.505 -12.0337 -2.9878
-19.555 -11.8106 0.613757
-18.5083 -11.2978 1.20008
-18.4609 -11.6406 1.09183
-20.1538 -10.9206 -0.149347
-19.9425 -10.9481 -0.0749859
-19.626 -11.1634 -0.172045
-19.5567 -11.3697 -0.272788
-19.227 -11.537 -0.146254
-16.2405 -10.6591 1.33589
-15.883 -11.1868 1.46886
-19.9295 -10.9342 -0.859977
-19.8131 -10.8819 -1.14013
-19.3473 -11.2283 -0.854757
-18.043 -11.8376 -0.49122
-16.4236 -12.7123 0.401983
-19.108 -11.4745 -1.27028
-20.0045 -10.652 -1.66042
-20.162 -10.5767 -1.88678
-18.7747 -11.4202 -1.59789
-20.0394 -10.4453 -2.24445
-19.409 -11.0452 -2.55219
-17.5652 -11.8767 -1.52986
-17.1799 -11.5089 -1.17835
-16.1242 -12.6963 -0.791194
-16.0712 -12.7315 -0.989881
-16.3065 -11.9329 -2.55785
-15.3071 -12.546 -2.16036
-15.8506 -11.9462 -2.44656
-14.8779 -13.2896 -3.61126
-20.1623 -11.0629 1.00741
-19.9625 -11.4094 0.861468
-19.5488 -11.5672 1.12696
-20.1601 -11.2541 0.424148
-18.6294 -11.4288 1.05629
-19.746 -11.4619 0.24355
-19.9631 -11.1867 0.162412
-16.3927 -10.9232 1.61946
-16.7112 -10.5791 1.33173
-19.6101 -11.3435 -0.117219
-20.0442 -10.663 -1.15939
-17.4457 -11.7672 0.245549
-16.6591 -12.3256 0.454015
-17.4726 -12.0949 -0.548992
-17.1086 -12.1785 -0.380288
-17.7603 -11.7785 -1.11406
-18.678 -11.5984 -1.58827
-19.5144 -10.8607 -2.4401
-18.9077 -10.9756 -2.35786
-16.6361 -12.1057 -1.41374
-15.8102 -12.0648 -2.11462
-15.0804 -13.4101 -2.81022
-20.2857 -11.0732 0.516403
-19.2839 -11.4393 0.1091
-18.0023 -11.3743 0.734545
-18.6238 -11.5585 -0.322883
-19.4127 -11.196 -0.568092
-19.0991 -11.4108 -0.365196
-19.4237 -11.2148 -0.916025
-19.1988 -11.3716 -1.06704
-19.2544 -11.393 -0.906471
-19.6974 -10.8079 -1.41849
-17.7684 -12.2494 -0.16114
-19.0792 -11.0934 -1.06794
-19.7427 -10.6408 -1.50347
-17.9763 -11.8091 -0.817347
-17.2558 -12.0529 -0.785352
-17.2692 -11.7767 -0.72349
-16.1153 -12.5186 -0.646039
-19.1006 -10.95 -2.33493
-16.4562 -12.321 -0.975239
-16.1455 -12.5029 -0.886368
-18.8127 -11.2396 -2.53061
-17.9282 -11.08 -2.01866
-18.0422 -11.0843 -2.27925
-16.2886 -12.5054 -1.76272
-16.7062 -11.4806 -2.48113
-18.4072 -11.3072 1.0282
-18.5955 -11.1485 0.427258
-19.262 -11.4472 -0.0518612
-19.7523 -11.3217 -0.346712
-19.635 -11.0517 -0.57832
-19.1136 -11.5668 -1.00627
-17.0089 -12.2 0.112184
-16.4852 -12.2578 0.237157
-17.3515 -11.7328 -1.19694
-15.6698 -13.0161 -1.42146
-19.8642 -10.8791 -0.32253
-15.9782 -10.8883 1.37405
-17.6669 -11.8832 0.404796
-17.5586 -11.8614 0.548334
-18.9365 -11.3923 -0.76796
-16.396 -12.3804 0.196045
-18.2819 -11.2918 -0.947276
-16.5555 -12.297 -0.848267
-18.5763 -11.3281 1.01829
-18.2962 -11.4362 0.68446
-17.8811 -11.4024 -1.60868
-16.7704 -12.1309 -1.47436
-17.1745 -11.3167 -2.22994
-16.3633 -12.3862 0.425189
-17.2006 -12.151 -0.285344
-17.3115 -12.1331 -0.417994
-15.3629 -12.5334 -2.29572
-15.4058 -12.7171 -2.16472
-19.5648 -11.5758 0.570361
-15.9171 -11.0464 1.32327
-18.8945 -11.366 -1.12968
-16.3659 -11.9286 -2.1624
-15.5876 -12.2264 -2.98533
-17.011 -10.4066 2.09925
-18.2933 -11.4216 1.63904
-18.3951 -11.7881 1.57794
-19.4032 -11.7347 1.44453
-19.5284 -11.6712 1.27937
-20.2132 -11.354 1.18367
-20.1779 -11.4131 1.08154
-20.1262 -11.2631 0.948316
-18.2818 -11.4507 1.11163
-20.2062 -11.0548 0.79504
-19.7282 -11.6238 0.770229
-19.9154 -11.1968 0.683599
-19.781 -11.4604 0.859039
-20.3918 -11.1943 0.613909
-20.3652 -11.2623 0.578769
-19.8336 -11.217 0.310582
-19.816 -11.5375 0.389568
-18.0595 -11.4191 0.550024
-20.3512 -11.0023 0.487858
-20.3234 -10.9043 0.240305
-17.7994 -11.797 0.59677
-19.8264 -11.0764 0.283088
-19.8016 -11.502 0.17992
-19.956 -11.4209 0.36512
-20.2305 -11.0777 0.186886
-19.7259 -11.2649 0.19382
-19.4764 -11.6128 0.175773
-16.0878 -12.4423 0.423464
-19.2939 -11.3676 0.302712
-20.4064 -10.7 0.304887
-18.2997 -11.3684 0.405391
-18.3472 -11.2951 0.29158
-19.8333 -11.0755 0.0488182
-19.8532 -11.3864 -0.191977
-17.0528 -12.1844 -0.027567
-19.8776 -11.0544 -0.0171286
-19.8052 -11.3706 -0.159344
-20.3062 -10.7953 0.101699
-19.859 -11.1806 0.102951
-19.4138 -11.5352 -0.0216801
-19.7534 -11.0991 0.042376
-19.5387 -11.1017 0.0185313
-20.1962 -10.9994 -0.24491
-18.3852 -11.4801 -0.238687
-19.1239 -11.8061 -0.197439
-20.202 -10.8584 -0.556766
-20.2361 -10.8945 -0.493759
-19.9087 -10.8793 -0.492304
-19.8695 -11.1494 -0.348403
-19.9131 -11.0097 -0.5233
-18.4775 -11.6644 -0.486567
-19.5821 -11.132 -0.656566
-19.6868 -11.0814 -0.660865
-19.7025 -11.2097 -0.671165
-16.4395 -11.9986 -0.582487
-16.7814 -12.1033 -0.472469
-17.9923 -11.6214 -0.357615
-17.8198 -11.8136 -0.582205
-19.7714 -10.9361 -0.717091
-16.6962 -12.0851 -0.520516
-18.9741 -11.4734 -0.837164
-16.6617 -12.4379 -0.749367
-19.8822 -11.1489 -0.816063
-19.8138 -11.0399 -0.904946
-19.6886 -11.2025 -0.74573
-17.7692 -11.8783 -0.669233
-19.4285 -11.3208 -0.881059
-19.0367 -11.5185 -0.854984
-16.8445 -12.3566 -0.695437
-16.0738 -12.5026 -0.919439
-19.1618 -11.2453 -1.03697
-19.0923 -11.3392 -1.1174
-19.9908 -10.78 -1.19168
-20.0442 -10.8155 -1.11626
-20.1039 -10.6538 -1.05172
-19.5758 -11.1096 -1.18692
-19.6003 -11.1628 -1.24794
-19.6196 -10.927 -1.17212
-15.9625 -12.645 -1.27965
-19.3581 -11.3027 -1.15295
-19.7412 -10.9706 -1.20599
-17.2205 -11.9485 -1.22773
-19.1435 -11.2114 -1.36465
-19.9748 -10.732 -1.29942
-19.1766 -11.1593 -1.28568
-19.1698 -11.2863 -0.997363
-20.3578 -10.7123 -1.18037
-18.7587 -11.5454 -1.47093
-18.6368 -11.358 -1.32174
-18.618 -11.444 -1.45124
-18.7849 -11.3089 -1.36986
-19.1701 -11.1798 -1.42355
-18.4424 -11.7133 -1.40336
-18.8956 -11.3412 -1.51089
-19.4431 -11.143 -1.39599
-18.6944 -11.4698 -1.43419
-18.7268 -11.4053 -1.54629
-18.5892 -11.374 -1.57679
-20.1877 -10.4961 -1.35528
-19.3368 -11.0659 -1.68767
-19.2704 -11.1271 -1.68449
-20.2461 -10.4691 -1.59747
-18.4156 -11.4739 -1.7917
-20.2316 -10.5486 -1.65814
-19.2058 -11.0498 -1.84645
-19.2365 -11.1365 -1.59386
-19.1865 -10.946 -1.64952
-20.0727 -10.7556 -1.62439
-19.2457 -11.0899 -1.64064
-19.8762 -10.6976 -2.02871
-19.7816 -10.6774 -1.81924
-19.8719 -10.6561 -1.86936
-19.999 -10.551 -1.74341
-18.7387 -11.2363 -2.08481
-18.7988 -11.4257 -1.84764
-18.3637 -11.5693 -2.07247
-18.5056 -11.2118 -2.11356
-19.0551 -11.1247 -1.84815
-19.0213 -11.0247 -2.12713
-19.0455 -11.0437 -1.98042
-19.034 -11.0923 -2.20328
-19.8357 -10.4405 -1.95394
-18.4216 -11.3163 -2.18692
-20.1136 -10.5498 -1.93294
-20.1896 -10.3136 -2.13654
-20.231 -10.287 -2.17899
-19.1642 -11.1339 -2.06325
-19.1637 -10.9623 -2.06845
-18.4588 -11.38 -2.29534
-18.252 -11.5847 -2.28119
-18.9339 -11.1724 -2.28708
-19.5113 -10.9215 -2.34404
-19.1544 -10.8734 -2.19521
-20.0927 -10.4044 -2.25089
-19.6804 -10.5088 -2.21071
-19.5961 -10.7464 -2.34318
-18.9932 -11.0034 -2.45351
-19.8889 -10.5085 -2.30185
-19.674 -10.5373 -2.43291
-19.9593 -10.3795 -2.15088
-16.9152 -11.5081 -2.37386
-17.0944 -11.4408 -2.36381
-17.0604 -11.5462 -2.14055
-18.3934 -11.3375 -2.71077
-18.4498 -11.3127 -2.82334
-18.6593 -10.9724 -2.68716
-18.889 -10.9627 -2.75246
-18.4562 -11.2582 -2.81136
-19.1148 -11.0395 -2.74255
-16.4659 -11.6943 -2.74303
-16.7431 -11.3168 -2.69047
-17.8917 -11.5329 -2.99024
-15.6888 -10.8263 2.07356
-19.7956 -11.5734 1.00766
-20.507 -11.0484 1.07662
-20.1655 -11.4879 1.0256
-19.8897 -11.6661 0.83906
-15.4007 -11.359 1.16325
-20.3686 -11.1589 0.506039
-18.3773 -11.3252 0.600698
-20.1142 -11.207 0.368738
-19.9272 -11.0588 0.235064
-16.2588 -12.6658 0.433018
-19.0248 -11.6262 0.367482
-16.9758 -12.1893 0.31112
-19.7547 -11.2379 -0.0892077
-19.552 -11.2398 -0.146626
-19.7169 -11.3755 -0.145674
-19.4966 -11.3189 -0.318798
-19.3631 -11.3281 -0.332858
-19.424 -11.317 -0.270141
-20.4395 -10.7583 -0.319355
-16.9294 -12.2603 -0.270605
-19.517 -10.9531 -0.335951
-16.1141 -12.509 -0.392338
-18.9762 -11.4602 -0.596898
-19.5012 -11.1257 -0.538243
-17.5842 -11.8729 -0.647772
-16.7244 -12.1949 -0.419452
-17.3128 -11.9416 -0.416156
-17.165 -12.0149 -0.840884
-18.7889 -11.3509 -0.920899
-19.0888 -11.3272 -0.986014
-19.1444 -11.2562 -1.0664
-19.1293 -11.2924 -1.21102
-17.9938 -11.5513 -1.25494
-19.0969 -11.0376 -1.54643
-19.0171 -11.217 -1.78684
-16.3657 -12.2958 -1.80537
-19.8787 -10.4555 -1.80312
-16.6488 -11.9326 -1.99369
-19.6632 -10.801 -1.82025
-18.7285 -11.1663 -2.2065
-18.3499 -11.5775 -2.13958
-18.6468 -11.0843 -2.28671
-18.2674 -11.3278 -2.37441
-19.7254 -10.6829 -2.35408
-15.959 -12.0195 -2.21953
-18.7862 -11.2614 -2.41383
-19.6434 -10.8216 -2.40072
-16.8531 -11.4542 -2.29243
-18.6034 -11.0881 -2.62219
-19.1381 -11.0273 -2.49843
-17.9745 -11.5124 -2.87999
-17.9235 -11.5369 -2.94785
-15.7052 -11.8519 -2.75398
-16.7498 -10.3675 1.39224
-16.8618 -10.5157 1.65816
-16.4189 -10.7409 1.36554
-18.0776 -11.4704 1.25381
-20.2637 -11.052 0.539263
-20.097 -11.332 0.6307
-16.5387 -12.385 0.237098
-19.7182 -11.3039 0.122151
-17.0896 -12.122 0.322026
-19.3093 -11.6757 -0.238013
-19.044 -11.694 -0.0804415
-19.6961 -11.311 -0.277565
-18.2017 -11.8144 -0.39424
-19.2516 -11.4783 -0.211948
-19.5638 -11.3102 -0.413516
-20.0569 -10.8858 -0.334426
-16.3956 -12.4191 -0.145367
-16.8863 -12.2117 -0.32864
-16.9021 -12.193 -0.480055
-19.4911 -11.4829 -0.773297
-19.1245 -11.3467 -0.586191
-18.8887 -11.6081 -0.666773
-19.0497 -11.4973 -0.78048
-19.5258 -11.0336 -0.825561
-17.1899 -12.1954 -0.674294
-16.2769 -12.5292 -0.651182
-19.2629 -11.2782 -0.667465
-18.5638 -11.007 -1.08693
-17.5995 -11.9317 -1.26757
-19.5315 -10.9572 -1.26094
-19.3829 -11.1258 -1.5074
-17.6201 -11.8543 -1.44965
-18.6103 -11.5752 -1.79945
-18.3176 -11.644 -1.79007
-19.7666 -10.6005 -2.05408
-18.9226 -11.2724 -2.14387
-17.6497 -11.382 -1.90872
-19.0333 -11.2624 -2.3685
-18.905 -11.1566 -2.13612
-18.6969 -11.2369 -2.16361
-17.469 -11.3037 -2.33406
-15.0023 -13.0146 -2.9973
-19.2182 -11.7634 1.39567
-16.9069 -10.4686 1.28525
-18.016 -11.5667 1.31292
-18.0909 -11.5755 0.496725
-18.2898 -11.0452 0.222506
-19.4089 -11.6038 0.211982
-19.3777 -11.425 0.0995305
-20.0189 -11.1842 -0.11608
-19.6691 -11.3482 -0.219588
-17.5359 -12.0089 -0.134211
-17.5073 -11.8141 -0.0586258
-20.2547 -10.9138 -0.146812
-17.5894 -12.0876 -0.460338
-19.3842 -11.2954 -0.542988
-17.7171 -11.9095 -0.733201
-17.2172 -11.9238 -0.874225
-19.0922 -11.2307 -1.02762
-18.9538 -11.5592 -1.10851
-18.9797 -11.4699 -1.16461
-18.8898 -11.3118 -1.27017
-17.3778 -11.7702 -1.11651
-16.035 -12.5378 -1.20588
-17.7249 -11.6081 -1.50305
-17.3676 -11.7109 -1.48896
-16.3199 -12.3105 -1.43088
-16.331 -12.1642 -1.65516
-17.6554 -11.4252 -1.52876
-18.3996 -11.4493 -2.08578
-17.6009 -11.3835 -2.13846
-18.3127 -11.6167 -2.28739
-16.93 -11.5536 -2.19606
-18.7757 -11.1413 -2.30563
-17.4003 -11.3765 -2.27798
-16.8377 -11.4764 -2.53563
-15.6305 -12.0399 -2.81925
-19.7099 -11.5284 1.32919
-19.2442 -11.4695 0.171432
-19.1289 -11.6564 0.28316
-16.461 -12.2589 0.395494
-19.4822 -11.706 0.28969
-18.3938 -11.2416 0.367498
-19.2094 -11.553 0.200042
-19.3008 -11.4089 -0.0421077
-19.2273 -11.4209 -0.164112
-17.5278 -12.0073 -0.108231
-18.7288 -11.2461 -0.105516
-17.691 -12.0974 -0.134871
-19.5833 -11.4315 -0.510264
-17.8917 -11.5349 -0.623485
-19.1177 -11.5571 -0.760195
-19.7287 -11.2144 -1.09239
-19.5108 -11.038 -1.0911
-19.923 -10.9342 -1.32064
-16.646 -12.1866 -1.54814
-17.7919 -11.5515 -1.9606
-20.1317 -10.4654 -1.99429
-18.8152 -11.2837 -2.42231
-18.641 -11.3093 -2.49774
-16.9584 -11.5126 -2.14518
-16.9121 -11.4785 -2.28424
-17.4273 -11.2867 -2.38773
-17.1647 -11.3997 -2.53827
-15.7894 -12.2119 -2.67913
-15.0276 -13.0434 -3.00191
-16.3802 -11.6938 -2.81665
-19.1475 -10.7461 1.61042
-18.3461 -11.6095 1.47713
-18.7551 -11.2736 1.36076
-18.6575 -11.1472 0.530974
-18.6101 -11.1162 0.204704
-17.2407 -12.1261 0.15113
-17.2251 -11.9889 0.13738
-16.7878 -12.0276 -0.331157
-18.1709 -11.7585 -0.389676
-18.2544 -11.2267 -0.712901
-17.4902 -11.741 -1.38992
-17.3661 -11.7241 -1.43223
-17.041 -11.5967 -1.4576
-16.8636 -11.9932 -1.46774
-16.5669 -12.0246 -2.25844
-19.2125 -11.0548 -2.57505
-17.0091 -11.2905 -2.47601
-15.4204 -12.2874 -2.90699
-15.3761 -12.0072 -2.86312
-15.6618 -11.9112 -3.01115
-17.1305 -11.9191 0.0703961
-17.2412 -12.1391 -0.272739
-19.1976 -11.001 -1.25025
-19.3211 -10.7468 -2.57272
-17.3664 -11.6215 -2.60787
-18.222 -11.5248 0.671076
-19.9723 -11.0686 0.173622
-18.3416 -11.5206 -1.53285
-16.4972 -11.9949 -2.14911
-15.3878 -12.9518 -2.16024
-17.7687 -11.3302 -2.04029
-17.3842 -11.96 0.0406342
-18.0877 -11.7986 -0.592653
-17.5931 -11.6674 0.205047
-17.9169 -11.6066 0.211888
-17.3673 -12.1585 -0.358367
-19.2368 -11.458 -0.659521
-19.0574 -11.4198 -1.12797
-16.6715 -10.5021 1.57325
-19.5159 -11.4321 -0.228879
-18.8223 -11.4703 -0.101456
-18.9705 -11.3689 -1.12485
-16.2495 -12.3016 -1.54159
-16.4258 -12.1401 -1.52806
-18.1138 -11.2209 -2.81388
-15.7838 -11.895 -2.20094
-18.9324 -11.0215 -2.33738
-18.8548 -11.2124 -2.47366
-19.5669 -10.6706 -2.03112
-19.6747 -10.7013 -2.07083
-19.7276 -10.82 -1.95803
-18.5006 -11.3965 -2.03207
-19.824 -10.6115 -1.62142
-19.8981 -10.8222 -1.69918
-19.7817 -10.8377 -1.66868
-16.6352 -11.9552 -1.78907
-19.2214 -10.9914 -1.7227
-18.857 -11.4471 -1.89023
-17.6785 -11.5915 -1.52212
-19.9217 -10.8009 -1.35884
-19.0554 -11.2396 -1.31857
-19.1443 -11.1152 -1.32714
-19.9255 -10.8854 -1.19455
-16.2793 -12.4743 -1.11415
-19.6017 -10.9752 -1.14716
-19.2473 -11.3436 -0.984124
-17.1633 -12.0754 -0.942655
-20.129 -11.0945 -0.856751
-19.0775 -11.2788 -0.83914
-19.979 -11.0261 -0.635332
-17.1882 -11.8792 -0.687174
-18.6346 -11.1669 -0.567037
-17.7621 -11.8643 -0.450606
-17.6623 -12.0025 -0.583423
-16.7195 -12.0414 -0.563305
-20.1628 -10.9504 -0.367964
-20.2978 -10.9587 -0.487945
-19.3811 -11.2294 -0.504309
-16.9434 -12.2813 -0.477832
-17.2351 -12.184 -0.39097
-17.1087 -11.8672 -0.372597
-19.2483 -11.4673 -0.523497
-17.0921 -12.0343 -0.39491
-18.9527 -11.5961 -0.289535
-19.6869 -11.3186 -0.314352
-19.3029 -11.5429 -0.331238
-20.172 -10.9944 -0.0910202
-19.6898 -11.3029 0.11577
-19.7123 -11.3919 0.112816
-17.1999 -12.1587 0.100727
-16.6362 -12.3095 0.218661
-19.2807 -11.6825 0.279329
-19.8253 -11.3274 0.257721
-19.8348 -11.0555 0.0719152
-20.1889 -10.954 0.298307
-16.8971 -12.167 0.457979
-18.077 -11.5476 0.375708
-18.4301 -11.2909 0.628549
-19.6735 -11.5091 0.513434
-19.3806 -11.625 0.47515
-20.2069 -11.403 0.563372
-20.3401 -11.2467 0.55589
-19.5025 -11.5038 0.69971
-19.878 -11.3394 0.685713
-19.6996 -11.2829 0.636054
-20.0366 -11.3501 0.840279
-20.1937 -11.4893 0.969539
-19.8166 -11.5083 0.722245
-18.7821 -11.253 1.06237
-15.3876 -11.1423 1.13356
-19.5436 -11.6841 1.03394
-20.2487 -11.2711 1.08717
-19.3549 -11.6206 1.44977
-18.0948 -11.4057 1.63801
-15.4866 -10.9591 2.0342
-15.9436 -11.9189 -2.79141
-17.42 -11.4583 -2.35972
-19.8687 -10.7154 -2.25981
-18.7484 -11.0784 -2.3271
-16.5213 -11.9001 -2.0073
-18.3679 -11.4859 -1.698
-19.016 -11.361 -1.54132
-18.7923 -11.5071 -1.36787
-19.9278 -10.732 -1.38979
-19.8456 -10.732 -1.36333
-17.2223 -12.0228 -1.25649
-19.7478 -10.8303 -0.992034
-19.2557 -11.1744 -1.01424
-18.9685 -11.4448 -1.0581
-18.9374 -11.4124 -1.13084
-19.8449 -10.9962 -0.933415
-19.1457 -11.5491 -0.785467
-19.7297 -10.957 -0.598831
-17.2507 -11.9335 -0.418932
-19.2028 -11.5828 0.272435
-19.8558 -11.2825 0.298888
-20.124 -11.1981 0.408798
-18.3614 -11.1724 0.496035
-17.989 -11.5068 0.514024
-18.3997 -11.4611 0.530275
-18.0296 -11.5268 0.482316
-20.1578 -11.0271 0.537189
-19.9471 -11.3323 0.596071
-19.5439 -11.6233 1.06935
-19.625 -11.5642 0.995197
-15.7274 -10.9353 1.37341
-18.7465 -11.3322 1.39614
-16.3583 -11.7842 -2.64375
-17.0199 -11.5614 -2.26314
-16.766 -11.5496 -2.18675
-17.0667 -11.5468 -1.9309
-17.6254 -11.7333 -1.49278
-18.6689 -11.3546 -1.40376
-17.9698 -11.7404 -1.36653
-17.1801 -11.8288 -1.21604
-17.7291 -11.7294 -1.19814
-20.0201 -10.8077 -0.973088
-19.1282 -11.25 -0.881907
-18.0271 -11.7355 -0.740604
-17.5059 -12.1916 -0.608792
-18.5387 -11.3626 0.114695
-18.4608 -11.4043 -0.228269
-19.324 -11.443 -0.0106172
-18.1812 -11.4198 0.232427
-20.0734 -11.1919 0.312779
-19.8669 -11.2332 0.0109837
-19.377 -11.5555 0.266787
-20.0507 -11.0445 0.337539
-20.1452 -11.184 0.260008
-16.234 -12.6129 0.359455
-19.9326 -11.3114 0.438032
-16.4006 -10.555 1.21559
-19.2577 -11.7467 0.980335
-19.244 -11.775 1.34408
-18.4834 -11.2772 1.33471
-15.5701 -11.2906 1.54767
-15.9376 -12.3076 -2.71663
-17.0022 -11.3304 -2.21156
-18.3752 -11.3408 -2.13775
-19.7015 -10.9189 -0.989679
-17.3814 -12.3819 -0.227299
-19.4978 -11.4325 -0.110283
-19.6032 -11.651 0.0716823
-17.8248 -11.468 0.295269
-19.4349 -11.5564 0.000459071
-17.9017 -11.5449 0.372806
-19.4352 -11.592 0.483235
-20.0106 -11.2507 0.578678
-16.322 -10.799 1.36604
-18.827 -11.3855 -2.41463
-17.9856 -11.7173 -0.876432
-18.0387 -11.7985 -0.69152
-17.2665 -11.9724 -0.0631508
-18.5644 -11.2372 0.810919
-17.3392 -11.3185 -2.42044
-18.6529 -11.2903 -1.94346
-19.1892 -11.1807 -1.39309
-16.8976 -12.192 -0.332907
-16.947 -11.9797 0.259849
-18.1802 -11.5383 1.28755
-17.35 -11.7002 -1.44588
-16.7727 -11.9976 -1.46738
-16.7659 -12.2003 -1.39711
-19.3651 -11.0383 -0.960655
-19.5847 -11.2385 -0.838453
-19.5253 -11.2911 -0.365075
-19.2224 -11.3736 -0.210223
-16.5541 -12.1599 -1.77444
-17.2963 -12.1657 -0.851372
-17.1798 -11.9005 -0.442377
-17.2788 -11.9007 0.000955261
-16.5666 -12.2218 0.267107
-16.5087 -10.595 1.14968
-19.4256 -11.3004 -0.274048
-16.4737 -12.4953 0.477083
-16.3767 -12.4934 -1.07199
-17.2322 -12.1417 -0.274718
-19.9128 -10.4586 -2.31487
-19.4147 -10.852 -1.90925
-19.5391 -10.9441 -1.6371
-18.4707 -11.345 -1.92459
-16.8172 -11.4636 -2.14008
-19.9855 -10.9129 -1.3066
-15.944 -12.1293 -2.35561
-19.9346 -10.8294 -0.701935
-18.8941 -11.2772 -1.23969
-19.582 -11.0505 -0.673588
-20.2703 -10.7615 -0.29941
-19.0109 -11.2345 -0.959954
-20.2892 -10.9128 -0.408773
-19.9426 -10.9663 -0.446744
-19.623 -11.1808 -0.12279
-17.969 -11.9658 -0.855098
-19.8467 -11.3416 0.0829118
-16.8121 -12.253 -0.902316
-19.9491 -10.9841 0.252635
-17.6555 -11.7999 -0.62516
-19.6445 -11.4917 0.0166902
-19.5173 -11.3798 0.0306572
-20.0119 -11.3301 0.34891
-19.0764 -11.5574 0.171093
-20.295 -10.9548 0.891827
-18.5052 -11.1737 0.262307
-20.329 -11.0342 0.831313
-19.7561 -11.2374 0.578414
-17.0106 -12.2942 -0.481541
-16.7613 -12.2592 -0.332365
-18.2325 -11.2821 0.305811
-18.3599 -11.4789 0.341556
-19.8227 -11.4852 0.738836
-19.6231 -11.7024 1.04506
-18.6179 -11.3504 1.08387
-19.6682 -11.5472 1.35559
-19.6051 -11.5712 1.18234
-17.3605 -10.7012 1.14796
-18.6981 -11.2056 -2.36417
-19.4466 -10.8439 -1.74576
-18.7363 -11.255 -2.18998
-20.1507 -10.752 -1.00962
-19.0676 -11.3079 -1.0636
-19.0481 -11.4046 -0.897527
-19.8068 -11.0728 -0.563438
-19.0758 -11.4015 -0.840987
-19.6342 -10.8913 -0.582967
-20.264 -10.9213 -0.370412
-17.6821 -11.9097 -0.95224
-19.5879 -11.1486 -0.183325
-19.7306 -11.2845 -0.44644
-19.9905 -10.8051 0.310521
-19.7172 -11.1303 -0.0407439
-20.1423 -11.2556 0.587637
-19.56 -11.4761 0.165075
-17.2068 -12.1612 -0.396045
-16.7015 -12.2044 -0.357677
-18.3269 -11.247 0.490808
-15.8475 -13.031 -0.973465
-19.7038 -11.3246 0.874057
-16.3434 -10.6875 1.21802
-18.7206 -11.3642 -2.48663
-18.2694 -11.5231 -2.8079
-15.8414 -12.0993 -2.2241
-15.9662 -11.9482 -2.28974
-19.2776 -11.3194 -1.22501
-19.9988 -11.0421 -0.199055
-17.9639 -11.7535 -0.664367
-19.0544 -11.8118 -0.189548
-19.0529 -11.46 -0.0656019
-17.3767 -11.8882 -0.385897
-19.4107 -11.6455 1.06166
-19.3796 -11.6789 1.21886
-18.4911 -11.3912 1.33414
-18.1928 -11.4403 -2.39812
-17.7673 -11.3545 -2.00281
-19.2744 -11.1941 -1.33795
-18.9524 -11.2591 -1.58675
-19.1792 -11.3733 -0.732991
-16.5533 -12.0822 -1.44246
-20.1579 -11.0785 0.0238953
-17.9731 -11.9257 -0.689745
-20.3952 -11.1277 0.58877
-19.5588 -11.5003 0.56548
-19.4493 -11.4363 0.325961
-16.7775 -12.1323 -0.343502
-19.5394 -11.5385 0.71719
-19.619 -11.7075 0.693177
-17.1618 -12.3145 0.0426419
-17.047 -12.1974 0.241921
-18.7042 -11.244 1.34116
-16.3405 -10.4325 1.30065
-18.0305 -11.5327 1.61546
-18.1737 -11.5204 1.68444
-18.3763 -11.2721 -2.7493
-15.6163 -11.8859 -2.94803
-19.3642 -11.6101 1.2289
-16.3295 -12.5328 0.227667
-16.3905 -12.3045 0.372318
-18.4957 -11.159 -0.939657
-17.4722 -11.9438 -0.136337
-17.5055 -11.9403 0.145889
-16.3644 -10.5206 1.34667
-19.1511 -11.3543 -0.75608
-16.1118 -12.5762 -0.858041
-18.1566 -11.553 1.41267
-19.0473 -11.2694 -0.727952
-17.4766 -11.3933 -2.06502
-15.7314 -12.0319 -2.67699
-18.6587 -11.1084 -2.47758
-19.0558 -11.5005 -0.77832
-19.2827 -11.4339 -0.181513
-16.7824 -11.9058 -1.78114
-15.7659 -12.2508 -2.67425
-18.0809 -11.4182 0.383443
-19.2654 -11.9262 0.936501
-19.1336 -11.8091 1.10714
-16.0974 -12.4402 -1.14095
-16.6901 -12.2246 -0.297736
-16.1001 -12.6345 0.15629
-20.0444 -10.9023 -1.18291
-19.9127 -10.6543 -1.07876
-18.4509 -11.5589 -1.64849
-19.7975 -11.4612 -0.150083
-19.9116 -11.1025 0.0729468
-19.3441 -11.4477 0.780897
-18.7286 -11.2126 0.728967
-19.3952 -11.7683 1.44654
-16.7576 -12.1403 -0.313953
-16.8893 -11.9839 0.52594
-20.0737 -10.5253 -1.47056
-18.5981 -11.1766 -2.35092
-18.0048 -11.303 -2.64753
-16.2942 -12.1827 -1.93797
-14.6434 -13.2466 -3.64016
-17.2776 -12.0108 -0.958794
-19.4455 -11.7878 0.761429
-17.1747 -12.1607 -0.476144
-17.1758 -12.1784 0.0168051
-15.9783 -13.1808 -0.816781
-20.33 -10.5879 -1.33128
-16.1623 -12.6413 -0.821491
-16.1081 -12.7987 -0.872109
-15.8699 -13.134 -1.24354
-18.6907 -11.0173 -2.2438
-19.0959 -11.4415 -0.106101
-17.9244 -11.5519 -1.17187
-19.6313 -11.2643 0.340042
-15.3127 -12.7168 -2.43812
-20.4979 -11.1947 0.664929
-16.8742 -12.1601 0.259807
-17.6827 -11.1754 -1.68729
-16.9351 -12.4761 -0.531624
-16.824 -12.3506 -0.717746
-15.4765 -12.1324 -2.86853
-19.9675 -10.3934 -1.97264
-19.8928 -10.6065 -1.87993
-19.3326 -11.0395 -1.42126
-20.1681 -10.9194 0.185329
-18.4374 -11.3805 -2.07741
-18.5531 -11.4707 -1.61791
-18.9008 -11.4454 -0.667112
-18.2407 -11.0854 -1.06786
-19.9373 -11.4984 0.839487
-16.7687 -11.8214 -1.65701
-16.9681 -12.0812 -1.25768
-17.1526 -12.1554 -0.317558
-16.9195 -10.7282 1.52484
-18.7749 -11.2324 -2.40055
-20.0999 -10.9927 -0.0382656
-17.0219 -11.3475 -2.27064
-18.5662 -11.374 0.862512
-16.9943 -11.906 -1.56845
-16.882 -11.9861 -1.61672
-17.0948 -11.9321 -1.06312
-17.2435 -12.0539 -0.79892
-17.3308 -12.0976 -0.367369
-16.1041 -12.7412 -0.355563
-19.7835 -10.8263 -1.29387
-19.1915 -11.2924 -1.46074
-18.5887 -11.5433 -1.62041
-19.2132 -11.2862 0.0730118
-15.7801 -12.0844 -2.28316
-18.3102 -11.6363 0.993934
-17.2511 -12.0907 -0.418153
-17.1171 -12.1106 -0.178837
-16.4241 -12.5374 -0.92526
-16.048 -12.6455 -1.05654
-16.0234 -12.6003 -0.561811
-18.1006 -11.309 0.39375
-17.5196 -11.8942 0.31287
-17.3747 -12.1311 -0.378378
-16.0665 -12.7742 -0.965481
-19.5608 -11.5393 0.623061
-17.4742 -11.9606 -1.44713
-20.2688 -11.0848 -0.0456244
-16.7632 -12.041 -1.13615
-19.1372 -11.3909 -0.69948
-18.5362 -11.4033 -0.825184
-18.2698 -11.4213 -2.26915
-19.8615 -10.8374 -1.8239
-19.9976 -11.0149 -0.12658
-20.059 -11.0025 0.0310924
-19.6489 -10.9209 -0.721458
-19.865 -10.9973 -0.0440199
-19.4118 -11.1718 -1.048
-19.4368 -10.9896 -1.13082
-19.0114 -11.0907 -2.25844
-18.8214 -11.1048 -1.87492
-19.0975 -11.5182 -0.974711
-17.4292 -11.3145 -2.46479
-16.967 -11.3579 -2.20804
-16.9517 -11.9889 -0.805636
-16.8127 -12.2199 -0.487265
-16.2605 -12.3725 -1.16811
-16.1677 -12.4912 -1.00093
-16.0049 -12.3653 -0.826256
-16.0014 -12.8349 -0.820079
-19.6841 -11.1938 -0.530856
-19.3757 -11.1893 -1.83961
-19.3494 -11.441 -0.429412
-18.5361 -11.2899 -2.06147
-18.2395 -11.4947 -2.75213
-17.3271 -12.0623 -0.768045
-16.6742 -11.8665 -1.68336
-16.3284 -12.3472 -1.62939
-16.1609 -12.478 -0.961416
-16.3465 -12.6559 -0.987406
-16.3957 -12.8146 -0.933957
-16.1035 -12.42 -0.882738
-16.3422 -12.768 -0.836487
-20.0847 -10.5403 -2.01131
-20.2676 -10.7918 -0.07482
-20.2949 -10.8935 0.184807
-19.9896 -10.8472 -0.11226
-19.7739 -11.017 -0.475493
-19.257 -11.1083 -1.20718
-17.7419 -11.4518 -2.93431
-17.9902 -11.6564 1.17448
-17.0551 -12.1898 -1.13925
-16.2125 -12.4448 -1.12687
-15.9564 -12.5359 -1.16407
-20.0452 -10.9579 -0.000543989
-18.4585 -11.1502 0.414498
-18.8742 -11.3512 1.39371
-17.3511 -12.014 -1.06525
-17.0365 -11.9895 -0.385975
-16.0333 -12.5925 -0.788202
-16.0874 -12.8676 -0.759721
-16.1466 -12.6519 -0.806939
-16.1116 -12.897 -0.485128
-16.0035 -12.648 -0.715425
-16.0954 -12.691 -0.165681
-17.1886 -11.951 -0.749421
-19.2541 -11.2759 -0.504178
-16.6452 -11.9927 -1.29942
-15.6679 -12.9055 -1.29015
-20.1796 -11.1753 -0.0395795
-17.0215 -12.3122 -0.168485
-18.2402 -11.4093 -1.30925
-16.6472 -12.1474 -1.22285
-16.6764 -10.5916 1.71871
-18.981 -11.3774 -0.906122
-20.3489 -10.5238 -1.09839
-20.2048 -11.1671 0.0580731
-20.0282 -10.39 -2.34255
-20.1717 -11.0883 -0.173035
-19.7649 -10.725 -1.72013
-19.8959 -11.1205 0.133392
-19.652 -10.7485 -2.14396
-19.8223 -10.9984 -0.329237
-19.6543 -11.2521 -0.597214
-19.4958 -10.6877 -2.19697
-19.4915 -10.7522 -2.25837
-19.4203 -11.1159 -0.878984
-19.3914 -11.8169 1.19635
-19.0367 -11.4612 -1.05253
-18.9357 -10.9848 -2.36497
-18.9279 -11.0464 -2.03307
-18.7565 -11.3704 -2.22886
-18.5939 -11.3602 -2.30477
-18.6247 -11.3418 -2.63342
-18.4727 -11.6471 -1.44279
-17.9695 -11.8136 -0.63176
-17.8787 -11.75 -0.603961
-17.6549 -11.9946 -0.941476
-17.3197 -11.7398 -1.45039
-17.5932 -12.02 -0.494393
-17.3492 -11.9957 -0.994889
-17.3436 -11.8658 -0.653312
-17.2068 -11.9099 -0.994774
-17.178 -12.2641 -0.246374
-16.4057 -10.6476 1.44051
-16.8101 -12.1029 -1.71372
-16.6747 -12.2335 -0.284332
-16.0108 -11.9852 -2.64109
-15.8513 -11.2266 1.2861
-16.1485 -12.4989 -1.06097
-16.1541 -12.5973 -0.788568
-16.2115 -12.6276 -0.377282
-15.6474 -13.0361 -1.20773
-19.8718 -10.6826 -1.3247
-19.6869 -10.7448 -2.01732
-19.6298 -11.04 -1.733
-19.3727 -10.9964 -1.78334
-19.8 -11.0308 -1.1618
-19.5673 -10.9539 -1.66305
-19.5392 -10.693 -1.73153
-19.2587 -11.053 -1.80424
-19.2312 -11.5074 0.211899
-19.2025 -11.4125 -0.862952
-18.6663 -11.5026 -1.54478
-18.1464 -11.4226 0.407639
