-19.3986 -11.9665 0.34518
-19.7724 -11.5109 -1.18751
-19.6736 -11.2128 -1.92562
-19.3374 -11.9569 -0.0303776
-19.5012 -11.531 -0.804193
-19.3028 -11.4122 -1.36771
-19.1375 -11.4574 -1.45053
-18.9335 -11.2622 0.143999
-19.3438 -11.0906 -2.39356
-18.9289 -11.0484 -2.29251
-18.6209 -11.3792 0.987761
-18.9311 -11.3057 -0.37053
-19.0287 -11.5471 -0.392676
-18.5294 -11.35 0.113117
-18.9148 -11.6881 -1.70346
-19.0652 -11.7538 -1.7767
-18.8672 -11.5271 -1.64084
-18.6715 -11.4145 -2.24526
-18.7337 -11.4431 -2.34828
-18.7295 -11.1026 -3.0257
-18.4423 -11.4735 -2.92451
-18.2374 -11.7266 -0.300791
-18.142 -11.604 -0.721796
-18.1375 -11.8948 -0.807446
-17.9177 -11.9369 -0.677672
-17.9739 -11.7065 0.410676
-17.9786 -11.6747 -1.16846
-17.403 -10.4417 1.40746
-17.7454 -12.0201 -0.902623
-17.5209 -10.4992 1.44452
-17.5021 -11.9323 0.32854
-17.5833 -12.3363 -0.355047
-17.3223 -11.9629 -0.477238
-17.4556 -11.8612 -1.16353
-17.2722 -12.1059 0.198444
-17.0288 -11.9502 0.581738
-17.049 -11.662 -1.71244
-16.8973 -12.0626 -0.429957
-16.9489 -12.0803 -0.957315
-16.9048 -12.2769 -0.681111
-16.8491 -12.1386 -0.62867
-16.9246 -12.0217 -0.462602
-15.8834 -12.1373 -2.23633
-20.6372 -11.3309 0.479214
-20.3725 -11.2415 -0.309091
-20.2921 -11.3949 0.561389
-20.2169 -11.467 0.459287
-20.5417 -11.6017 1.11059
-20.3595 -11.3586 -0.0941298
-20.0756 -11.4322 -0.152089
-20.0708 -11.6127 1.13753
-20.2248 -10.7077 -2.38204
-20.1114 -11.3167 -0.472641
-20.207 -10.8393 -2.04614
-20.105 -10.7509 -2.16475
-20.0245 -11.3287 -0.984465
-19.8093 -11.5319 0.148952
-19.9126 -11.4618 -0.210107
-19.9526 -10.9825 -1.67698
-19.7528 -11.7128 0.036142
-19.7203 -11.3957 -0.705141
-19.5731 -11.0394 -1.6061
-19.6667 -11.0104 -2.02891
-19.7401 -11.2015 -1.98744
-19.5962 -11.0428 -2.36526
-19.6016 -11.8063 -0.149619
-19.2765 -10.8553 -2.3164
-19.4342 -11.4422 -1.08011
-19.4336 -11.0862 -2.25797
-19.1118 -11.3642 -1.17094
-18.9747 -11.5199 -0.11487
-18.979 -11.4224 -1.48653
-18.3862 -11.3788 0.197217
-18.4266 -11.4209 0.349865
-18.2838 -11.8952 -0.280689
-18.5215 -11.8292 -1.56221
-17.9514 -11.6594 0.303067
-17.9461 -11.6892 0.16828
-18.1814 -11.6521 -2.82884
-17.9037 -11.927 -0.528151
-17.3675 -10.481 1.31939
-17.7847 -11.8865 0.56051
-17.3572 -12.1492 -0.4486
-17.3323 -11.9124 -0.886741
-17.1039 -12.3086 0.435154
-16.9158 -11.8929 -1.5859
-16.8826 -12.1539 -0.357672
-16.8294 -12.2069 -0.632908
-16.7966 -11.8745 -1.84847
-16.3987 -12.1129 -1.6446
-16.3877 -12.5218 -0.783316
-16.2278 -12.4081 -1.13968
-16.0714 -11.8759 -2.1484
-15.7263 -12.849 -0.804043
-15.8015 -12.6064 -1.94769
-20.6475 -11.366 0.0821548
-20.5476 -11.4359 0.290981
-20.0728 -11.4996 0.520914
-19.9306 -10.7445 -2.01739
-19.9135 -11.3574 -0.265261
-19.7089 -11.5089 -1.26877
-19.6801 -11.1861 -1.1853
-19.5512 -11.0152 -2.17905
-19.7582 -11.7604 -0.069898
-19.3517 -10.9261 -2.41424
-19.5347 -11.1328 -1.93971
-19.3438 -11.309 -1.72903
-19.5826 -11.3129 -2.00659
-19.3719 -11.1506 -2.08278
-19.2424 -11.1216 -1.8948
-19.1033 -11.6446 -1.10658
-18.9793 -11.1952 0.164623
-19.1687 -11.5029 -1.38852
-19.0354 -11.6027 -1.73153
-18.7893 -11.3208 -0.156792
-18.8865 -11.2044 -2.92319
-18.5265 -11.1435 -0.896699
-18.8234 -11.4819 -2.30024
-18.3733 -11.718 -1.56341
-17.4501 -10.5894 1.32907
-17.3658 -12.0537 -0.55365
-16.5089 -12.4278 -1.24438
-16.4362 -12.7458 -0.0831086
-16.3896 -12.4467 -1.05349
-16.4386 -11.9009 -2.61968
-15.8713 -12.8643 -0.944505
-14.7643 -13.138 -3.06053
-20.6128 -11.2921 0.449385
-20.2972 -11.6414 0.60292
-20.133 -11.6189 0.250285
-20.1533 -11.5276 0.199938
-19.9092 -10.9522 -1.73559
-19.8523 -11.2925 -0.323264
-19.7712 -11.7012 0.790642
-19.6497 -11.5408 0.452236
-19.7987 -10.7208 -2.3416
-19.8824 -10.8205 -2.49558
-19.5938 -11.8573 -0.233282
-19.4395 -11.5728 -1.10952
-18.7169 -11.2411 0.681632
-18.8419 -11.3125 1.14605
-19.3163 -11.5455 -1.39473
-19.197 -11.6035 -1.14335
-19.201 -11.3873 -1.22309
-18.8855 -11.4816 -1.49838
-18.6754 -11.6585 1.62044
-19.0135 -11.4597 -1.65751
-18.8485 -11.0889 -2.59885
-18.7339 -11.3316 -2.34555
-18.8297 -11.3269 -2.45775
-18.1079 -11.7041 0.371338
-18.1502 -11.7662 -0.813552
-17.927 -11.7322 0.342205
-18.041 -11.7313 -1.14994
-18.1678 -11.5319 -2.74229
-17.5485 -11.7845 -0.873872
-17.0483 -10.3561 1.78497
-17.1991 -10.6082 1.94909
-17.1205 -12.0059 -1.12729
-17.0463 -12.2556 0.259909
-17.3137 -11.585 -2.02566
-17.1576 -11.4375 -2.18625
-16.9231 -11.8738 -0.438311
-16.9807 -12.085 -0.233202
-16.8571 -12.0017 -0.63947
-16.3488 -12.4073 0.460054
-16.43 -12.7281 -0.339809
-16.3312 -12.7128 -0.0822128
-16.1791 -12.5238 -0.519257
-15.923 -12.9827 -1.06439
-20.5453 -11.2997 0.318001
-20.3207 -11.7048 0.121765
-19.9106 -11.2412 -0.940402
-19.7322 -11.6578 0.683395
-19.5405 -11.3428 -0.718862
-19.6297 -11.5473 -0.104894
-19.1341 -11.4459 -2.12822
-18.8015 -11.5442 1.57746
-18.6026 -11.3309 0.199084
-18.84 -11.1989 -2.91305
-18.3258 -11.8441 -0.570683
-17.8438 -11.9443 0.164654
-17.4835 -10.4841 1.12596
-17.3192 -11.9052 0.2053
-17.5225 -12.0534 -0.429638
-17.5237 -12.0384 0.220095
-17.3889 -12.1901 -0.436858
-17.2363 -11.9663 -1.18848
-17.194 -12.2107 -0.329376
-17.3142 -12.2345 -0.207499
-17.0843 -12.2144 0.588192
-16.2776 -12.1351 -0.822549
-16.2627 -12.4556 -0.744072
-16.3549 -11.8052 -2.60388
-20.0262 -11.3404 -0.718756
-20.0349 -11.0539 -1.88076
-19.8076 -11.589 -0.264065
-19.2291 -11.5399 -1.24244
-18.9238 -11.3264 -2.70812
-18.4516 -11.984 -0.43959
-17.8131 -11.1894 -2.32914
-17.5537 -11.9457 -0.670213
-17.1118 -11.4402 -2.18451
-16.6797 -10.6118 1.29412
-16.4043 -12.1542 -1.91274
-18.9429 -11.3983 0.0869533
-18.8644 -11.1334 0.0962638
-18.7694 -11.1096 0.109797
-18.4332 -11.1623 -2.88634
-17.8288 -11.4941 -1.84654
-17.332 -11.8665 -1.50992
-20.0128 -11.03 -1.55636
-18.6993 -11.5678 -1.54783
-16.5184 -12.348 -1.94797
-19.8644 -11.7981 0.264496
-19.0088 -11.1445 -0.0283332
-17.4277 -11.2469 -2.40915
-17.5353 -11.4654 -2.47126
-16.8726 -12.0159 -0.872157
-18.8499 -11.3227 0.430725
-17.9205 -11.7263 -1.49805
-17.6499 -12.0581 -0.292507
-17.1552 -11.3542 -2.2144
-17.4598 -11.5407 -2.57765
-16.2882 -12.1207 -1.46687
-15.2364 -12.7495 -1.905
-16.8031 -11.6637 -1.96869
-17.1573 -10.6105 1.52562
-20.7336 -11.0012 0.460677
-20.6602 -11.2742 0.264198
-20.2063 -11.4601 0.508667
-20.6886 -11.1139 -0.200338
-20.0426 -11.4228 0.313514
-20.3545 -11.4332 -0.0724799
-19.574 -11.553 0.190406
-19.7738 -11.5677 0.237829
-20.4881 -11.0407 -0.22675
-20.1909 -11.4259 -0.175517
-20.7207 -11.1026 -0.545668
-19.8278 -11.339 -0.3913
-20.2298 -11.4389 -0.427952
-20.3076 -11.3755 -0.457786
-19.9603 -11.2177 -0.501362
-20.1705 -11.0111 -0.708855
-20.3454 -11.353 -0.850039
-19.9211 -11.2397 -0.660473
-18.6896 -11.3134 0.316529
-19.9104 -11.5347 -0.375839
-20.0196 -11.366 -0.583971
-20.5002 -11.0175 -1.11769
-19.7405 -11.6207 -0.590376
-20.0557 -11.2312 -1.05303
-19.1738 -11.6027 -0.293903
-20.1988 -11.2033 -0.958961
-19.6095 -11.4046 -0.892895
-19.9666 -11.2733 -0.977298
-17.8813 -11.6856 0.310022
-19.7236 -11.2989 -1.11444
-19.6088 -11.3442 -1.16768
-20.1122 -11.175 -1.29325
-20.1598 -11.0216 -1.53082
-19.9754 -11.1201 -1.3561
-20.4167 -11.0049 -1.59885
-20.1868 -10.9775 -1.55571
-19.6611 -11.2416 -1.3064
-17.7205 -12.1449 0.0545213
-19.4503 -11.3147 -1.22761
-20.2157 -10.7174 -1.5702
-19.8835 -11.0108 -1.6104
-20.1986 -11.1037 -1.63898
-19.654 -11.279 -1.35369
-19.9203 -11.0515 -1.44981
-19.6622 -11.2084 -1.40672
-19.2335 -11.6293 -1.13109
-19.3753 -11.4493 -1.14854
-20.1365 -10.7944 -1.68629
-19.4773 -11.0434 -1.33386
-17.6294 -11.9642 -0.0955987
-19.6264 -11.3753 -1.38167
-19.7184 -11.1336 -1.53002
-17.2917 -12.1949 -0.109354
-17.9465 -11.9177 -0.703959
-19.0195 -11.6067 -1.45289
-19.2608 -11.5323 -1.43839
-19.131 -11.5589 -1.51332
-20.3089 -10.7046 -2.07892
-18.9262 -11.5533 -1.32252
-19.0031 -11.7511 -1.38688
-20.1505 -10.8985 -2.20188
-18.9922 -11.5178 -1.41786
-20.0618 -10.9844 -1.89826
-18.9566 -11.4317 -1.62978
-19.6176 -10.9161 -2.08823
-19.4364 -11.1761 -1.94628
-16.378 -12.8035 -0.282655
-16.2069 -12.7369 -0.254478
-18.5207 -11.6355 -1.55538
-18.5603 -11.6657 -1.6854
-19.1828 -11.4168 -1.98176
-18.7253 -11.6911 -1.61791
-16.8685 -11.9463 -0.389298
-19.4306 -11.3211 -2.21697
-17.382 -11.7524 -0.96526
-18.5916 -11.6689 -2.04381
-18.565 -11.6037 -2.14529
-19.4183 -11.0877 -2.40431
-19.462 -10.7985 -2.51753
-19.7548 -11.0134 -2.56784
-17.1325 -11.9748 -1.01128
-18.843 -11.5942 -2.12883
-18.6164 -11.5033 -2.17779
-15.8337 -12.8903 -0.825811
-18.4976 -11.5487 -2.34337
-17.6816 -11.6627 -1.69761
-18.556 -11.3901 -2.51446
-18.6572 -11.4446 -2.42877
-18.2483 -11.5821 -2.48254
-17.6424 -11.6219 -2.04618
-18.4061 -11.5691 -2.62613
-18.2908 -11.6104 -2.84883
-17.9358 -11.4143 -2.84917
-17.2418 -11.4048 -2.46491
-17.8467 -11.6114 -2.91518
-18.0025 -11.5749 -3.09449
-17.8335 -11.7821 -3.13754
-16.081 -12.0872 -2.01653
-19.7819 -11.8259 1.07547
-19.7839 -11.7849 1.12746
-20.5487 -11.0564 0.359563
-20.588 -11.3181 0.276317
-20.4758 -11.2571 0.267088
-20.7541 -11.1609 -0.087521
-19.9746 -11.5409 0.262189
-20.12 -11.6379 0.195043
-20.2411 -11.3889 0.0689096
-20.3819 -11.211 -0.327134
-19.9872 -11.4981 0.075079
-19.9979 -11.3738 -0.226485
-20.0002 -11.4561 -0.287979
-20.0058 -11.4939 -0.312615
-20.2151 -11.2757 -0.520386
-20.255 -11.3933 -0.392238
-20.0149 -11.4522 -0.365486
-19.3605 -11.7709 -0.299303
-19.4263 -11.7502 -0.193203
-20.4645 -10.7839 -0.948637
-20.0125 -11.2103 -0.66433
-19.2223 -11.5625 -0.373097
-19.7614 -11.4273 -0.823143
-19.4313 -11.4682 -0.682621
-19.661 -11.4387 -0.586226
-19.507 -11.6328 -0.579034
-19.8315 -11.3767 -0.657667
-19.5614 -11.4218 -0.997517
-20.177 -10.9416 -1.02332
-20.328 -10.7213 -1.62311
-19.6979 -11.267 -0.987736
-19.7699 -11.2341 -0.961605
-18.6314 -11.8361 -0.362746
-19.9867 -11.1745 -1.21095
-20.4253 -10.7127 -1.75549
-19.342 -11.4163 -1.0684
-20.2324 -11.0448 -1.65576
-19.846 -11.0354 -1.5364
-19.6551 -11.2401 -1.4257
-18.5151 -11.2275 -0.635456
-19.8929 -11.2635 -1.55718
-20.0066 -11.0123 -1.47098
-20.0437 -11.2571 -1.58436
-19.4307 -11.2734 -1.53078
-19.5008 -11.32 -1.57344
-19.1515 -11.4576 -1.58908
-17.5528 -12.0982 -0.391917
-19.6497 -11.0431 -1.89101
-18.1746 -11.8555 -0.686817
-20.3101 -10.8333 -2.31471
-19.3204 -11.5557 -1.67195
-18.1061 -11.8383 -0.977506
-17.8041 -11.8794 -0.644795
-19.4982 -11.4192 -1.92348
-19.2171 -11.1753 -1.72017
-17.6275 -11.8953 -1.27276
-17.8646 -11.7423 -1.15348
-18.9033 -11.5173 -2.03219
-17.4374 -12.0074 -0.79654
-18.9216 -11.4665 -2.02149
-18.8426 -11.4159 -1.97009
-16.8904 -11.9613 -0.506959
-19.6239 -11.1861 -2.22172
-19.436 -11.1127 -2.37147
-19.5107 -11.1079 -2.41796
-19.6703 -11.1087 -2.31778
-18.9151 -11.5046 -2.24012
-18.7759 -11.3467 -2.26264
-16.4723 -12.5206 -0.870818
-18.8908 -11.0559 -2.18751
-15.8909 -12.9569 -0.610552
-15.8496 -12.9795 -0.665365
-15.7473 -12.8724 -0.824435
-16.5246 -12.3994 -0.972714
-18.7199 -11.2789 -2.22511
-17.4795 -11.6505 -1.57223
-18.8076 -11.3585 -2.60547
-18.6775 -11.2582 -2.57327
-18.8982 -11.3876 -2.58299
-18.4942 -11.344 -2.66347
-18.744 -11.4864 -2.71761
-18.175 -11.6907 -2.64784
-18.2826 -11.3463 -2.54817
-18.1887 -11.5492 -2.87874
-17.9396 -11.576 -2.62696
-15.6568 -12.7586 -1.74384
-17.4008 -11.3493 -2.26606
-17.9591 -11.5408 -3.22165
-17.8508 -11.4876 -2.99706
-20.3772 -11.6585 1.24167
-20.6185 -11.3831 0.791826
-20.6443 -11.361 0.580705
-20.288 -11.5586 0.440438
-20.5368 -11.2771 0.178983
-20.5931 -11.2767 0.11287
-19.2744 -11.9725 0.69413
-19.8517 -11.7576 0.670257
-20.0291 -11.4491 -0.0175868
-20.3042 -11.3609 -0.0111286
-20.0748 -11.2954 -0.10978
-19.9585 -11.4898 -0.116156
-20.4819 -11.2286 -0.64035
-17.466 -10.6612 1.26665
-17.2542 -10.6637 1.32226
-18.2461 -11.3596 0.183992
-20.0364 -11.4313 -0.704458
-20.3341 -11.1319 -0.836655
-16.8379 -10.5819 1.50161
-19.9911 -11.3053 -0.978463
-19.5352 -11.2853 -0.657791
-19.9353 -11.2336 -1.16022
-17.9189 -11.5265 0.354405
-19.6731 -11.2935 -1.00731
-18.5565 -11.445 -0.547837
-18.7098 -11.5544 -0.555691
-19.3594 -11.6185 -1.18271
-17.9961 -11.9227 -0.321691
-17.3762 -11.9882 0.441578
-20.2479 -11.0085 -1.60845
-16.8591 -12.2305 0.265812
-19.2333 -11.5326 -1.14512
-17.3931 -12.0986 -0.171044
-19.6222 -11.3083 -1.7911
-17.0654 -12.4846 -0.0544194
-18.89 -11.5439 -1.47361
-18.1596 -11.8335 -1.03355
-18.8827 -11.5252 -1.61457
-18.827 -11.7243 -1.7246
-18.9013 -11.3541 -1.75889
-19.3834 -11.2075 -2.01958
-17.3885 -12.0185 -0.888292
-18.6328 -11.9411 -1.59255
-16.807 -12.0924 -0.54092
-16.8801 -12.0378 -0.558611
-19.9696 -10.6275 -2.50894
-17.3294 -11.9748 -1.04309
-19.2459 -11.217 -2.17477
-19.4658 -11.0464 -2.44417
-19.6021 -10.9515 -2.48314
-19.6819 -10.9664 -2.61375
-16.4975 -12.3669 -0.8809
-19.0696 -11.3023 -2.57409
-16.3316 -12.5454 -0.950352
-16.3041 -12.3262 -1.00697
-18.7367 -11.2858 -2.57497
-15.9938 -12.8366 -0.800457
-15.8633 -12.9789 -0.830797
-18.5727 -11.2555 -2.31018
-18.5253 -11.3126 -2.45212
-18.8169 -11.495 -2.49291
-18.2871 -11.3924 -2.75252
-18.2728 -11.3301 -2.90751
-17.8497 -11.5555 -2.97144
-17.4547 -11.4696 -2.5311
-17.4988 -11.3369 -2.49725
-17.3077 -11.4832 -2.03054
-17.5674 -11.5068 -2.4749
-20.3684 -11.5372 0.783064
-19.8617 -11.7586 0.884913
-20.2014 -11.5171 0.303437
-20.662 -11.3652 0.381659
-20.1427 -11.5936 0.419571
-20.2238 -11.7827 0.257592
-17.8707 -10.8667 1.46059
-18.8139 -11.2809 0.96701
-18.7122 -11.4643 1.07312
-19.6322 -12.0117 0.385026
-20.3531 -11.2596 -0.331006
-19.5477 -11.9237 0.157481
-20.2468 -11.3591 -0.356277
-19.4576 -11.7816 0.0268426
-20.3302 -11.1648 -0.81045
-20.4037 -11.0669 -0.656026
-19.4696 -11.5401 -0.404467
-19.6938 -11.4017 -0.229124
-19.5158 -11.5565 -0.191629
-19.54 -11.6875 -0.463297
-20.2302 -11.0749 -0.930286
-18.7512 -11.7149 -0.271744
-17.3022 -11.9933 0.345156
-19.6369 -11.291 -1.09446
-19.6887 -11.2007 -1.40477
-19.9869 -11.0505 -1.21086
-19.796 -11.3563 -1.18088
-17.997 -12.0158 -0.450742
-19.1304 -11.5757 -1.29771
-18.9626 -11.6578 -1.20697
-19.1624 -11.717 -1.34727
-19.0793 -11.2862 -1.39123
-18.0257 -11.8179 -0.927005
-19.0851 -11.6366 -1.45296
-19.0937 -11.5784 -1.37065
-17.5056 -12.0287 -0.321938
-18.5766 -11.215 -1.01215
-18.6973 -11.189 -0.946968
-18.5609 -11.1214 -1.01344
-17.34 -11.9561 -0.44659
-19.0911 -11.5457 -1.57918
-17.5131 -11.8905 -0.542045
-17.6686 -11.7954 -0.652283
-18.8227 -11.6002 -1.75258
-19.0603 -11.3482 -1.75286
-19.0563 -11.5037 -1.94834
-18.3871 -11.5585 -1.67712
-19.3274 -11.2803 -2.13674
-18.5342 -11.7027 -1.68528
-17.0692 -11.8832 -0.899619
-17.2519 -12.0588 -1.01011
-19.4433 -11.1221 -2.25264
-19.1606 -11.2272 -2.32035
-16.1663 -12.4455 -0.626132
-18.8505 -11.1209 -2.50945
-18.9533 -11.3023 -2.47527
-17.8493 -11.4146 -1.85336
-18.8423 -11.2394 -2.45371
-18.7104 -11.3831 -2.5733
-18.5392 -11.3107 -2.74936
-18.5559 -11.5029 -2.49586
-17.6739 -11.3556 -2.07894
-17.2558 -11.3312 -1.92243
-20.6234 -11.2237 0.364473
-20.0041 -11.6952 0.337905
-17.5206 -10.5061 1.41963
-17.4182 -10.4424 1.00383
-18.6485 -11.4515 0.430609
-19.906 -11.2371 -0.777864
-19.8052 -11.533 -0.921795
-20.3282 -11.1303 -1.07742
-20.1345 -11.0149 -1.27742
-20.178 -11.1017 -1.50414
-18.9687 -11.5439 -1.35941
-19.3206 -11.4938 -1.50411
-19.1761 -11.6403 -1.20853
-17.1691 -12.1467 -0.23401
-16.9276 -12.2606 -0.399142
-19.6851 -11.0683 -1.90417
-17.3975 -12.1469 -0.735337
-17.0861 -12.0693 -0.178026
-19.1672 -11.2905 -1.73395
-16.9466 -12.0024 -0.559235
-16.7344 -12.0628 -0.562647
-17.4517 -11.8438 -1.01302
-18.9168 -11.6498 -2.0353
-17.8568 -11.7452 -1.3335
-17.5427 -11.6413 -1.50501
-15.8849 -12.9026 -1.05374
-16.3681 -12.2572 -1.34811
-17.0936 -11.5221 -1.9427
-16.7997 -11.8349 -2.03664
-17.5207 -11.2001 -2.56959
-17.0601 -11.2649 -2.43231
-16.3734 -11.6876 -2.53801
-16.0922 -11.8847 -2.51447
-15.4386 -11.982 -2.80672
-20.555 -11.0085 0.048304
-19.8811 -11.4778 0.349339
-20.171 -11.3986 -0.0591001
-19.5351 -11.8251 0.392673
-18.2958 -11.6344 1.03755
-18.2885 -11.5071 0.607625
-19.6279 -11.7674 0.154084
-18.4622 -11.46 0.181038
-20.1061 -11.0942 -1.17228
-16.9602 -10.1322 1.00172
-19.5451 -11.5489 -0.795462
-19.097 -11.3664 -1.24976
-19.6166 -11.123 -1.31621
-16.6145 -12.5165 0.391035
-19.6746 -11.0726 -2.27795
-16.5216 -12.5273 -0.706966
-16.3267 -12.5731 -1.11173
-16.1587 -12.3464 -1.14416
-18.7702 -11.3488 -2.68707
-18.1572 -11.5042 -2.58418
-18.0759 -11.5539 -2.60216
-17.5233 -11.3627 -2.54146
-16.5797 -11.8351 -2.66162
-14.8808 -12.8676 -3.03036
-19.3345 -11.2971 1.09094
-18.5152 -11.3602 1.31191
-18.8758 -11.27 0.554339
-15.8866 -10.5193 2.10401
-18.9768 -11.4419 -0.0688236
-20.1304 -11.118 -1.26485
-19.2199 -11.3288 -1.668
-19.454 -11.0491 -1.69338
-16.9051 -12.0158 -0.547926
-18.6741 -11.2972 -2.55546
-17.0925 -11.3455 -2.20864
-16.9865 -11.4366 -2.38173
-18.9056 -11.3021 -0.152676
-20.153 -10.7421 -1.19819
-17.7763 -11.9246 0.0406009
-17.158 -11.8793 -1.22078
-18.7441 -11.2763 -2.35882
-19.0313 -11.1643 -2.67943
-17.2415 -10.3111 1.78555
-19.3185 -11.5642 -0.219291
-18.8398 -11.3317 0.192708
-19.5545 -11.3149 -1.18739
-20.4124 -10.7812 -1.92039
-17.5306 -12.0486 -0.433543
-17.6297 -11.897 -0.75506
-17.4349 -12.0099 -0.890975
-16.7865 -12.2085 -1.10812
-17.7363 -11.3679 -2.13333
-18.1077 -11.3662 -2.30364
-16.2314 -12.1474 -1.75376
-15.5621 -12.5929 -1.98997
-19.0383 -11.2833 0.777589
-17.6121 -11.6023 -2.35195
-17.7243 -11.8497 -1.62025
-17.4528 -11.8411 -1.42015
-17.0914 -10.5933 1.63917
-18.3059 -11.6188 -2.36789
-18.6482 -11.6378 0.663964
-18.9797 -11.2682 -2.60314
-19.7858 -10.7832 -2.46927
-19.0112 -11.2106 -2.51478
-15.9921 -12.0353 -2.30164
-19.6409 -10.867 -2.34055
-18.7135 -11.4575 -1.97454
-19.4557 -11.213 -1.9964
-20.3047 -10.8541 -2.01694
-19.5901 -11.2331 -1.95979
-20.2648 -10.8443 -1.71229
-19.3613 -11.272 -1.91015
-20.2735 -10.814 -1.66442
-20.4474 -10.85 -1.81216
-19.5996 -11.1049 -1.68073
-19.1069 -11.3029 -1.53388
-19.0725 -11.3237 -1.63618
-18.6937 -11.7949 -1.55902
-19.988 -10.8692 -1.49608
-19.8265 -11.0992 -1.71732
-20.497 -10.7538 -1.49237
-20.3743 -11.1115 -1.67028
-19.9344 -11.2212 -1.49155
-19.2248 -11.4218 -1.55082
-19.9448 -11.0822 -1.50186
-19.4404 -11.0856 -1.52452
-19.7107 -11.3027 -1.49365
-19.5104 -11.2045 -1.50332
-19.5934 -11.2162 -1.44116
-19.0421 -11.461 -1.59027
-19.0617 -11.4209 -1.41308
-19.0497 -11.4613 -1.33506
-19.7727 -11.2155 -1.3147
-19.4736 -11.3474 -1.31527
-17.2228 -12.0112 -1.02774
-17.3341 -12.1282 -0.917853
-19.9781 -11.0832 -0.945904
-19.5674 -11.3688 -1.03192
-19.8097 -11.3715 -0.904157
-17.9782 -11.8207 -0.780907
-20.0654 -11.2807 -0.803268
-19.6283 -11.495 -0.739015
-20.68 -11.2077 -0.598717
-20.5976 -10.9178 -0.643516
-19.5159 -11.5228 -0.646733
-20.2472 -11.4745 -0.46662
-20.4783 -11.1687 -0.30444
-20.1137 -11.3234 -0.247139
-19.9205 -11.3158 -0.0918307
-19.6893 -11.8056 -0.109486
-20.3901 -11.4397 -0.07681
-16.5769 -12.2593 0.302453
-20.374 -11.3862 0.107172
-19.9677 -11.5232 0.299403
-19.5536 -11.719 0.109726
-20.2695 -11.3862 0.11584
-20.6363 -11.4131 0.230607
-19.4664 -11.7009 0.379672
-20.3338 -11.5673 0.455187
-18.243 -11.7129 -2.71154
-17.1346 -11.4743 -2.26292
-19.88 -11.0622 -2.09245
-19.2422 -11.3654 -2.11748
-20.5708 -10.7582 -1.62722
-18.912 -11.6537 -1.56144
-18.5329 -11.9952 -1.58444
-19.9815 -11.0265 -1.34302
-20.0771 -10.9986 -1.28589
-19.5491 -11.3923 -1.33696
-19.4207 -11.3024 -1.26094
-19.368 -11.3632 -1.2016
-19.322 -11.5358 -1.00767
-19.9579 -11.2006 -0.973897
-19.8837 -11.2741 -1.15627
-20.2161 -11.1165 -0.909999
-16.9141 -12.24 -0.675534
-19.8827 -11.1553 -0.78886
-20.184 -11.3206 -0.75071
-16.8416 -12.1066 -0.514547
-17.0311 -12.2135 -0.516635
-19.5611 -11.4222 -0.727597
-20.2344 -11.292 -0.616944
-20.4559 -11.0541 -0.594809
-20.2223 -11.2365 -0.666586
-16.3525 -12.616 -0.268584
-19.7329 -11.6267 -0.408917
-19.9798 -11.3527 -0.238621
-20.277 -11.4965 -0.239921
-17.2608 -11.9979 0.269985
-20.0202 -11.7455 0.176162
-19.691 -11.7643 -0.0416827
-20.4593 -11.4587 0.199285
-19.9296 -11.8576 0.196595
-20.55 -11.3724 0.541479
-20.2218 -11.5743 0.328027
-20.0963 -11.7307 0.616292
-20.4247 -11.6183 0.859236
-18.301 -11.4989 -3.21619
-18.8418 -11.5025 -1.96229
-18.6379 -11.6447 -1.96521
-15.7006 -12.7597 -1.80156
-19.4594 -11.3356 -1.41608
-19.1352 -11.5109 -1.49111
-19.0796 -11.7379 -1.46364
-17.8662 -11.7185 -1.1979
-17.0019 -12.242 -0.966419
-20.5608 -11.0596 -1.03431
-20.0082 -11.2152 -1.02808
-20.3552 -11.0249 -0.603889
-19.9311 -11.4386 -0.161704
-19.9897 -11.4634 -0.179895
-17.2286 -12.0685 0.359432
-18.4102 -11.5566 0.373183
-20.63 -11.3622 0.163523
-16.1735 -11.0666 1.37211
-20.2432 -11.6488 0.514625
-20.5642 -11.5222 0.786953
-20.0276 -11.6867 0.784879
-20.4438 -11.3387 0.842105
-19.5677 -10.8591 -2.62848
-17.3707 -11.3291 -2.47165
-18.7534 -11.449 -2.41821
-20.2869 -10.8426 -1.81244
-17.6072 -11.5681 -1.11419
-19.2587 -11.4363 -1.24022
-19.6516 -11.2637 -1.03373
-19.4318 -11.5573 -1.12197
-19.4121 -11.5339 -1.0972
-19.6161 -11.4698 -0.713756
-19.3981 -11.5652 -0.874128
-17.4206 -12.1221 -0.387231
-20.4528 -11.3194 -0.234941
-17.5847 -12.0221 0.11201
-17.2593 -12.0231 -0.133648
-19.738 -11.5895 0.0395073
-19.9184 -11.5205 0.0615951
-20.5058 -11.2772 0.414026
-20.3881 -11.5651 0.446979
-19.8083 -11.8047 0.58655
-18.8925 -11.521 0.947176
-19.6018 -11.9713 1.06687
-20.0243 -11.7318 1.31866
-17.3083 -11.3245 -2.53514
-18.8974 -11.4382 -2.62047
-17.0465 -11.4564 -2.28938
-15.8822 -12.051 -2.27263
-19.4072 -11.168 -2.19034
-18.5607 -11.6028 -2.15333
-19.9594 -10.8415 -2.00248
-18.8824 -11.5765 -1.75135
-18.9795 -11.4307 -1.56031
-20.3867 -11.0157 -1.52696
-20.2174 -10.9704 -1.39113
-19.11 -11.3936 -1.34066
-16.4005 -12.5403 -1.07071
-17.1016 -12.1165 -0.447093
-16.8916 -11.9447 -0.570344
-17.3967 -12.2399 -0.255668
-19.3419 -11.5137 -0.540044
-19.792 -11.6641 -0.458257
-19.7009 -11.6315 -0.24335
-19.5523 -11.7401 -0.0161597
-16.6467 -10.607 1.36781
-19.5698 -11.9549 0.936517
-18.8649 -11.0654 -2.54249
-17.1677 -11.4443 -2.28067
-19.3991 -11.2919 -1.58363
-19.3545 -11.6583 -1.20488
-17.8261 -11.7451 -1.31778
-19.3687 -11.4191 -1.35909
-18.061 -11.8825 -1.03577
-17.2268 -12.1543 -0.420154
-20.3455 -11.2445 -0.301585
-19.4925 -11.715 -0.078436
-17.049 -12.2942 0.250349
-17.8875 -11.8393 0.18839
-19.0048 -11.4554 -2.23611
-18.8392 -11.3682 -2.2383
-17.4029 -11.8375 -0.924192
-18.3614 -11.7729 -0.67576
-18.6145 -11.5143 1.51537
-17.6525 -10.635 2.00038
-17.4429 -11.4916 -2.72602
-18.5849 -11.4833 -2.73292
-19.2577 -11.5754 -1.1817
-17.4811 -11.9945 -0.168085
-19.8831 -11.5273 0.337736
-18.8641 -11.3092 -0.763848
-17.7635 -12.1212 -0.0167219
-17.1066 -12.1145 0.345675
-19.3812 -11.5586 -1.20227
-17.7559 -12.0993 -0.172135
-16.9715 -10.5374 1.63458
-17.1976 -10.3807 1.0721
-19.6204 -11.2182 -2.25891
-19.1148 -11.3172 -2.22937
-18.8239 -11.0292 -2.4656
-19.8338 -11.2319 -1.50894
-19.1044 -11.5013 -1.88276
-19.557 -11.2704 -1.31782
-19.8197 -11.4741 -1.00249
-19.7957 -11.3327 -1.08381
-19.7511 -11.3016 -1.06562
-19.0877 -11.4664 -1.31723
-19.091 -11.5112 -1.35244
-20.6508 -11.487 -0.318579
-19.357 -11.5576 -1.00947
-17.2381 -11.314 -2.23469
-16.9176 -11.2845 -2.16647
-20.0389 -11.3895 -0.111541
-16.4994 -12.0989 -2.1293
-18.0409 -11.8889 -1.11325
-17.9815 -11.8038 -1.08136
-20.0728 -11.4343 0.445078
-19.5081 -11.6708 0.0557624
-20.1791 -11.5093 0.505546
-17.9815 -11.6999 -0.940383
-20.5646 -11.5066 0.542831
-18.0257 -11.736 -0.838002
-17.949 -11.7307 -0.667024
-18.4384 -11.7337 -0.359997
-17.4053 -11.9638 -0.920474
-19.5453 -11.8359 0.422472
-18.5161 -11.3965 0.121966
-17.9869 -12.0582 -0.303554
-18.6658 -11.4338 0.316125
-18.4356 -11.2812 0.299703
-20.0552 -11.7393 1.17942
-18.1975 -11.4576 0.241337
-17.7223 -12.0581 -0.296765
-16.7982 -12.0153 -0.517822
-17.0347 -12.1161 -0.613077
-17.029 -12.3304 -0.399303
-16.2873 -12.4421 -0.8954
-15.9493 -12.9847 -0.82585
-17.4477 -11.7619 0.407023
-16.7209 -10.7204 1.57457
-20.2213 -10.963 -2.03341
-18.9482 -11.2944 -2.66542
-18.9438 -11.296 -2.62806
-18.7164 -11.3532 -2.63505
-18.2927 -11.5446 -2.51901
-20.0186 -11.123 -0.960468
-20.6526 -11.2418 -0.575203
-19.4559 -11.3954 -1.15006
-19.6611 -11.193 -1.20424
-19.7697 -11.3568 -0.882809
-20.0921 -11.2381 -0.390613
-20.5016 -11.2938 -0.182621
-17.2175 -11.3714 -2.04764
-16.6578 -11.7962 -2.26906
-20.6525 -11.3094 0.139142
-19.6063 -11.5556 -0.309824
-17.8173 -11.7201 -1.28855
-16.9096 -11.9449 -1.83854
-20.4103 -11.3609 0.493652
-15.8967 -12.0493 -2.07071
-19.6205 -11.8224 0.123031
-18.8941 -11.3375 -0.0809489
-15.898 -12.1081 -1.90832
-18.4878 -11.7302 -0.287227
-19.6851 -11.727 0.327648
-19.6789 -11.6515 0.82713
-18.5693 -11.3316 0.0939266
-16.8132 -11.9674 -1.13116
-18.6422 -11.4376 0.143522
-17.4754 -12.0173 -0.482832
-17.3996 -12.0656 -0.459551
-16.994 -12.0361 -0.376148
-16.8477 -12.0445 -0.668436
-17.2601 -12.1192 -0.345763
-16.8254 -12.0014 -0.42044
-16.2141 -12.4842 -0.651836
-17.2296 -11.9998 -0.075461
-15.9757 -12.8716 -0.7876
-15.8623 -12.8882 -0.632774
-15.991 -12.9326 -0.735997
-17.5812 -10.6403 1.31161
-16.6678 -10.7339 1.29685
-16.8547 -10.701 1.53589
-16.9721 -10.139 1.96242
-19.9325 -10.7819 -1.43701
-18.7721 -11.4375 -2.55523
-19.235 -11.1776 -2.22553
-18.2565 -11.7369 -2.83624
-18.2008 -11.6673 -2.57094
-20.0566 -11.254 -1.02888
-18.9298 -11.4054 -1.69413
-18.9518 -11.4551 -1.34276
-19.7878 -11.3506 -0.627523
-19.234 -11.359 -1.16904
-19.4057 -11.5609 -1.27963
-19.5577 -11.448 -0.484802
-15.8829 -12.0696 -2.46672
-20.6653 -11.2494 0.286299
-18.1326 -11.7388 -1.30219
-17.0271 -12.0372 -1.50459
-16.0176 -12.0071 -2.22096
-19.8508 -11.6359 0.275469
-20.1168 -11.5263 0.161942
-15.9592 -11.86 -1.95303
-20.1149 -11.7208 0.745059
-20.3993 -11.5705 0.7253
-15.4035 -12.3062 -2.34648
-19.5898 -11.7691 0.469609
-20.2612 -11.6967 0.969546
-20.2634 -11.5976 0.920944
-16.8773 -12.2279 -1.02451
-18.401 -11.3877 0.27737
-19.4012 -12.0171 0.933462
-17.5324 -12.0445 -0.170617
-17.0335 -12.2837 -0.617364
-16.8087 -12.0237 -0.469802
-16.3798 -12.5146 -0.931119
-17.2409 -12.1426 -0.105896
-17.2751 -12.1071 0.0550392
-16.5131 -12.3989 -0.590675
-17.326 -12.1582 -0.0497907
-16.3388 -12.5097 -0.854631
-17.2471 -11.9563 -0.142154
-15.7441 -13.0065 -0.591294
-16.2782 -12.6466 0.267431
-16.759 -10.581 1.2841
-18.0686 -11.549 -2.82731
-18.6727 -11.2895 -2.1307
-19.6195 -11.4554 -1.11539
-19.0716 -11.3666 -1.35566
-19.0546 -11.6374 -1.29396
-19 -11.559 -1.36902
-19.2967 -11.521 -1.01189
-19.3898 -11.2796 -1.046
-16.9842 -11.5023 -2.29839
-20.2519 -11.2609 -0.0675862
-20.3426 -11.3222 0.0079673
-20.6766 -11.3076 0.35868
-19.9175 -11.3801 0.105819
-20.2569 -11.2519 0.200647
-16.0895 -11.8953 -2.10732
-15.9254 -11.9797 -2.10302
-18.1153 -11.832 -0.894725
-20.5831 -11.4002 0.616995
-17.4025 -12.117 -0.936212
-16.3063 -12.0705 -1.25172
-16.3476 -12.2214 -1.21953
-17.4523 -12.0997 -0.529103
-19.733 -11.7677 1.08838
-17.4032 -12.2508 -0.414632
-17.1992 -12.0629 -0.398549
-17.0038 -12.0171 -0.365694
-17.8416 -11.8357 0.303253
-15.7228 -12.8807 -0.976457
-17.509 -10.4115 1.59634
-19.3543 -11.1292 -2.28762
-19.3814 -11.2542 -1.96263
-19.0165 -11.3858 -2.37226
-19.4821 -11.288 -1.31448
-19.7936 -11.3526 -0.754805
-19.0716 -11.413 -1.4655
-19.0644 -11.5789 -1.32216
-19.5951 -11.5758 -0.0480344
-18.2793 -11.7639 -0.767877
-17.3147 -11.902 -1.01298
-20.2281 -11.5907 0.569152
-16.501 -12.2138 -1.44645
-17.5656 -11.9649 -0.798486
-15.295 -12.4696 -2.14464
-15.5108 -12.5437 -1.9243
-17.1719 -11.9981 -0.845138
-17.3433 -12.0485 -0.558625
-17.5981 -12.1565 -0.440421
-18.22 -11.4884 0.239889
-16.6257 -12.1473 -0.584407
-19.5434 -11.8825 1.03488
-17.2738 -12.0743 0.0280774
-16.4738 -12.5136 -0.576329
-17.597 -12.1018 -0.0609606
-18.8979 -11.3258 1.48043
-17.0624 -10.3374 1.67146
-19.3171 -11.0421 -2.13884
-18.6748 -11.3443 -2.68223
-20.1114 -11.0155 -1.4122
-20.3099 -11.0433 -1.28855
-18.9882 -11.4394 -1.53293
-18.4989 -11.6353 -1.65489
-19.0708 -11.5519 -1.30813
-20.3251 -11.5296 0.626731
-17.8625 -11.8095 -0.723954
-15.3406 -12.4256 -2.34728
-16.6443 -12.1365 -1.3635
-16.9055 -12.078 -0.279089
-18.7369 -11.3038 0.982607
-19.1629 -11.3494 1.32443
-19.1476 -11.2933 -1.72018
-18.9896 -11.5479 -1.38392
-20.5476 -11.2519 -0.413239
-16.987 -11.3708 -2.28452
-17.7148 -11.7477 -1.4574
-19.7076 -11.8201 0.974737
-17.6723 -12.0441 0.0816903
-17.7176 -11.9514 0.298794
-18.9097 -11.4655 -2.21952
-18.944 -11.6951 -1.39565
-18.9337 -11.1962 0.00327334
-17.3935 -12.1596 -0.229678
-20.1227 -11.0629 -0.61059
-18.9923 -11.3841 0.668372
-15.8173 -12.781 -0.825685
-17.4291 -11.3434 -2.54187
-17.8293 -11.916 -1.58155
-17.0598 -11.5698 -1.76576
-16.4534 -11.9308 -1.84351
-17.5853 -12.096 -0.0600729
-17.0789 -10.6715 1.64224
-15.5116 -12.3497 -2.17946
-19.3243 -11.5117 -0.953633
-20.0121 -10.7325 -2.17021
-19.7201 -11.1324 -1.58611
-19.8183 -11.1972 -1.14983
-20.2023 -11.2737 -0.292268
-20.0472 -11.2923 -0.30456
-18.8604 -11.2237 -2.79358
-19.9981 -11.3374 0.209137
-18.8917 -11.3156 -2.40297
-18.7283 -11.2726 -2.11059
-19.9254 -11.8981 0.800482
-19.2322 -11.521 -1.05044
-18.6986 -11.3357 -2.0156
-18.7328 -11.3163 -2.14916
-19.1501 -11.7068 -1.16774
-18.9977 -11.4375 -2.14612
-18.7227 -11.4221 -1.94804
-18.8633 -11.4996 -1.92336
-18.2688 -11.4892 -2.80125
-19.4941 -11.8877 0.15034
-18.6024 -11.6005 -2.17119
-18.3331 -11.6413 -2.66431
-17.8841 -11.6083 -3.25047
-17.8011 -11.6546 -3.00766
-17.767 -11.8056 -3.27157
-18.1954 -11.3689 -1.3564
-17.7973 -11.4851 -1.61599
-18.6255 -11.315 0.387317
-18.5456 -11.9762 -0.183488
-17.6954 -11.687 -2.1724
-18.1765 -11.9486 -1.12753
-18.1 -11.9302 -0.924671
-18.0461 -11.7569 -0.683225
-17.4253 -12.0488 -0.944665
-17.5491 -11.9234 -0.205938
-17.588 -12.2654 -0.225112
-17.1652 -12.0407 -1.04189
-17.2777 -11.9804 -0.327322
-16.7289 -12.0733 -1.40584
-17.348 -11.861 0.529543
-16.826 -12.3145 -0.516253
-16.9517 -12.0612 -0.417768
-15.8391 -13.1263 -0.900498
-15.9087 -12.65 -0.719002
-16.7702 -10.7058 1.33257
-16.7322 -10.6457 1.8585
-20.1216 -10.721 -1.98974
-20.6553 -11.0697 0.104468
-20.4891 -11.1266 -0.22351
-19.7427 -11.0608 -2.02846
-20.5653 -11.4931 0.295494
-19.6148 -11.1639 -2.06646
-19.4646 -11.0341 -1.87114
-19.6543 -11.2187 -1.66158
-19.5769 -11.1569 -1.95115
-20.1389 -11.3498 -0.105203
-19.2231 -11.1457 -2.54339
-19.8708 -11.4155 -0.393137
-19.2586 -11.1837 -1.99078
-19.4795 -11.3588 -1.63073
-20.4453 -11.4839 0.426632
-18.8983 -11.2832 -2.47887
-18.9176 -11.3337 -2.23441
-18.8848 -11.5358 -2.40682
-19.4131 -11.575 -1.38062
-19.1717 -11.5676 -0.997528
-18.5367 -11.5871 -1.73115
-18.3817 -11.6179 -2.42627
-18.9069 -11.2797 0.028816
-18.983 -11.1527 -0.256368
-18.5768 -11.8753 -1.65611
-19.0233 -11.4879 -0.0594588
-18.6418 -11.8645 -0.485509
-17.6423 -11.4528 -2.42452
-18.1778 -11.7334 -0.77307
-18.0153 -11.8467 -0.644296
-17.1821 -11.401 -2.36934
-18.0024 -12.1643 -0.348268
-16.8118 -11.5463 -2.74437
-18.1607 -11.5652 0.45394
-18.4554 -11.5221 1.61361
-16.7098 -11.9143 -1.42233
-17.1348 -12.3133 -0.196125
-17.0038 -12.042 -0.579989
-16.3396 -12.061 -2.00472
-16.9048 -12.1014 -0.435381
-15.8202 -12.3025 -2.1071
-16.1108 -12.6351 -0.449748
-15.8538 -13.0481 -0.627295
-15.9842 -12.9935 -0.740871
-16.6965 -10.4817 1.42835
-16.2488 -10.8446 1.45083
-20.4643 -11.0983 -0.709025
-20.2265 -11.0037 -0.984952
-20.0963 -10.8572 -1.56011
-20.3878 -11.255 -0.277357
-20.0778 -11.1057 -1.39412
-20.3703 -11.2409 0.247705
-20.6071 -11.244 0.125782
-20.4019 -11.2242 -0.0422357
-19.3954 -11.0254 -1.70191
-19.3715 -11.1519 -2.1487
-19.4259 -11.1531 -2.07093
-19.4359 -11.0852 -1.91967
-19.957 -11.3012 -0.837015
-19.5076 -11.2095 -1.94522
-19.0921 -11.1123 -2.61484
-20.1564 -11.5382 0.539071
-18.4873 -11.3846 -2.69244
-19.5107 -11.4707 -0.912997
-18.736 -11.5119 -2.19451
-18.7345 -11.5604 -2.03635
-18.9342 -11.6426 -1.35151
-18.8718 -11.6426 -1.63376
-19.0473 -11.2298 0.349652
-19.0502 -11.1464 0.256518
-18.7183 -11.8388 -0.632059
-18.3206 -11.8122 -0.517812
-18.43 -11.4809 0.125099
-17.2856 -11.2913 -2.29336
-17.3193 -11.664 -1.33959
-16.867 -11.5572 -2.23299
-17.8048 -12.2295 -0.618523
-17.1454 -11.8625 -1.76545
-17.4706 -12.271 -0.258964
-17.3259 -12.0293 -0.275664
-17.3144 -12.065 0.00447844
-16.9847 -12.0117 -0.53127
-16.8308 -12.1025 -0.33278
-17.0736 -12.1815 -0.109942
-16.8759 -12.0631 -0.329496
-16.3102 -12.1107 -1.30479
-15.4195 -12.136 -2.8869
-16.2293 -12.6194 -0.463454
-16.2919 -12.6476 -0.271848
-14.9 -13.2703 -2.9135
-19.7707 -11.1318 -1.9518
-20.7167 -11.0793 0.245159
-20.0691 -11.2362 -0.795762
-19.3016 -11.2739 -2.5245
-19.492 -11.3997 -1.62827
-18.8657 -11.3254 -2.23254
-18.9755 -11.3839 -2.14158
-19.5442 -11.4112 -0.314403
-19.2298 -11.4566 -1.14578
-19.0119 -11.3813 -1.19709
-19.2549 -11.5741 -0.708711
-19.0348 -11.5079 -1.23335
-18.198 -11.5875 -2.57892
-19.5628 -11.7103 0.169177
-18.8584 -11.3484 0.386283
-17.8997 -11.5404 -1.15576
-17.9164 -11.6766 -0.94542
-17.127 -11.1751 -2.37159
-17.8703 -11.9647 -0.947506
-17.2654 -11.5002 -2.27401
-17.0061 -11.6804 -2.15109
-18.1187 -11.6001 0.443457
-17.2766 -11.5862 -1.29907
-17.3959 -11.8679 -1.25723
-17.6523 -12.0018 -0.0453592
-17.1648 -12.108 -0.865554
-16.4081 -11.9356 -1.99644
-16.4568 -12.2453 -1.33587
-16.3611 -12.5038 -1.02885
-16.4151 -12.2574 -1.00035
-15.655 -12.6904 -1.22781
-15.9345 -13.0127 -0.938024
-20.4375 -11.0833 -0.440278
-20.4687 -11.3098 0.0772175
-19.8955 -11.3565 -0.961851
-19.9371 -11.1687 -0.810871
-19.6431 -11.4889 -1.16026
-19.2897 -11.3909 -1.98644
-19.1968 -11.3076 -2.01413
-19.5473 -11.7766 -0.398
-19.2386 -11.4723 -1.07864
-19.3759 -11.643 -0.147405
-18.5434 -11.3274 -2.46972
-18.4805 -11.4714 -2.18438
-18.0706 -11.4843 -2.82845
-18.7372 -11.5175 0.735415
-16.8905 -11.7038 -2.26684
-17.3482 -11.6709 -1.40094
-17.3029 -11.8126 -1.39421
-17.464 -12.0947 -0.995288
-17.5051 -11.863 -0.734469
-17.3124 -12.1053 -0.801021
-17.4686 -11.8874 -0.572041
-16.2844 -12.5766 -0.924134
-15.3319 -12.4031 -2.41856
-15.2995 -12.3821 -2.08388
-16.4025 -12.6402 -0.143744
-15.6855 -12.7652 -1.25063
-20.4134 -11.159 -0.587775
-20.184 -11.1434 -1.19371
-19.6063 -11.258 -1.41272
-19.3554 -11.5144 -1.28226
-19.6356 -11.6483 -0.0265111
-19.7732 -11.8384 0.337513
-17.7256 -11.3593 -2.17148
-18.4983 -11.7693 -0.615122
-18.253 -11.7009 -0.421839
-18.8824 -11.4115 0.989125
-17.7059 -11.8142 -1.52701
-17.4926 -11.8986 -0.744707
-17.6366 -12.1992 -0.438347
-17.1321 -12.0294 -0.490676
-15.764 -12.7912 -1.04722
-19.9932 -11.0154 -2.02029
-20.2577 -11.1687 -1.14813
-19.7788 -10.9299 -2.42997
-18.8966 -11.4189 -1.23312
-17.5617 -11.8502 -1.09939
-16.5799 -12.0095 -1.88308
-15.4088 -12.4878 -2.14604
-17.335 -12.254 -0.158947
-15.4998 -12.5044 -1.87712
-18.9548 -11.1956 0.361073
-18.4399 -11.4309 0.191944
-17.1532 -11.5538 -1.82147
-17.1833 -12.1138 -0.273094
-18.7257 -11.4778 -0.477672
-17.6256 -11.5467 -2.13111
-18.9884 -11.3835 0.531547
-16.4495 -11.9867 -2.02321
-18.0393 -11.7509 -1.991
-17.9841 -12.0388 -0.444905
-17.6751 -11.9376 -0.946251
-20.7747 -11.299 0.213574
-20.8605 -11.242 0.317718
-20.211 -11.3709 -0.331363
-20.4338 -11.2936 -0.383487
-20.2848 -11.2201 -0.244184
-20.0207 -11.2624 -0.32209
-19.417 -11.1452 -1.36516
-18.8281 -11.2441 0.152398
-19.3824 -11.5166 -1.17292
-18.9763 -11.6824 -1.51907
-18.5389 -11.4027 0.436661
-18.8827 -11.2883 -2.70041
-18.9008 -11.6545 -2.24695
-18.4368 -11.9904 -0.248643
-18.8187 -11.4354 -2.62903
-18.6572 -11.4363 -2.65783
-18.6519 -11.5597 -2.64028
-18.6298 -11.2118 -2.39294
-17.9951 -11.8793 -1.06254
-17.7833 -11.9833 -0.653406
-18.2706 -11.5969 -2.61786
-17.3953 -12.1 -0.22205
-17.8988 -11.7552 -2.79596
-17.534 -11.9171 -0.814937
-17.1262 -11.9942 0.437871
-16.97 -12.3934 -0.574486
-15.8265 -12.8964 -0.726484
-15.6707 -12.7363 -1.75341
-15.6222 -12.7239 -1.6665
-20.4819 -11.314 0.380868
-20.0895 -11.2909 -0.191072
-20.2009 -11.7094 0.714417
-20.2722 -11.3992 -0.282999
-20.3297 -10.8064 -1.84047
-20.3335 -10.8582 -2.2797
-20.3122 -10.7657 -2.2014
-19.954 -11.2061 -0.904011
-19.6449 -11.3693 -0.987328
-19.504 -11.2727 -1.6738
-19.2761 -11.6081 -0.687741
-19.6103 -10.9891 -2.26034
-19.2732 -11.4747 -1.10012
-18.9249 -11.25 -0.15246
-18.671 -11.4907 0.126759
-19.2153 -11.5763 -1.84361
-18.9708 -11.501 -1.53061
-19.2176 -11.181 -2.65149
-19.0996 -11.2606 -2.27007
-18.4062 -11.7611 -0.344848
-18.8329 -11.4628 -2.12756
-18.7236 -11.456 -1.9747
-18.6511 -11.1641 -2.53113
-18.7359 -11.2091 -2.62386
-18.614 -11.4541 -2.32511
-18.0678 -11.8901 -0.784518
-18.353 -11.7539 -1.01991
-18.4464 -11.6245 -2.89194
-18.2147 -11.6483 -2.67592
-18.2205 -11.6389 -2.67609
-18.111 -11.6311 -2.78961
-17.5454 -12.11 -0.175224
-18.204 -11.646 -3.10663
-17.3345 -12.1676 -0.182391
-17.4704 -11.4285 -2.21837
-16.9637 -12.1434 -0.560571
-16.997 -12.0071 -0.982735
-17.0568 -11.3353 -2.28231
-16.3135 -12.5061 0.146519
-16.227 -12.509 -0.834819
-15.914 -12.6551 -0.896443
-14.9912 -12.7981 -3.06345
-20.7266 -11.009 -0.0635242
-20.6264 -11.5253 0.0645056
-20.546 -11.2791 0.232205
-20.5287 -11.2284 -0.374967
-20.3179 -11.1028 -0.0656848
-20.2362 -11.2883 -0.199894
-20.2615 -11.5008 -0.14937
-20.044 -11.6149 0.134003
-19.8984 -11.1934 -0.705019
-19.8673 -10.7652 -2.30685
-19.6707 -11.3118 -1.03714
-19.6727 -11.0323 -1.91881
-19.7166 -11.0163 -2.38723
-19.5394 -11.5234 -1.11093
-19.306 -11.3302 -1.13309
-19.65 -11.0261 -2.17253
-19.3502 -11.2422 -1.67653
-19.3027 -11.5947 -1.53989
-19.0342 -11.402 -1.31353
-18.5082 -11.4706 0.934133
-18.9767 -11.2538 -2.56607
-18.2817 -11.5235 0.334422
-18.5796 -11.6431 -1.83246
-18.4836 -11.7277 -1.63635
-18.107 -11.926 -0.586413
-17.8116 -11.3645 -1.81267
-17.5485 -12.0954 -0.234708
-17.358 -12.0932 -0.111556
-17.4642 -12.3431 -0.269785
-17.1145 -11.8943 -0.909457
-17.3987 -11.6245 -1.51601
-17.2967 -11.8416 -1.07209
-17.1889 -12.0201 -0.38761
-17.2292 -11.5415 -1.36235
-16.8568 -12.2436 -0.638685
-16.9151 -12.0128 -1.90999
-16.1814 -12.1771 -2.03077
-20.4779 -11.6712 0.878492
-20.3593 -11.4234 0.44635
-20.5379 -10.8275 -0.604234
-20.4346 -11.3547 -0.487808
-20.578 -10.7639 -1.47881
-20.2502 -11.5027 0.345008
-20.0989 -11.3786 -0.184208
-20.1583 -10.9123 -1.09691
-20.1889 -10.6627 -1.91851
-19.8936 -11.53 0.0918395
-19.9633 -11.1865 -1.20692
-20.0453 -11.2755 -1.08594
-19.9321 -11.059 -1.55852
-19.9625 -10.8139 -2.13142
-19.6483 -11.5356 -0.343047
-19.6624 -11.9498 0.228369
-19.6887 -11.564 -0.377832
-19.6582 -11.289 -1.39243
-19.8356 -11.2472 -1.2629
-19.7937 -11.1304 -1.88569
-19.2774 -11.2845 -2.01438
-19.1434 -11.4764 -1.325
-19.0328 -11.5351 -1.86488
-18.1535 -11.754 -0.811386
-17.469 -10.7144 1.56653
-17.758 -11.9699 -0.730512
-17.7821 -11.5561 -2.86182
-17.3343 -11.4664 -2.18959
-17.2482 -11.4179 -2.1383
-16.7327 -12.2024 -0.497675
-16.7666 -11.4052 -2.49637
-20.2578 -11.2765 -0.198141
-19.7676 -11.7661 0.458344
-19.8033 -11.7019 0.484683
-19.8366 -11.1886 -0.941644
-20.0482 -11.2907 -0.856956
-19.9731 -11.4877 -0.497905
-19.7713 -11.3157 -0.647953
-20.1638 -11.0658 -1.9326
-19.5732 -11.1753 -1.89118
-19.3208 -11.5011 -1.31138
-19.6049 -11.4916 -1.51695
-19.313 -11.6319 -1.24568
-18.6474 -11.3195 0.230204
-18.6428 -11.4512 1.06239
-19.2388 -11.3894 -1.74804
-18.8878 -11.2028 -2.48422
-17.8106 -11.8441 0.258337
-18.0275 -11.8699 -1.35118
-17.4214 -11.8658 -0.864615
-17.3067 -12.0842 -0.809649
-17.5489 -11.9953 -0.974154
-17.4158 -11.7197 -1.36749
-17.4027 -11.8835 -1.39024
-17.126 -11.9928 -0.813813
-16.7246 -12.3687 0.420565
-16.2024 -12.488 0.262889
-16.1684 -12.545 -0.785902
-16.368 -11.7307 -2.5448
-15.8801 -11.1511 1.38202
-20.6259 -11.0687 -0.354858
-20.2572 -11.4101 -0.294703
-19.8892 -11.4516 -0.335625
-20.1055 -11.3907 -0.846252
-19.6354 -11.5399 -0.0852055
-19.5562 -11.4658 -0.72869
-19.6661 -11.377 -0.90216
-19.1773 -11.5299 -1.34256
-18.5178 -11.6706 -0.260535
-17.8669 -11.8594 -1.06151
-17.8264 -12.0502 -1.00742
-17.4243 -12.0357 -0.918628
-16.6845 -10.6171 1.44473
-16.5446 -12.2864 0.296372
-16.9794 -12.2922 -1.19185
-16.3781 -12.3528 -1.03556
-15.8133 -11.9785 -2.46648
-19.1046 -11.4921 1.03261
-18.1143 -11.3849 0.368801
-18.7818 -11.3958 -2.77917
-18.0842 -11.6483 -1.17482
-17.8932 -11.5159 -1.58799
-16.6799 -10.5889 1.17652
-16.1628 -11.8618 -2.31698
-20.4435 -11.0474 -0.432774
-17.6458 -11.8708 -1.00245
-18.9857 -11.0484 0.051746
-16.7337 -12.3898 -1.24466
-16.2884 -12.1426 -1.99616
-18.9496 -11.1773 0.381438
-18.7178 -11.3464 0.177922
-18.1569 -11.567 -0.637665
-17.1263 -11.5688 -2.1831
-17.6318 -11.8014 -1.76564
-16.5791 -11.733 -2.06246
-18.2853 -11.944 -0.712525
-20.5924 -11.339 0.472761
-20.7667 -11.2768 0.449425
-20.6328 -11.3894 0.311707
-20.3935 -11.274 -0.365425
-20.1249 -11.3064 -0.683501
-19.9927 -11.3075 -0.730513
-20.1444 -11.1457 -0.846853
-19.9595 -11.2694 -0.804638
-19.3718 -11.752 -0.233616
-19.6617 -11.6582 -0.406157
-20.0689 -11.1945 -0.936528
-19.7483 -11.4318 -0.963635
-16.7521 -10.6523 2.02023
-19.7136 -11.3303 -1.03141
-19.81 -11.4607 -0.994616
-20.3166 -10.8699 -1.45823
-20.2828 -10.8243 -1.56013
-20.102 -11.1597 -1.23554
-20.2505 -10.9552 -1.56046
-20.4089 -10.7927 -1.75767
-20.1461 -10.9578 -1.41207
-19.7847 -11.3643 -1.13642
-20.1254 -10.9521 -1.51096
-20.2011 -10.8375 -1.77217
-19.807 -10.927 -1.42622
-20.1501 -10.8911 -1.87676
-20.379 -10.7129 -1.88892
-20.4736 -10.6746 -2.1051
-19.3447 -11.5447 -0.970117
-19.8957 -11.0847 -1.54042
-19.7904 -11.1784 -1.46119
-19.5717 -11.1883 -1.59703
-18.011 -11.6863 0.116257
-19.4381 -11.4743 -1.35398
-19.261 -11.3749 -0.99439
-20.4203 -10.8387 -2.2886
-20.3092 -10.6156 -2.06497
-19.2405 -11.5853 -1.33372
-19.4801 -11.5434 -1.42326
-20.1087 -10.7933 -2.18719
-18.9393 -11.6941 -1.37838
-19.0966 -11.4143 -1.22031
-20.004 -10.7192 -2.48706
-19.1601 -11.6071 -1.70407
-19.4537 -11.271 -2.02537
-16.8609 -12.151 0.256598
-19.6175 -11.0167 -2.35051
-18.8118 -11.3867 -1.86383
-17.2779 -12.0087 -0.438092
-18.6703 -11.6615 -1.5825
-19.4297 -10.9619 -2.37877
-19.2833 -11.1335 -2.09333
-17.4572 -12.159 -0.707458
-19.3901 -11.0709 -2.35664
-19.1711 -11.1152 -2.49075
-19.4132 -10.9184 -2.50092
-17.0531 -12.2637 -0.500854
-18.7564 -11.6006 -1.70607
-19.282 -11.2374 -2.39253
-19.0866 -11.3485 -2.10712
-19.1702 -11.5284 -2.49366
-18.5345 -11.6926 -1.97722
-18.9997 -11.3836 -1.99673
-18.8019 -11.4356 -2.26798
-16.7793 -11.9262 -0.648562
-19.2777 -11.0033 -2.74124
-16.9992 -12.0462 -0.853328
-18.4772 -11.5406 -2.25727
-18.4629 -11.57 -2.35277
-18.3195 -11.2649 -2.48717
-20.4592 -11.3864 0.123705
-20.7267 -11.224 -0.0182416
-20.317 -11.1947 -0.595996
-18.7672 -11.4312 1.13063
-19.8945 -11.5814 -0.56309
-20.1833 -11.1698 -1.04187
-19.5605 -11.4109 -0.836614
-19.9854 -11.332 -0.997471
-19.9747 -11.247 -1.11197
-19.8385 -11.3817 -0.797236
-20.0898 -10.875 -1.47609
-20.2463 -11.0258 -1.31194
-20.2727 -10.7381 -1.28476
-20.4905 -10.8207 -1.75771
-20.2493 -11.03 -1.59422
-19.9607 -11.0528 -1.64037
-19.7763 -11.2616 -1.33426
-18.2833 -11.6508 0.0414629
-18.8266 -11.5148 -0.490187
-20.2483 -10.8491 -1.85951
-19.5102 -11.4813 -1.34177
-19.655 -11.3319 -1.1634
-18.4539 -11.8408 -0.431747
-19.3162 -11.522 -1.11171
-18.4022 -11.7327 -0.287162
-19.2261 -11.5626 -1.09127
-20.3066 -10.7497 -1.96992
-19.1696 -11.6209 -1.28867
-19.2154 -11.6397 -1.29762
-20.1094 -11.1063 -1.8395
-18.2214 -12.1781 -0.25285
-20.0842 -10.9641 -1.90707
-19.648 -11.121 -1.78771
-17.2339 -11.8742 0.323017
-17.4882 -11.944 -0.0917967
-18.0389 -12.0946 -0.445327
-19.5226 -11.0139 -2.15553
-18.0089 -11.9672 -0.833396
-17.4793 -12.0117 -0.463664
-19.7316 -10.8847 -2.58352
-18.6092 -11.6782 -1.62533
-18.8941 -11.2267 -1.7478
-18.6564 -11.6135 -1.57634
-19.7338 -10.9841 -2.60027
-19.285 -11.1521 -2.2625
-18.9368 -11.4796 -1.98059
-19.5833 -11.0218 -2.50895
-18.5494 -11.7519 -1.65034
-18.7287 -11.6359 -1.6902
-18.9563 -11.4315 -2.25264
-19.32 -10.8669 -2.42975
-16.819 -12.2489 -0.709582
-16.961 -11.8913 -0.478768
-18.8792 -11.3527 -2.15119
-16.6727 -12.383 -0.774734
-16.9184 -12.3565 -0.761531
-18.9218 -11.266 -2.33558
-19.0259 -11.162 -2.78296
-18.8847 -11.1397 -2.64545
-18.7943 -11.3332 -2.49512
-15.9703 -12.7688 -0.492181
-18.3936 -11.3606 -2.77686
-18.2729 -11.432 -3.01354
-20.1809 -11.4714 0.399401
-20.1645 -11.527 0.216261
-20.4499 -11.3854 -0.0179902
-20.7904 -11.1862 -0.227597
-20.5252 -11.1033 -0.37814
-20.0739 -11.6563 -0.165268
-20.5044 -10.972 -0.645127
-19.8323 -11.2447 -0.382083
-17.9345 -10.7889 1.57172
-19.7497 -11.5604 -0.00506034
-19.9133 -11.3505 -0.694959
-19.5067 -11.7372 -0.274523
-19.5274 -11.4504 -0.354958
-20.2996 -11.2892 -0.518542
-20.0651 -11.2244 -0.873399
-19.4947 -11.3316 -0.852549
-19.9214 -11.271 -1.14743
-20.0515 -11.1084 -1.38075
-20.3768 -10.8289 -1.5674
-19.3919 -11.4416 -0.694292
-19.5875 -11.5152 -0.939981
-20.2018 -10.6734 -2.05531
-19.0531 -11.4621 -1.45739
-19.106 -11.415 -1.50782
-17.8413 -12.1346 -0.0774716
-18.2559 -11.6573 -0.552926
-17.9621 -12.1197 -0.485346
-19.6206 -11.1762 -1.70865
-18.2258 -11.7647 -0.795272
-19.72 -10.9807 -1.99561
-17.9972 -11.8172 -0.715855
-19.133 -11.5459 -1.48734
-17.3986 -12.124 -0.153329
-17.4018 -12.0817 -0.255901
-17.5097 -12.047 -0.43682
-19.0601 -11.4195 -1.97748
-19.1933 -11.3612 -1.97414
-19.4395 -10.9843 -2.4824
-18.5866 -11.5622 -2.04659
-19.0795 -11.2553 -2.55715
-19.1995 -11.1426 -2.7725
-17.2241 -11.5939 -1.11621
-18.5843 -11.4976 -2.34161
-18.3938 -11.4613 -2.65999
-16.2066 -12.499 -0.841581
-18.3488 -11.5856 -2.67982
-18.1777 -11.4368 -2.52253
-18.2778 -11.4074 -2.53778
-18.1136 -11.6705 -2.60378
-15.7454 -12.7072 -0.841703
-17.9266 -11.7011 -2.6713
-17.8923 -11.7076 -2.8427
-16.9974 -11.4218 -2.32939
-20.0184 -11.7687 0.647398
-20.1062 -11.4528 0.447387
-20.5288 -11.3497 0.0327369
-19.9787 -11.4633 0.109514
-18.8144 -11.4269 0.936911
-19.8326 -11.4517 -0.282309
-19.9739 -11.2726 -0.410702
-19.4528 -11.764 -0.143675
-20.3263 -11.0629 -1.014
-20.0178 -11.3206 -0.940416
-19.49 -11.7354 -0.48452
-18.8479 -11.4903 -0.208083
-16.2497 -10.6979 1.86051
-18.8107 -11.4583 -0.399546
-20.0555 -11.1361 -1.69874
-19.1843 -11.4394 -0.908896
-19.2525 -11.6111 -1.16347
-19.6647 -11.1306 -1.78365
-18.8969 -11.5873 -1.36093
-19.1575 -11.5224 -1.31096
-19.0148 -11.6453 -1.38531
-19.0564 -11.6838 -1.27939
-19.6331 -11.224 -1.83856
-19.6494 -10.9097 -2.36152
-19.3495 -11.1506 -1.95695
-18.2553 -11.7516 -1.01697
-18.898 -11.4865 -2.01284
-18.7409 -11.6018 -1.58185
-18.5162 -11.7617 -1.65392
-18.0486 -11.689 -1.35856
-18.0312 -11.7973 -1.4154
-17.3604 -11.9575 -0.99169
-19.0948 -11.0711 -2.36455
-19.0932 -11.1819 -2.56546
-17.2837 -11.4211 -1.71347
-15.9085 -12.8379 -0.86476
-16.7426 -11.2784 -2.69556
-16.6126 -11.5269 -2.72697
-16.323 -11.6468 -2.76013
-16.0714 -11.9669 -2.67392
-18.9198 -11.126 0.62739
-19.5635 -12.018 0.0831394
-20.1805 -11.4325 -0.619417
-18.695 -11.3956 0.557109
-20.0931 -10.9437 -1.36192
-17.2962 -10.4332 1.36991
-18.4824 -11.8721 -0.26557
-19.9088 -10.8155 -1.94894
-17.4529 -11.9597 0.0413136
-17.7483 -11.8324 0.0463417
-17.9702 -12.0145 -0.561826
-18.8888 -11.5979 -1.33262
-19.0165 -11.3854 -1.73675
-17.2887 -12.2102 -0.309186
-17.9734 -11.8372 -0.883208
-18.5909 -11.4358 -2.03217
-19.1145 -11.317 -2.26799
-17.0854 -11.9918 -0.376278
-16.84 -12.1444 -0.525858
-18.439 -11.6461 -2.03836
-17.2022 -11.9546 -0.907452
-18.8365 -11.3897 -2.44414
-17.2759 -11.4022 -1.46423
-18.671 -11.5609 -2.51096
-16.5863 -11.6778 -2.67598
-20.3014 -11.4696 0.771965
-20.4911 -11.3018 0.34379
-20.7857 -11.165 0.0616538
-20.1102 -11.5385 0.249011
-20.3466 -10.9129 -1.39616
-16.2599 -10.6259 2.09606
-16.2931 -10.8149 1.52945
-19.3751 -10.9838 -1.89512
-15.957 -10.9634 1.29113
-18.9132 -11.1954 -2.60906
-17.4979 -11.9611 -0.937435
-18.6908 -11.1359 -2.52238
-18.6768 -11.4999 -2.55607
-16.8131 -11.4211 -2.31134
-16.1314 -11.5415 -2.65356
-18.9779 -11.2894 1.13638
-19.3366 -11.4203 0.459422
-20.246 -11.1135 -1.0426
-20.3143 -10.9646 -1.25336
-19.5192 -11.2426 -1.32804
-17.5283 -12.1081 -0.0316253
-19.8267 -10.9842 -1.93043
-19.2395 -11.6636 -1.29637
-18.4394 -11.9031 -0.549649
-16.8944 -12.3033 -0.111381
-17.4319 -12.0712 -0.919055
-17.0216 -12.2692 -0.542197
-16.4178 -12.1359 -1.2297
-16.9643 -11.5602 -2.16137
-18.813 -11.1825 0.302033
-19.8 -11.4078 -0.855635
-20.1626 -10.9908 -1.33808
-19.8182 -11.3456 -1.33503
-17.7265 -12.0217 -0.166491
-18.0258 -12.0154 -0.630757
-17.6877 -11.8167 -0.756784
-17.1684 -11.3494 -2.54319
-19.9142 -11.0565 -1.51501
-18.1159 -11.8205 -0.719491
