-20.2941 -11.331 -0.825375
-16.6331 -12.6417 -0.251327
-16.4288 -12.4998 -0.275154
-16.5355 -12.1225 -0.414639
-16.4915 -12.3627 -0.169611
-16.3701 -12.6816 -0.416912
-16.7281 -12.1997 -0.4621
-16.6061 -12.3663 -0.412381
-16.7542 -12.2459 -0.354122
-16.7722 -12.2941 -0.475207
-16.672 -11.8792 -0.407301
-16.7358 -12.1285 -0.659648
-16.7091 -12.0217 -0.525003
-16.7599 -12.0173 -0.59482
-17.5135 -11.9836 -0.666732
-17.9632 -12.172 -0.766067
-20.3283 -10.978 -1.51152
-16.7207 -12.1273 -0.84056
-18.337 -11.347 -1.1696
-16.0985 -12.5163 -0.934566
-16.7656 -12.2773 -0.949347
-15.9549 -12.8011 -1.12025
-19.7612 -11.2259 -1.57203
-17.3118 -11.7729 -1.19843
-16.1428 -12.6703 -1.21797
-16.2392 -12.4046 -1.14237
-16.3372 -12.3938 -1.18741
-19.5257 -11.1198 -1.91503
-15.7275 -12.7234 -1.22641
-20.7049 -10.3416 -2.20988
-15.7506 -12.7781 -1.24083
-15.775 -12.6732 -1.40097
-15.8689 -12.4313 -1.63311
-16.3655 -11.994 -1.84055
-18.9284 -11.0011 -2.306
-15.7215 -12.5645 -1.72992
-17.1232 -11.6598 -1.90358
-15.6105 -13.0548 -1.80992
-20.3799 -10.5983 -2.90159
-19.5479 -10.9756 -2.98141
-20.2815 -10.4171 -3.12448
-16.9698 -11.4458 -2.19387
-16.6119 -11.9669 -2.30535
-15.0343 -13.178 -2.04262
-15.9841 -12.1858 -2.2566
-15.9421 -12.062 -2.08358
-16.1549 -11.8613 -2.29324
-15.9048 -11.7266 -2.21544
-20.0224 -10.459 -3.36607
-19.8874 -10.3711 -3.62334
-16.1044 -11.91 -2.25273
-15.8916 -12.0598 -2.17573
-15.9587 -11.9517 -2.24091
-16.0848 -12.0173 -2.20064
-15.8206 -12.0048 -2.30983
-15.2667 -12.9101 -2.31066
-15.7147 -11.9407 -2.29782
-15.3427 -12.3845 -2.31081
-15.29 -13.0498 -2.34095
-15.1843 -12.3687 -2.05965
-20.2078 -10.2224 -4.13026
-15.1034 -12.723 -2.71389
-15.6121 -12.8205 -2.88452
-19.9063 -10.3323 -4.35401
-19.7963 -10.3583 -4.2591
-19.8051 -10.204 -4.47484
-19.7109 -10.1898 -4.19425
-22.1059 -8.41288 -4.93731
-15.0688 -12.9329 -3.03017
-19.2275 -10.6325 -4.45065
-15.4102 -12.6657 -3.14344
-15.3656 -13.0049 -2.95397
-20.2002 -10.0241 -4.68549
-19.8856 -10.3884 -4.55365
-15.6505 -12.0705 -2.95944
-15.7827 -12.6661 -3.39073
-16.2806 -11.8146 -3.52389
-15.0858 -12.806 -3.16876
-15.6492 -12.0392 -3.26213
-18.1805 -11.179 -4.447
-19.5176 -10.1945 -5.0653
-15.1444 -12.9448 -3.47116
-16.2265 -11.5621 -3.46768
-17.2357 -11.5402 -4.20605
-15.8457 -11.6139 -3.43075
-17.611 -11.3024 -4.55
-19.0716 -10.4406 -5.20296
-15.8447 -12.2246 -4.02115
-15.864 -12.1184 -3.91904
-16.0291 -12.1819 -4.05974
-16.8763 -11.664 -4.32614
-16.1991 -11.8513 -4.06199
-15.4361 -12.3797 -3.89125
-16.3731 -11.6745 -4.32067
-16.3934 -11.8265 -4.21165
-14.6376 -13.1735 -3.5603
-16.5206 -11.6688 -4.42863
-16.4011 -11.6531 -4.4614
-16.9952 -11.6006 -4.66657
-14.6579 -13.0159 -3.71503
-14.631 -12.7411 -3.68449
-14.6706 -13.1537 -3.69698
-14.4896 -12.9376 -3.50543
-15.7725 -12.305 -4.2913
-20.3372 -9.71863 1.6195
-20.6323 -9.68168 1.63811
-20.8776 -9.5982 1.55719
-20.8441 -9.72847 1.52337
-20.8717 -9.82803 1.44808
-15.9119 -10.9902 1.49456
-22.1094 -9.8418 1.08859
-18.1499 -11.5805 0.0311337
-17.3343 -11.9838 0.380758
-16.4778 -12.6226 0.157679
-18.5719 -11.4572 -0.0944246
-18.4465 -11.632 -0.128767
-20.3925 -11.0828 -0.572943
-16.4815 -12.4294 -0.141516
-16.1692 -12.9556 -0.284789
-16.0602 -13.0076 -0.200986
-16.585 -12.301 -0.399979
-16.358 -12.3514 -0.566635
-16.6223 -12.4844 -0.414402
-16.4011 -12.2347 -0.416615
-16.7618 -12.3822 -0.467495
-16.8416 -12.0114 -0.473363
-16.6627 -12.1835 -0.411039
-20.74 -10.8776 -1.08057
-20.4011 -11.0229 -1.12628
-16.1192 -12.9641 -0.647553
-16.7223 -12.2105 -0.659225
-16.9406 -12.2465 -0.505763
-16.7378 -12.2405 -0.761856
-16.956 -12.2147 -0.75259
-16.0233 -12.9075 -0.820573
-16.0714 -12.7315 -0.915495
-15.7716 -12.8965 -1.07104
-15.8057 -12.8127 -1.03452
-17.9667 -11.754 -1.28727
-16.1965 -12.5191 -1.12796
-16.5918 -12.3811 -1.30149
-15.6921 -12.9872 -1.14053
-19.6929 -11.2002 -2.06854
-16.9635 -11.7369 -1.43941
-16.8958 -11.8673 -1.26586
-17.8189 -11.6441 -2.02909
-15.7256 -12.6154 -1.41861
-15.7219 -12.6504 -1.46531
-17.0712 -12.024 -2.05497
-15.6811 -13.191 -1.69747
-15.6317 -13.0361 -1.91688
-20.3773 -10.5581 -3.14532
-15.9475 -12.1347 -1.9421
-19.9075 -10.5633 -3.10688
-16.5063 -11.8896 -2.05881
-15.9413 -12.2309 -2.03689
-15.5468 -12.9901 -1.99097
-16.98 -11.5762 -2.23482
-15.2465 -13.1839 -2.03504
-15.8449 -12.1635 -2.09224
-17.0598 -11.4829 -2.4386
-15.7523 -12.0225 -2.15091
-16.9655 -11.5388 -2.10749
-17.2661 -11.3937 -2.54704
-15.9776 -11.8769 -2.28285
-16.0683 -11.8472 -2.08271
-15.9429 -11.8864 -2.27982
-15.9416 -12.0373 -2.17562
-15.9218 -11.9862 -2.09414
-15.1644 -12.8527 -2.20821
-16.0954 -12.0689 -2.38401
-15.9367 -12.0083 -2.2331
-15.4042 -12.6274 -2.11869
-15.8534 -12.1278 -2.34882
-15.7235 -11.9539 -2.24008
-15.8479 -11.8394 -2.34288
-15.9318 -11.9882 -2.54181
-15.2486 -12.9911 -2.40415
-15.2815 -13.0504 -2.35962
-15.3988 -13.0108 -2.19506
-15.1775 -12.8519 -2.38098
-15.1939 -13.0522 -2.29154
-17.4711 -11.1524 -2.77634
-15.1525 -13.0911 -2.54948
-15.2647 -13.1743 -2.59064
-15.5188 -12.3054 -2.5409
-17.0578 -11.2655 -2.92104
-19.5664 -10.6711 -3.91771
-15.4557 -12.944 -2.65001
-16.15 -11.5802 -3.06666
-15.8346 -11.7222 -3.00809
-18.9977 -10.9118 -4.29674
-15.8986 -11.7727 -3.12894
-15.9208 -11.6496 -3.2958
-15.4879 -11.9875 -2.99224
-16.0878 -11.7289 -3.2525
-15.8263 -11.7601 -3.25936
-15.6291 -12.7508 -3.48004
-18.4339 -11.0107 -4.58657
-19.2103 -10.4608 -4.75743
-17.8328 -11.3655 -4.57836
-17.9405 -11.1088 -4.5086
-14.7634 -13.0236 -3.40851
-19.1109 -10.706 -4.87872
-16.7471 -11.8598 -4.02048
-15.3686 -12.5824 -3.67417
-16.1097 -12.1592 -3.95335
-18.2743 -10.9052 -4.83055
-18.2428 -10.8455 -4.81099
-16.595 -11.885 -4.05717
-18.267 -11.0092 -4.88595
-16.7993 -11.7809 -4.273
-16.618 -11.7712 -4.30819
-15.9764 -12.0993 -3.92627
-15.3407 -12.6908 -3.67808
-16.3502 -11.8066 -4.20024
-14.7363 -12.8897 -3.50121
-14.7121 -12.86 -3.65717
-16.0356 -12.1574 -4.19397
-16.3551 -12.1218 -4.24337
-14.4497 -12.9996 -3.55245
-15.6786 -12.35 -4.16426
-15.5359 -12.3109 -4.20045
-14.453 -13.0241 -3.57125
-20.6221 -10.008 1.61071
-18.4648 -11.3099 0.181892
-18.6178 -11.3347 0.216437
-18.4268 -11.5025 -0.0782154
-18.9577 -11.4462 -0.00910175
-17.3973 -12.1869 -0.184324
-18.3438 -11.9394 -0.411775
-17.1406 -12.2698 -0.159291
-16.4045 -12.4908 -0.401375
-16.386 -12.5026 -0.387097
-16.6216 -12.003 -0.226733
-18.3402 -11.7314 -0.571006
-20.5401 -11.0136 -1.02318
-16.643 -12.1777 -0.276883
-16.8341 -12.2405 -0.619507
-16.7327 -12.0635 -0.946352
-17.2968 -11.926 -1.00175
-16.4681 -12.316 -1.14178
-16.0931 -12.464 -1.10509
-17.8372 -11.7355 -1.42702
-16.4291 -12.0089 -1.39792
-16.2024 -12.3772 -1.49348
-15.8718 -12.6108 -1.51745
-15.945 -12.626 -1.53266
-20.3168 -10.4424 -3.13944
-19.817 -10.5424 -3.10024
-19.9239 -10.4919 -3.19154
-16.6759 -12.0245 -2.32195
-19.3273 -10.9311 -3.128
-15.8739 -12.1684 -2.17017
-15.8301 -12.0115 -1.93434
-16.0714 -12.3284 -2.14013
-15.9336 -12.0704 -2.41069
-15.9541 -11.9105 -2.11342
-15.8295 -12.055 -2.12218
-17.3658 -11.2634 -2.60019
-18.5755 -11.3155 -3.15969
-15.9281 -11.9891 -2.39577
-15.7695 -12.1238 -2.33574
-17.1615 -11.0142 -2.76705
-15.6544 -12.7708 -2.90303
-15.7148 -12.772 -2.91684
-15.4192 -12.0181 -2.90123
-16.2409 -11.4304 -3.19086
-15.6293 -12.6039 -3.07216
-15.7681 -11.8817 -2.74079
-15.3389 -12.7109 -3.0246
-18.4407 -10.8937 -4.16603
-15.0835 -13.1955 -3.09969
-15.5295 -11.9865 -3.2735
-18.2071 -11.0774 -4.1168
-15.7944 -11.8764 -3.30043
-15.8954 -11.8902 -3.24279
-17.793 -11.337 -4.12084
-18.2594 -10.7391 -4.6795
-15.7497 -12.2765 -3.73558
-17.2658 -11.5753 -4.27225
-16.9476 -11.9697 -4.34347
-17.4799 -11.4328 -4.47697
-16.6223 -11.5123 -4.42316
-16.4072 -11.9395 -4.09315
-14.9813 -12.7021 -3.69969
-16.5806 -11.751 -4.12569
-17.1319 -11.4875 -4.49278
-14.8256 -12.9017 -3.6701
-15.6936 -12.1736 -4.23868
-15.841 -12.2083 -4.15046
-14.4116 -13.0843 -3.67094
-14.6021 -13.0617 -3.60434
-14.3403 -13.0258 -3.5913
-16.2179 -10.4027 2.18144
-19.8693 -9.57713 1.50532
-16.2863 -12.5151 0.319767
-16.5219 -12.481 0.128695
-20.1069 -11.3986 -0.0645266
-18.6743 -11.6391 -0.0660771
-16.7128 -12.2704 -0.228758
-16.6148 -12.2149 -0.313614
-16.5465 -12.173 -0.56282
-16.5416 -12.1434 -0.411485
-17.875 -11.5868 -1.56456
-19.745 -10.9165 -2.30269
-17.8257 -11.4767 -1.69985
-15.8495 -12.2709 -1.38064
-15.7448 -12.3047 -1.54127
-16.0087 -12.503 -1.47356
-16.0041 -12.761 -1.5217
-16.6146 -12.1235 -1.77021
-17.0682 -11.5519 -2.17557
-16.9755 -11.5869 -2.13837
-15.9075 -12.0741 -2.09841
-15.9212 -12.1566 -2.15589
-17.276 -11.3198 -2.5247
-15.831 -12.1745 -2.28569
-15.8553 -12.1331 -2.26846
-15.0524 -12.4751 -2.13588
-17.1761 -10.8044 -2.85093
-22.048 -8.5898 -4.82565
-16.2525 -11.481 -2.93619
-16.4986 -11.4662 -2.8967
-14.9397 -12.9191 -2.9515
-15.2785 -12.1624 -2.94771
-15.7595 -11.895 -3.23079
-15.2136 -12.6229 -3.50474
-14.7511 -13.1401 -3.20157
-18.5201 -10.5615 -4.97977
-15.0629 -12.6094 -3.56282
-16.4055 -11.6723 -4.16445
-14.8476 -12.9412 -3.70671
-15.5267 -12.5129 -3.65879
-16.5232 -11.7046 -4.13138
-16.2868 -11.7669 -4.42295
-16.5966 -11.6781 -4.20901
-16.3428 -11.8168 -4.3405
-15.9102 -12.2461 -4.32849
-14.1712 -13.269 -3.5639
-14.141 -12.9549 -3.67667
-16.7507 -12.1689 0.218472
-18.5371 -11.4463 -0.186001
-16.4993 -12.3807 -0.532668
-16.5005 -12.3965 -0.166575
-16.6194 -12.0684 -0.383268
-16.7265 -12.1681 -0.441787
-16.8789 -12.2613 -1.0235
-16.8855 -12.1734 -0.809001
-16.8419 -12.1581 -1.22088
-16.7184 -12.2274 -1.13559
-16.6717 -12.1355 -1.17403
-17.7541 -11.5829 -1.38878
-15.7861 -12.7112 -1.40445
-16.6902 -12.2294 -1.36965
-15.9719 -12.4679 -1.44967
-17.7274 -11.4222 -2.16961
-15.5679 -13.0334 -1.80549
-20.0348 -10.5148 -2.85979
-17.096 -11.9004 -2.07942
-15.8702 -12.2593 -2.02978
-16.8916 -11.7871 -2.21403
-16.8623 -11.3619 -2.14542
-15.9789 -12.121 -1.98984
-15.8717 -12.1706 -2.07533
-15.3621 -12.5553 -2.28916
-15.8102 -12.3423 -2.47306
-15.8763 -12.157 -2.42283
-15.6434 -12.3609 -2.39115
-15.9137 -11.8947 -2.49678
-15.6085 -12.4333 -2.54141
-15.9165 -11.9865 -2.67798
-15.4494 -11.8791 -2.80055
-15.5909 -11.714 -2.56986
-15.5849 -11.7864 -2.78513
-15.5237 -11.7947 -2.87655
-16.6404 -11.3688 -3.51691
-18.3779 -11.5375 -0.0839338
-16.456 -12.4305 -0.127977
-16.024 -12.7507 -0.689186
-16.127 -12.34 -1.23957
-16.8171 -11.9689 -1.29782
-16.1355 -12.5544 -1.4884
-17.0077 -11.7784 -1.76498
-16.668 -12.0893 -1.88534
-17.9833 -11.3336 -2.16159
-15.3543 -12.3967 -2.09643
-15.9516 -11.8546 -2.20939
-15.6987 -12.3016 -2.5332
-22.0401 -9.04169 -5.00302
-15.5761 -12.6564 -3.08583
-15.3253 -12.9192 -2.90211
-15.4579 -12.0087 -2.78557
-16.1991 -11.9736 -4.19713
-14.6612 -12.9114 -3.93602
-18.8494 -11.3316 -0.131278
-16.4752 -12.6427 -0.31205
-18.4361 -11.8151 -0.679118
-16.6251 -12.6536 -0.439276
-18.7051 -11.3565 -0.9001
-18.5391 -11.3243 -1.24184
-16.6733 -11.9072 -1.42906
-17.1205 -11.764 -1.49056
-18.0107 -11.2179 -2.17789
-16.8418 -11.7663 -2.40806
-16.7209 -11.6915 -2.40412
-16.619 -11.8462 -4.20704
-17.8926 -11.8704 -0.414781
-17.5754 -11.6887 -1.54413
-17.0947 -11.9163 -1.33856
-16.5714 -12.1217 -1.75234
-16.5036 -11.819 -1.89224
-16.9184 -11.7746 -2.10867
-15.4429 -12.2921 -2.93114
-16.7288 -11.9776 -0.770318
-16.0628 -12.5325 -1.43146
-15.7997 -12.0851 -2.71211
-17.3869 -11.9136 -0.573223
-16.0135 -12.7499 -1.07368
-16.0657 -12.6323 -1.48414
-15.923 -11.8783 -2.17636
-17.2137 -11.3631 -2.90886
-16.4601 -11.4358 -3.18814
-15.3893 -12.5151 -3.04301
-16.9265 -12.1874 -0.563975
-17.2319 -12.0864 -0.411505
-15.5012 -12.8892 -2.11272
-15.3663 -12.8086 -2.96291
-15.7083 -11.7696 -2.82798
-16.8448 -12.2824 -0.57924
-15.8395 -12.3769 -2.90332
-15.8987 -12.9809 -1.34184
-14.7131 -13.0508 -3.58916
-15.4106 -12.6234 -3.60975
-16.5447 -11.774 -4.09155
-16.7567 -11.7494 -4.12424
-15.4761 -12.5745 -3.55627
-19.0626 -10.5061 -5.12291
-15.7558 -12.6221 -3.30701
-19.6193 -10.4933 -4.8855
-15.2952 -12.7484 -3.29051
-15.1148 -12.7099 -2.90019
-19.2449 -10.6776 -4.25642
-19.5142 -10.3328 -4.39141
-15.291 -12.9347 -2.96958
-14.8001 -12.9689 -2.63105
-15.3514 -12.9469 -2.29203
-15.24 -13.0423 -2.53999
-19.9894 -10.5213 -3.66978
-19.4785 -10.8315 -3.34236
-15.4534 -13.2869 -1.76316
-15.6818 -12.6997 -1.59489
-16.786 -11.7113 -1.33155
-18.0332 -11.6609 -1.36494
-19.2512 -11.1138 -1.7633
-15.8025 -12.939 -1.04392
-20.4945 -10.867 -1.42488
-16.8619 -12.479 -0.722088
-20.5716 -10.6712 -1.09183
-16.8288 -12.0054 -0.440121
-16.6054 -12.018 -0.369643
-16.5544 -12.3341 -0.592422
-16.6053 -12.3242 -0.354548
-16.3458 -12.5022 -0.206634
-18.6954 -11.4917 -0.408636
-16.4193 -12.4947 0.216368
-16.8204 -11.8844 0.0291013
-17.0138 -12.0807 0.196087
-20.848 -9.74455 1.58501
-20.9203 -9.8124 1.43742
-16.4207 -11.7778 -4.157
-16.7925 -11.8565 -4.2693
-15.6736 -12.4778 -3.47258
-19.529 -10.7455 -3.082
-20.0798 -10.6916 -3.20508
-20.3937 -10.4312 -2.99997
-15.8348 -12.7868 -1.6442
-16.3315 -12.2993 -1.44656
-17.011 -11.8793 -1.51645
-17.049 -11.7512 -1.74108
-16.7085 -11.9302 -0.201723
-16.642 -12.4606 -0.444375
-16.3374 -12.6323 -0.395179
-16.1353 -12.7341 -0.0466409
-20.5872 -11.1118 -0.374221
-16.2607 -12.604 0.237405
-20.9939 -9.8334 1.5538
-16.4564 -11.8385 -4.32914
-16.4955 -11.7775 -4.26512
-16.9804 -11.6263 -4.49284
-16.4772 -11.3837 -3.13528
-14.9431 -13.1214 -2.7314
-16.0074 -12.1639 -2.08954
-16.6068 -12.3899 -0.465596
-16.5029 -12.1791 -0.580017
-14.7054 -12.9631 -3.62955
-15.1901 -12.4667 -2.49836
-15.8152 -11.9376 -2.05772
-15.5219 -12.4283 -1.99939
-16.8525 -11.7284 -2.1267
-16.956 -11.6131 -2.16678
-16.9442 -12.2747 -1.01523
-16.7412 -12.2182 -0.233535
-15.755 -11.7504 -2.90263
-16.3464 -11.9353 -2.09312
-16.8689 -11.6537 -2.12739
-16.8563 -11.8213 -1.38168
-17.0226 -11.9977 -1.52004
-16.627 -11.8956 -0.394807
-17.4071 -11.8435 -0.0453188
-17.2638 -11.4923 -2.48105
-16.0815 -11.8407 -2.205
-16.5803 -11.9725 -1.72762
-16.6374 -12.0077 -1.33505
-16.3004 -12.3424 -1.2158
-16.6322 -12.0343 -0.347009
-18.5228 -11.6724 -0.883929
-19.2872 -10.424 -4.88353
-18.5311 -10.9557 -4.33612
-17.8457 -11.2308 -4.60295
-21.997 -8.65729 -4.80192
-16.5275 -11.6913 -4.20647
-19.7147 -10.4133 -4.56697
-19.6931 -10.1842 -4.79635
-15.9941 -12.12 -4.10799
-20.0643 -10.0557 -4.70386
-19.7209 -10.3711 -4.33547
-14.3679 -13.2546 -3.64493
-18.6169 -10.8377 -4.06417
-16.3444 -11.4632 -3.12982
-19.8094 -10.7351 -3.86096
-19.953 -10.7608 -3.17314
-20.4112 -10.4632 -3.13897
-14.948 -13.005 -2.9134
-19.9603 -10.8084 -2.95225
-19.7471 -10.9577 -2.95778
-15.625 -12.1287 -2.27563
-15.8866 -11.9238 -2.22818
-15.2873 -13.0374 -2.83417
-19.2129 -11.0063 -2.60436
-15.9161 -12.2793 -2.1718
-15.4179 -12.9501 -2.14822
-15.0256 -12.9496 -2.36851
-15.1333 -13.1277 -2.54807
-15.4721 -12.9758 -2.41913
-20.1867 -10.6213 -2.38956
-20.2297 -10.8679 -2.24012
-16.6026 -11.8494 -1.55957
-16.987 -11.9232 -1.50101
-20.2271 -10.8845 -1.34201
-18.1304 -11.7111 -1.04272
-15.9919 -12.8646 -0.999649
-16.6868 -12.2039 -0.555805
-16.6794 -12.1623 -0.499733
-16.8394 -12.1732 -0.644197
-15.8788 -12.9395 -0.744491
-16.324 -12.7151 -0.274428
-18.1975 -10.8258 -4.65577
-17.678 -11.2867 -4.58812
-19.1282 -10.4808 -4.97451
-16.8797 -11.5728 -4.31179
-16.5279 -11.7599 -4.19479
-18.4811 -10.9727 -4.48388
-19.2302 -10.5518 -4.32681
-20.3116 -10.2331 -4.01135
-15.9077 -11.8323 -3.14629
-17.1097 -11.1023 -2.88784
-17.1051 -11.0243 -2.96398
-15.8312 -11.6995 -2.67078
-15.7965 -11.7735 -2.86501
-15.6948 -11.5871 -2.73417
-16.922 -11.2446 -2.6772
-19.6174 -10.5891 -3.60946
-19.9585 -10.4142 -3.52115
-15.3964 -12.7523 -3.01337
-19.4108 -10.9763 -3.23312
-17.1762 -11.3471 -2.62462
-20.4903 -10.5281 -3.03683
-15.6728 -12.0249 -2.24986
-15.8021 -12.0394 -2.25764
-15.7419 -12.2489 -2.1277
-15.9256 -12.2218 -2.10192
-15.3593 -12.9715 -2.49678
-15.3223 -13.0349 -2.0957
-16.9767 -11.8515 -1.27245
-16.0456 -12.4275 -1.5189
-15.9879 -12.6963 -1.45973
-20.2831 -10.8433 -1.15189
-16.1718 -12.3306 -1.10853
-16.6042 -12.1914 -0.766964
-16.8503 -12.0409 -0.628305
-16.4597 -12.4733 -0.322522
-16.4915 -12.3146 -0.307466
-18.2294 -11.4312 0.198161
-16.4386 -12.4192 -0.278524
-16.2396 -10.6839 2.06248
-16.0801 -10.6825 2.01497
-16.7117 -11.6151 -4.27267
-16.3931 -11.9154 -3.91566
-15.7665 -12.1869 -4.22429
-16.3654 -11.7323 -4.24735
-15.9006 -12.3466 -4.22943
-15.9936 -12.0287 -4.08321
-18.1799 -11.0177 -4.1438
-14.9601 -12.8592 -3.73951
-15.095 -12.6405 -3.71285
-15.0826 -12.7615 -3.5151
-16.5062 -11.4256 -3.17691
-15.13 -12.9116 -3.5557
-15.7547 -12.0016 -2.58357
-17.0901 -11.563 -2.10555
-17.0489 -11.917 -1.55554
-15.7493 -12.3213 -1.53626
-16.0876 -12.5875 -1.58554
-18.6326 -11.2879 -0.924962
-16.788 -12.0822 -1.01095
-16.3918 -12.6117 -0.783422
-20.4855 -11.0142 -0.302081
-16.8098 -12.2419 -0.450494
-16.1427 -12.9393 -0.231904
-16.3945 -12.2493 0.121276
-16.4133 -12.2342 -4.05491
-15.369 -12.4686 -4.0397
-15.0592 -12.7808 -3.63311
-16.9918 -11.264 -2.90728
-15.5474 -11.9094 -3.11641
-14.9809 -13.1583 -2.72773
-15.6822 -12.0322 -2.48354
-15.2031 -12.4102 -2.17334
-17.7567 -11.3422 -1.8187
-19.7009 -11.1513 -1.64811
-18.6173 -11.3606 -1.30057
-16.6161 -11.9754 -0.329472
-15.4795 -11.7937 -2.86459
-15.4563 -11.9186 -2.83387
-15.1657 -12.6704 -2.97996
-15.697 -12.4535 -2.53741
-17.4499 -11.5104 -2.4911
-15.8756 -12.1762 -2.35678
-15.0717 -12.9152 -2.91969
-15.8343 -12.1174 -2.59689
-15.9622 -12.1101 -2.54974
-16.2951 -11.8043 -2.37703
-15.1709 -13.135 -2.70963
-16.1023 -12.0425 -2.00533
-16.8502 -11.7767 -1.92111
-17.1976 -11.7299 -1.71442
-16.2951 -12.2428 -1.41979
-16.822 -12.1708 -0.43376
-18.3297 -11.4458 -0.0158412
-16.7131 -11.9723 0.16222
-16.9077 -11.6682 -4.35252
-16.3676 -12.0037 -2.11326
-17.866 -11.3898 -2.15142
-15.3103 -12.6857 -2.46916
-15.9001 -12.5533 -1.55694
-18.666 -11.2507 -1.09008
-16.3508 -11.6638 -4.18238
-15.6686 -12.1838 -2.56491
-16.2146 -11.8972 -2.48696
-16.1149 -12.2648 -4.20924
-16.6616 -11.9424 -4.32506
-16.6386 -12.1791 -1.62325
-17.7732 -11.3979 -1.75182
-16.0265 -12.4579 -1.41673
-16.9118 -11.7311 -1.7357
-17.0571 -11.9654 -1.50975
-16.9803 -12.268 -0.659721
-16.5439 -11.4478 -3.07079
-15.4561 -12.7576 -2.1356
-16.3474 -12.3866 -1.45723
-19.6618 -10.159 -4.60421
-18.5333 -11.1139 -4.51255
-18.3781 -11.0188 -4.34691
-18.2938 -10.8632 -4.45524
-16.6109 -11.8185 -4.19506
-18.7827 -10.8629 -4.02225
-16.7711 -11.804 -4.23225
-16.4185 -11.7388 -4.23417
-16.2401 -11.4672 -3.53283
-19.9747 -10.5217 -3.52238
-15.7049 -12.1944 -4.18713
-20.0483 -10.429 -3.08408
-20.0389 -10.5749 -3.31108
-15.5536 -12.4951 -4.00343
-19.8805 -10.6021 -2.95072
-14.4148 -13.1057 -3.62773
-17.718 -11.332 -2.10249
-15.985 -11.9921 -2.3883
-15.9142 -12.0649 -2.17392
-16.749 -11.6836 -2.12349
-16.0067 -12.1619 -2.3192
-15.368 -12.7216 -2.83211
-15.0179 -13.1482 -2.53864
-15.0323 -13.064 -2.65953
-20.4556 -11.1792 -0.400702
-16.3585 -12.428 -0.907874
-16.1371 -12.4265 -1.03176
-16.6131 -12.4001 -0.396242
-16.099 -12.8099 -0.540077
-17.1387 -12.1251 0.231672
-16.7725 -12.4412 0.212968
-16.647 -12.3592 0.168316
-18.3213 -11.1248 -4.55881
-20.3186 -10.3165 -4.1849
-19.1401 -10.7536 -4.03829
-15.6959 -11.9811 -3.12378
-20.0888 -10.4025 -3.08456
-16.2239 -11.6302 -2.72758
-16.8337 -11.6089 -2.21541
-16.7515 -11.5103 -2.1113
-15.6906 -12.197 -2.29531
-15.7377 -12.0485 -2.40079
-15.0921 -12.9654 -2.60686
-20.3087 -11.1261 -1.20558
-14.9626 -13.2454 -2.55338
-16.257 -12.2697 -1.52723
-17.2983 -11.8417 -1.29094
-17.2546 -12.0322 -0.691458
-16.2785 -12.6293 -1.03436
-16.6743 -12.2545 -0.60867
-16.3747 -12.6005 -0.257808
-16.9299 -12.2149 0.519883
-17.6255 -11.2164 -4.59419
-20.0274 -10.2516 -4.14742
-18.0799 -11.1607 -4.22809
-16.1342 -12.0752 -4.07634
-17.0471 -11.0274 -3.03544
-16.1189 -12.0827 -4.04806
-19.397 -10.8472 -3.28234
-15.5787 -12.4143 -3.5921
-14.9069 -12.9248 -3.80081
-15.4835 -12.9402 -3.11038
-15.9797 -12.2055 -2.2385
-16.7352 -12.0095 -1.10978
-16.2445 -12.4793 -1.12223
-17.0281 -12.0079 -0.746807
-16.7121 -12.6083 -0.863671
-18.5642 -11.4886 0.302127
-16.5781 -12.472 -0.651199
-16.9647 -11.3066 -3.05566
-16.8961 -12.0428 -1.43164
-16.8552 -12.3592 -0.705441
-18.052 -11.4391 0.108043
-16.5211 -12.2228 -0.361227
-17.6209 -11.7437 0.34374
-16.6134 -12.3072 0.449981
-16.7147 -11.7668 -4.25845
-16.1069 -12.0016 -4.39766
-16.0648 -11.7941 -2.31432
-15.3929 -12.488 -2.02162
-15.4362 -12.4645 -2.07718
-16.1733 -12.5651 -1.24227
-17.4813 -11.3883 -4.55722
-15.4577 -12.6903 -2.05337
-16.049 -12.6401 -1.39115
-16.6838 -12.3206 -1.00071
-16.7956 -11.9635 -1.14986
-17.2884 -11.5874 -1.86628
-19.0081 -10.4739 -5.28223
-19.8675 -10.3898 -4.61851
-19.7909 -10.2851 -4.55107
-19.972 -10.1231 -4.52578
-17.9124 -11.3214 -4.46007
-18.0603 -11.2689 -4.58862
-16.3466 -11.739 -4.14435
-16.257 -11.8925 -4.19994
-20.5017 -10.7516 -1.68635
-17.2069 -11.4923 -2.12545
-18.7465 -11.1659 -1.33214
-15.9736 -11.9442 -2.57673
-15.2546 -12.6478 -3.86286
-15.6185 -11.9164 -2.33083
-15.9267 -11.9779 -2.06032
-20.3379 -11.0989 -0.100531
-18.3248 -11.5504 0.111974
-15.0492 -12.8511 -2.89093
-17.5645 -11.9053 0.215262
-16.2786 -12.4927 -1.40772
-15.1585 -13.1451 -2.55103
-15.8029 -12.8161 -1.31121
-17.17 -12.0375 -0.231357
-17.1662 -12.2793 0.41681
-16.2748 -12.4788 0.372828
-18.9166 -10.3054 -5.13119
-18.374 -11.0483 -4.23517
-18.3418 -11.1684 -4.43353
-17.1188 -11.1326 -2.86424
-17.0726 -11.0799 -3.02768
-16.3689 -11.811 -4.12668
-16.3392 -11.8367 -4.17084
-16.0433 -12.2401 -4.37831
-16.5564 -11.7117 -2.59017
-16.7428 -11.4628 -2.33579
-15.952 -12.2711 -4.1461
-16.9903 -11.6617 -2.23004
-17.0374 -10.5365 1.62302
-16.546 -10.722 1.40799
-15.063 -12.8084 -3.69249
-14.9585 -12.834 -3.60084
-14.8915 -12.7978 -3.67255
-14.9007 -12.885 -3.67236
-15.1455 -12.7948 -2.85746
-15.0794 -12.7964 -3.00754
-17.323 -12.0115 -0.62643
-17.4207 -12.0559 -0.588739
-17.8525 -11.7649 0.323296
-17.2886 -12.0812 -0.286263
-16.0536 -12.5504 -0.83531
-16.7313 -12.3651 -0.557727
-16.2186 -12.653 -0.772466
-16.3126 -12.6704 -0.33194
-15.7639 -12.7131 -0.897614
-18.8035 -10.3522 -4.9716
-16.9976 -11.0415 -3.10324
-16.2751 -11.9229 -2.33786
-20.4237 -11.1255 -0.541913
-15.8506 -12.0506 -2.26281
-16.2432 -12.4517 -1.23399
-16.5463 -12.2119 -0.604703
-16.7867 -12.1879 0.33865
-16.2098 -12.5639 -0.317659
-16.4375 -12.4317 0.315007
-16.4956 -12.3156 0.38892
-17.9858 -11.3285 -4.45841
-16.9395 -11.0677 -3.22517
-15.8783 -11.8335 -3.41452
-16.7379 -12.1168 -1.56578
-14.8411 -13.1491 -2.26058
-16.4822 -12.6387 -0.209175
-16.9749 -12.0037 -1.43431
-15.8398 -12.2397 -1.9401
-18.1714 -11.5424 -1.66753
-18.5937 -11.5703 -0.871418
-15.2696 -12.5288 -1.89269
-16.0498 -12.7118 -0.743741
-17.009 -11.9391 -1.59277
-15.2345 -12.6965 -2.10896
-16.6937 -12.4339 -0.992956
-16.9203 -12.2777 -0.844961
-16.8571 -12.3686 -0.866223
-21.8327 -10.444 0.324635
-16.552 -12.0619 -1.79268
-15.9156 -12.6109 -2.69727
-16.002 -12.2494 -1.61
-19.9785 -10.4339 -2.95177
-17.4568 -11.4208 -4.59209
-16.7992 -11.7201 -2.39841
-16.9375 -11.7787 -2.05801
-18.2356 -11.3316 0.266152
-18.1453 -11.4933 0.214072
-17.581 -11.9888 0.156575
-15.9423 -12.1801 -4.08934
-17.4844 -12.0128 -0.483269
-17.6356 -11.9639 -0.828737
-17.4499 -12.1537 -0.839825
-15.841 -11.9289 -2.15935
-17.5485 -12.0161 -0.526741
-17.0358 -12.0612 -0.189359
-16.5279 -12.3563 -0.865965
-16.2831 -12.466 -0.880275
-16.3463 -12.4707 -0.476074
-16.568 -12.3835 0.122851
-15.0953 -12.8 -3.79374
-16.1735 -12.6494 -0.287961
-15.2137 -12.8032 -3.1842
-14.659 -12.8185 -3.44569
-15.0826 -12.9896 -2.63564
-18.8022 -10.7117 -4.50771
-19.4775 -11.0089 -2.7287
-16.581 -10.6612 1.26297
-17.5009 -11.221 -2.19066
-18.5051 -11.3328 -1.18121
-16.4354 -11.3912 -3.19218
-18.5103 -11.5184 0.198095
-18.3058 -11.5812 0.383751
-16.8877 -11.846 -1.84294
-17.3599 -12.072 -0.717586
-15.8342 -12.1268 -4.13645
-17.5543 -12.2596 -0.308999
-17.163 -12.1353 0.35642
-16.8118 -12.2552 -1.2533
-16.3851 -12.3257 -1.26821
-16.0044 -12.3466 -1.14166
-16.2225 -12.6591 -0.672438
-16.3543 -12.3178 0.405604
-14.8199 -12.6638 -3.65951
-15.0113 -12.7864 -3.54851
-15.1883 -12.7526 -2.96141
-15.0859 -12.6952 -2.95455
-15.2116 -12.8524 -2.97222
-15.8631 -12.8208 -0.922856
-14.1776 -13.1284 -3.68213
-14.2212 -13.1523 -3.88678
-20.3247 -11.3109 -0.31267
-16.2189 -11.5908 -3.39927
-17.6118 -11.8693 -1.3481
-18.215 -12.0054 -1.04754
-16.144 -11.8717 -2.25574
-17.3714 -11.9021 -1.14625
-17.2272 -11.9095 -0.877502
-16.2465 -12.1598 -1.55229
-16.6992 -12.2698 -0.337931
-16.4047 -12.4602 -0.202882
-16.1988 -12.5842 -0.0908247
-15.1051 -12.8638 -3.77353
-14.6555 -12.9799 -3.58548
-18.4572 -11.5126 -0.784018
-16.3322 -11.8602 -4.28505
-18.2978 -11.9045 -0.540589
-15.8056 -11.7671 -2.07648
-15.5763 -12.5959 -2.07238
-16.2103 -12.5048 -0.505892
-14.3445 -13.0642 -3.49212
-22.1776 -8.32814 -4.78812
-22.0711 -8.60194 -4.7915
-22.132 -8.59163 -4.7374
-16.8054 -11.9993 -1.30751
-15.2643 -12.587 -2.26333
-18.5854 -11.206 -0.90337
-16.7888 -11.9965 -0.961864
-16.7143 -12.3794 -1.22329
-15.8725 -12.8824 -1.16524
-17.0609 -11.8145 -1.90265
-15.7127 -12.8144 -2.78954
-18.2684 -11.5364 -1.2483
-16.7331 -12.0748 -0.632995
-16.6761 -12.1968 -1.26018
-16.2282 -12.6356 -1.54963
-16.9825 -11.9232 -1.52299
-16.8716 -12.3773 -0.907461
-17.0148 -11.3385 -3.18876
-22.0498 -8.80344 -4.66248
-22.0465 -8.51469 -4.74089
-21.8571 -10.4523 -0.126039
-21.6285 -10.5678 -0.458467
-21.645 -10.5765 -0.472941
-19.7176 -10.2557 -4.62533
-19.9211 -11.2928 -0.96248
-18.6006 -10.909 -4.34452
-17.4282 -11.9457 -0.689808
-16.9783 -11.3258 -3.58306
-16.9328 -11.554 -1.94384
-17.4378 -12.0002 -0.351159
-17.2882 -12.0025 -0.721558
-17.3209 -12.0683 -0.360778
-17.1296 -12.1019 -0.844458
-17.1202 -11.9812 -1.03736
-16.6135 -12.2903 0.414426
-17.317 -11.2795 -4.418
-17.1734 -11.6038 -4.46764
-16.8469 -12.0217 -0.986519
-16.1035 -11.752 -3.61667
-16.5666 -12.2557 -1.07146
-16.3953 -11.8983 -3.94944
-16.42 -12.5554 -0.655605
-15.8527 -11.9507 -3.36205
-16.3077 -12.5278 -0.599781
-16.2966 -12.5399 -0.788653
-16.2213 -12.5115 -0.949013
-16.1039 -12.5795 -0.572689
-16.0288 -12.8044 -0.402724
-15.5511 -12.6524 -1.83213
-16.0454 -12.8199 -0.903228
-15.0289 -12.8991 -2.70138
-14.723 -13.1054 -3.11662
-14.2918 -13.0356 -3.54537
-21.8211 -10.4977 -0.0673443
-21.7068 -10.4639 -0.248951
-21.7114 -10.4056 -0.438154
-20.8884 -10.9582 -0.30365
-20.2011 -11.2276 -0.31064
-20.2463 -11.1945 -0.281959
-18.1721 -11.4655 0.302538
-17.818 -11.2158 -2.31396
-17.8947 -11.3926 -1.81647
-16.9128 -11.4038 -2.45372
-17.3308 -12.086 -0.923912
-17.4256 -11.9387 -1.07291
-17.4869 -12.1055 -0.283556
-17.2783 -11.923 -1.10353
-17.4604 -12.1066 -0.453371
-17.2758 -11.9335 -0.829775
-17.4463 -11.4535 -4.53108
-16.8025 -11.8914 -1.96013
-16.2157 -11.381 -2.96899
-16.6206 -12.3292 -1.50228
-16.1398 -11.5136 -3.62562
-16.3321 -11.9778 -4.04145
-16.3221 -12.472 -0.63933
-16.338 -12.5037 -0.896972
-16.388 -12.4479 -1.04195
-16.4247 -12.3892 -0.37214
-16.1021 -12.4881 -1.11575
-16.2934 -12.9408 -0.309711
-16.0675 -12.3839 -3.6658
-15.1192 -12.6111 -3.57282
-22.112 -8.68316 -4.96573
-21.843 -10.5796 -0.221938
-20.3952 -11.018 -1.06202
-17.5285 -11.2897 -2.31238
-17.4256 -12.0849 -0.23027
-17.3601 -12.0702 -0.771593
-16.1754 -11.6801 -3.33716
-16.3272 -12.6298 -0.455337
-15.8345 -12.1601 -1.90861
-16.2065 -12.5541 -0.764021
-16.0841 -12.2372 -3.93164
-16.9644 -12.1445 -0.943577
-16.3355 -11.7888 -3.64251
-16.1599 -11.7226 -3.56422
-16.5136 -12.0798 -1.45187
-15.2425 -12.5174 -2.3283
-14.5968 -13.0151 -3.43397
-17.4826 -11.3602 -2.63004
-16.8203 -11.946 -0.341032
-16.6612 -11.662 -4.25592
-16.5265 -12.2226 -1.18841
-16.1124 -12.0224 -1.82509
-17.9404 -11.615 -1.60125
-16.8745 -12.3067 -0.889493
-16.7867 -12.3222 -1.18427
-16.4768 -12.0776 -1.43214
-15.8407 -12.0797 -1.94353
-16.0401 -12.3405 -1.50098
-18.7681 -11.081 -1.27664
-19.0678 -11.5361 -1.05983
-16.9227 -11.9784 0.314431
-17.1773 -12.0894 -0.263646
-17.361 -11.8559 -0.681891
-18.8859 -10.6609 -4.65613
-18.6115 -10.8568 -4.58762
-16.3448 -12.6389 -0.302954
-16.4888 -12.3601 -0.810828
-16.1706 -12.3055 -0.773442
-16.1632 -12.4386 -1.1935
-16.2514 -11.5372 -2.96795
-16.3855 -11.5131 -3.13396
-15.8945 -11.9567 -1.90336
-17.3557 -11.2327 -4.54317
-15.9574 -11.7653 -3.46244
-16.6908 -11.6665 -4.30351
-16.473 -11.7802 -4.24598
-16.4696 -11.777 -4.02496
-16.4107 -11.7783 -4.29664
-15.5136 -11.8592 -2.95089
-14.6674 -13.0796 -3.18033
-16.8371 -12.1179 -1.40675
-16.1929 -12.5193 -0.554991
-16.1738 -11.932 -2.3989
-17.3736 -11.5109 -4.40396
-16.3554 -12.2815 -3.85126
-15.9923 -11.9874 -2.24619
-15.9316 -12.8641 -1.16236
-16.4448 -11.8154 -4.2784
-16.1118 -12.5456 -3.79524
-22.2398 -8.71484 -4.59431
-22.0023 -8.72207 -4.75394
-22.0409 -8.76848 -4.4117
-15.5846 -12.7902 -3.08436
-14.5149 -12.9393 -3.51468
-16.784 -12.2787 -0.936925
-16.6107 -12.0306 -1.37173
-16.7605 -12.2443 -1.07721
-16.7196 -12.3604 -0.870222
-15.9008 -12.2873 -1.75436
-15.9004 -12.3195 -1.8358
-15.9667 -12.9588 -0.651547
-17.0628 -11.858 -1.8412
-16.851 -12.1171 -0.507043
-16.9598 -11.7861 -2.02275
-15.4313 -12.3516 -2.20566
-17.1346 -11.8288 -1.43613
-18.0438 -11.1276 -2.36472
-20.3532 -11.3702 -0.379767
-16.6979 -12.1963 0.206493
-16.3032 -12.3635 0.236925
-16.9965 -12.0485 -0.508373
-16.4457 -12.2025 -0.41504
-16.7448 -12.4402 -0.649267
-16.4574 -12.6189 -0.406122
-16.3441 -12.3596 -0.977156
-15.9069 -12.756 -1.00959
-16.1128 -11.8506 -2.14087
-15.7945 -12.072 -2.07727
-17.5474 -11.3877 -4.5344
-17.4691 -11.3899 -4.41427
-15.1299 -12.8819 -3.20698
-17.7111 -11.6611 0.428635
-16.4606 -12.1386 -0.551484
-16.7419 -12.2935 -0.403123
-16.9757 -11.5914 -1.88584
-16.4371 -11.2684 -3.24317
-16.3427 -11.9545 -4.04843
-18.1593 -11.4208 0.242273
-16.719 -12.2519 0.279869
-16.5409 -12.2854 -0.440737
-16.4905 -12.5903 -0.260973
-16.2839 -11.7652 -2.43073
-15.9101 -11.8943 -3.22489
-15.2313 -12.8079 -3.20268
-14.3563 -13.2512 -3.4322
-16.7155 -12.3238 -1.20133
-17.3879 -11.3907 -4.37423
-16.5776 -11.6943 -4.18123
-14.895 -12.777 -3.47016
-15.9783 -12.2351 -1.58254
-16.4936 -12.1181 -1.14089
-16.5351 -11.9643 -0.873086
-17.0633 -11.77 -1.91355
-16.1198 -12.1734 -1.63486
-16.866 -12.2228 -1.46881
-15.7363 -12.4142 -1.58614
-15.4772 -12.4482 -2.20821
-20.2953 -11.1065 -0.309763
-17.8315 -11.7302 0.198428
-20.2525 -11.2497 -0.312759
-17.1888 -12.0272 0.188807
-17.0041 -12.2295 0.374874
-20.3772 -11.042 -1.34416
-16.5394 -12.0824 -0.26043
-16.5121 -12.4594 -0.248598
-16.541 -12.0757 -0.439117
-22.2986 -8.09075 -5.24334
-17.6481 -11.1391 -2.83726
-16.2639 -12.0467 -2.24391
-16.049 -11.8186 -2.32057
-16.1549 -12.1046 -2.24836
-15.9593 -12.154 -2.16192
-15.8434 -11.8599 -2.15411
-16.0652 -11.8313 -2.05551
-15.5267 -13.1337 -2.5328
-17.324 -11.5076 -4.45033
-16.61 -11.8015 -4.30073
-16.6852 -11.9671 -4.19411
-16.4955 -11.5155 -4.21414
-16.4657 -11.9344 -4.23589
-15.9017 -12.2033 -4.34009
-16.8562 -12.0783 -0.50242
-16.6707 -12.1316 -0.439683
-16.6545 -12.249 -0.288945
-16.6039 -12.2345 -0.364349
-16.8107 -12.1641 -0.468322
-18.5895 -11.2371 -3.13719
-20.0453 -10.1338 -4.3458
-15.6066 -13.2407 -1.84775
-15.7672 -12.0998 -2.98803
-15.7158 -12.0072 -3.21431
-15.5106 -12.0278 -3.40722
-15.9469 -11.7126 -3.27706
-16.4752 -11.5949 -3.96243
-16.5567 -11.5516 -4.23424
-16.7467 -12.1777 -0.515236
-16.5844 -12.2333 -0.39846
-16.7043 -12.1349 -0.923944
-15.7791 -12.0552 -3.28422
-16.7743 -11.8096 -4.19811
-16.2859 -11.7562 -4.29185
-16.732 -12.2037 -0.19731
-16.7475 -12.4726 -0.343407
-16.4059 -12.2379 -1.07966
-15.2463 -12.8566 -2.52745
-16.1508 -11.5302 -3.42565
-15.9244 -12.0051 -3.31892
-16.7422 -11.6656 -4.03285
-14.971 -12.6517 -3.80091
-18.4664 -11.8462 -0.789661
-16.0453 -12.1915 -2.01456
-15.2816 -12.4114 -3.06939
-16.7084 -12.4855 -0.379937
-16.6291 -12.0576 -0.412562
-16.6094 -12.3332 -1.79611
-15.5772 -12.6573 -1.47554
-16.4879 -12.3065 -0.260541
-17.2712 -11.8663 -1.28972
-16.8925 -12.1189 -1.06233
-15.6365 -12.6788 -2.77006
-18.4979 -11.4085 0.235862
-18.24 -11.6722 -0.0407647
-17.2587 -12.133 0.110292
-20.4672 -11.2314 -0.598234
-16.9239 -12.1974 -0.63636
-16.485 -12.3436 -0.364594
-16.695 -12.3135 -0.289664
-16.5546 -12.3782 -0.452769
-16.7978 -12.2124 -0.398641
-16.5098 -12.0389 -0.878257
-16.7982 -12.0958 -0.953323
-16.1555 -12.86 -1.02001
-16.9354 -11.78 -2.00018
-19.104 -10.8646 -3.15282
-16.9543 -11.3302 -2.22141
-17.4275 -11.4027 -2.70647
-15.8489 -12.1233 -1.85621
-15.6839 -12.8841 -1.73551
-22.2964 -8.26521 -4.83643
-22.0064 -8.28686 -4.94317
-15.3382 -13.0657 -1.85261
-16.2189 -11.7435 -2.17772
-15.3874 -12.9809 -2.51954
-15.3609 -12.997 -2.50933
-15.1984 -13.239 -2.44707
-15.733 -11.9388 -3.09158
-15.8496 -11.7463 -3.51764
-16.5869 -11.7235 -4.21699
-16.4804 -11.5498 -4.20381
-16.6276 -11.7882 -4.13615
-16.1269 -12.2552 -4.14156
-16.2811 -11.7701 -4.11472
-16.2699 -12.5507 0.154858
-16.7129 -12.0773 -0.330631
-16.8149 -11.897 -0.439339
-16.7461 -12.1412 -0.56395
-16.6546 -12.1295 -0.429309
-19.6716 -11.2465 -1.82409
-19.8344 -10.9137 -2.53427
-15.9346 -12.5799 -1.69978
-22.1946 -8.69246 -4.89218
-16.0689 -12.1847 -2.1469
-15.8499 -12.0871 -2.20404
-15.237 -12.7512 -2.40166
-15.3184 -12.8108 -2.42846
-15.2162 -12.9612 -2.67335
-15.9543 -11.6494 -3.22967
-15.7348 -11.9777 -3.19704
-15.7007 -11.8284 -3.19433
-16.0362 -11.5754 -3.51634
-17.5239 -11.4404 -4.31581
-17.38 -11.5814 -4.35471
-15.4192 -12.5387 -3.4996
-16.7216 -11.9192 -4.36067
-16.7362 -11.7104 -4.04208
-16.5391 -11.6739 -4.16212
-15.2745 -12.6308 -3.38345
-20.4192 -11.4234 -0.274092
-16.8198 -12.3477 -0.323795
-16.5891 -11.9386 -0.221919
-16.7814 -12.0912 -0.441074
-16.7444 -12.1404 -0.440346
-16.6281 -12.0401 -0.571419
-16.867 -12.2316 -1.09075
-15.7495 -13.0494 -1.07172
-17.0445 -11.6525 -2.08946
-15.9975 -12.194 -1.93151
-16.1269 -11.7637 -2.1404
-15.8444 -12.1894 -2.32743
-15.8631 -12.1557 -2.50244
-15.9208 -12.0584 -2.34431
-15.8776 -12.1795 -2.47307
-15.2558 -13.0472 -2.29622
-16.7604 -12.2172 0.28256
-18.3018 -11.76 -0.594139
-18.5996 -11.1732 -1.09239
-16.6409 -12.1039 -1.49187
-16.94 -11.7341 -2.21844
-17.9758 -11.4372 0.064019
-17.9177 -11.6476 0.28743
-18.502 -11.5346 -0.160887
-16.6942 -12.2134 0.317574
-18.5905 -11.9057 -0.567623
-16.0834 -12.8166 -0.585395
-16.657 -12.0219 -1.79851
-21.8526 -8.49259 -4.61374
-21.9634 -8.8136 -4.861
-15.6091 -11.7519 -2.83681
-15.3997 -12.5856 -2.91837
-16.9957 -11.9974 -0.175301
-16.5705 -12.3419 -1.02511
-15.888 -12.4264 -1.6019
-15.5293 -12.697 -3.16265
-17.1214 -12.3726 0.365991
-15.9615 -12.5899 -1.16717
-16.9153 -12.5557 -0.718535
-16.6571 -11.9971 -0.862657
-16.1988 -12.3387 -1.41731
-15.3894 -12.7005 -1.32341
-16.7247 -11.993 -0.525239
-15.3643 -12.7835 -3.12131
-14.955 -13.1944 -2.51913
-15.3511 -12.7854 -2.21906
-16.0251 -12.5292 -1.4838
-15.7673 -12.7498 -1.30145
-16.8925 -12.1343 -0.653832
-16.7227 -12.0614 -0.609727
-18.3516 -11.8822 -0.581443
-16.7259 -12.3108 -0.411765
-16.5389 -12.0615 -0.369349
-16.6718 -12.2662 -0.347474
-16.5427 -12.5007 -0.345756
-18.7319 -11.5477 -0.413559
-20.9278 -9.95123 1.32294
-16.5739 -11.7264 -4.22576
-16.2832 -11.8171 -4.32078
-14.9261 -12.7403 -3.61164
-15.677 -12.001 -3.1952
-15.6588 -12.3212 -3.38251
-14.8998 -13.0371 -2.87001
-16.1338 -11.9199 -2.24533
-15.9632 -11.9437 -2.17918
-16.6664 -12.0083 -2.05815
-16.6327 -11.9927 -1.31028
-16.8755 -12.3007 -0.730914
-16.7865 -12.3636 -0.517622
-16.5549 -12.147 -0.425557
-16.6037 -12.4053 -0.540602
-16.9231 -12.2051 -0.299885
-16.5613 -12.4629 -0.213151
-19.0227 -11.5579 -0.233766
-20.564 -11.0641 -0.398427
-16.4757 -12.5802 0.0412654
-17.1638 -12.0143 0.0799233
-16.5599 -11.6725 -4.18126
-14.8777 -13.2142 -2.95331
-21.9318 -8.7813 -4.67885
-15.7818 -11.8392 -2.29528
-17.0411 -11.4773 -2.25784
-16.9826 -11.5637 -1.94393
-15.9866 -12.2402 -1.41161
-17.2806 -11.6828 -1.4189
-16.7363 -12.2748 -0.601131
-18.7235 -11.6855 -0.201301
-18.6434 -11.5974 -0.142108
-17.9733 -11.9124 0.175065
-16.9725 -12.0659 0.273417
-18.7819 -11.2811 0.39773
-18.0357 -11.4751 0.443147
-16.0031 -11.8992 -2.39288
-15.7297 -12.111 -2.47139
-17.007 -11.559 -2.25642
-16.7906 -12.2087 -1.23056
-16.7493 -12.2897 -0.867872
-16.7246 -12.1541 -0.413748
-16.7281 -12.4881 -0.452035
-16.0301 -12.8205 -0.0237621
-16.9082 -11.7974 -1.34671
-16.7514 -12.1061 -1.42016
-18.6777 -11.3066 -1.20692
-16.7478 -12.1245 -0.344522
-18.2705 -11.8564 -0.642989
-16.4649 -12.3863 0.434627
-15.8944 -11.9182 -2.08013
-16.0665 -12.3295 -1.53561
-17.286 -11.924 -1.43988
-16.4381 -12.4073 -0.978922
-16.3666 -12.3887 -0.912036
-15.9896 -11.9227 -2.17222
-15.9773 -12.4968 -1.53915
-16.2027 -12.5192 -1.47879
-15.4065 -12.7489 -3.07855
-16.8985 -12.2686 -0.412441
-16.2905 -11.4952 -3.04086
-16.5947 -12.5749 -0.416609
-16.4367 -11.8351 -4.11904
-20.0713 -10.0297 -4.49929
-22.0172 -8.70331 -4.73194
-16.0648 -11.5737 -2.7793
-15.3717 -12.6803 -2.88652
-19.9559 -10.5884 -3.23256
-17.0538 -11.6622 -2.10128
-15.3622 -13.1316 -1.96471
-15.7065 -12.6243 -1.48426
-15.5706 -12.8479 -1.03025
-16.6147 -12.2704 -0.320538
-16.5376 -12.1966 -0.341516
-16.4678 -12.2951 -0.261738
-16.2015 -12.8662 -0.195047
-20.7364 -9.68397 1.50586
-17.2132 -11.2945 -4.47733
-16.3989 -11.9261 -4.29033
-14.7506 -12.867 -3.37451
-14.9152 -12.8119 -3.22384
-17.1164 -11.1205 -2.92719
-17.1663 -11.4621 -2.21909
-15.9537 -11.9242 -2.18518
-17.1226 -11.7927 -1.42195
-16.6764 -12.1614 -1.03343
-16.9341 -12.0099 -0.622934
-16.588 -12.1665 -0.166358
-16.664 -12.1678 -0.262868
-20.3589 -11.3622 -0.305172
-16.5912 -12.5282 -0.410861
-16.1591 -10.7925 2.17327
-15.1893 -12.8258 -3.92397
-14.3613 -12.951 -3.56772
-15.5326 -12.0704 -2.83965
-15.8428 -12.4328 -2.48804
-15.6084 -12.2988 -2.45641
-15.7036 -12.2076 -2.4973
-15.7405 -12.0982 -2.48547
-15.8971 -12.2239 -1.9217
-20.2361 -10.7351 -2.27541
-18.3299 -11.2661 -1.52576
-18.6951 -11.153 -1.27925
-16.6551 -12.1387 -0.983103
-16.8302 -11.9538 -0.43882
-16.4955 -12.448 -0.35183
-18.8002 -11.3451 -0.16745
-16.4461 -12.4583 -0.286739
-14.4617 -13.083 -3.71302
-15.8077 -12.0796 -2.48367
-15.92 -12.0297 -2.34387
-15.8923 -11.9508 -2.39981
-15.6865 -12.107 -2.69245
-15.8738 -11.9575 -2.51844
-16.7105 -12.3777 -0.623314
-16.6579 -12.5167 -0.402554
-16.4876 -12.3951 -0.364527
-16.9207 -12.1994 0.117866
-15.0621 -13.1157 -2.98009
-15.75 -11.9782 -2.481
-16.7636 -12.2335 -1.50684
-16.1584 -12.5493 -1.47465
-16.6182 -12.1533 -0.929279
-20.2655 -11.2598 -0.428887
-18.217 -11.5524 0.168647
-18.0108 -11.4893 0.0397057
-16.0607 -12.2596 -1.52254
-16.5285 -12.7747 -0.167587
-16.6263 -12.1597 -0.024999
-16.5589 -11.7301 -2.25541
-16.2484 -11.8579 -2.72542
-15.5935 -11.6468 -2.8262
-15.1874 -12.7863 -3.56162
-14.2778 -13.1367 -3.81707
-19.1875 -11.0754 -2.93025
-16.9956 -11.8983 -1.28468
-15.6511 -12.8513 -1.45719
-20.1778 -11.4074 -0.477015
-16.5563 -12.4364 -0.325468
-16.2944 -10.6447 1.98256
-16.093 -10.4626 1.923
-22.0617 -8.4488 -4.74546
-19.4372 -10.4361 -4.2523
-16.2012 -11.7217 -3.26841
-16.7488 -11.1952 -3.11056
-15.0715 -12.7077 -3.69302
-15.0535 -12.6961 -3.49835
-14.8212 -12.8083 -3.22781
-14.7309 -12.8304 -3.37389
-18.9761 -11.1715 -2.90138
-17.0684 -11.9754 -1.30863
-18.6729 -11.3245 -1.2173
-16.2424 -12.4088 -1.29601
-16.5952 -12.1926 -1.03881
-16.7621 -12.4289 -0.792586
-16.7967 -12.0094 -0.576165
-16.6082 -12.1885 -0.376923
-16.5961 -12.2858 -0.263308
-16.3563 -12.3985 0.32748
-18.1352 -10.9597 -4.83342
-15.2651 -12.5725 -3.95576
-17.1491 -11.2147 -2.94035
-17.2265 -11.0333 -2.97132
-15.892 -11.4706 -2.85985
-15.5714 -11.7694 -2.674
-15.8376 -11.9236 -2.53199
-19.4039 -11.0413 -2.63563
-15.8977 -12.1989 -2.30231
-17.4892 -11.5181 -4.47077
-18.4719 -11.393 -1.2589
-16.7353 -12.2669 -0.90728
-16.5165 -12.1219 -0.799564
-18.6037 -11.3377 0.0500813
-16.3105 -12.6197 0.471932
-14.6614 -12.9718 -3.77814
-15.5982 -11.7959 -2.89691
-16.049 -12.0897 -2.52347
-16.1271 -11.9302 -2.42686
-16.3985 -11.855 -2.0962
-16.6557 -11.9796 -1.78583
-16.7205 -12.1138 -0.887661
-16.2973 -12.0634 -4.28508
-17.0289 -12.1103 -0.943285
-16.8997 -12.1553 -0.804321
-15.4621 -12.9586 -3.08895
-17.1138 -11.6537 -2.49641
-17.2536 -11.6509 -1.89731
-16.6833 -12.1302 -0.619865
-19.5638 -10.737 -3.60726
-15.8307 -11.7963 -3.0204
-15.1116 -12.8273 -3.54221
-14.8373 -13.0228 -3.60802
-14.4457 -13.1043 -3.60767
-15.9683 -11.9856 -2.13407
-16.6229 -12.2855 -1.04099
-16.5957 -12.3649 0.466039
-17.7483 -11.1763 -4.49084
-17.2386 -11.4347 -4.44778
-15.9237 -12.2105 -4.20972
-17.4206 -11.1954 -2.97712
-15.3933 -12.447 -3.82891
-16.831 -11.6377 -2.27834
-15.056 -12.9062 -3.67296
-15.9642 -12.0255 -2.2114
-15.7918 -12.173 -2.50676
-15.654 -12.2449 -2.17982
-16.6502 -11.9065 -1.71013
-20.4837 -11.4087 -0.0150629
-17.9543 -11.7202 0.241488
-16.2185 -10.4051 2.22345
-17.9132 -11.2617 -4.61023
-17.1891 -11.7889 -4.21423
-16.3327 -11.9166 -4.19015
-15.9505 -12.1829 -4.10755
-14.9539 -13.072 -3.68704
-16.9535 -12.2193 -1.2428
-16.8949 -12.2753 -0.995341
-18.4197 -11.5491 0.314976
-17.4423 -11.3971 -4.57915
-17.6078 -11.4541 -1.75971
-16.8222 -12.1928 -0.98762
-16.8578 -12.1461 -0.846833
-16.5987 -12.4422 -0.844829
-16.3783 -11.468 -2.93342
-15.1792 -12.8545 -3.12897
-16.7448 -11.9758 -1.19953
-16.6276 -12.2314 -1.1358
-17.7487 -11.7362 0.352611
-15.7242 -12.825 -0.982547
-16.113 -12.8106 -0.377014
-16.8838 -11.1726 -2.95927
-16.1274 -12.0803 -4.10891
-17.1448 -11.7319 -2.01944
-15.7927 -12.003 -2.23411
-14.8725 -12.8246 -3.77183
-17.306 -11.9411 -1.08728
-16.8576 -12.246 -1.14846
-17.3302 -11.8225 -0.868642
-16.8997 -12.288 -1.18058
-16.6702 -12.2643 -1.10673
-16.6985 -12.2862 -0.650045
-16.1019 -12.3788 -0.903758
-16.0708 -12.7837 -0.373348
-16.1863 -12.8195 -0.87691
-16.2614 -12.5915 0.253282
-17.4901 -11.4104 -2.14021
-15.8837 -12.0091 -2.12072
-16.9159 -12.1286 -1.29214
-18.0295 -11.9098 -0.571385
-15.824 -12.6449 -1.73527
-17.2056 -12.0198 0.468334
-21.9371 -8.76057 -4.90032
-16.8084 -11.1125 -3.02185
-16.7038 -11.7249 -4.12128
-16.4734 -11.4903 -3.0933
-17.8716 -11.3273 -2.29156
-14.638 -12.9674 -3.58243
-16.7456 -12.228 -1.20367
-16.9348 -12.032 -1.06149
-16.6337 -12.3593 -1.03341
-16.0709 -12.4256 -1.15291
-21.9989 -8.72894 -4.66946
-17.0429 -11.1376 -3.11437
-17.7879 -11.2057 -2.38671
-18.2796 -11.7954 -1.08351
-18.3925 -11.6162 -0.65758
-16.7189 -12.0286 -1.18979
-16.7179 -12.2638 -0.673927
-16.7556 -12.0748 -1.1147
-18.7448 -10.8261 -4.21304
-19.3926 -11.0431 -2.98111
-17.8913 -11.3546 -2.19034
-16.185 -11.9039 -3.37794
-20.5048 -11.3034 -0.13256
-20.2693 -11.2797 -0.13307
-20.3659 -11.1589 -0.230056
-16.8601 -11.9133 -2.22473
-18.3056 -11.5817 0.305705
-18.1626 -11.9521 -0.68775
-17.5143 -11.8543 -0.294529
-17.3686 -11.8905 0.371235
-14.9064 -12.8231 -3.49218
-14.6416 -12.7891 -3.87859
-14.9911 -12.8684 -3.47313
-15.0855 -12.8902 -3.5761
-15.2144 -12.7953 -2.90601
-16.3707 -12.5351 -0.503772
-16.3353 -12.7171 -0.234763
-16.0087 -13.0325 -0.272302
-17.7918 -11.238 -2.40385
-19.9802 -10.9149 -1.23497
-16.1748 -11.7753 -4.34152
-15.8197 -11.8456 -3.2513
-15.771 -11.9228 -2.44357
-18.1809 -11.7929 -0.658096
-18.5123 -11.5109 0.361029
-18.4696 -11.9319 -0.419061
-17.4117 -11.9264 -0.85168
-16.779 -12.0095 -1.2617
-15.4035 -12.9661 -3.06929
-16.5681 -12.1896 0.301631
-16.4232 -12.5128 -0.747726
-14.4176 -13.1632 -3.58034
-16.2383 -12.4008 -0.540266
-16.1452 -12.631 -0.160343
-18.4395 -11.1424 -1.01645
-17.1612 -11.7298 -1.96294
-16.5054 -11.7775 -1.97577
-15.7784 -11.941 -2.17144
-18.2686 -11.7274 -0.58429
-16.8313 -12.0751 -0.934744
-16.8016 -12.3114 -0.967635
-15.3427 -12.504 -2.12308
-16.1309 -12.4648 -1.13269
-16.2028 -12.3193 -0.881352
-14.5542 -13.0466 -3.61815
-16.0345 -12.4909 -0.440284
-22.1953 -8.27032 -5.03285
-22.1512 -8.56847 -4.63364
-17.0641 -11.84 -2.10755
-16.5778 -12.2366 -1.30124
-16.8289 -12.1069 -1.19446
-16.7597 -12.2042 -0.474037
-17.0149 -12.2154 -1.08034
-16.3929 -12.434 -0.372751
-16.9994 -11.9614 -1.02012
-18.4718 -11.2272 -1.36842
-16.3364 -12.0357 -2.29557
-16.6278 -12.2239 -1.40975
-16.9025 -11.6989 -2.33782
-16.2696 -11.9889 -1.90881
-21.6419 -10.5357 -0.304595
-20.5208 -10.7867 -1.63862
-20.26 -11.376 -0.544921
-18.0116 -11.1164 -4.48061
-16.1788 -11.7141 -2.30876
-17.2971 -11.879 -0.629075
-16.9034 -12.2629 0.117953
-16.4366 -12.3427 -0.651606
-16.2872 -12.66 -0.93445
-14.9384 -12.7092 -3.81442
-16.0113 -12.9451 -0.339873
-14.248 -12.9271 -3.59689
-19.0351 -10.7227 -3.84015
-16.0287 -11.7049 -3.44354
-16.5132 -12.0289 -4.00248
-16.404 -11.8121 -4.26624
-17.8421 -12.0622 -0.698128
-16.1789 -12.3406 -1.09599
-15.5969 -12.575 -3.61315
-16.2803 -12.498 -0.619662
-16.2528 -12.7759 -0.742055
-16.2012 -12.7104 -0.406043
-14.931 -12.8122 -3.60914
-14.3389 -13.1215 -3.74017
-22.1298 -8.56401 -4.77374
-17.1796 -11.4096 -2.17427
-18.2677 -11.8004 -1.19908
-18.3343 -11.932 -0.440657
-16.0136 -11.8357 -2.4224
-16.0605 -12.0628 -2.21619
-14.7473 -12.8565 -3.46017
-16.2784 -12.0113 -4.03509
-16.6876 -12.1136 -1.00786
-16.6217 -12.3826 -1.32275
-16.1518 -12.1341 -1.99858
-17.981 -11.217 -1.42628
-17.0134 -11.4876 -2.16345
-16.7607 -12.2543 -1.01706
-16.3841 -12.2826 -1.4596
-16.6135 -12.3176 -1.0165
-18.4182 -11.55 -1.46629
-16.5221 -12.0949 -1.26203
-16.7194 -12.3464 -0.861412
-15.6827 -12.2122 -2.19096
-16.5588 -11.9985 -1.95848
-16.0314 -12.499 -1.40376
-16.7341 -12.0614 -1.64519
-21.8427 -10.5183 -0.207004
-21.8431 -10.5356 -0.405676
-21.8816 -10.3928 -0.535135
-21.8474 -10.6029 -0.335735
-17.0336 -11.5604 -2.18086
-17.4831 -11.8818 -0.535758
-17.5662 -11.9391 -0.348893
-17.2287 -11.9837 -0.976397
-17.1154 -11.9534 -0.589277
-17.1573 -11.9852 -1.16638
-16.7792 -12.0505 -1.06706
-16.5513 -12.5306 -0.364721
-16.298 -12.4382 -0.653195
-16.3213 -12.4495 -0.489238
-16.2146 -12.6405 -0.437572
-15.184 -12.5725 -2.3973
-14.9456 -12.885 -3.77833
-22.1106 -8.47208 -4.87629
-22.0588 -8.65608 -4.9356
-21.7358 -10.4092 -0.337839
-21.7942 -10.4537 0.0985644
-20.3598 -10.9448 -1.18927
-16.3743 -12.3551 -0.713934
-16.2487 -12.5877 -1.09173
-16.0948 -12.9655 -0.408779
-15.9617 -12.3947 -3.77881
-14.9537 -12.736 -3.74592
-17.261 -11.7386 -1.69304
-16.2674 -12.27 -1.6882
-15.8101 -11.7427 -3.10848
-16.285 -12.6317 -0.60934
-16.2669 -12.5696 -0.772701
-14.6858 -13.107 -3.49509
-18.2366 -11.6706 -1.35048
-16.3333 -12.3806 -1.1061
-15.5743 -12.6847 -3.2117
-17.9578 -11.3676 -1.82057
-16.7732 -11.9529 -1.18474
-16.5936 -11.8989 -0.949359
-15.4593 -12.6524 -2.08016
-17.774 -11.4688 -1.8896
-16.4122 -12.2871 -1.50811
-16.5802 -11.9315 -1.37859
-17.0527 -11.85 -1.90892
-21.9481 -10.3495 -0.345114
-21.6872 -10.4219 -0.437478
-21.8367 -8.76498 -4.93087
-20.4257 -11.2186 -0.306979
-20.2508 -11.2224 -0.301098
-20.0663 -11.0578 -1.11581
-16.6788 -12.2172 -1.41168
-16.564 -12.4984 -0.62431
-16.3743 -12.6477 -0.534434
-16.2287 -12.7702 -0.364246
-16.1522 -12.3625 -0.964197
-16.5811 -12.1804 -1.07602
-15.8668 -12.1731 -2.37736
-21.8678 -8.73613 -4.45287
-16.939 -12.3219 -0.724557
-16.4288 -12.335 -0.763377
-15.3731 -12.6629 -3.07175
-15.3736 -12.572 -2.87923
-21.9415 -8.70855 -4.85071
-16.2408 -12.0186 -2.30302
-16.8353 -12.2172 -0.61858
-16.6405 -12.2224 -1.20255
-16.7057 -12.1475 -1.46834
-17.9591 -11.4423 -1.87114
-16.8345 -11.7015 -1.79906
-16.6081 -12.2969 -1.12581
-15.4153 -12.4483 -2.11309
-15.53 -12.7529 -3.25516
-17.1155 -11.8402 -1.21421
-16.7114 -12.3966 -0.831811
-15.2699 -12.6418 -1.71857
-16.7987 -12.0736 -1.67216
-20.3668 -11.2076 -0.283941
-17.1974 -12.1459 -0.30218
-16.7844 -12.3665 -0.697163
-15.7523 -11.8877 -3.18586
-16.6526 -11.7438 -4.4022
-14.7848 -13.1649 -3.14061
-20.2725 -10.5609 -2.84306
-15.9739 -11.8238 -2.35597
-17.3143 -11.482 -4.31498
-14.6576 -13.2262 -3.36677
-22.0841 -8.81592 -4.73138
-16.6483 -11.8104 -4.19355
-14.5864 -13.021 -3.47564
-16.9484 -11.7532 -1.83455
-16.9866 -11.5775 -2.02016
-17.0087 -11.5548 -1.78644
-15.9753 -12.0551 -1.71973
-15.8468 -11.747 -3.28365
-16.6805 -12.3284 -0.697775
-16.9227 -12.3549 -0.947021
-16.7617 -12.2428 -0.655276
-15.9819 -12.7695 -1.26456
-16.3061 -11.8181 -3.64015
-14.8776 -13.0748 -3.15686
-17.5522 -12.0304 0.432197
-15.9798 -11.7546 -3.42369
-16.7987 -11.792 -1.93701
-15.8242 -11.8931 -3.28067
-16.784 -12.2184 -0.837864
-15.8597 -12.4955 -2.03702
-15.7087 -11.8708 -3.23205
-17.0924 -11.6411 -1.67348
-17.0856 -11.7799 -1.66762
-16.4988 -12.3898 -1.1824
-16.6512 -12.1715 -1.19989
-16.7502 -12.5737 -1.24355
-17.1228 -11.5608 -1.83697
-16.6555 -11.9551 -1.72094
-15.9364 -12.2863 -1.82832
