-18.2535 -11.6141 0.754733
-19.598 -11.4707 1.3186
-16.9613 -10.79 1.37087
-17.0442 -11.357 -2.07438
-18.6095 -11.2586 -2.25144
-16.5255 -12.0673 -2.01987
-16.4864 -12.1542 -1.93116
-20.0301 -10.5453 -1.17078
-16.1633 -12.3005 -1.57362
-18.242 -11.5505 -1.40173
-19.6689 -10.7004 -1.10168
-16.073 -12.5234 -1.11316
-19.6636 -11.2486 -1.00221
-18.8515 -11.1759 -0.915184
-17.6365 -11.9922 -0.663057
-19.1854 -11.2359 -0.379574
-16.6817 -12.3066 -0.270783
-19.2558 -11.5594 0.218585
-18.2862 -11.2383 0.43567
-19.2854 -11.3572 0.225063
-18.4394 -11.2198 0.555888
-18.3336 -11.3825 0.618462
-18.1602 -11.259 0.769383
-18.6646 -11.3762 1.39837
-19.689 -11.6662 1.59703
-18.2374 -11.4221 -2.0638
-19.2889 -11.2434 -0.776049
-16.8413 -12.0913 -0.340926
-18.3733 -11.3161 0.0409999
-16.9627 -12.2605 0.282293
-16.3908 -12.4389 0.20361
-19.2751 -11.364 0.632835
-18.193 -11.4024 0.879592
-17.5163 -11.2122 -2.02117
-15.8926 -12.2735 -2.32424
-17.4135 -11.534 -1.46258
-17.0387 -12.0138 -0.625041
-17.0225 -12.0879 -0.255626
-18.0286 -11.1843 0.334597
-18.2222 -11.4775 0.978249
-16.2255 -10.6932 1.28703
-16.1237 -12.5019 -1.58098
-17.6522 -11.8194 -0.61437
-19.8258 -11.2795 0.48025
-19.1601 -11.1065 -0.911034
-19.1136 -11.1998 -1.04634
-17.2572 -11.9995 0.218442
-18.7918 -11.1496 -0.84157
-17.2667 -12.3692 -0.300502
-17.5655 -11.7417 0.358128
-16.2832 -12.6672 0.41644
-16.2972 -12.3979 -1.58416
-19.4368 -11.5575 0.739184
-18.1993 -11.1656 1.13995
-17.7525 -11.3756 -2.98234
-17.9122 -11.446 -2.43239
-18.5709 -11.2953 -1.93588
-19.6793 -10.944 -1.30363
-18.5394 -11.435 -1.82358
-19.0605 -11.0873 -1.29423
-19.2688 -11.067 -0.882073
-18.3679 -11.5059 -1.34416
-19.6146 -10.8971 -0.76883
-20.0309 -10.8393 -0.315954
-19.0159 -11.2702 -0.997615
-19.1336 -11.3835 -0.791636
-19.4391 -11.228 -0.463935
-19.3071 -11.0982 -0.369372
-19.7181 -11.1754 0.172995
-19.7648 -11.1744 0.147742
-19.3486 -11.1678 0.0933083
-19.9634 -11.1999 0.373414
-19.937 -11.0804 0.435482
-18.4425 -11.4322 -0.202572
-19.283 -11.5262 0.0840837
-17.7105 -11.9325 -0.548766
-18.012 -11.2783 -0.200745
-19.1426 -11.2139 0.0370629
-19.1383 -11.6698 0.392235
-19.9355 -11.1987 0.812887
-17.2133 -12.0792 -0.683032
-19.6629 -11.5335 0.214472
-19.7069 -11.4126 0.789367
-19.4706 -11.4659 0.961099
-19.2863 -11.6867 0.506692
-18.277 -11.3457 0.337256
-20.0171 -11.2281 1.3128
-17.1353 -12.1583 -0.334789
-16.0734 -12.6201 -1.01849
-16.6335 -12.0895 -0.544271
-19.4425 -11.413 0.872689
-16.5419 -12.1211 -0.251246
-16.2675 -12.7099 -0.915503
-20.0119 -11.3664 1.72233
-16.1316 -12.6645 -0.643012
-17.377 -11.9034 0.547901
-17.1943 -11.6176 0.440107
-18.4247 -11.1604 1.54592
-16.8273 -10.7049 1.37896
-15.9941 -10.9075 1.91256
-18.4327 -11.0576 -2.34788
-19.3065 -11.0576 -1.60212
-19.0578 -10.8572 -1.6788
-19.6785 -10.6127 -0.887801
-19.5777 -10.7632 -0.601649
-19.4161 -11.2306 -0.676341
-18.9682 -10.9999 -0.827333
-19.1865 -11.2455 -0.852703
-18.8223 -11.375 -0.828823
-18.2674 -10.8451 -0.699704
-15.5753 -12.4765 -2.6767
-15.2246 -13.2914 -3.26446
-15.6156 -12.5161 -2.46198
-20.0288 -10.8174 0.0660754
-16.4263 -12.1494 -1.98026
-15.3948 -12.5573 -2.4368
-18.9426 -11.474 -0.493441
-19.5719 -11.1398 0.100763
-19.9637 -11.0307 0.407545
-18.2226 -11.7285 -0.357012
-17.5622 -11.7922 -0.457966
-19.3202 -11.2927 0.141191
-19.2266 -11.614 0.00815895
-19.301 -11.6082 0.10903
-17.0096 -12.2934 -0.731361
-19.0927 -11.5501 0.374174
-19.3361 -11.5696 0.31235
-18.4276 -11.2588 0.222973
-17.5378 -12.2055 -0.313006
-19.8699 -11.3596 1.14985
-16.2424 -12.7991 -0.85234
-17.604 -11.6378 0.241953
-19.0688 -11.9908 1.24618
-19.1095 -11.7369 1.19431
-16.9773 -12.3025 0.167736
-18.4185 -11.3837 1.60347
-15.5355 -11.1081 0.911327
-16.3011 -10.7822 1.46799
-16.3856 -10.6582 1.89338
-19.183 -10.6943 -2.29213
-19.899 -10.656 -1.03559
-19.6787 -10.8357 -1.01871
-18.6347 -11.4412 -1.65534
-15.8006 -12.1386 -2.35168
-17.2204 -11.5615 -1.3475
-16.7287 -11.9863 -1.89908
-19.0961 -11.4968 -0.553985
-19.4387 -11.0381 -0.134151
-19.1071 -11.3645 -0.382623
-20.2147 -10.6715 0.558063
-19.2434 -11.4356 0.0973896
-17.7354 -11.7651 -0.769744
-19.3913 -11.4232 0.113475
-19.7594 -11.1654 0.659515
-17.3271 -11.8271 -0.656542
-20.0117 -11.0384 1.02811
-20.1901 -11.2176 0.931305
-19.3789 -11.577 0.374075
-19.562 -11.3193 0.382316
-17.2924 -11.9671 -0.762626
-20.0982 -11.0069 1.03625
-17.117 -12.2052 -0.428836
-17.8227 -11.5866 0.257789
-17.0629 -12.4853 -0.481471
-19.1644 -11.888 1.03323
-18.1144 -11.5173 1.23044
-18.4114 -11.4309 1.4106
-20.0901 -10.3666 -1.14275
-18.1243 -11.8017 -1.73875
-17.6549 -11.3758 -1.62218
-19.2072 -11.199 -0.92918
-18.9828 -11.2935 -0.627598
-19.8907 -10.5958 0.0620318
-17.2375 -11.6379 -1.30247
-20.1679 -10.9917 0.348158
-18.7066 -11.5603 -0.13099
-19.9975 -11.232 1.0096
-15.7729 -12.6995 -1.52508
-17.3328 -12.1052 -0.499074
-18.4967 -11.1655 0.769159
-16.0685 -12.5719 -0.873657
-17.9463 -11.3834 0.515911
-16.8548 -12.2818 -0.131646
-18.9971 -11.7075 1.29046
-17.9823 -11.6765 1.28649
-18.2412 -11.6204 1.64358
-17.9828 -11.4857 1.5714
-18.8464 -11.2996 -1.96986
-17.0143 -11.6284 -2.30782
-18.7072 -11.4429 -1.37975
-18.9967 -11.2455 -0.782434
-17.8135 -11.8704 -0.909098
-19.0825 -11.4254 0.17952
-16.2152 -12.4796 -0.857279
-18.464 -11.0447 0.83663
-19.5411 -11.5065 1.15023
-17.3582 -11.9121 0.0202952
-18.1517 -11.3634 0.816574
-16.8294 -12.2758 0.0697017
-17.007 -12.1329 0.0715507
-18.2074 -11.326 1.25178
-16.8397 -12.1929 0.548547
-17.5593 -11.5964 -1.39329
-19.2046 -11.3871 0.310524
-19.183 -11.5228 0.278645
-17.4262 -11.9234 0.175631
-19.0706 -11.6579 -0.0075555
-19.0526 -11.3022 0.12308
-19.3229 -11.3995 0.197169
-17.7759 -11.5681 0.40609
-18.4099 -11.3794 1.03568
-18.3757 -11.2187 1.52769
-18.1588 -11.3941 1.68001
-17.3346 -11.5545 -2.23153
-18.9065 -11.4386 -0.509441
-15.6973 -12.9424 -1.25619
-16.279 -12.5704 0.148609
-17.8713 -11.7765 -0.413664
-17.4745 -11.6051 -1.51968
-19.0453 -11.4893 -0.497908
-15.2151 -12.1886 -3.0988
-19.4087 -11.4975 0.548979
-18.3326 -11.2002 0.883881
-19.8337 -10.8207 -1.00448
-18.8626 -10.8116 -2.16516
-18.6298 -11.1673 -2.42504
-18.3796 -11.2663 -2.57694
-19.0789 -11.1058 -0.831735
-19.0666 -11.307 -0.941669
-19.0899 -11.4361 -0.742162
-17.3806 -11.2645 -2.33925
-18.3466 -10.8468 -0.78857
-18.7842 -11.5834 -0.505618
-19.1611 -11.2762 -0.0869848
-16.9761 -11.2625 -2.26894
-19.3691 -11.4353 0.173735
-17.8482 -11.6616 -0.866632
-19.0323 -11.7847 1.19778
-17.0343 -11.933 -0.884563
-17.0661 -12.1328 -0.511112
-17.3636 -12.066 0.0598923
-16.9358 -12.2115 -0.65834
-16.1551 -12.3482 -1.20007
-16.1115 -12.4133 -1.03717
-16.0018 -12.655 -1.0693
-15.8405 -13.1491 -0.892486
-15.8691 -12.7701 0.188886
-16.282 -10.5328 1.76638
-20.1545 -10.4362 -1.14212
-20.1106 -10.5189 -1.06024
-19.4269 -10.9698 -1.61028
-20.0203 -10.9299 -0.0171638
-19.9749 -11.1484 0.313052
-18.2893 -11.5004 -2.69404
-18.2012 -11.5362 -2.31614
-17.8636 -11.4823 -2.62135
-20.1749 -11.1026 1.09704
-19.8197 -11.148 0.698092
-19.2183 -11.4567 -0.423384
-16.7605 -11.3688 -2.33853
-16.95 -11.5507 -2.12858
-17.5739 -11.6511 -1.10153
-17.7629 -11.9405 -1.00626
-19.1837 -11.9966 1.04816
-16.4313 -12.0206 -2.02408
-16.6036 -11.9577 -1.68883
-18.164 -11.3198 0.329924
-15.9127 -12.0826 -2.58653
-18.0377 -11.3363 1.11215
-16.1686 -12.2006 -1.49152
-16.5416 -12.5648 -0.822295
-16.6858 -12.0632 -0.314105
-17.0329 -12.2506 -0.00655592
-15.9793 -12.9732 -0.806435
-16.4885 -12.4557 0.318598
-18.9491 -11.477 -0.909508
-19.7133 -11.1681 0.436048
-17.0511 -11.5863 -2.24058
-18.4179 -11.2876 0.254947
-17.5583 -11.6079 -1.35957
-19.0217 -11.653 0.344299
-17.3171 -11.5717 -1.26609
-16.5794 -11.8776 -1.76136
-17.21 -11.9218 -0.985527
-17.1586 -12.003 -1.07177
-18.4398 -11.2463 1.66671
-17.1766 -12.1616 -0.001375
-16.3027 -12.55 -0.896431
-16.0255 -12.6051 -0.837151
-15.9495 -12.6381 -0.886986
-19.9003 -10.3787 -1.56514
-20.0821 -11.0119 -0.0880191
-17.0825 -11.5009 -2.28417
-19.0208 -11.5614 -0.0857074
-19.2995 -11.5003 0.829571
-16.9628 -12.0187 -0.701162
-17.1293 -11.9258 -0.804532
-16.018 -12.0435 -2.45241
-17.337 -11.8774 -0.746772
-17.1296 -12.0052 -0.442911
-17.1126 -12.2039 -0.312537
-14.6227 -13.2259 -3.84152
-16.0142 -12.5788 -1.03828
-16.0625 -12.7378 -0.760877
-16.0654 -12.7961 -0.549789
-19.2679 -10.9052 -1.89492
-20.0363 -11.2342 1.39889
-17.0978 -11.9834 -0.76849
-17.1203 -12.1779 -0.596601
-17.1948 -12.0104 -0.395189
-16.1014 -12.5198 -1.00312
-16.3067 -12.379 0.303459
-16.314 -12.4359 0.358457
-19.0255 -11.4213 -0.582887
-19.2216 -11.5613 0.146424
-19.2837 -11.3071 0.320989
-17.306 -12.0482 -0.767855
-18.1849 -11.5987 1.07483
-16.0879 -12.5448 -1.25481
-18.2453 -11.3671 0.917928
-17.097 -11.4402 -2.23281
-19.19 -11.554 -0.265601
-18.1572 -11.5934 1.08692
-16.8435 -12.2767 -0.518812
-18.6843 -11.0636 1.44706
-16.142 -11.9632 -1.66192
-19.3182 -11.1698 -0.628888
-17.0204 -12.0146 0.115477
-20.2654 -10.5068 -1.05267
-19.8349 -11.1558 0.220335
-19.6246 -11.4907 0.946753
-19.1301 -11.3701 -1.00225
-18.8155 -11.3611 -0.814807
-18.4441 -11.4561 -1.30904
-17.9092 -11.3348 0.497271
-17.8766 -11.4568 0.617314
-17.2216 -11.8427 -1.05066
-17.0425 -11.9064 -1.11322
-16.8176 -12.1204 -0.0133566
-16.675 -12.1617 -0.578452
-16.4706 -12.1453 -0.628889
-16.0402 -12.4527 -0.754881
-15.5119 -11.0011 1.25445
-15.607 -11.2002 1.39745
-20.0702 -10.601 -0.804065
-19.4859 -10.6723 -2.38701
-20.0478 -10.9385 0.103579
-19.6918 -10.9262 -1.4995
-19.5408 -10.8922 -1.19726
-19.8846 -11.1616 0.169889
-19.4631 -10.8619 -1.52996
-19.8543 -11.1783 0.239593
-19.0547 -11.0447 -2.34268
-19.3382 -11.1302 -0.901014
-19.2435 -11.1217 -0.749663
-19.2786 -11.5644 0.147246
-18.2814 -11.268 -2.73982
-18.4121 -11.2783 -1.34461
-18.2775 -11.5653 -0.487763
-17.7078 -11.8095 -0.808038
-16.8082 -11.4248 -2.36535
-16.805 -11.5551 -2.2295
-17.1776 -11.907 -0.646058
-17.152 -11.8986 -0.683324
-16.9545 -11.9262 -0.916602
-16.8138 -10.684 1.47265
-16.907 -11.7228 -1.7309
-17.2318 -12.1579 -0.412427
-16.7754 -12.1144 -1.20736
-16.4903 -12.0819 -0.749449
-16.6364 -12.1063 -0.634553
-16.6139 -12.3591 -0.402109
-15.7236 -12.1852 -2.75175
-16.5332 -12.317 0.186734
-16.1644 -12.5374 -1.11164
-15.9222 -13.2512 -0.746588
-14.7642 -13.2525 -3.2186
-14.7484 -13.4124 -3.76276
-19.4661 -10.5487 -1.99741
-20.0146 -11.0066 -0.0883986
-19.3936 -10.6102 -1.56855
-19.579 -10.7881 -1.41678
-19.1636 -11.0113 -1.12442
-18.7933 -11.3059 -2.01733
-18.5264 -11.2109 -2.37431
-19.0093 -11.6326 0.452925
-18.4582 -11.2029 0.596942
-17.9663 -11.3869 -2.56566
-18.0205 -11.4185 0.516662
-18.0879 -11.5971 1.65947
-17.8207 -11.9368 -0.76441
-17.7914 -11.8843 -0.748292
-17.5004 -12.195 -0.6481
-16.735 -11.8903 -1.69231
-16.7913 -12.2204 -0.310942
-16.9638 -12.3546 0.221125
-16.2507 -12.1078 -2.08193
-16.3582 -12.3608 -1.72708
-16.5877 -12.151 -0.40134
-16.2075 -12.3293 -1.84353
-16.1947 -12.4417 -1.14729
-16.1926 -12.6146 -0.93747
-16.3254 -12.4315 0.228162
-15.9072 -12.5073 -1.3138
-15.8868 -12.8583 -1.07467
-19.9813 -10.3024 -2.0233
-19.4744 -10.8447 -2.20114
-19.9267 -10.8113 -0.951766
-19.8878 -10.6472 -1.03519
-20.3444 -11.0258 0.74849
-19.1413 -11.0484 -1.0867
-19.3246 -11.5999 0.774913
-19.4686 -11.7092 1.35588
-18.5104 -11.5111 -1.50813
-17.7584 -11.5081 -2.87344
-17.2331 -11.9578 -1.16862
-17.153 -11.8705 -1.2126
-17.2525 -11.9579 -0.244555
-16.9057 -12.1167 -0.359958
-16.9143 -12.1422 -0.291447
-16.1365 -12.6425 -0.9853
-16.1307 -12.5864 -1.08283
-16.0508 -12.784 -0.98189
-19.6507 -10.6735 -1.11998
-19.7623 -10.7291 -1.03945
-19.0645 -11.0455 -1.9166
-18.4125 -11.11 0.320653
-17.1344 -11.8446 -0.844534
-17.1181 -12.1319 -0.734456
-17.0659 -11.9851 -0.911631
-17.0725 -12.0522 -0.687263
-17.1879 -12.2448 -0.20524
-16.8262 -11.8802 -1.64827
-16.9844 -12.0156 -0.984948
-17.1161 -12.0506 -0.317127
-16.3694 -12.0881 -1.87086
-16.2113 -12.3917 -1.04298
-16.0465 -12.784 -0.877808
-16.0892 -12.6555 -0.810763
-20.1331 -10.8135 -0.569993
-18.9851 -11.0238 -0.760387
-17.2613 -11.9291 0.0408997
-17.4486 -11.7971 -0.244792
-17.1229 -11.9017 -0.672944
-16.3772 -12.0921 -2.1652
-18.8245 -10.8831 -2.12475
-17.4312 -11.3999 -2.23129
-15.7871 -12.926 -1.60826
-19.9715 -11.0301 0.103897
-18.4515 -11.0245 -0.986242
-17.6994 -11.7598 -1.17432
-16.7828 -12.3471 -0.447143
-15.976 -12.1621 -1.80078
-15.7548 -13.268 -0.896263
-18.4304 -11.3434 1.24093
-17.9003 -11.6954 -0.799178
-16.947 -11.6889 -1.56957
-15.5253 -12.6545 -2.20823
-18.7021 -11.1635 0.223345
-20.1003 -11.103 0.055772
-19.904 -10.7675 0.304231
-19.523 -11.1316 -0.165262
-19.5279 -10.5402 -1.92977
-19.1838 -11.419 -0.218924
-19.1334 -11.4392 -0.104664
-18.3121 -11.3793 0.605481
-18.8452 -11.3307 -0.936097
-19.0387 -11.1401 -1.34371
-18.9404 -10.7873 -2.3746
-18.9988 -10.9754 -2.58176
-18.8821 -11.0142 -2.33266
-18.9904 -10.9786 -2.14378
-18.9979 -11.0807 -2.14607
-18.9992 -11.0395 -2.18871
-18.8668 -11.3593 -1.96739
-18.5879 -11.3363 -1.90243
-18.7455 -10.9844 -2.30849
-18.5772 -11.2075 -2.4839
-18.5662 -11.2107 -2.31195
-18.1851 -11.5143 -0.136964
-18.5519 -11.4575 -1.5386
-18.2418 -11.7175 -0.332771
-16.8079 -10.851 1.56893
-17.7062 -11.6562 0.537854
-18.3958 -11.28 -2.60764
-17.6974 -11.9514 -1.00166
-17.8972 -11.4256 -2.89318
-16.5938 -12.0883 -1.43171
-16.7193 -12.0464 -1.22676
-16.2851 -12.4081 0.272819
-15.9958 -12.5857 -1.04334
-15.7647 -12.9695 -2.07472
-15.6611 -12.005 -3.00379
-20.1657 -10.8613 0.737086
-20.0875 -10.9782 0.438603
-19.7957 -10.7427 -0.0424796
-19.622 -10.9795 0.149295
-19.8547 -10.5805 -0.864453
-19.5551 -11.0189 0.0320142
-19.4654 -11.44 0.55869
-19.7306 -10.6981 -1.13279
-19.3652 -11.5438 0.487519
-19.5751 -10.9947 -0.953644
-19.4169 -10.5636 -1.59748
-19.0696 -11.4555 0.214602
-19.2738 -11.18 -0.747697
-19.194 -10.8185 -1.94018
-18.9278 -11.6236 -1.0341
-18.8362 -10.8857 -2.1334
-18.0325 -11.6341 0.597848
-17.8922 -11.2425 0.395349
-18.6838 -11.1129 -2.14454
-18.1227 -11.5004 0.337214
-18.6366 -11.1368 -2.41523
-18.581 -11.1208 -2.52029
-18.5267 -11.3321 -2.41961
-17.9768 -11.747 -0.687982
-16.2374 -10.9646 1.48923
-16.0366 -11.036 1.3323
-16.0851 -10.8261 1.17841
-16.9351 -11.4291 -2.52046
-16.7192 -12.3177 -0.42393
-15.5744 -11.0074 1.2863
-16.3535 -12.2921 0.201561
-16.1219 -12.8165 -0.321641
-16.076 -12.6596 -1.0106
-16.111 -12.3312 -1.51571
-16.0958 -12.0737 -2.12027
-20.0048 -11.4077 1.47015
-19.8574 -11.1013 0.0289287
-19.8852 -10.5861 -1.97534
-19.291 -11.7574 1.68887
-19.3425 -10.859 -0.91912
-19.5333 -10.7811 -1.72523
-19.2755 -10.6257 -1.51736
-19.1376 -11.7189 0.299552
-19.4436 -10.8915 -1.62308
-18.2896 -11.2038 0.638735
-18.1824 -11.4722 0.813305
-18.2989 -11.11 -0.865326
-17.9081 -11.3956 0.445958
-17.9421 -11.353 0.35891
-18.4933 -11.095 -2.29045
-16.849 -10.5787 1.6392
-16.5877 -10.5947 1.90908
-17.2073 -11.7418 0.458152
-18.2226 -11.595 -2.54704
-17.6836 -11.6655 -0.893016
-17.6483 -11.8751 -0.905068
-17.6309 -11.6441 -1.1345
-17.314 -12.0835 -0.340906
-16.9064 -12.3078 0.288537
-17.1608 -11.5342 -1.38433
-16.8639 -11.8638 -1.1177
-15.6 -11.0894 1.38682
-16.2061 -12.4972 0.391717
-16.0997 -12.6249 -1.01236
-15.8048 -12.1578 -2.09234
-15.0146 -13.2133 -3.2257
-19.7732 -10.7626 -0.901464
-19.6572 -11.0242 -0.574717
-19.4094 -11.2904 -0.163621
-19.4013 -10.8728 -1.48674
-19.3733 -11.0603 -1.20601
-19.0298 -11.0321 -1.17009
-18.9305 -10.589 -2.32462
-18.8817 -11.529 -1.73607
-18.9302 -11.0771 -1.99042
-18.0115 -11.6305 1.1529
-18.0421 -11.3795 0.389578
-18.4619 -11.4598 -1.31566
-18.3375 -11.7743 -0.208676
-17.6142 -11.6199 -1.07129
-17.6577 -11.6015 -1.54279
-16.9126 -12.0379 0.338185
-17.2697 -12.1491 -0.330621
-17.1745 -11.9927 -1.10509
-16.3198 -12.4974 0.164168
-16.2243 -12.7616 -1.00403
-16.2828 -12.7276 -1.29645
-16.0458 -12.6214 -1.00829
-20.055 -10.6006 -0.844369
-19.912 -10.5441 -1.23434
-19.8922 -10.4931 -1.50479
-19.7921 -10.7638 -0.865747
-18.3727 -11.1013 0.661955
-19 -10.8586 -2.29578
-17.9892 -11.5263 1.25114
-18.5027 -11.4647 -1.57564
-16.6837 -10.7052 1.55299
-16.5392 -10.7216 1.32726
-17.231 -12.0511 -0.641975
-17.1467 -12.0475 -0.838946
-17.0182 -12.2502 -0.359249
-16.938 -12.2425 -0.625421
-16.1386 -12.7018 -0.655166
-16.1658 -12.4268 -1.26722
-16.0941 -12.5254 -0.879548
-15.8621 -12.1168 -2.15884
-16.0548 -13.1073 -1.30069
-15.7918 -13.0762 -1.59538
-20.0291 -10.8548 -0.162568
-20.0637 -10.5236 -1.49478
-19.6416 -11.1905 0.0113376
-18.2799 -11.1163 0.444413
-18.2091 -11.7951 -0.218025
-17.4301 -11.4361 -2.25265
-15.8576 -12.9689 -1.53719
-19.2672 -11.0674 -1.2072
-18.3147 -10.9803 0.381769
-16.6037 -12.1397 -2.09761
-16.0516 -12.3006 -1.69213
-16.0658 -12.2611 -1.87277
-15.7463 -12.8038 -1.74926
-17.1131 -11.5269 -2.02015
-16.4354 -12.6205 0.400953
-20.0274 -11.091 0.172966
-18.2932 -11.2647 -0.148862
-18.0894 -11.6507 1.12684
-18.076 -11.4694 -2.09205
-17.2203 -11.456 -2.45099
-18.2816 -11.2248 0.436563
-17.1899 -12.1256 -0.0838808
-15.7514 -13.0803 -1.0015
-16.8311 -11.6294 -1.93428
-16.5135 -10.5985 1.41057
-20.2847 -10.8881 1.07702
-19.6676 -11.2129 0.327742
-19.6002 -11.1567 -0.0553201
-20.1763 -10.5314 -0.997103
-18.1803 -11.349 1.15095
-20.0473 -10.3978 -1.18456
-19.906 -10.7112 -1.22867
-19.1449 -11.5176 0.0545875
-19.81 -10.4394 -1.27337
-19.8474 -10.5347 -1.54578
-19.9377 -10.4386 -1.65656
-16.8975 -10.6293 1.50699
-19.6791 -10.6072 -1.75664
-18.0386 -11.2931 0.279389
-19.8935 -10.6086 -1.88808
-19.6932 -10.4597 -1.92224
-18.8584 -11.3137 -0.422797
-17.8768 -11.4917 0.394752
-19.1246 -11.1133 -1.06992
-19.4483 -10.8562 -1.70537
-19.0548 -11.0959 -1.20955
-18.1277 -11.7769 -0.0948138
-19.3493 -10.5243 -1.96756
-19.1815 -11.0487 -1.64096
-18.9005 -11.176 -1.36893
-17.453 -11.9 0.598773
-18.9063 -11.1177 -1.80431
-15.772 -10.9123 1.43791
-18.846 -11.0614 -1.77243
-15.839 -10.7307 1.28966
-18.9562 -11.0747 -2.0275
-18.9625 -10.9869 -2.18793
-18.3714 -11.4835 -1.63788
-18.7066 -11.2597 -2.09447
-17.2819 -11.7411 -0.0294413
-18.9627 -10.9815 -2.6065
-18.8935 -11.1798 -1.99576
-18.3959 -11.2219 -1.74133
-18.6997 -11.1313 -2.18099
-18.4091 -11.4928 -1.36313
-18.7066 -11.0704 -2.27049
-17.7986 -11.7787 -1.11498
-17.3013 -11.8477 -0.253363
-17.7612 -11.9718 -0.94818
-18.9415 -11.0379 -2.39561
-18.572 -11.1434 -2.23672
-16.9076 -12.1351 -0.683956
-18.3551 -11.2642 -2.51475
-16.2179 -12.4903 0.255538
-16.1833 -12.6008 0.24655
-16.1428 -12.6692 0.425591
-18.282 -11.3764 -2.60628
-18.2445 -11.3334 -2.57566
-17.8467 -11.5047 -2.93571
-17.8365 -11.2895 -3.04602
-17.2921 -11.4208 -2.20254
-16.7975 -11.4662 -2.53423
-19.2267 -11.7234 1.47914
-19.8573 -11.0361 0.252022
-19.7987 -11.0404 0.336724
-19.4091 -11.4676 0.553742
-19.4849 -11.4286 0.595704
-18.0446 -11.5606 1.55837
-19.6864 -11.2245 -0.347826
-18.3323 -11.1951 0.572715
-19.367 -10.8216 -0.86303
-19.4183 -10.8853 -0.812947
-19.0848 -11.2303 -0.532717
-19.6709 -10.5283 -1.89456
-18.1594 -11.4219 0.393913
-19.3597 -10.9829 -1.42134
-17.8949 -11.3964 0.486957
-19.0318 -11.2935 -1.12588
-18.9361 -11.4493 -0.90648
-19.0085 -11.5625 -0.913431
-19.0871 -11.2905 -0.920589
-19.1288 -10.5014 -1.7782
-19.4593 -10.5498 -1.68922
-19.0823 -11.2758 -1.19439
-18.9047 -11.3761 -1.22023
-19.4837 -10.8104 -1.83804
-19.5448 -10.7042 -1.96898
-19.1984 -10.9243 -1.83081
-19.5361 -10.58 -2.31673
-17.3717 -11.9721 0.515443
-17.227 -11.9217 0.46731
-16.1063 -10.8606 1.39209
-17.8358 -11.7935 -0.445747
-18.8547 -11.1973 -2.13421
-18.7213 -11.098 -1.86658
-18.93 -11.1335 -2.14384
-17.565 -11.8321 -0.691864
-16.7317 -12.2183 0.432602
-15.3317 -11.0791 1.53634
-17.5296 -11.6913 -1.10943
-15.6898 -11.1606 1.3405
-15.5678 -10.9252 1.32972
-17.1235 -11.9921 -0.422456
-17.0318 -11.9027 -0.814257
-17.0285 -12.1314 -0.692653
-17.0777 -12.0922 -0.867202
-18.0902 -11.5475 -2.34883
-17.395 -11.7458 -1.44003
-15.9038 -13.0749 -0.298878
-16.86 -11.3421 -2.53371
-15.6512 -12.945 -0.716752
-15.6738 -13.1099 -1.00247
-20.0247 -11.2787 0.923439
-19.348 -11.6473 1.35726
-20.1853 -10.8317 -0.363026
-18.5078 -11.2052 1.21453
-20.1922 -10.357 -1.12823
-20.2379 -10.2758 -1.13758
-19.7616 -10.7813 -0.928514
-18.2152 -11.366 1.14629
-18.3791 -11.2503 1.00268
-19.277 -11.3036 -0.00861247
-19.4981 -11.1111 -0.568941
-19.584 -11.1084 -0.477951
-19.0128 -11.1741 0.0990385
-20.1123 -10.2921 -1.35813
-19.617 -10.7812 -1.13216
-19.2193 -11.129 -0.884135
-19.5067 -10.8144 -1.58558
-19.0485 -11.2479 -0.92573
-18.9457 -11.2847 -0.734051
-19.6433 -10.6615 -1.88915
-19.4786 -10.5142 -2.03099
-19.4945 -10.665 -1.99015
-19.4419 -10.9025 -1.83197
-18.3216 -11.5 -0.472922
-19.3581 -10.5573 -1.90651
-19.0765 -10.895 -1.77571
-19.1032 -11.1197 -1.5988
-18.7616 -11.194 -1.38522
-18.0999 -11.3662 -0.942956
-15.9589 -10.7083 1.27302
-17.7825 -11.8599 -0.830416
-15.6451 -10.9671 1.38627
-17.6223 -11.7144 -0.898006
-16.5461 -12.1501 -0.336202
-18.2159 -11.1086 -2.47201
-16.5702 -12.0735 -0.719345
-16.2274 -12.4858 -0.260905
-16.0378 -12.8251 -0.459742
-16.8866 -11.4676 -2.01304
-15.8791 -12.6192 -0.971498
-15.8476 -12.5288 -1.0952
-15.9843 -12.5192 -1.19164
-15.9043 -12.0763 -2.5862
-15.8702 -12.2459 -2.22642
-15.6962 -12.7658 -2.12175
-18.3994 -11.1804 1.59141
-18.4106 -11.0944 1.10211
-18.1896 -11.5246 1.29662
-18.4365 -11.2826 0.991435
-19.0827 -11.4187 0.104645
-19.8016 -10.5503 -1.34481
-18.0188 -11.8798 1.31286
-19.6445 -10.489 -2.03326
-18.9812 -11.25 -1.12301
-17.3071 -11.7128 0.296546
-15.5474 -10.9765 1.58917
-18.7007 -11.1678 -2.58583
-17.0067 -12.184 -0.691677
-15.2135 -11.3626 1.14683
-17.0574 -12.0302 -1.07806
-17.2233 -11.9002 -1.23786
-16.1923 -12.6016 -0.789886
-15.9664 -12.9131 -0.713112
-16.2369 -12.5122 -1.14983
-16.1629 -12.5181 -1.32061
-19.6098 -11.3972 0.953894
-19.694 -11.0783 -0.268518
-19.1495 -11.4731 0.221265
-19.9426 -10.6723 -0.834023
-19.3843 -11.3122 -0.202271
-16.4302 -10.7004 1.70235
-18.161 -10.9673 -0.757127
-15.9512 -10.8833 1.18509
-17.262 -11.9954 0.104547
-17.8023 -11.8825 -0.481047
-17.151 -11.9664 0.295312
-16.9375 -12.0276 0.435106
-16.8011 -12.125 0.466863
-16.8677 -12.1265 0.279045
-18.6904 -11.0937 -2.18924
-17.6763 -11.8552 -1.00745
-18.4631 -11.1985 -2.19242
-17.5348 -11.7423 -0.8601
-18.584 -11.0199 -2.40273
-17.3496 -12.0866 -0.672875
-17.0828 -12.1454 -0.900545
-17.5713 -11.1094 -2.07053
-17.0469 -11.1665 -2.38956
-16.2306 -11.8756 -2.7012
-16.0648 -11.8518 -2.50379
-16.0184 -12.1147 -2.65886
-15.3591 -12.5442 -2.4751
-18.9115 -11.3182 -0.936215
-17.4884 -11.8378 0.376263
-17.3547 -11.8929 0.33502
-18.0485 -11.6619 -0.529251
-17.557 -11.857 -0.843027
-17.172 -12.1287 -0.132747
-18.505 -11.0653 -2.49251
-17.0921 -12.1035 -0.329449
-17.3117 -12.1597 -0.710466
-16.4985 -12.6209 0.349959
-16.1516 -12.7191 -0.642634
-16.278 -11.8083 -2.7974
-19.5783 -10.9041 -1.00157
-17.8462 -11.2831 0.430352
-17.3658 -11.7958 0.0720125
-17.2846 -12.2636 -0.402587
-16.4739 -12.5352 0.236686
-17.205 -11.277 -2.34256
-16.8396 -12.0061 -1.99491
-18.6685 -11.1233 1.26605
-19.699 -10.8726 -0.944335
-18.1527 -11.5213 0.987104
-18.4438 -10.8889 -0.769432
-17.3228 -11.9709 -0.542267
-16.9324 -11.9467 -0.915812
-17.507 -11.3246 -2.38217
-16.5084 -11.8499 -1.45291
-15.2738 -12.853 -2.51976
-17.0076 -12.1228 -0.491327
-17.0663 -12.1748 -0.249431
-16.1005 -12.6583 -0.993061
-17.0921 -12.0658 -0.516204
-17.0182 -11.5322 -2.20573
-16.0163 -12.2277 -2.14001
-16.4935 -10.6653 1.73107
-16.983 -11.6349 -1.85412
-20.0985 -11.1271 1.06378
-19.9713 -11.1951 1.13456
-20.2539 -10.9395 0.75861
-20.0352 -11.2703 0.585414
-19.4342 -11.4734 1.01427
-19.5073 -11.5451 1.01436
-19.7752 -11.1694 0.515937
-16.2965 -10.6458 1.61448
-19.5161 -11.1943 0.450831
-18.3286 -11.4991 1.04622
-19.6993 -11.0035 0.248324
-20.0137 -10.8556 -0.293475
-19.1324 -11.5447 0.47194
-18.36 -11.1562 0.657255
-19.5358 -11.3075 -0.106194
-18.1247 -11.266 0.456672
-17.8433 -11.5658 0.527991
-19.6301 -10.9379 -0.647014
-19.2059 -11.2478 -0.509766
-19.5155 -11.0798 -0.575275
-17.4248 -11.7238 0.526038
-19.9981 -10.6111 -0.634787
-19.9742 -10.4402 -0.849617
-19.819 -10.6745 -0.79985
-19.4963 -11.1577 -0.651821
-20.0597 -10.7147 -1.09426
-19.2316 -11.3688 -0.938679
-19.8957 -10.6857 -1.23072
-19.0753 -11.2636 -1.1079
-19.2287 -11.0861 -1.0291
-18.9623 -11.5127 -0.778863
-18.9418 -11.4428 -0.819412
-19.1183 -11.295 -0.943546
-17.2518 -12.1698 -0.176135
-19.2324 -10.7269 -1.64995
-17.9585 -11.7083 -0.96844
-18.5781 -11.3648 -1.33064
-18.481 -11.3662 -1.23629
-19.8478 -10.3386 -2.14357
-19.2501 -10.8004 -1.89282
-16.5737 -12.0907 -0.475673
-19.2984 -10.6977 -2.13716
-16.594 -12.0824 -0.719104
-19.1736 -10.7314 -2.18157
-19.7666 -10.4775 -2.23155
-19.1355 -10.6892 -2.11184
-19.3144 -10.7243 -2.10975
-19.3079 -10.7094 -2.15478
-19.4369 -10.6746 -2.20945
-18.5838 -11.083 -1.85708
-18.9342 -11.227 -2.13613
-18.9196 -11.1249 -1.95407
-18.9 -10.8854 -2.09835
-18.7674 -11.018 -2.21046
-18.997 -10.9387 -2.24744
-18.7885 -10.9771 -2.11893
-18.8109 -11.0773 -2.0576
-16.1302 -12.7065 -0.968408
-18.7668 -11.2238 -2.43742
-18.9396 -10.8444 -2.39054
-18.4621 -11.2343 -2.47578
-18.4355 -10.9994 -2.50421
-16.5735 -12.0012 -1.87642
-16.1084 -12.2037 -2.09081
-19.852 -11.3677 1.23885
-19.6103 -11.4834 1.45114
-20.2102 -10.8791 0.525172
-19.7984 -11.2731 0.26712
-20.104 -10.7615 0.172509
-19.8062 -10.847 0.191606
-19.3332 -11.4624 0.444992
-16.6399 -10.6124 1.27666
-19.9469 -10.8417 -0.256304
-19.6135 -10.8031 -0.43814
-17.7412 -11.5321 0.739083
-18.1393 -11.2414 0.497331
-19.4243 -11.0419 -0.37625
-19.547 -11.0535 -0.40502
-17.901 -11.5068 0.484668
-19.9092 -10.9854 -0.559292
-19.6987 -10.9311 -0.497133
-19.7038 -10.8963 -0.655048
-19.3946 -11.2005 -0.601011
-19.9763 -10.6385 -0.751335
-19.8443 -10.5774 -0.867647
-19.6414 -10.7909 -0.766561
-19.5535 -10.9907 -0.555449
-20.0792 -10.4869 -0.998495
-18.1947 -11.4933 -0.140979
-19.9642 -10.4396 -1.16423
-19.7397 -10.697 -1.08959
-19.5707 -11.1752 -0.859815
-19.674 -11.1661 -0.75565
-16.6441 -12.4036 0.273375
-19.0962 -11.4225 -0.650486
-19.6412 -10.7665 -1.30289
-19.8968 -10.492 -1.44246
-19.8417 -10.3107 -1.31171
-20.0028 -10.5118 -1.51711
-20.2063 -10.2533 -1.3694
-20.0552 -10.3786 -1.34005
-19.8945 -10.4103 -1.31538
-18.0105 -11.7768 -0.389029
-17.9273 -11.7646 -0.597896
-18.8698 -11.3445 -1.05638
-18.3646 -11.0455 -0.664835
-19.938 -10.5019 -1.64787
-19.1578 -11.0293 -1.3802
-17.2638 -12.2557 -0.131625
-20.0577 -10.3178 -1.94266
-18.8829 -11.2364 -1.43701
-16.9546 -12.2506 -0.476932
-18.613 -11.2144 -1.38046
-19.1787 -10.9282 -1.77636
-16.6055 -12.1133 -0.206735
-18.8431 -11.2498 -1.6383
-16.9722 -12.0775 -0.606578
-19.7864 -10.2579 -2.19454
-19.7215 -10.409 -2.06498
-18.413 -11.4397 -1.41327
-16.5025 -12.3169 -0.642132
-19.2276 -10.7327 -2.17512
-17.1039 -12.0246 -0.94209
-17.1857 -11.8931 -1.06035
-18.7879 -11.0923 -1.99073
-18.6987 -11.391 -1.75438
-18.961 -10.8592 -2.21882
-16.1079 -12.7217 -0.869179
-17.5434 -11.5261 -1.60641
-18.5002 -11.264 -2.19352
-16.1814 -12.7814 -1.17767
-16.8484 -11.9936 -1.39658
-18.7745 -10.8885 -2.65358
-15.6006 -12.9472 -1.15048
-18.5122 -11.0006 -2.59423
-16.805 -11.8985 -2.00064
-18.1107 -11.3343 -2.62779
-16.9994 -11.4735 -2.16451
-16.4184 -11.837 -2.01014
-16.1143 -12.0029 -2.16375
-15.9047 -11.8909 -2.66068
-15.5151 -12.0787 -3.04901
-19.3977 -11.7638 0.725843
-18.3074 -11.3044 1.27571
-18.2785 -11.6466 1.15957
-19.9915 -10.8363 0.00470403
-19.7785 -10.8736 0.0694648
-19.4754 -11.0994 -0.0447856
-19.4188 -11.3063 -0.151988
-19.0911 -11.4889 -0.0426123
-16.0118 -10.759 1.32552
-15.6707 -11.3029 1.43384
-19.7981 -10.8451 -0.714999
-19.6915 -10.7922 -0.998919
-19.2286 -11.1622 -0.739823
-17.9358 -11.8298 -0.443109
-16.3171 -12.785 0.364602
-19.0171 -11.4097 -1.16943
-19.8951 -10.5449 -1.50646
-20.0588 -10.4591 -1.72453
-18.696 -11.3624 -1.51001
-19.9461 -10.3258 -2.08476
-19.3541 -10.9444 -2.42962
-17.5041 -11.8678 -1.50176
-17.0898 -11.5224 -1.16069
-16.0678 -12.7581 -0.839828
-16.0246 -12.7916 -1.04119
-16.2931 -11.9544 -2.58348
-15.3035 -12.6141 -2.23986
-15.8338 -11.9879 -2.49204
-14.9661 -13.3463 -3.72056
-19.9572 -11.0003 1.15811
-19.7779 -11.3516 0.997726
-19.3601 -11.5308 1.24248
-19.9872 -11.1802 0.572036
-18.4397 -11.4277 1.13497
-19.5899 -11.4008 0.370291
-19.7988 -11.1157 0.303327
-16.1626 -11.0222 1.61069
-16.4787 -10.6603 1.34289
-19.4645 -11.281 0.0061571
-19.9142 -10.564 -1.00446
-17.3057 -11.7973 0.268552
-16.5344 -12.3903 0.433405
-17.3792 -12.1083 -0.52971
-17.0122 -12.2095 -0.378213
-17.6774 -11.7699 -1.07635
-18.6062 -11.5445 -1.50765
-19.4472 -10.758 -2.30991
-18.8427 -10.8985 -2.25572
-16.581 -12.1358 -1.42951
-15.7843 -12.1143 -2.16426
-15.1395 -13.474 -2.91381
-20.1014 -10.9963 0.672722
-19.1333 -11.394 0.21661
-17.825 -11.392 0.787698
-18.4973 -11.531 -0.245229
-19.2804 -11.1329 -0.450106
-18.9676 -11.3638 -0.26459
-19.3069 -11.1445 -0.797522
-19.0951 -11.3073 -0.960736
-19.1446 -11.3295 -0.798333
-19.5847 -10.7176 -1.28064
-17.6645 -12.2583 -0.132313
-18.9644 -11.0341 -0.961893
-19.6268 -10.5472 -1.36067
-17.8818 -11.7977 -0.771241
-17.1711 -12.0705 -0.774356
-17.1706 -11.7951 -0.707168
-16.0455 -12.5837 -0.692109
-19.0333 -10.8657 -2.22412
-16.3917 -12.3664 -1.00293
-16.0852 -12.5622 -0.930615
-18.7657 -11.1627 -2.43696
-17.8548 -11.0481 -1.96061
-17.9797 -11.0429 -2.21611
-16.2649 -12.5422 -1.79996
-16.6705 -11.4881 -2.48185
-18.214 -11.3144 1.09953
-18.4209 -11.137 0.510053
-19.1185 -11.3997 0.0547443
-19.6152 -11.2491 -0.216627
-19.4969 -10.9797 -0.448294
-19.0153 -11.5068 -0.907084
-16.8929 -12.2444 0.109094
-16.3671 -12.3253 0.210522
-17.271 -11.739 -1.17582
-15.6536 -13.0835 -1.49444
-19.708 -10.803 -0.179958
-15.7577 -10.9991 1.34842
-17.5246 -11.9074 0.435071
-17.4095 -11.8926 0.574201
-18.8214 -11.3441 -0.673557
-16.2847 -12.4506 0.163496
-18.1714 -11.2662 -0.878929
-16.4845 -12.3409 -0.871421
-18.3841 -11.3285 1.0965
-18.123 -11.4411 0.749159
-17.8036 -11.38 -1.55871
-16.7186 -12.1544 -1.48475
-17.1208 -11.3106 -2.20803
-16.2428 -12.4621 0.390896
-17.0989 -12.1803 -0.278956
-17.2145 -12.1554 -0.406409
-15.3644 -12.5967 -2.37248
-15.4091 -12.7811 -2.24298
-19.3998 -11.528 0.687012
-15.7053 -11.1585 1.29232
-18.7936 -11.3126 -1.03623
-16.3355 -11.9552 -2.18583
-15.6053 -12.2679 -3.04637
-16.7388 -10.4907 2.12543
-18.0793 -11.445 1.70285
-18.1983 -11.8059 1.63978
-19.2082 -11.7099 1.55056
-19.3376 -11.6384 1.39204
-20.0123 -11.2924 1.33128
-19.9838 -11.3509 1.22671
-19.9317 -11.2006 1.09404
-18.0912 -11.4645 1.175
-20.0096 -10.9863 0.947982
-19.5565 -11.5733 0.892821
-19.7297 -11.1376 0.821743
-19.5988 -11.4097 0.986644
-20.2081 -11.1149 0.772549
-20.1858 -11.1832 0.735122
-19.6646 -11.1539 0.445273
-19.6566 -11.4764 0.517825
-17.8916 -11.4309 0.605037
-20.1651 -10.9223 0.648247
-20.1438 -10.8208 0.401479
-17.6453 -11.8197 0.634013
-19.6528 -11.0132 0.419952
-19.6496 -11.4375 0.308405
-19.7927 -11.3538 0.501429
-20.0603 -10.9966 0.341117
-19.5639 -11.2039 0.323192
-19.3297 -11.561 0.288418
-15.97 -12.529 0.376407
-19.1322 -11.3257 0.411694
-20.2157 -10.6146 0.473109
-18.1355 -11.3679 0.471722
-18.1847 -11.2907 0.361342
-19.6696 -11.0076 0.186245
-19.7121 -11.3128 -0.058869
-16.9419 -12.2244 -0.0283589
-19.7157 -10.9834 0.122631
-19.6622 -11.2995 -0.0280487
-20.1281 -10.7099 0.264188
-19.6972 -11.1126 0.239582
-19.2723 -11.4822 0.0898504
-19.591 -11.0342 0.175978
-19.3778 -11.0448 0.142931
-20.041 -10.9115 -0.0903193
-18.2524 -11.4638 -0.169963
-19.0013 -11.7609 -0.102849
-20.0543 -10.7644 -0.399131
-20.0871 -10.8004 -0.335365
-19.7596 -10.7982 -0.347651
-19.7253 -11.0723 -0.210294
-19.7706 -10.9277 -0.380702
-18.3624 -11.6395 -0.416848
-19.4507 -11.0605 -0.530121
-19.5534 -11.0056 -0.52905
-19.5747 -11.1331 -0.540909
-16.3454 -12.0525 -0.605683
-16.6864 -12.1457 -0.482982
-17.8708 -11.6183 -0.308042
-17.7159 -11.8128 -0.543124
-19.6343 -10.8561 -0.579063
-16.6026 -12.1299 -0.534305
-18.8652 -11.4222 -0.742491
-16.5921 -12.4794 -0.770543
-19.7577 -11.0624 -0.676903
-19.6887 -10.9545 -0.766714
-19.5636 -11.125 -0.615864
-17.6716 -11.8779 -0.633353
-19.3144 -11.251 -0.764242
-18.9302 -11.4645 -0.758403
-16.769 -12.392 -0.707435
-16.0149 -12.5641 -0.966714
-19.0517 -11.1831 -0.930076
-18.9896 -11.2781 -1.01503
-19.8669 -10.6823 -1.04104
-19.9185 -10.7171 -0.964026
-19.9689 -10.5545 -0.894183
-19.4658 -11.0282 -1.05979
-19.495 -11.0792 -1.12063
-19.5015 -10.8443 -1.03994
-15.9248 -12.7039 -1.33378
-19.2548 -11.2304 -1.03854
-19.6261 -10.8824 -1.06934
-17.1502 -11.9591 -1.21595
-19.0459 -11.1437 -1.2576
-19.8536 -10.633 -1.1485
-19.0735 -11.0918 -1.17639
-19.0596 -11.2245 -0.890887
-20.2301 -10.6004 -1.01286
-18.6797 -11.4906 -1.38605
-18.5441 -11.3111 -1.23897
-18.5343 -11.3953 -1.37064
-18.692 -11.2552 -1.27984
-19.0736 -11.1099 -1.31474
-18.3679 -11.6722 -1.33502
-18.8098 -11.2804 -1.41655
-19.3434 -11.0628 -1.27489
-18.6109 -11.4184 -1.35078
-18.6453 -11.3505 -1.46025
-18.508 -11.3241 -1.49606
-20.0589 -10.3877 -1.19108
-19.2465 -10.9844 -1.56947
-19.1825 -11.0483 -1.57019
-20.1262 -10.3538 -1.43005
-18.3477 -11.4266 -1.71991
-20.1176 -10.4326 -1.49266
-19.1217 -10.9705 -1.7334
-19.1453 -11.0608 -1.48128
-19.0899 -10.8713 -1.5357
-19.9659 -10.6464 -1.46936
-19.1545 -11.013 -1.5268
-19.7843 -10.5886 -1.88064
-19.6804 -10.5762 -1.67508
-19.7717 -10.5503 -1.72091
-19.889 -10.4427 -1.58783
-18.673 -11.1709 -1.99474
-18.7307 -11.3622 -1.75856
-18.3116 -11.5186 -2.00427
-18.4406 -11.1551 -2.033
-18.9744 -11.0513 -1.74285
-18.9484 -10.9474 -2.02123
-18.9671 -10.9682 -1.87398
-18.967 -11.013 -2.09794
-19.7304 -10.3347 -1.80319
-18.364 -11.2614 -2.1117
-20.0114 -10.4333 -1.77224
-20.0862 -10.1904 -1.96824
-20.1283 -10.1613 -2.00841
-19.0927 -11.0521 -1.95321
-19.0855 -10.8805 -1.95543
-18.4082 -11.3215 -2.21952
-18.2095 -11.5345 -2.21781
-18.8738 -11.0954 -2.18733
-19.4424 -10.8207 -2.21515
-19.078 -10.7897 -2.0809
-19.998 -10.2827 -2.0882
-19.5889 -10.4043 -2.06752
-19.52 -10.6424 -2.20761
-18.9332 -10.921 -2.34809
-19.8009 -10.3939 -2.14964
-19.593 -10.4287 -2.29026
-19.8596 -10.2651 -1.99357
-16.8758 -11.5093 -2.36624
-17.0515 -11.4352 -2.34735
-17.0125 -11.546 -2.12762
-18.3587 -11.2736 -2.63657
-18.4187 -11.2445 -2.74617
-18.6084 -10.8988 -2.59524
-18.8401 -10.8788 -2.65047
-18.4224 -11.19 -2.73298
-19.0682 -10.9467 -2.63226
-16.4503 -11.7061 -2.75748
-16.7096 -11.3189 -2.68653
-17.8776 -11.4834 -2.94061
-15.4369 -10.962 2.03587
-19.6117 -11.5248 1.13376
-20.2977 -10.9734 1.24224
-19.9768 -11.4251 1.169
-19.7166 -11.6105 0.967748
-15.2091 -11.4882 1.10491
-20.1881 -11.0784 0.664421
-18.2029 -11.3254 0.670891
-19.9418 -11.1339 0.515542
-19.7547 -10.9907 0.376598
-16.1493 -12.7457 0.389365
-18.8713 -11.596 0.460369
-16.851 -12.2388 0.306589
-19.6034 -11.1703 0.0421681
-19.4036 -11.1791 -0.0238896
-19.5737 -11.3082 -0.018256
-19.3588 -11.2571 -0.199631
-19.2264 -11.2713 -0.219548
-19.2841 -11.259 -0.154099
-20.2773 -10.6595 -0.150069
-16.832 -12.3004 -0.27774
-19.3649 -10.8905 -0.209511
-16.0333 -12.579 -0.438562
-18.8567 -11.4136 -0.502162
-19.3647 -11.0596 -0.415275
-17.4858 -11.8802 -0.619735
-16.631 -12.2404 -0.434057
-17.208 -11.964 -0.401171
-17.0813 -12.035 -0.833048
-18.6789 -11.3056 -0.831922
-18.98 -11.2687 -0.883724
-19.036 -11.1941 -0.960405
-19.0285 -11.2281 -1.10616
-17.9073 -11.531 -1.20311
-18.9999 -10.9684 -1.43814
-18.9376 -11.1462 -1.68484
-16.3353 -12.3289 -1.8356
-19.7676 -10.3509 -1.65096
-16.6111 -11.9512 -2.00527
-19.5671 -10.7043 -1.68332
-18.6651 -11.099 -2.11551
-18.301 -11.5261 -2.07204
-18.5836 -11.0187 -2.1977
-18.2184 -11.2755 -2.30579
-19.647 -10.5736 -2.21185
-15.9354 -12.0612 -2.2619
-18.7353 -11.1877 -2.32182
-19.5727 -10.7145 -2.26437
-16.8082 -11.4595 -2.2866
-18.5545 -11.0179 -2.53475
-19.0807 -10.9382 -2.38718
-17.9547 -11.4618 -2.82658
-17.9076 -11.487 -2.89698
-15.6978 -11.8935 -2.80371
-16.5061 -10.4485 1.40868
-16.6128 -10.5972 1.67652
-16.192 -10.8342 1.36133
-17.8822 -11.4949 1.30795
-20.0777 -10.9764 0.694988
-19.9187 -11.2645 0.774309
-16.4257 -12.4503 0.21053
-19.5607 -11.2418 0.250586
-16.9614 -12.1673 0.323522
-19.1828 -11.6225 -0.13317
-18.9121 -11.6544 0.0125639
-19.5558 -11.242 -0.14977
-18.0893 -11.802 -0.339034
-19.1161 -11.4281 -0.106158
-19.4294 -11.2439 -0.291222
-19.9012 -10.8018 -0.183714
-16.3003 -12.4827 -0.178243
-16.7895 -12.2525 -0.33671
-16.8108 -12.2303 -0.486962
-19.379 -11.4124 -0.656743
-18.9996 -11.2945 -0.483142
-18.7782 -11.5634 -0.578287
-18.9392 -11.4442 -0.683054
-19.3976 -10.9612 -0.699628
-17.1064 -12.2176 -0.668722
-16.2075 -12.5878 -0.690519
-19.1384 -11.219 -0.557215
-18.4472 -10.9678 -1.0014
-17.5296 -11.9265 -1.23924
-19.4185 -10.8763 -1.13297
-19.2873 -11.0459 -1.38846
-17.5546 -11.8448 -1.4189
-18.5466 -11.52 -1.72109
-18.2568 -11.6006 -1.72544
-19.6721 -10.4954 -1.90897
-18.8605 -11.1985 -2.0465
-17.5843 -11.363 -1.86797
-18.9801 -11.1798 -2.26598
-18.8379 -11.0837 -2.03749
-18.6347 -11.1716 -2.07526
-17.4187 -11.2839 -2.29922
-15.0534 -13.0783 -3.09713
-19.0268 -11.7451 1.49334
-16.6715 -10.5412 1.30676
-17.8221 -11.5947 1.36268
-17.9315 -11.5849 0.550407
-18.1202 -11.042 0.294247
-19.2604 -11.5553 0.321859
-19.2267 -11.3758 0.211313
-19.8661 -11.1056 0.0275639
-19.528 -11.2814 -0.0936579
-17.4215 -12.0279 -0.111162
-17.382 -11.8358 -0.0334791
-20.0919 -10.8255 0.0116715
-17.4919 -12.098 -0.436023
-19.255 -11.2338 -0.427982
-17.6236 -11.9098 -0.700025
-17.1311 -11.9413 -0.862533
-18.9813 -11.1715 -0.923461
-18.8598 -11.5036 -1.01592
-18.8844 -11.4123 -1.06929
-18.7926 -11.2559 -1.17583
-17.2953 -11.7769 -1.09501
-15.9896 -12.5954 -1.25512
-17.6515 -11.5937 -1.46346
-17.2984 -11.7108 -1.46646
-16.2744 -12.3527 -1.46373
-16.2889 -12.2017 -1.68474
-17.5759 -11.4132 -1.48892
-18.3432 -11.3971 -2.01393
-17.5454 -11.3621 -2.09958
-18.2716 -11.5639 -2.22197
-16.8849 -11.5575 -2.18878
-18.7154 -11.0702 -2.21209
-17.3507 -11.3603 -2.24741
-16.8039 -11.4776 -2.53059
-15.6335 -12.0831 -2.87539
-19.5109 -11.4895 1.45207
-19.0923 -11.427 0.27665
-18.98 -11.6204 0.380062
-16.3364 -12.3304 0.367634
-19.3344 -11.656 0.400835
-18.2258 -11.2368 0.440105
-19.0597 -11.5123 0.302284
-19.1552 -11.36 0.0668163
-19.0875 -11.3726 -0.0584113
-17.4123 -12.0271 -0.0855263
-18.5803 -11.2189 -0.0181538
-17.58 -12.11 -0.10673
-19.4579 -11.3624 -0.38915
-17.7781 -11.5308 -0.576419
-19.0086 -11.5017 -0.660926
-19.6187 -11.1286 -0.960641
-19.394 -10.961 -0.965594
-19.8109 -10.8366 -1.17545
-16.5999 -12.2136 -1.56475
-17.7354 -11.5257 -1.91667
-20.0286 -10.3471 -1.83127
-18.7655 -11.2086 -2.32944
-18.5958 -11.2397 -2.41268
-16.9095 -11.5164 -2.13603
-16.8677 -11.4815 -2.27633
-17.3786 -11.2675 -2.35431
-17.1274 -11.3879 -2.5179
-15.7932 -12.2513 -2.73162
-15.08 -13.106 -3.10116
-16.3678 -11.7076 -2.83468
-18.9059 -10.7357 1.72259
-18.1464 -11.6275 1.54009
-18.546 -11.2734 1.4472
-18.4784 -11.1351 0.616335
-18.4435 -11.0998 0.288928
-17.1196 -12.1621 0.159201
-17.099 -12.0254 0.147194
-16.6837 -12.0725 -0.340228
-18.0561 -11.7475 -0.334817
-18.1314 -11.2068 -0.644847
-17.4179 -11.7379 -1.36281
-17.2951 -11.7252 -1.41009
-16.9665 -11.6104 -1.44711
-16.8058 -12.0133 -1.47176
-16.5441 -12.0414 -2.27485
-19.1593 -10.9613 -2.46102
-16.9651 -11.2863 -2.46046
-15.4375 -12.337 -2.97634
-15.3801 -12.0597 -2.92952
-15.6676 -11.9496 -3.0635
-17.0046 -11.9581 0.0774545
-17.1385 -12.167 -0.264418
-19.0865 -10.9335 -1.13733
-19.2551 -10.6494 -2.44867
-17.3407 -11.6002 -2.58267
-18.053 -11.5324 0.731066
-19.8027 -10.9976 0.316978
-18.2649 -11.4812 -1.46531
-16.4688 -12.0165 -2.1681
-15.4005 -13.0163 -2.24338
-17.7066 -11.3041 -1.9934
-17.2607 -11.9884 0.0578599
-17.9831 -11.787 -0.541838
-17.4505 -11.6909 0.236141
-17.7711 -11.6174 0.257891
-17.2687 -12.1797 -0.344899
-19.1194 -11.3998 -0.55353
-18.9583 -11.3599 -1.02849
-16.4258 -10.5895 1.5838
-19.3788 -11.3711 -0.110958
-18.6826 -11.4393 -0.0140103
-18.8694 -11.3125 -1.0282
-16.2083 -12.3444 -1.57718
-16.3772 -12.1763 -1.5533
-18.0792 -11.1663 -2.74949
-15.7547 -11.9441 -2.24865
-18.8683 -10.9437 -2.235
-18.8043 -11.1349 -2.37779
-19.4746 -10.5738 -1.8958
-19.5851 -10.5994 -1.93139
-19.638 -10.7181 -1.81853
-18.4396 -11.3413 -1.95504
-19.7116 -10.5124 -1.47451
-19.7975 -10.7184 -1.55269
-19.6806 -10.7391 -1.52748
-16.5898 -11.9783 -1.80185
-19.1297 -10.9139 -1.6081
-18.7914 -11.3804 -1.79898
-17.6054 -11.5786 -1.4842
-19.8058 -10.7028 -1.21134
-18.9571 -11.1763 -1.21582
-19.0412 -11.0482 -1.21841
-19.8061 -10.7902 -1.04854
-16.2272 -12.5239 -1.15193
-19.4846 -10.8936 -1.01661
-19.1389 -11.2789 -0.875343
-17.0863 -12.0935 -0.935841
-20.0036 -10.9974 -0.706039
-18.9606 -11.2237 -0.736646
-19.8417 -10.9393 -0.490082
-17.0925 -11.9015 -0.676142
-18.5024 -11.1347 -0.48183
-17.6549 -11.8683 -0.415016
-17.5663 -12.0078 -0.554376
-16.6259 -12.0845 -0.575288
-20.0109 -10.8615 -0.213816
-20.1511 -10.8621 -0.328038
-19.2476 -11.1687 -0.388323
-16.8555 -12.3169 -0.484515
-17.1392 -12.2098 -0.383567
-16.9994 -11.8987 -0.365093
-19.1254 -11.4112 -0.417325
-16.9905 -12.0659 -0.391012
-18.8257 -11.5562 -0.198507
-19.5485 -11.2493 -0.187045
-19.175 -11.4883 -0.224253
-20.0102 -10.9104 0.0624577
-19.5326 -11.2417 0.243016
-19.5588 -11.3297 0.239474
-17.0823 -12.1954 0.106539
-16.5208 -12.3706 0.197602
-19.1327 -11.6404 0.382274
-19.6629 -11.2636 0.390182
-19.6693 -10.9879 0.209732
-20.0091 -10.8768 0.452798
-16.7653 -12.2225 0.45031
-17.9216 -11.5552 0.429414
-18.2531 -11.2897 0.70157
-19.508 -11.456 0.635959
-19.222 -11.5827 0.583166
-20.0341 -11.3298 0.710513
-20.1611 -11.1682 0.711467
-19.3293 -11.4611 0.814816
-19.698 -11.2817 0.819763
-19.5198 -11.2314 0.763514
-19.8504 -11.289 0.980767
-20.0074 -11.4243 1.11418
-19.6421 -11.4535 0.850686
-18.5847 -11.246 1.15065
-15.1885 -11.2718 1.07848
-19.3636 -11.6459 1.14731
-20.0485 -11.2063 1.23784
-19.1551 -11.598 1.55572
-17.8806 -11.4369 1.69361
-15.2421 -11.102 1.9856
-15.9401 -11.9503 -2.83206
-17.3771 -11.4397 -2.32965
-19.7873 -10.6022 -2.11213
-18.6864 -11.008 -2.2336
-16.483 -11.9236 -2.02376
-18.2967 -11.4423 -1.62855
-18.932 -11.2948 -1.44214
-18.7073 -11.453 -1.281
-19.8105 -10.6331 -1.24079
-19.7273 -10.6369 -1.21787
-17.1563 -12.0327 -1.24589
-19.618 -10.7461 -0.852875
-19.1416 -11.109 -0.902111
-18.8677 -11.3897 -0.962932
-18.8384 -11.3572 -1.03636
-19.7192 -10.909 -0.793062
-19.0373 -11.492 -0.684833
-19.5885 -10.8809 -0.463079
-17.1457 -11.9584 -0.406464
-19.0512 -11.5437 0.373795
-19.6899 -11.2183 0.433398
-19.9495 -11.1254 0.556135
-18.1852 -11.1714 0.568325
-17.8263 -11.5207 0.564529
-18.2337 -11.459 0.599127
-17.869 -11.5384 0.534244
-19.971 -10.9556 0.688822
-19.7705 -11.27 0.733298
-19.3599 -11.5859 1.18374
-19.4416 -11.5222 1.11417
-15.5093 -11.0561 1.33623
-18.5383 -11.333 1.48115
-16.3424 -11.8021 -2.66448
-16.9779 -11.5605 -2.25208
-16.7206 -11.5602 -2.18642
-17.0099 -11.5504 -1.91795
-17.5569 -11.7229 -1.45965
-18.5795 -11.3049 -1.31947
-17.8957 -11.7188 -1.31891
-17.1045 -11.8414 -1.20391
-17.6478 -11.7205 -1.16081
-19.8881 -10.713 -0.821907
-19.0118 -11.192 -0.776698
-17.9263 -11.7236 -0.691123
-17.4189 -12.2024 -0.589708
-18.386 -11.3471 0.191656
-18.3243 -11.3853 -0.155
-19.1785 -11.3938 0.0986726
-18.0265 -11.4206 0.292974
-19.9029 -11.1194 0.458163
-19.711 -11.1631 0.147134
-19.2243 -11.5094 0.376084
-19.8731 -10.9735 0.484496
-19.9765 -11.1076 0.408658
-16.1256 -12.6924 0.315745
-19.7618 -11.2467 0.575172
-16.1726 -10.6463 1.21401
-19.0829 -11.7189 1.08043
-19.0551 -11.7546 1.4427
-18.276 -11.2874 1.4095
-15.3593 -11.4205 1.49737
-15.9466 -12.3403 -2.76441
-16.9487 -11.3314 -2.19728
-18.3166 -11.2887 -2.065
-19.5753 -10.8364 -0.85405
-17.2863 -12.4048 -0.21727
-19.3557 -11.3745 0.00672872
-19.4622 -11.5921 0.189198
-17.67 -11.4842 0.339662
-19.2933 -11.503 0.112498
-17.7466 -11.5595 0.41906
-19.2748 -11.5477 0.594153
-19.8313 -11.1857 0.720064
-16.0977 -10.8961 1.35668
-18.7811 -11.3101 -2.32303
-17.8898 -11.7044 -0.828264
-17.9384 -11.787 -0.642694
-17.1482 -12.0035 -0.0510638
-18.3773 -11.2341 0.890428
-17.2933 -11.3021 -2.39131
-18.5836 -11.2309 -1.85815
-19.0914 -11.1107 -1.28351
-16.8001 -12.2324 -0.340148
-16.8159 -12.0296 0.257795
-17.9859 -11.5593 1.34486
-17.2786 -11.7017 -1.42399
-16.7153 -12.0213 -1.47535
-16.7138 -12.2254 -1.40899
-19.2431 -10.9697 -0.841531
-19.4653 -11.1633 -0.71356
-19.3882 -11.2273 -0.244147
-19.0826 -11.3247 -0.103856
-16.5165 -12.1863 -1.79427
-17.2189 -12.1803 -0.840541
-17.0746 -11.9278 -0.43234
-17.1548 -11.9326 0.0147501
-16.4457 -12.2867 0.24455
-16.2848 -10.6807 1.15209
-19.2852 -11.2423 -0.157645
-16.3552 -12.5677 0.445553
-16.3234 -12.5399 -1.10598
-17.1296 -12.1699 -0.266827
-19.8233 -10.3428 -2.16075
-19.3249 -10.7634 -1.78374
-19.4413 -10.8557 -1.50817
-18.4032 -11.2931 -1.84805
-16.7663 -11.4732 -2.13612
-19.8719 -10.8131 -1.15838
-15.9307 -12.1688 -2.40039
-19.7922 -10.7434 -0.555083
-18.7943 -11.2217 -1.14459
-19.448 -10.9787 -0.545707
-20.1077 -10.6699 -0.137438
-18.8974 -11.1798 -0.859407
-20.1373 -10.8181 -0.248514
-19.7951 -10.8847 -0.302209
-19.4711 -11.1179 0.00398408
-17.8824 -11.9538 -0.812001
-19.6923 -11.2735 0.216231
-16.7412 -12.2858 -0.913667
-19.7728 -10.9155 0.396392
-17.5531 -11.8049 -0.592823
-19.4993 -11.4302 0.13881
-19.3672 -11.3238 0.149274
-19.8455 -11.2606 0.489211
-18.9283 -11.5214 0.267597
-20.0901 -10.8848 1.05021
-18.3387 -11.1625 0.340978
-20.1298 -10.9616 0.989828
-19.5767 -11.1825 0.709146
-16.9233 -12.327 -0.485568
-16.6667 -12.3049 -0.346608
-18.069 -11.2825 0.370876
-18.2026 -11.4747 0.408597
-19.6465 -11.4305 0.867921
-19.4432 -11.6613 1.16148
-18.4239 -11.3504 1.1634
-19.4689 -11.5105 1.47633
-19.4141 -11.5335 1.30014
-17.1395 -10.753 1.18496
-18.643 -11.1365 -2.275
-19.3496 -10.7571 -1.61892
-18.6758 -11.1876 -2.10023
-20.0177 -10.6515 -0.851839
-18.9613 -11.2489 -0.961806
-18.9388 -11.3495 -0.798427
-19.6687 -10.9942 -0.426448
-18.9639 -11.3463 -0.740709
-19.4899 -10.8194 -0.450171
-20.1108 -10.8284 -0.211425
-17.5979 -11.9073 -0.92033
-19.4373 -11.0859 -0.0574234
-19.5963 -11.211 -0.316526
-19.8045 -10.7362 0.459113
-19.5596 -11.0653 0.0908514
-19.9626 -11.1856 0.734562
-19.408 -11.4208 0.283693
-17.1102 -12.1881 -0.38945
-16.6059 -12.252 -0.373496
-18.154 -11.2473 0.560325
-15.8127 -13.1 -1.03959
-19.5156 -11.2774 1.00071
-16.1207 -10.781 1.21167
-18.677 -11.2916 -2.39914
-18.2465 -11.4622 -2.74214
-15.8215 -12.1454 -2.27289
-15.9427 -11.9883 -2.33048
-19.1782 -11.249 -1.11425
-19.8438 -10.9629 -0.0537006
-17.8608 -11.7455 -0.617983
-18.9318 -11.7696 -0.0980391
-18.9108 -11.4206 0.0318485
-17.2683 -11.9088 -0.367284
-19.2281 -11.6132 1.16998
-19.1918 -11.6508 1.3251
-18.2883 -11.4009 1.40726
-18.1495 -11.3903 -2.33463
-17.7046 -11.3291 -1.95644
-19.1747 -11.1217 -1.22502
-18.8664 -11.1947 -1.48846
-19.0615 -11.3161 -0.627911
-16.4986 -12.115 -1.46133
-19.9947 -10.9971 0.175182
-17.878 -11.9167 -0.645945
-20.2099 -11.0477 0.748746
-19.391 -11.4528 0.683199
-19.2891 -11.3886 0.440366
-16.6782 -12.1772 -0.354827
-19.3668 -11.4947 0.833247
-19.4541 -11.6598 0.809718
-17.0531 -12.3514 0.0441683
-16.9253 -12.2428 0.240367
-18.4948 -11.2456 1.42597
-16.104 -10.528 1.29854
-17.8225 -11.566 1.66611
-17.962 -11.5493 1.74136
-18.3406 -11.2083 -2.67464
-15.6186 -11.9273 -3.00195
-19.1733 -11.5829 1.33567
-16.2233 -12.6061 0.189582
-16.2687 -12.3783 0.340669
-18.3791 -11.1252 -0.859855
-17.3555 -11.9653 -0.11487
-17.3766 -11.9659 0.168536
-16.1295 -10.6159 1.344
-19.0336 -11.2978 -0.651845
-16.0533 -12.6373 -0.905038
-17.9577 -11.5774 1.46857
-18.9254 -11.2176 -0.626705
-17.4186 -11.3782 -2.0317
-15.7279 -12.0738 -2.72882
-18.6045 -11.0387 -2.38828
-18.9453 -11.4472 -0.680689
-19.1441 -11.3831 -0.0736486
-16.7344 -11.9232 -1.78677
-15.7711 -12.2911 -2.72843
-17.92 -11.426 0.439567
-19.0997 -11.897 1.03384
-18.9563 -11.7885 1.20071
-16.0453 -12.4966 -1.18589
-16.5929 -12.2738 -0.314455
-16.0013 -12.7155 0.106691
-19.9251 -10.8026 -1.03212
-19.7791 -10.562 -0.929379
-18.3804 -11.5129 -1.57683
-19.6578 -11.3905 -0.020708
-19.7478 -11.0319 0.213225
-19.1655 -11.4128 0.89012
-18.5436 -11.2014 0.816015
-19.2015 -11.7439 1.55164
-16.6575 -12.1866 -0.326296
-16.7473 -12.0412 0.521062
-19.9511 -10.4192 -1.31163
-18.5414 -11.1117 -2.26554
-17.9668 -11.2558 -2.58942
-16.2648 -12.2162 -1.96914
-14.7316 -13.3121 -3.7587
-17.1984 -12.0242 -0.945946
-19.2813 -11.7482 0.869075
-17.0815 -12.1873 -0.470829
-17.0626 -12.2144 0.021333
-15.9428 -13.2474 -0.880085
-20.2037 -10.4743 -1.16262
