-16.1949 -12.2504 -0.945222
-17.2351 -11.2968 -2.61449
-17.0881 -11.5499 -2.37253
-17.3072 -11.071 -2.93911
-15.3918 -13.1523 -0.262009
-16.3052 -11.9342 -1.74392
-16.7901 -11.6033 -2.61891
-15.3557 -13.0153 -0.595144
-15.6684 -12.5095 -1.15629
-16.8239 -11.3064 -3.13005
-14.9677 -13.5287 -0.50807
-16.6314 -11.4945 -2.97523
-15.5723 -12.3918 -1.44937
-16.4258 -11.7027 -2.83545
-15.599 -11.9028 -1.84608
-15.3166 -12.3508 -1.75736
-14.763 -12.6327 -1.48935
-14.3467 -12.6734 -2.02691
-13.8931 -12.6772 -2.05506
-18.927 -11.5071 -0.128096
-18.0544 -11.4355 0.624135
-18.0477 -11.4606 0.594504
-19.093 -10.8216 -1.17699
-18.9741 -10.819 -1.31616
-18.6153 -11.1957 -1.04869
-18.6122 -11.1791 -1.10385
-18.4326 -11.4634 -0.840797
-15.9959 -11.0282 1.55258
-15.7013 -11.4037 1.82122
-18.5006 -10.9525 -1.67854
-18.3057 -10.8961 -2.04576
-18.0286 -11.2914 -1.63811
-17.0717 -12.0676 -0.675481
-16.0153 -12.9086 0.714295
-17.7729 -11.3479 -1.89154
-18.152 -10.6541 -2.68457
-18.2316 -10.4853 -2.89983
-17.3329 -11.5581 -2.01592
-17.9962 -10.4995 -3.15612
-17.3545 -11.0617 -2.97955
-16.2937 -12.1278 -1.53825
-16.0604 -11.9502 -1.31987
-15.3694 -13.0986 -0.411097
-15.3316 -13.0961 -0.43926
-14.6271 -12.489 -2.05118
-14.0912 -13.2324 -1.39811
-14.3729 -12.7504 -1.78208
-13.133 -14.1514 -2.37683
-19.5061 -10.921 -0.424739
-19.3299 -11.1476 -0.256523
-19.012 -11.5475 0.128997
-19.2186 -10.9308 -0.834337
-18.0794 -11.3774 0.502185
-18.8892 -11.2121 -0.734287
-18.8594 -11.0779 -1.01144
-16.2167 -11.038 1.76357
-16.3579 -10.7517 1.30456
-18.518 -11.3169 -0.968009
-18.7068 -10.5121 -2.22884
-16.9596 -11.9973 0.251035
-16.4137 -12.5346 0.580201
-16.7111 -12.289 -0.685001
-16.4253 -12.4372 -0.324364
-16.7029 -12.0611 -1.14428
-17.1243 -11.7233 -1.98869
-17.5915 -10.8792 -2.99401
-17.1761 -11.2535 -2.83721
-15.4865 -12.6036 -1.1443
-14.6448 -12.6966 -1.53826
-13.6341 -14.0914 -1.92327
-19.4333 -10.8454 -0.686221
-18.5333 -11.4049 -0.756716
-17.4364 -11.5197 0.264727
-17.6899 -11.4446 -0.666182
-18.2569 -11.1971 -1.51168
-17.9774 -11.5298 -1.23262
-18.0881 -11.2703 -1.63491
-17.8273 -11.424 -1.65515
-17.8448 -11.396 -1.68209
-18.1872 -10.8215 -2.31578
-16.8961 -12.3449 -0.472688
-17.765 -11.3366 -1.83364
-18.0702 -10.7893 -2.47157
-16.9656 -11.9896 -0.910977
-16.3789 -12.3037 -0.659373
-16.3727 -12.245 -0.693282
-15.5315 -13.0237 -0.287881
-17.0964 -11.3223 -2.77851
-15.521 -12.9076 -0.520547
-15.3518 -13.0352 -0.474585
-16.7945 -11.49 -2.88293
-16.2606 -11.5431 -2.13332
-16.1629 -11.5079 -2.22697
-15.2223 -12.7967 -1.17107
-15.0568 -12.1089 -2.19385
-18.0564 -11.3079 0.411706
-17.8911 -11.2018 -0.0614103
-18.4132 -11.4693 -0.812331
-18.679 -11.0395 -1.33494
-18.4799 -11.0714 -1.43935
-17.8724 -11.4075 -1.65949
-16.5229 -12.349 0.201127
-16.0812 -12.7337 0.568221
-16.2028 -12.1396 -1.09975
-14.8664 -13.499 -0.670687
-18.6819 -10.9959 -1.33671
-15.7601 -11.3401 1.85163
-17.0094 -11.9885 0.256145
-17.0218 -11.941 0.211176
-17.9829 -11.4227 -1.42377
-16.033 -12.7586 0.57596
-17.0755 -11.3517 -1.3788
-15.6779 -12.7591 -0.576562
-18.1144 -11.2309 0.318905
-17.8286 -11.5033 0.446519
-16.3789 -11.7744 -1.74535
-15.5913 -12.5673 -1.1088
-15.6202 -11.8556 -2.19116
-16.0491 -12.7379 0.755182
-16.5136 -12.3991 -0.338453
-16.5167 -12.3052 -0.445415
-14.2693 -13.3297 -1.36969
-14.235 -13.2881 -1.38722
-18.8925 -11.374 -0.422037
-15.8128 -11.3237 1.82909
-17.7297 -11.3653 -1.76365
-15.0921 -12.4503 -1.71649
-14.1049 -12.8 -2.14759
-16.9112 -10.603 1.88534
-18.0374 -11.4432 1.10666
-18.0702 -11.567 1.06036
-19.026 -11.5347 0.392247
-19.0762 -11.5031 0.317229
-19.4854 -11.2126 0.0343288
-19.5418 -11.0723 -0.188655
-19.5299 -11.0524 -0.21286
-17.8799 -11.4739 0.479209
-19.6163 -10.7893 -0.542965
-19.1418 -11.2869 -0.319982
-19.2237 -11.1225 -0.402647
-19.0534 -11.3344 -0.300299
-19.4581 -10.8665 -0.649376
-19.3116 -10.9743 -0.662495
-19.1223 -11.0892 -0.624693
-18.8762 -11.3555 -0.518309
-17.4657 -11.5961 0.144425
-19.3867 -10.7783 -0.87628
-19.379 -10.7755 -0.911476
-17.2619 -11.7837 0.193271
-19.1213 -10.9768 -0.810222
-18.8466 -11.2874 -0.69766
-19.1277 -10.9951 -0.811373
-19.2699 -10.8437 -0.918948
-18.8897 -11.1771 -0.754964
-18.5879 -11.5015 -0.631521
-15.8484 -12.9882 0.759038
-18.48 -11.5259 -0.581809
-19.3847 -10.6798 -1.02361
-17.6263 -11.3549 -0.130281
-17.6298 -11.3259 -0.167887
-18.9356 -10.9833 -1.0264
-18.8275 -11.1152 -1.00456
-16.5443 -12.3606 0.146356
-18.8838 -11.0341 -1.04759
-18.8952 -11.0468 -1.07398
-19.2713 -10.6514 -1.2378
-18.8836 -11.0401 -1.05788
-18.5373 -11.3567 -0.930437
-18.701 -11.1508 -1.02916
-18.7127 -11.0651 -1.12858
-19.0667 -10.7686 -1.37286
-17.5732 -11.5019 -0.664931
-18.0842 -11.6422 -0.98354
-18.9744 -10.7186 -1.57462
-18.9848 -10.6971 -1.58583
-18.8023 -10.8282 -1.51884
-18.607 -11.0374 -1.42562
-18.6702 -10.9483 -1.48601
-17.5164 -11.6159 -0.926011
-18.4414 -11.0993 -1.47969
-18.5132 -10.9827 -1.60451
-18.5301 -10.9802 -1.61609
-15.8558 -12.4969 -0.278977
-15.9404 -12.4884 -0.315843
-16.8599 -12.0027 -0.776535
-16.8496 -12.0124 -0.802109
-18.5504 -10.9124 -1.67064
-15.9144 -12.4981 -0.334782
-17.7934 -11.595 -1.36543
-15.9609 -12.7128 -0.499707
-18.4982 -10.9614 -1.74197
-18.4252 -10.9879 -1.7389
-18.3994 -11.0193 -1.71226
-16.8386 -12.0466 -0.969894
-18.186 -11.19 -1.66372
-17.8643 -11.4865 -1.53054
-15.9245 -12.665 -0.576433
-15.3626 -13.039 -0.456684
-17.9278 -11.3101 -1.7128
-17.8451 -11.3689 -1.72385
-18.492 -10.7652 -2.07774
-18.5042 -10.7411 -2.10806
-18.545 -10.6758 -2.13701
-18.1492 -11.0369 -1.99903
-18.1654 -11.0268 -2.0156
-18.2638 -10.8969 -2.06724
-15.1596 -13.0941 -0.644067
-17.89 -11.2493 -1.93606
-18.2864 -10.8753 -2.10867
-16.1392 -12.1885 -1.10621
-17.7326 -11.3075 -1.95724
-18.3281 -10.7596 -2.24133
-17.7102 -11.2954 -1.98847
-17.6323 -11.3843 -1.94921
-18.701 -10.4435 -2.42792
-17.3638 -11.5867 -1.95073
-17.3387 -11.5803 -1.9319
-17.3128 -11.6014 -1.93382
-17.4048 -11.5183 -1.97876
-17.7549 -11.2202 -2.14035
-17.0489 -11.8413 -1.85185
-17.452 -11.4687 -2.04258
-17.89 -11.1019 -2.21155
-17.2236 -11.6705 -1.94038
-17.374 -11.5198 -2.03118
-17.1414 -11.6922 -1.9759
-18.4958 -10.486 -2.52665
-17.6335 -11.2087 -2.29158
-17.6414 -11.1917 -2.31614
-18.3504 -10.5464 -2.60542
-16.9394 -11.7591 -2.1077
-18.4242 -10.4516 -2.72129
-17.4276 -11.3226 -2.35027
-17.5629 -11.2304 -2.37997
-17.6325 -11.1389 -2.41211
-18.3175 -10.5548 -2.67715
-17.6085 -11.1832 -2.40839
-18.1103 -10.6915 -2.65534
-18.1242 -10.6654 -2.66737
-18.1115 -10.6766 -2.66951
-18.2741 -10.5319 -2.72145
-17.0171 -11.546 -2.42346
-17.0967 -11.4985 -2.45146
-16.7813 -11.7596 -2.3542
-17.0957 -11.4533 -2.49613
-17.3502 -11.263 -2.56663
-17.3604 -11.2422 -2.60759
-17.3923 -11.2071 -2.60518
-17.4044 -11.1885 -2.62942
-18.0472 -10.5836 -2.86191
-16.9117 -11.5836 -2.46052
-18.2441 -10.4432 -2.97266
-18.2928 -10.3708 -3.00797
-18.2913 -10.347 -3.03492
-17.2586 -11.2712 -2.67613
-17.4683 -11.0353 -2.78803
-16.7678 -11.6245 -2.59992
-16.5561 -11.7956 -2.56267
-17.0447 -11.3528 -2.76113
-17.5936 -10.8817 -2.98445
-17.2224 -11.1877 -2.85549
-18.029 -10.484 -3.16911
-17.8926 -10.5606 -3.12921
-17.7136 -10.7244 -3.09058
-17.1761 -11.1866 -2.91004
-17.8807 -10.5564 -3.17151
-17.7147 -10.6817 -3.12781
-17.9533 -10.4835 -3.19428
-15.4151 -11.9301 -1.99442
-15.5396 -11.8334 -2.05201
-15.4449 -11.9178 -2.00605
-16.5931 -11.5592 -2.92658
-16.5855 -11.5562 -2.97413
-16.8324 -11.3405 -3.07495
-17.0423 -11.1527 -3.1538
-16.6271 -11.497 -3.00988
-17.1209 -11.0918 -3.19661
-14.9065 -12.1902 -2.25584
-15.0797 -12.0151 -2.32497
-15.9456 -11.9288 -3.06192
-15.768 -11.0971 2.43747
-19.174 -11.3956 -0.028209
-19.6856 -10.9047 -0.293472
-19.4647 -11.1229 -0.187671
-19.279 -11.2748 -0.136377
-15.3127 -11.6171 1.74818
-19.5447 -10.8447 -0.614945
-17.827 -11.2893 0.00196494
-19.3297 -10.861 -0.811537
-19.103 -10.9845 -0.823012
-15.9797 -12.9324 0.755831
-18.4632 -11.5839 -0.550505
-16.4794 -12.4184 0.428152
-18.7347 -11.1995 -0.928614
-18.6463 -11.1855 -1.04175
-18.6322 -11.2159 -1.04877
-18.5533 -11.2051 -1.17252
-18.2582 -11.4448 -1.0599
-18.324 -11.3251 -1.18641
-19.0335 -10.6869 -1.52664
-16.252 -12.5339 -0.205165
-18.5856 -11.0304 -1.3825
-15.6362 -13.0949 0.00276375
-17.9183 -11.5964 -1.187
-18.328 -11.1873 -1.42163
-16.719 -12.2724 -0.713444
-15.9374 -12.4944 -0.277906
-16.3338 -12.332 -0.638449
-16.2999 -12.2746 -0.809601
-17.7807 -11.4606 -1.60006
-17.7724 -11.4625 -1.61156
-17.8026 -11.3901 -1.71478
-17.6752 -11.4373 -1.82926
-16.8167 -11.7359 -1.48461
-17.6212 -11.1967 -2.28426
-17.3961 -11.3709 -2.30011
-15.191 -12.7371 -1.2809
-18.1463 -10.6027 -2.72704
-15.3281 -12.4526 -1.61377
-17.8996 -10.7389 -2.82075
-17.0645 -11.3581 -2.69212
-16.6265 -11.7575 -2.54759
-16.9915 -11.4067 -2.71192
-16.6182 -11.679 -2.63703
-17.7524 -10.7223 -3.07973
-14.659 -12.6538 -1.57325
-16.9034 -11.4393 -2.78007
-17.6956 -10.755 -3.09783
-15.3555 -11.9908 -1.97744
-16.8831 -11.357 -2.94947
-17.1305 -11.1606 -3.04784
-16.0486 -11.9221 -2.93096
-16.1486 -11.7918 -3.0411
-14.1125 -12.5727 -2.05614
-16.5152 -10.7905 1.49746
-16.58 -10.8013 1.49491
-16.0119 -11.0655 1.61852
-17.7422 -11.5911 0.542087
-19.4468 -10.8595 -0.639393
-19.2121 -11.0438 -0.624778
-16.0332 -12.7667 0.530046
-18.7576 -11.1897 -0.905987
-16.5138 -12.3518 0.190718
-18.4335 -11.4732 -0.870368
-18.2606 -11.6054 -0.786951
-18.6387 -11.1552 -1.16261
-17.4153 -11.8776 -0.647308
-18.1801 -11.5131 -1.0296
-18.3876 -11.274 -1.22534
-18.9717 -10.7377 -1.48527
-15.8146 -12.9473 0.0374929
-16.2819 -12.5284 -0.225196
-16.0292 -12.5014 -0.317958
-18.2316 -11.2862 -1.51105
-17.953 -11.4863 -1.37459
-17.8368 -11.5921 -1.35502
-17.8242 -11.5832 -1.37829
-18.3489 -11.0696 -1.61557
-16.3117 -12.3487 -0.672265
-15.4777 -13.0562 -0.31929
-18.0516 -11.302 -1.59075
-17.1537 -11.1954 -1.33287
-16.4599 -12.2145 -1.17592
-18.1454 -11.0409 -1.9811
-17.8049 -11.1835 -2.16166
-16.3249 -12.0968 -1.54286
-17.0629 -11.7015 -2.12197
-16.8287 -11.865 -2.08767
-17.9673 -10.6613 -2.8504
-17.2396 -11.2849 -2.69128
-16.2156 -11.6294 -2.07941
-17.1764 -11.3036 -2.73888
-17.114 -11.3193 -2.7749
-16.9041 -11.4299 -2.76932
-15.7938 -11.8025 -2.27118
-13.6771 -13.9396 -2.02976
-18.9767 -11.5773 0.404469
-16.4936 -10.782 1.32455
-17.7714 -11.6536 0.717705
-17.3609 -11.697 0.175555
-17.621 -11.2864 -0.199805
-18.4694 -11.5089 -0.729247
-18.45 -11.4543 -0.809104
-19.0045 -10.9039 -1.13423
-18.5685 -11.3366 -0.960871
-16.8602 -12.2549 -0.157568
-16.8428 -12.2472 -0.168183
-19.1029 -10.7357 -1.37336
-16.8643 -12.3226 -0.497043
-18.2519 -11.3334 -1.29617
-16.9061 -12.0039 -0.949461
-16.2471 -12.3004 -0.78833
-17.8572 -11.371 -1.66033
-17.8028 -11.4308 -1.64718
-17.7488 -11.4573 -1.69813
-17.6431 -11.4371 -1.84136
-16.1682 -12.1427 -1.1219
-15.1277 -12.9975 -0.769193
-16.5385 -11.9711 -1.54328
-16.0664 -11.9708 -1.3204
-15.2103 -12.6797 -0.984313
-15.2394 -12.6648 -1.03467
-16.3927 -11.724 -1.76805
-16.7488 -11.752 -2.3503
-16.2131 -11.6412 -2.07956
-16.5914 -11.7822 -2.53171
-15.4595 -12.0367 -1.85862
-16.973 -11.4023 -2.78191
-15.7548 -11.7829 -2.30296
-15.3225 -11.8487 -2.31842
-14.0453 -12.7723 -2.07133
-19.2786 -11.3154 0.304198
-18.5331 -11.5277 -0.580528
-18.5191 -11.5133 -0.58947
-16.1298 -12.7291 0.609685
-18.562 -11.4891 -0.633273
-17.5899 -11.3474 -0.193868
-18.4201 -11.4906 -0.748771
-18.4571 -11.3704 -0.926969
-18.4422 -11.3493 -0.976007
-16.8349 -12.2792 -0.199294
-17.6986 -11.4167 -0.639924
-16.9454 -12.2759 -0.465696
-18.2567 -11.3548 -1.23536
-16.9594 -11.9592 -0.893242
-17.8778 -11.5016 -1.51699
-18.241 -11.0682 -1.90811
-18.1731 -11.0594 -1.90064
-18.2868 -10.807 -2.25677
-15.4894 -12.6626 -1.23169
-16.3555 -11.7239 -1.78772
-18.3261 -10.4061 -2.92329
-16.9587 -11.4429 -2.71989
-16.8833 -11.5094 -2.71335
-15.4282 -11.9649 -1.9572
-15.4706 -11.9035 -1.98328
-15.7407 -11.7735 -2.33978
-15.4682 -11.8268 -2.23842
-14.3373 -12.7846 -1.83229
-13.5632 -14.0788 -1.93085
-14.8711 -12.2495 -2.17686
-18.7754 -10.697 0.797159
-18.0418 -11.5086 1.07352
-18.3982 -11.1718 0.744291
-17.9039 -11.1978 -0.0442256
-17.823 -11.1629 -0.298275
-16.6668 -12.3154 0.0844525
-16.5586 -12.3356 0.0827143
-16.1095 -12.4863 -0.165823
-17.0971 -11.985 -0.829822
-17.4141 -11.3554 -1.09418
-16.2572 -12.1552 -1.46731
-16.2407 -12.0744 -1.47146
-15.9555 -11.9653 -1.2888
-15.7884 -12.3116 -1.33047
-15.2633 -12.4757 -1.67728
-17.1097 -11.1341 -3.146
-15.3913 -11.8316 -2.22753
-13.8567 -12.9394 -2.02678
-13.94 -12.6809 -2.04586
-13.9684 -12.6008 -2.12402
-16.636 -12.207 0.229101
-16.5112 -12.4502 -0.211602
-17.7609 -11.3021 -1.90093
-17.3424 -10.9218 -3.191
-15.6244 -11.8282 -2.46469
-17.7099 -11.5312 0.357849
-18.9811 -11.0335 -0.847512
-16.9529 -11.7817 -2.06053
-15.1265 -12.5481 -1.65283
-14.2653 -13.3995 -1.35491
-16.16 -11.6577 -2.16952
-16.7386 -12.2315 -0.0207648
-17.1407 -11.8884 -0.954176
-17.0214 -11.9041 0.080883
-17.1207 -11.7923 -0.0201037
-16.5225 -12.4133 -0.35072
-17.9836 -11.4272 -1.40727
-17.8015 -11.3582 -1.76575
-16.3502 -10.8255 1.65921
-18.5186 -11.295 -0.987186
-17.8525 -11.4717 -0.76568
-17.6665 -11.3529 -1.85897
-15.2983 -12.7618 -0.962449
-15.3264 -12.697 -1.12286
-16.1575 -11.7395 -3.05555
-14.5509 -12.6432 -1.60933
-17.1912 -11.213 -2.87024
-17.0094 -11.3965 -2.76764
-17.7864 -10.8457 -2.75544
-17.7896 -10.8618 -2.75484
-17.8245 -10.8536 -2.74532
-17.0322 -11.5299 -2.44482
-18.1129 -10.6713 -2.64487
-18.1211 -10.7014 -2.63854
-17.9656 -10.8524 -2.5553
-15.5018 -12.4087 -1.47893
-17.5653 -11.1835 -2.39736
-17.276 -11.4745 -2.28102
-16.4254 -11.9296 -1.62616
-18.3692 -10.6715 -2.39488
-17.6094 -11.3783 -1.97272
-17.7024 -11.2938 -1.99082
-18.4809 -10.776 -2.08843
-15.2912 -12.982 -0.698434
-18.2685 -10.9828 -1.90949
-17.8152 -11.3939 -1.70989
-16.2845 -12.2548 -0.840213
-18.6683 -10.7893 -1.88327
-17.9427 -11.3938 -1.54686
-18.4012 -11.0286 -1.69098
-16.3047 -12.3111 -0.671752
-17.4278 -11.3578 -1.09025
-16.872 -12.009 -0.792286
-16.7255 -12.2704 -0.721346
-15.9275 -12.4785 -0.287274
-18.8299 -10.8336 -1.51634
-18.9689 -10.7355 -1.5721
-18.3286 -11.2689 -1.27932
-16.2521 -12.5261 -0.2699
-16.4295 -12.435 -0.33949
-16.4756 -12.3568 -0.348366
-18.298 -11.3439 -1.20134
-16.3683 -12.4699 -0.300788
-18.0591 -11.6272 -0.984871
-18.4806 -11.2781 -1.1603
-18.2829 -11.4509 -1.07018
-19.2372 -10.7265 -1.1959
-18.7355 -11.1886 -0.924616
-18.7681 -11.1818 -0.925501
-16.5911 -12.3551 0.134978
-16.2267 -12.5677 0.400666
-18.482 -11.5574 -0.582358
-19.0186 -11.0809 -0.806125
-19.1435 -10.9296 -0.858526
-19.3874 -10.752 -0.898803
-16.5789 -12.3512 0.434937
-17.4394 -11.583 0.0618453
-17.834 -11.2865 0.000993043
-18.9139 -11.3084 -0.512491
-18.6949 -11.5077 -0.422059
-19.2859 -11.0054 -0.622214
-19.473 -10.8862 -0.604229
-18.9881 -11.3607 -0.292031
-19.0742 -11.3012 -0.325458
-19.0833 -11.2779 -0.333214
-19.2845 -11.0972 -0.395051
-19.404 -11.0862 -0.328432
-19.1714 -11.3205 -0.178559
-18.1279 -11.2552 0.384736
-15.3055 -11.6007 1.74678
-19.0633 -11.4838 0.000884995
-19.6508 -10.9549 -0.248709
-19.0573 -11.4939 0.400308
-17.9793 -11.5056 1.12463
-15.7535 -11.1248 2.44173
-14.4668 -12.6031 -2.01525
-15.7904 -11.8191 -2.27181
-17.794 -10.6962 -3.07902
-17.156 -11.262 -2.8219
-15.3152 -12.4528 -1.61043
-16.8915 -11.8071 -2.0785
-17.6019 -11.3399 -2.10992
-17.3635 -11.579 -1.95693
-18.4198 -10.6935 -2.27239
-18.4648 -10.6777 -2.22852
-16.0581 -12.3314 -1.00864
-18.4779 -10.7923 -2.00682
-17.9129 -11.3122 -1.73507
-17.7801 -11.4449 -1.68438
-17.7863 -11.4621 -1.62469
-18.5758 -10.8695 -1.78587
-17.958 -11.4933 -1.40846
-18.4537 -11.0276 -1.58335
-16.5279 -12.3105 -0.396807
-18.4927 -11.5254 -0.597986
-19.0438 -11.0533 -0.817925
-19.1295 -10.9986 -0.811094
-17.849 -11.1789 -0.134507
-17.361 -11.6541 0.117161
-17.7261 -11.374 -0.00625807
-17.4215 -11.6398 0.143272
-19.4343 -10.8582 -0.635853
-19.2728 -11.1172 -0.395743
-19.1158 -11.4275 -0.0182291
-19.1813 -11.3678 -0.0357624
-15.6634 -11.3904 1.81344
-18.4372 -11.1759 0.807718
-14.8108 -12.3259 -2.14501
-15.398 -11.9172 -2.03556
-15.4086 -11.9677 -1.95469
-15.482 -12.028 -1.84082
-16.3815 -11.9419 -1.64604
-17.3356 -11.588 -1.91465
-16.6028 -11.9466 -1.52904
-16.146 -12.1463 -1.11402
-16.7103 -11.9772 -1.30955
-18.62 -10.6918 -2.02826
-17.8658 -11.3704 -1.64682
-16.96 -11.9798 -0.934442
-16.7241 -12.3006 -0.689826
-17.6219 -11.4651 -0.649622
-17.5704 -11.5235 -0.626622
-18.3811 -11.5011 -0.836109
-17.4434 -11.4811 -0.129413
-19.0679 -10.9746 -0.902788
-18.9806 -11.0815 -0.845545
-18.5912 -11.4984 -0.60217
-18.957 -11.1465 -0.74999
-19.1735 -10.9534 -0.833106
-15.9215 -12.9298 0.738092
-19.074 -11.1298 -0.587429
-16.0368 -10.948 1.4285
-18.8325 -11.6894 0.120886
-18.9683 -11.572 0.406425
-18.2644 -11.244 0.77139
-15.5714 -11.5876 2.02994
-14.3344 -12.8316 -1.81968
-15.4443 -11.8913 -2.01873
-16.8056 -11.7185 -2.36271
-18.3302 -10.94 -1.92582
-16.5828 -12.3229 -0.39755
-18.4727 -11.4222 -0.890226
-18.5294 -11.4655 -0.758039
-17.2292 -11.6501 -0.0363749
-18.5454 -11.4774 -0.655815
-17.3173 -11.7044 0.155416
-18.7536 -11.4706 -0.461813
-19.1588 -11.0986 -0.55342
-16.1972 -11.0168 1.74302
-16.993 -11.4099 -2.79921
-16.84 -11.9678 -1.15986
-17.0937 -11.9435 -0.89663
-16.5862 -12.3505 -0.0435692
-17.9069 -11.3449 0.287549
-15.6417 -11.7745 -2.38574
-17.303 -11.4838 -2.29755
-17.8504 -11.2464 -1.9455
-16.3602 -12.4957 -0.207699
-16.538 -12.3401 0.103987
-17.9893 -11.5589 0.807773
-16.136 -12.0533 -1.47432
-15.8055 -12.3177 -1.20125
-15.7529 -12.458 -1.16208
-18.0534 -11.1797 -1.81537
-18.2974 -11.2049 -1.51018
-18.2071 -11.32 -1.33688
-18.1276 -11.5166 -1.04152
-15.2713 -12.5376 -1.46783
-16.3656 -12.4202 -0.611894
-16.4891 -12.3524 -0.408901
-16.7551 -12.1649 0.0754868
-16.2041 -12.6117 0.450481
-16.175 -10.7995 1.32607
-18.4413 -11.2912 -1.06347
-16.0355 -12.8421 0.766506
-15.4102 -12.8214 -0.798168
-16.4462 -12.4324 -0.304594
-17.878 -10.5585 -3.17764
-17.7989 -10.8653 -2.72706
-17.9123 -10.9638 -2.40857
-17.0111 -11.5666 -2.40869
-15.4024 -11.9187 -1.97009
-18.3215 -10.7817 -2.238
-14.5381 -12.6818 -1.63976
-18.6194 -10.8479 -1.71602
-17.8073 -11.3785 -1.72253
-18.4502 -11.0221 -1.60548
-19.018 -10.6627 -1.57941
-17.7607 -11.4564 -1.60646
-19.01 -10.6917 -1.57593
-18.7177 -10.924 -1.46538
-18.6688 -11.1129 -1.13264
-16.9109 -12.0233 -0.986676
-18.7273 -11.1741 -1.02017
-15.9003 -12.5271 -0.748788
-19.156 -10.8639 -0.954127
-16.8394 -12.0235 -0.788152
-18.6758 -11.2481 -0.951674
-18.5792 -11.326 -0.871787
-19.171 -10.9551 -0.838892
-18.3497 -11.5237 -0.748683
-19.6471 -10.752 -0.555828
-17.7915 -11.1677 -0.251779
-19.5554 -10.8462 -0.518998
-18.9997 -11.2182 -0.513604
-16.1963 -12.5323 -0.213416
-15.9632 -12.4894 -0.104497
-17.4228 -11.4928 -0.1111
-17.6059 -11.395 -0.109722
-19.0708 -11.3171 -0.328219
-19.0646 -11.5027 0.0315565
-18.1221 -11.2628 0.380045
-19.3209 -11.2624 0.27895
-19.2216 -11.3407 0.298901
-16.9208 -10.8308 1.11115
-16.9474 -11.4253 -2.76995
-17.8191 -10.9275 -2.54982
-17.0379 -11.5146 -2.46379
-18.5941 -10.7145 -2.03335
-17.8152 -11.4218 -1.65609
-17.8597 -11.4117 -1.60271
-18.4738 -11.0231 -1.59055
-17.8076 -11.4599 -1.59975
-18.491 -10.9894 -1.56419
-18.9888 -10.7119 -1.5609
-16.4823 -12.2029 -1.14859
-18.7523 -11.0407 -1.15302
-18.6332 -11.1565 -1.17629
-19.2118 -10.7823 -1.01344
-18.8367 -11.0724 -1.03331
-19.2468 -10.9928 -0.659282
-18.7882 -11.3276 -0.62537
-16.5239 -12.3373 -0.390631
-16.0946 -12.4702 -0.202155
-17.5549 -11.3879 -0.117745
-15.1705 -13.524 -0.270751
-19.1358 -11.2557 -0.271282
-16.0283 -10.9666 1.43271
-16.8937 -11.4549 -2.80957
-16.4347 -11.771 -2.78119
-14.668 -12.6295 -1.62581
-14.5231 -12.7029 -1.61227
-17.9671 -11.2844 -1.75724
-18.8298 -10.9775 -1.2859
-16.957 -11.9864 -0.928306
-18.0693 -11.6566 -0.979519
-18.268 -11.558 -0.80563
-16.5878 -12.2629 -0.415389
-19.0546 -11.5568 0.195878
-18.9789 -11.5647 0.387989
-18.1453 -11.4068 0.726338
-16.5694 -11.7778 -2.54137
-16.1686 -11.6825 -2.05185
-17.7688 -11.2164 -2.11974
-17.4117 -11.4846 -2.03723
-17.9634 -11.3809 -1.55439
-15.5783 -12.5547 -1.13526
-19.0715 -10.8235 -1.22016
-16.9318 -12.008 -0.954774
-19.5877 -10.8553 -0.532804
-18.7902 -11.4185 -0.471799
-18.7403 -11.4467 -0.469992
-16.0355 -12.5875 -0.114841
-19.0616 -11.3546 -0.289817
-18.9357 -11.4552 -0.246371
-16.5531 -12.3892 0.0743721
-16.5062 -12.3659 0.171127
-18.3403 -11.1844 0.665611
-16.1332 -10.8175 1.39493
-18.0516 -11.5156 1.0627
-18.0131 -11.5275 1.10685
-16.6868 -11.506 -2.89091
-13.9785 -12.6665 -2.08486
-18.967 -11.6134 0.301662
-15.9234 -12.9015 0.644215
-16.0924 -12.791 0.701214
-17.2793 -11.1908 -1.42662
-16.8819 -12.2049 -0.122419
-16.9415 -12.1722 -0.0511537
-16.202 -10.9031 1.58757
-17.9436 -11.4537 -1.41271
-15.4391 -12.9673 -0.499894
-17.8729 -11.543 1.06624
-17.9828 -11.4178 -1.35095
-16.0068 -11.7723 -2.1055
-14.326 -12.7673 -1.94545
-16.7998 -11.4456 -2.87532
-17.866 -11.4865 -1.52779
-18.3722 -11.4357 -0.936185
-15.5231 -12.3951 -1.47957
-14.2441 -13.0543 -1.77228
-17.4842 -11.5266 0.0395607
-18.8569 -11.7038 0.132528
-18.8688 -11.6793 0.16614
-15.1803 -13.0671 -0.630408
-16.058 -12.5093 -0.174357
-15.7168 -13.0278 0.652191
-18.538 -10.7533 -2.0651
-18.5255 -10.7393 -2.04328
-17.1509 -11.7284 -1.92667
-18.6692 -11.149 -1.18094
-18.9902 -11.0196 -0.940933
-18.8117 -11.4747 -0.229274
-18.0022 -11.1559 -0.0235994
-18.9796 -11.5807 0.413806
-16.0517 -12.4623 -0.191988
-16.6411 -12.2342 0.591427
-18.6332 -10.4517 -2.4495
-16.8883 -11.4414 -2.7792
-16.2151 -11.8495 -2.81545
-15.0704 -12.6141 -1.60665
-13.1172 -14.168 -2.3626
-16.2822 -12.2498 -0.872516
-18.8622 -11.4989 -0.251193
-16.4065 -12.4353 -0.367403
-16.5784 -12.3548 0.117291
-15.2388 -13.5179 -0.192413
-18.6337 -10.4661 -2.4714
-15.3553 -13.0556 -0.478561
-15.4166 -13.0926 -0.353383
-15.0058 -13.5951 -0.429381
-16.9575 -11.4361 -2.64436
-18.3505 -11.5051 -0.791392
-16.7658 -11.9965 -1.17193
-18.98 -11.2034 -0.566903
-14.1137 -13.2366 -1.54103
-19.6137 -10.8424 -0.550499
-16.2964 -12.4942 0.391881
-16.3276 -11.6642 -1.72718
-16.1077 -12.6496 -0.404372
-15.8701 -12.6848 -0.541238
-13.978 -12.9169 -2.02395
-18.2109 -10.4357 -2.97346
-18.1318 -10.6628 -2.65189
-17.7734 -11.2056 -2.11514
-19.1682 -10.8205 -1.03242
-16.9977 -11.5727 -2.40345
-17.1299 -11.7012 -1.99983
-18.0719 -11.4662 -1.23374
-17.1379 -11.1789 -1.29609
-19.3479 -11.1392 -0.284847
-15.6114 -12.3526 -1.41975
-15.8103 -12.4939 -0.981496
-16.3751 -12.497 -0.256724
-16.7399 -10.8476 1.48429
-16.8995 -11.4455 -2.79617
-19.1187 -10.8499 -1.05886
-15.6239 -11.9023 -1.92049
-18.1181 -11.2599 0.374924
-15.7651 -12.3185 -1.34374
-15.5894 -12.3802 -1.4489
-16.0846 -12.3073 -0.982255
-16.3406 -12.2866 -0.717758
-16.5664 -12.3306 -0.364909
-15.5135 -13.1902 -0.0285664
-18.1831 -10.838 -2.29531
-17.7138 -11.2526 -2.14381
-17.2336 -11.6669 -1.9612
-18.4049 -11.4718 -0.749418
-14.5872 -12.6508 -1.64186
-17.82 -11.5813 0.566854
-16.4146 -12.432 -0.347385
-16.56 -12.3963 -0.199259
-15.4568 -12.9665 -0.519828
-15.3037 -13.091 -0.471557
-15.4332 -13.1223 -0.212768
-17.5156 -11.4709 -0.00247943
-16.8749 -12.1223 0.0470877
-16.5444 -12.3876 -0.28994
-15.4107 -13.0478 -0.459594
-18.918 -11.4374 -0.285409
-16.2513 -12.1786 -1.49548
-19.1094 -10.8443 -1.12172
-15.818 -12.5157 -0.934738
-18.0367 -11.4349 -1.29975
-17.3745 -11.5424 -1.13726
-16.5059 -11.8657 -2.46197
-18.1321 -10.6933 -2.65096
-19.0366 -10.8323 -1.2156
-19.1089 -10.8614 -1.04116
-18.4332 -10.9956 -1.64336
-18.9345 -10.9628 -1.05147
-18.1509 -11.0664 -1.93635
-18.1318 -11.0534 -1.94894
-17.1993 -11.1994 -2.87478
-17.1646 -11.3924 -2.50914
-17.7893 -11.4758 -1.63713
-15.7754 -11.7574 -2.38521
-15.4904 -11.8582 -2.01714
-16.1404 -12.3679 -0.760725
-16.0034 -12.4931 -0.277218
-15.2904 -12.8685 -0.797796
-15.3733 -13.0043 -0.547397
-15.4173 -13.0794 -0.292782
-15.3725 -13.1749 -0.263659
-18.4785 -11.0306 -1.58207
-17.665 -11.0999 -2.53
-18.1753 -11.4171 -1.23609
-17.0341 -11.5157 -2.44499
-16.4299 -11.78 -2.73464
-16.2916 -12.2726 -0.816989
-15.5294 -12.3897 -1.46065
-15.208 -12.7635 -1.20217
-15.4522 -12.9566 -0.522934
-15.4762 -13.0083 -0.477741
-15.4287 -13.0248 -0.514208
-15.341 -13.0872 -0.410794
-15.4698 -13.1346 -0.244341
-18.2211 -10.4632 -2.96035
-19.0782 -10.7495 -1.30375
-19.0697 -10.8253 -1.18209
-18.9808 -10.8985 -1.10264
-18.5151 -11.0198 -1.52343
-17.9004 -11.2234 -1.927
-16.0323 -11.9294 -2.89145
-17.7956 -11.649 0.7183
-16.113 -12.3959 -0.830422
-15.3335 -12.9809 -0.641998
-15.1656 -13.0693 -0.647337
-19.0084 -10.8441 -1.21231
-17.7756 -11.2221 -0.158277
-18.3734 -11.2253 0.600032
-16.1196 -12.262 -1.02256
-16.3289 -12.4035 -0.46457
-15.4223 -13.0676 -0.345798
-15.4249 -13.1396 -0.272538
-15.4528 -13.1362 -0.207949
-15.5017 -13.169 -0.121087
-15.5204 -13.1566 -0.0747783
-15.6228 -13.2227 0.176885
-16.304 -12.3891 -0.551064
-18.0911 -11.3929 -1.31702
-15.6585 -12.5731 -0.990475
-14.9671 -13.4312 -0.69921
-19.1316 -10.7984 -1.22567
-16.3967 -12.5042 -0.188098
-16.8758 -11.5492 -1.45172
-15.6921 -12.5573 -0.854121
-16.4737 -10.8329 1.74694
-17.8457 -11.4622 -1.50182
-18.7173 -10.4602 -2.32854
-19.1156 -10.8431 -1.13324
-17.9732 -10.4756 -3.21174
-19.0007 -10.8328 -1.29284
-18.1233 -10.6843 -2.63969
-18.9758 -10.9782 -0.986986
-17.8062 -10.7119 -3.00404
-18.5874 -11.0281 -1.43782
-18.4333 -11.0235 -1.66567
-17.633 -10.7831 -3.07286
-17.6329 -10.7994 -3.06196
-18.0574 -11.2533 -1.66632
-19.0029 -11.5887 0.130665
-17.784 -11.4681 -1.64231
-17.1564 -11.2623 -2.78768
-17.1464 -11.3745 -2.56056
-17.0752 -11.411 -2.6459
-16.8848 -11.4714 -2.78804
-16.726 -11.5046 -2.90765
-17.1314 -11.7064 -2.00314
-16.9621 -11.9883 -0.941621
-16.8485 -11.9938 -0.828505
-16.6922 -12.0923 -1.13
-16.3047 -12.0837 -1.54036
-16.7209 -12.309 -0.664354
-16.3092 -12.2317 -0.885407
-16.4417 -12.2513 -0.625996
-16.2457 -12.2793 -0.825891
-16.507 -12.3826 -0.345712
-16.2 -11.0157 1.74807
-15.4869 -12.4499 -1.47813
-16.0288 -12.5613 -0.143434
-14.5398 -12.5342 -2.05477
-15.7138 -11.3845 1.79235
-15.3779 -13.0183 -0.48503
-15.3782 -13.1468 -0.277461
-15.5448 -13.193 0.0303303
-15.0417 -13.5409 -0.437721
-18.2218 -10.8108 -2.28034
-17.91 -10.746 -2.8211
-17.9369 -10.8954 -2.54624
-17.8878 -10.9078 -2.53314
-18.2029 -11.0531 -1.91779
-17.8496 -10.9939 -2.4528
-17.8248 -10.9748 -2.45607
-17.6407 -11.0944 -2.50632
-18.382 -11.5018 -0.809417
-17.8629 -11.4793 -1.55277
-17.1572 -11.7211 -1.92266
-17.518 -11.5062 0.0264794
-17.7677 -11.6169 0.624701
-16.6844 -11.9804 -1.3099
-16.9978 -12.2595 -0.475625
-15.8434 -12.1503 -1.36801
-16.0905 -12.5219 -0.137648
-16.0871 -12.7357 0.546918
-15.3044 -12.8718 -0.817872
-15.4871 -12.9612 -0.473566
-15.4619 -12.9491 -0.531313
-15.4362 -13.0993 -0.326089
-15.2881 -13.1288 -0.412138
-15.1729 -13.4982 -0.220283
-15.0121 -13.5498 -0.452903
-18.3069 -10.5606 -2.627
-18.6345 -10.7152 -1.9611
-18.1739 -10.8556 -2.28734
-17.2188 -11.1764 -1.29498
-17.9802 -11.428 0.495854
-17.1444 -11.7121 -1.94483
-16.1897 -12.197 -1.0531
-16.2382 -12.274 -0.845308
-16.534 -12.3271 -0.365518
-16.5318 -12.4524 -0.159916
-15.6488 -12.7599 -0.691653
-16.0558 -12.7297 0.508132
-15.7801 -11.2813 1.73885
-15.3997 -13.0028 -0.520761
-15.4681 -13.0072 -0.392975
-15.0319 -12.8991 -1.03473
-15.3872 -13.053 -0.440744
-15.4134 -13.1386 -0.234239
-14.4974 -13.3665 -0.977467
-18.4839 -10.7601 -2.10234
-17.6718 -10.8742 -2.83788
-15.9243 -12.0744 -1.3815
-15.8321 -12.1989 -1.36481
-15.2451 -12.4141 -1.75819
-15.4451 -12.9595 -0.557578
-15.4286 -12.9776 -0.516294
-15.6494 -13.1795 0.0774595
-14.9769 -13.532 -0.566365
-14.1025 -13.2324 -1.39538
-18.371 -10.6318 -2.43641
-18.4754 -10.7694 -2.02135
-18.9519 -10.9594 -1.05928
-17.8916 -10.7506 -2.83448
-18.0445 -11.4564 -1.30325
-17.0562 -12.116 -0.65749
-16.5654 -12.3217 -0.356678
-16.5215 -12.3133 -0.419106
-16.4279 -12.4434 -0.301531
-16.191 -12.3801 -0.777348
-16.3525 -12.4664 -0.376121
-15.5164 -13.0689 -0.261883
-15.8462 -11.3167 2.31841
-15.3228 -13.0971 -0.401208
-15.2638 -13.1164 -0.466379
-14.1658 -13.207 -1.50172
-19.0527 -10.7356 -1.43659
-18.9593 -10.8296 -1.28761
-17.781 -11.2406 -0.121109
-16.0082 -12.0821 -1.22809
-16.4052 -12.3084 -0.586111
-16.3358 -12.3377 -0.626503
-16.1739 -12.2699 -0.92337
-15.5835 -13.0663 -0.229746
-15.5713 -13.0718 -0.147139
-14.8494 -13.4356 -0.806524
-15.7192 -11.9508 -1.63217
-15.5404 -12.6439 -0.956429
-16.4558 -10.7947 1.78454
-15.9737 -12.3701 -0.983303
-15.9756 -12.6029 -0.678012
-14.3218 -13.1675 -1.63846
-16.4381 -12.182 -0.941286
-19.3422 -10.8542 -0.801696
-18.1815 -10.4447 -3.01417
-18.2619 -10.8903 -2.10286
-17.8069 -10.6862 -2.97029
-17.8049 -10.7053 -3.04564
-18.4228 -11.6425 -0.435995
-17.8381 -10.8469 -2.73415
-17.7997 -10.8547 -2.70966
-17.6747 -11.3972 -1.85966
-17.5362 -11.4869 -0.00304885
-17.5156 -11.48 -0.0381085
-17.5182 -11.4953 0.040535
-17.2557 -11.2994 -2.63561
-17.1473 -11.2735 -2.77985
-17.0763 -11.5299 -2.40314
-16.7342 -11.4843 -2.90005
-16.8208 -12.0228 -0.823673
-16.5604 -12.309 -0.425566
-15.4144 -12.64 -1.15304
-14.7076 -12.3777 -2.14923
-14.3511 -12.7037 -2.00655
-18.7093 -10.4501 -2.32305
-18.2066 -10.4231 -3.0166
-18.2782 -10.5728 -2.64555
-18.4123 -10.9905 -1.73097
-18.1791 -11.0169 -1.95183
-18.1628 -11.0768 -1.95306
-17.9415 -10.8824 -2.54322
-17.8778 -10.8718 -2.59393
-17.8955 -10.8769 -2.57557
-18.0498 -11.2832 -1.67804
-17.9797 -11.4191 0.51106
-17.6538 -11.0987 -2.50986
-17.1573 -11.7351 -1.92391
-17.1379 -11.7264 -1.94686
-16.7754 -11.3325 -3.13304
-16.8309 -11.8713 -2.1063
-16.9384 -11.9939 -0.952263
-16.7561 -12.0254 -1.15688
-16.7421 -12.0258 -1.16388
-16.0052 -10.9906 1.49291
-16.2188 -12.4095 -0.615108
-15.7029 -11.3625 1.77797
-15.6821 -11.3504 1.72451
-15.2923 -12.8762 -0.817395
-15.2689 -13.5215 -0.165484
-19.0026 -10.916 -1.08684
-18.5736 -11.0651 -1.4059
-18.1624 -11.3227 0.556633
-18.114 -11.2726 -1.63289
-17.6497 -10.8072 -3.05485
-17.9011 -11.2352 -1.94856
-17.7797 -11.6438 0.667429
-17.3915 -11.3678 -2.30961
-17.4127 -11.7716 -0.803007
-16.8313 -11.3235 -3.09544
-16.7214 -11.9594 -1.32575
-16.56 -12.34 0.19609
-16.4394 -12.377 -0.378142
-16.4397 -12.445 -0.304039
-16.2578 -12.2857 -0.784113
-16.2045 -12.338 -0.770056
-16.0898 -12.3035 -1.00506
-15.4773 -12.9771 -0.453037
-15.4641 -13.0244 -0.376939
-15.5692 -13.1704 -0.00951681
-15.5426 -13.1801 -0.0546225
-15.5654 -13.215 0.0391143
-15.4861 -13.1121 -0.198043
-15.4102 -12.9964 -0.516981
-15.1949 -12.792 -1.17055
-14.9958 -12.5934 -1.75769
-14.7086 -12.6742 -1.42675
-19.1743 -10.8331 -1.02822
-18.9697 -10.9977 -0.947583
-18.3803 -10.619 -2.41924
-18.5506 -11.0131 -1.54182
-18.4711 -11.2311 -1.18465
-17.4368 -11.3805 -1.04239
-17.1092 -11.1686 -3.05646
-16.7119 -11.9101 -1.39922
-16.5078 -12.3506 -0.380549
-16.3383 -12.2546 -0.747459
-16.2903 -12.3039 -0.705946
-16.1389 -12.1445 -1.14102
-15.4144 -12.0351 -1.88389
-15.6243 -13.1869 0.0929399
-15.3574 -13.0869 -0.393992
-15.2805 -13.1171 -0.45072
-18.7775 -10.4756 -2.24122
-18.2653 -10.9084 -2.0962
-18.3164 -11.1589 -1.53382
-18.4355 -11.4118 -0.893478
-17.4349 -11.761 -0.807325
-16.2439 -12.369 -0.646133
-15.4921 -13.0144 -0.385861
-17.8727 -11.5878 0.687377
-16.4828 -12.2282 -0.645255
-16.3851 -12.5017 -0.229684
-17.3745 -11.8002 -0.846217
-16.3737 -11.6948 -1.77267
-15.4398 -12.9067 -0.638691
-14.7591 -12.6173 -1.41058
-14.568 -12.7128 -1.57298
-14.6843 -12.5211 -1.89993
-18.2624 -10.9043 -2.07801
-18.0802 -11.2703 -1.69546
-17.3931 -11.612 0.0751943
-17.795 -11.4041 -1.71119
-17.8203 -11.4624 -1.65163
-17.7308 -11.2353 -2.16117
-17.7457 -11.0383 -2.46339
-17.6988 -11.4121 -1.84202
-17.6772 -11.4119 -1.8712
-17.1365 -11.2656 -2.77464
-16.8672 -11.9773 -0.813498
-16.9093 -11.478 -2.71486
-16.6868 -12.0605 -1.19634
-16.4474 -11.7936 -2.72594
-15.9943 -12.8541 0.636804
-15.9574 -12.4866 -0.247359
-15.5776 -12.5362 -1.08561
-15.2246 -12.6478 -1.38653
-15.1817 -12.015 -2.24667
-15.179 -11.9985 -2.26379
-15.0546 -13.5316 -0.375467
-15.0036 -12.1555 -2.20179
-15.0103 -12.1944 -2.16625
-14.9418 -12.1592 -2.2054
-14.7096 -12.378 -2.15995
-14.6773 -12.4538 -2.03813
-14.5086 -12.5784 -1.9924
-14.4969 -12.6062 -1.96672
-14.3243 -12.6808 -2.02173
-19.0313 -10.7052 -1.46701
-18.476 -10.7322 -2.10195
-18.4243 -10.9864 -1.73421
-17.8576 -11.2172 -0.106671
-18.3061 -10.5522 -2.69561
-18.1927 -11.071 -1.89694
-18.1366 -10.7091 -2.60662
-18.0336 -11.2675 -1.68888
-17.7992 -11.4345 -1.67987
-16.2804 -12.2561 -0.875045
-15.2572 -12.9534 -0.7387
-18.0412 -11.3529 0.486279
-18.4809 -11.0305 -1.57137
-18.4511 -11.472 -0.824496
-18.4577 -11.4264 -0.869702
-18.3382 -10.8588 -2.08631
-18.1718 -10.4788 -2.96636
-18.0269 -11.2482 -1.74416
-17.4069 -11.568 -0.0330018
-17.6778 -11.0495 -2.50598
-17.0442 -11.9004 0.137162
-17.134 -11.7401 -1.9411
-17.1009 -11.171 -3.05457
-16.6009 -12.3268 0.390813
-16.586 -12.3061 0.325117
-15.7785 -11.3891 1.90838
-16.5386 -12.3234 -0.384249
-16.549 -12.3518 -0.345348
-16.4387 -12.442 -0.299245
-16.3378 -12.3416 -0.638694
-16.2039 -12.1929 -1.0817
-15.4816 -13.1222 -0.198443
-15.3188 -13.0732 -0.439249
-15.0527 -12.6194 -1.60161
-18.8054 -11.1315 -0.977364
-18.504 -11.0754 -1.43319
-17.5187 -11.5209 0.044061
-17.478 -11.4885 -0.0894176
-16.5544 -12.3331 0.21662
-16.1471 -11.6789 -2.08679
-15.4847 -12.9978 -0.360601
-15.4722 -13.0272 -0.366369
-15.0262 -13.5437 -0.434706
-14.161 -13.2313 -1.48807
-19.1318 -11.1155 -0.545545
-17.8409 -11.3851 -1.64277
-17.1317 -11.3411 -1.31615
-16.3425 -12.1944 -0.891076
-15.3928 -11.5282 1.69584
-15.6599 -13.1807 0.085631
-15.5877 -13.177 0.0365316
-14.9039 -13.4767 -0.675781
-18.9741 -11.077 -0.85789
-16.2496 -12.151 -1.06301
-15.3673 -12.883 -0.768854
-15.2699 -12.453 -1.70492
-14.3124 -13.06 -1.64147
-17.8169 -11.5012 0.485312
-17.8057 -11.5176 0.465786
-18.0761 -11.4201 -1.31476
-15.1456 -12.5476 -1.62027
-14.7596 -12.6582 -1.43663
-15.3813 -12.3871 -1.62475
-14.3121 -13.2627 -1.33649
-17.1202 -12.0403 -0.718332
-19.5433 -11.0578 -0.192463
-19.0388 -11.0646 -0.850083
-18.5895 -11.386 -0.774987
-17.8453 -11.2404 -0.0697446
-18.5965 -11.1864 -1.17091
-17.8524 -11.1696 -0.129374
-17.6129 -11.3763 -0.118757
-18.5838 -10.7301 -2.02087
-18.5459 -10.5562 -2.34339
-18.4084 -10.8203 -2.0964
-18.3158 -10.8927 -2.04993
-18.2863 -10.8816 -2.06335
-17.7974 -11.4336 -1.6513
-17.8025 -11.4054 -1.67192
-17.7971 -11.4496 -1.63843
-17.7973 -11.4369 -1.64421
-18.2743 -10.3399 -3.06251
-18.2106 -10.4405 -3.00949
-17.8702 -11.0798 -2.21624
-17.6968 -11.4345 -1.81963
-17.7936 -11.1906 -2.16101
-16.5303 -12.3294 0.315836
-16.8318 -12.0031 -0.815414
-16.4583 -12.3744 -0.374999
-17.6108 -10.8682 -2.90652
-17.135 -11.7295 -1.91744
-17.0722 -11.6596 -2.16358
-17.0427 -11.6914 -2.13199
-17.1719 -11.3938 -2.50874
-17.3674 -11.0087 -3.0191
-17.0796 -11.2925 -2.79558
-17.0781 -11.3271 -2.78964
-16.8878 -11.4704 -2.70865
-15.1518 -13.5196 -0.256347
-16.0081 -11.9486 -2.9571
-15.1701 -11.9942 -2.2743
-19.5034 -10.8781 -0.592663
-19.1728 -11.388 -0.0702987
-18.0384 -11.4515 0.631444
-18.0495 -11.4332 0.594793
-18.7181 -11.2014 -0.979167
-18.6247 -10.4398 -2.48351
-18.3156 -10.9406 -2.03107
-18.3931 -10.6374 -2.40604
-15.9458 -11.0576 1.48207
-18.0476 -11.278 -1.63117
-18.0515 -11.223 -1.77914
-18.3829 -10.4162 -2.85798
-18.2807 -10.546 -2.69994
-18.2185 -10.6525 -2.57423
-17.7744 -11.4226 -1.68958
-18.2272 -10.4702 -2.89775
-16.5138 -12.3063 0.273893
-16.9721 -11.9918 -0.940778
-17.5944 -11.1941 -2.40912
-16.2276 -12.5677 0.407256
-16.9142 -11.9098 -1.18123
-16.8117 -12.0712 -1.00579
-16.4902 -12.3337 -0.359314
-17.1642 -11.6459 -2.03942
-16.6818 -12.0365 -1.21388
-16.1026 -12.5068 -0.199306
-16.0536 -12.5427 -0.149717
-16.2941 -12.2531 -0.862678
-16.8202 -11.8554 -2.08984
-16.7724 -11.7582 -2.38104
-16.3069 -12.085 -1.55614
-16.047 -11.9548 -1.29345
-16.0057 -11.9476 -1.29132
-16.4581 -11.7152 -2.78566
-15.2416 -12.9846 -0.698491
-15.9281 -11.9294 -3.08187
-15.4361 -11.8288 -2.18038
-14.6874 -12.4569 -2.03339
-18.0571 -11.3615 0.518891
-18.4914 -11.355 -0.934374
-18.4979 -11.0402 -1.56143
-18.3523 -11.1403 -1.49974
-18.2252 -10.8168 -2.30062
-17.831 -11.3998 -1.68997
-16.7054 -12.1404 0.212014
-17.0797 -12.0279 -0.70158
-16.4203 -12.5201 0.578566
-17.8698 -10.9498 -2.51381
-16.5594 -12.3503 0.173242
-16.4363 -12.4601 -0.295499
-17.5926 -10.8764 -2.91772
-16.6508 -12.1289 -1.08451
-17.2751 -11.299 -2.58992
-16.352 -12.1816 -0.86323
-17.2523 -11.1362 -2.88478
-15.507 -12.9253 -0.492329
-15.1839 -13.4694 -0.242936
-14.3883 -12.7287 -1.80868
-19.1037 -11.2726 -0.338823
-19.1617 -10.83 -1.05107
-18.9979 -11.1136 -0.794576
-18.4755 -11.4516 -0.856616
-18.4779 -10.8042 -2.0053
-18.5021 -10.7719 -2.05809
-16.88 -12.1306 0.0439677
-16.4625 -12.3483 0.268561
-16.4344 -12.3533 -0.470405
-16.3401 -12.4783 -0.325088
-16.2151 -12.2053 -0.992024
-16.9331 -11.4671 -2.73266
-15.4772 -13.0632 -0.305271
-15.4455 -13.0358 -0.369507
-15.1373 -12.0334 -2.26057
-14.5636 -12.707 -1.58509
-14.77 -12.3624 -2.1084
-14.6961 -12.4242 -2.0974
-14.5981 -12.5089 -2.03821
-19.5596 -10.8558 -0.49965
-18.2629 -11.4196 -1.09311
-17.3611 -11.649 0.105464
-16.0403 -11.1065 1.72587
-17.3097 -11.8779 -0.779226
-16.434 -12.4569 0.473473
-16.522 -12.3404 0.196477
-16.4476 -12.415 -0.37724
-16.2284 -12.2901 -0.787915
-15.7164 -12.5346 -1.1268
-18.0509 -11.3272 0.424708
-18.4907 -11.1334 -1.34408
-16.9376 -11.9929 0.189991
-17.0491 -12.1334 -0.597479
-16.4951 -12.3928 0.384057
-15.944 -12.5648 -0.746401
-16.2399 -12.1839 -1.57345
-17.8352 -11.5316 0.482745
-17.5949 -11.3883 -0.0792664
-16.5076 -12.2899 -0.45817
-16.7034 -12.0525 -1.19776
-16.424 -12.4828 -0.233753
-16.736 -12.1717 -0.998533
-14.5251 -13.5125 -0.848951
-19.5484 -10.9022 -0.470556
-19.0479 -11.0706 -0.822385
-19.1813 -10.8624 -0.975999
-19.1326 -10.8195 -1.15565
-18.8652 -11.1397 -0.906975
-15.939 -11.063 1.53655
-18.728 -11.2186 -0.899219
-18.7501 -11.1487 -1.01377
-15.6114 -11.4027 1.75088
-18.6315 -11.2644 -0.9617
-17.4011 -11.6647 0.151263
-17.5174 -11.5294 0.0316287
-18.6579 -11.1263 -1.16677
-18.6547 -11.1359 -1.11606
-18.9646 -10.7069 -1.52266
-17.0716 -11.9402 0.230942
-17.1728 -11.782 0.0842523
-18.5231 -11.1246 -1.29452
-18.6873 -10.9562 -1.45052
-18.0809 -11.6254 -0.986527
-16.7051 -12.2133 0.269909
-18.5438 -10.9476 -1.61868
-18.4771 -10.9389 -1.76278
-17.3996 -11.8529 -0.659862
-17.91 -11.6008 -1.17825
-15.9433 -12.9384 0.759411
-18.1829 -11.248 -1.55464
-18.5907 -10.6851 -2.06078
-18.7247 -10.5337 -2.23957
-18.0428 -11.3121 -1.59712
-18.3442 -10.8441 -2.0736
-18.3277 -10.8675 -2.0324
-18.3439 -10.8256 -2.06687
-18.5497 -10.5704 -2.33018
-18.2596 -10.8977 -2.09653
-17.8949 -11.3369 -1.70497
-16.5382 -12.3107 -0.385207
-18.61 -10.4493 -2.47316
-17.9477 -11.2708 -1.80999
-16.4909 -12.3468 -0.416307
-16.27 -12.5322 -0.27254
-17.8896 -11.237 -1.93758
-18.2711 -10.7119 -2.38144
-17.6635 -11.4487 -1.82906
-18.3748 -10.5748 -2.53956
-18.4849 -10.4013 -2.73183
-16.5915 -12.2794 -0.882372
-18.4082 -10.5057 -2.69536
-17.8865 -11.1008 -2.21486
-18.3588 -10.4995 -2.70176
-17.4596 -11.5109 -1.911
-18.1209 -10.6663 -2.66055
-17.3839 -11.5412 -2.00496
-18.2986 -10.3359 -2.99356
-18.2487 -10.4169 -2.9631
-18.0842 -10.5604 -2.88167
-17.8857 -10.752 -2.80318
-16.142 -12.1664 -1.09472
-17.8816 -10.6801 -2.99001
-16.4285 -11.9806 -1.61266
-17.4465 -11.2 -2.59691
-17.9915 -10.4977 -3.18636
-15.7175 -12.5519 -1.0331
-17.0936 -11.497 -2.50743
-14.9473 -13.5981 -0.422472
-15.2729 -12.974 -0.710356
-17.5577 -10.8626 -2.96104
-17.1695 -11.2636 -2.78599
-17.0467 -11.3256 -2.80513
-17.3646 -10.9548 -3.09171
-16.9114 -11.4489 -2.74925
-16.692 -11.669 -2.60532
-16.8186 -11.4606 -2.8545
-16.741 -11.4778 -2.90606
-16.802 -11.4234 -2.92855
-16.4999 -11.7569 -2.74302
-16.4534 -11.6651 -2.93907
-19.5111 -11.0611 -0.231234
-16.9759 -10.8685 1.28247
-17.9823 -11.4514 0.562883
-19.1356 -11.1234 -0.583849
-19.3374 -10.8086 -0.874033
-19.0348 -10.9038 -1.06313
-18.5883 -11.499 -0.604865
-18.8463 -11.0891 -1.05903
-18.5812 -11.2041 -1.17709
-18.4549 -11.1099 -1.45879
-18.5727 -10.9172 -1.63864
-18.4096 -11.0367 -1.63278
-16.008 -12.9003 0.707176
-16.238 -12.6315 0.473738
-18.322 -11.0767 -1.66145
-18.6277 -10.6561 -2.07219
-18.1309 -11.2723 -1.64131
-18.6119 -10.6465 -2.13662
-17.0603 -12.0911 -0.658248
-17.834 -11.5023 -1.48148
-17.9904 -11.2559 -1.72661
-17.8968 -11.3555 -1.7344
-16.9406 -11.9841 -0.929746
-17.7214 -11.4021 -1.83439
-16.8367 -12.0181 -0.968063
-16.3149 -12.3948 -0.533746
-18.263 -10.5463 -2.71407
-18.1982 -10.5763 -2.76589
-17.77 -10.9982 -2.53253
-16.1029 -12.2377 -1.08599
-17.7257 -10.9303 -2.70556
-16.3098 -12.0749 -1.54011
-17.6138 -10.8859 -2.90171
-17.0219 -11.57 -2.39115
-17.255 -11.2888 -2.60355
-17.8033 -10.5914 -3.16424
-17.6063 -10.8293 -2.97369
-17.2097 -11.3019 -2.63829
-15.6847 -12.5402 -1.12474
-17.3776 -10.9846 -3.02635
-17.1347 -11.2816 -2.84274
-16.9419 -11.4123 -2.78886
-17.2214 -11.0409 -3.11366
-17.1661 -11.1379 -3.07188
-16.2102 -11.6101 -2.10811
-14.6952 -13.3972 -1.01672
-16.455 -11.7481 -2.7423
-15.3233 -12.4434 -1.62097
-16.7205 -11.3913 -3.06708
-16.6281 -11.5185 -2.96231
-15.2786 -12.4884 -1.59319
-16.3756 -11.7197 -2.9079
-15.3245 -12.0083 -1.95181
-14.6173 -12.7341 -1.54402
-13.9346 -13.846 -1.89614
-19.324 -11.2805 -0.0628278
-18.108 -11.2756 0.388317
-19.2414 -10.9107 -0.84374
-17.8492 -11.2794 0.0100689
-17.8108 -11.2937 0.00586554
-18.9165 -10.8689 -1.32709
-17.7083 -11.248 -0.225206
-17.5226 -11.4683 -0.0332287
-18.4952 -11.3157 -0.991903
-18.3723 -11.4686 -0.915216
-16.9229 -12.0472 0.304991
-16.4487 -12.4813 0.511947
-18.2271 -11.1178 -1.68772
-18.3542 -10.9508 -1.88943
-18.3211 -10.9398 -1.92189
-17.8009 -11.4127 -1.67246
-17.782 -11.3943 -1.70606
-16.8862 -12.0138 -0.982342
-17.141 -11.2282 -1.30983
-18.5138 -10.3499 -2.79086
-16.3078 -12.366 -0.577036
-18.2358 -10.6485 -2.57022
-15.5152 -13.1103 -0.221023
-15.4602 -13.1363 -0.22797
-17.607 -11.0292 -2.66859
-15.0463 -13.5264 -0.426528
-15.2001 -13.0496 -0.645537
-16.5353 -11.6973 -2.80109
-15.0986 -12.7504 -1.34414
-16.6711 -11.4815 -2.96619
-15.2957 -11.9954 -2.01472
-14.9795 -12.1479 -2.21473
-18.7648 -11.4456 -0.454292
-16.7779 -12.0644 0.163774
-17.6451 -11.4117 -0.695796
-17.6077 -11.4373 -0.725451
-16.266 -12.56 0.396825
-18.6369 -10.5832 -2.18534
-17.4557 -11.3568 -1.10797
-18.0448 -11.2548 -1.67567
-18.131 -10.8772 -2.31874
-16.8567 -11.437 -2.84769
-15.2664 -12.5567 -1.50984
-15.4516 -11.8946 -2.0277
-14.7016 -12.4618 -2.04691
-19.0468 -10.8053 -1.35002
-18.4309 -11.5004 -0.754629
-18.4131 -11.4753 -0.824544
-18.6753 -11.018 -1.33194
-18.4015 -11.2115 -1.28246
-18.0452 -11.3267 -1.60548
-17.8689 -11.3786 -1.68215
-17.8792 -11.341 -1.72198
-17.3029 -11.6171 -1.97038
-16.731 -11.8179 -2.31768
-16.439 -11.7606 -2.77709
-15.713 -11.7505 -2.39312
-14.6856 -12.6165 -1.6227
-14.7925 -12.3416 -2.08925
-14.3408 -12.7744 -1.87631
-13.3689 -14.1628 -2.05949
-15.7824 -11.2844 1.7972
-16.3923 -12.2938 -0.58376
-16.6625 -12.1684 -1.00696
-17.0461 -11.2042 -3.08485
-15.3847 -11.8772 -2.07775
-16.6505 -12.2106 0.249151
-18.0365 -11.4091 -1.34282
-16.3936 -12.3355 -0.555925
-16.6009 -11.6744 -2.78774
-15.6374 -11.7712 -2.41925
-17.8593 -11.329 -1.78364
-16.7549 -12.1308 -1.03237
-16.3243 -12.4719 -0.323111
-15.1287 -12.442 -1.73784
-17.1768 -11.8896 -0.925309
-14.9694 -13.2823 -0.700654
-14.9028 -12.4283 -1.78528
-15.1065 -12.0657 -2.26833
-15.3451 -11.955 -2.04027
-15.4556 -11.9093 -1.9919
-15.5089 -11.8703 -2.03619
-17.1888 -11.2782 -2.69085
-18.006 -10.6344 -2.85148
-17.2065 -11.5283 -2.23699
-16.424 -11.917 -1.63864
-16.0727 -11.9709 -1.32324
-18.4144 -10.6865 -2.26489
-17.9475 -11.2276 -1.92212
-17.792 -11.3697 -1.71299
-18.6307 -10.8599 -1.72049
-17.4198 -11.3902 -1.0683
-17.8223 -11.5813 -1.3688
-17.949 -11.4775 -1.40023
-16.3421 -12.503 -0.255307
-17.5237 -11.5372 -0.729455
-16.8859 -12.2956 -0.496169
-17.6009 -11.4441 -0.675702
-17.5756 -11.5037 -0.651782
-18.7195 -11.1991 -1.00436
-18.7412 -11.173 -1.01143
-18.8852 -11.0419 -1.03481
-17.5415 -11.4289 -0.122636
-18.5126 -11.5064 -0.617603
-19.0205 -11.0313 -0.824754
-18.7029 -11.3743 -0.662614
-18.7672 -11.3642 -0.681878
-19.2342 -10.8925 -0.851858
-18.7038 -11.3596 -0.653157
-19.2469 -10.8858 -0.869526
-19.0817 -11.0556 -0.788876
-17.4198 -11.5832 0.0703737
-17.7164 -11.3548 -0.0165558
-17.3807 -11.6664 0.171653
-19.0847 -11.127 -0.580078
-18.6993 -11.5076 -0.42439
-19.0954 -11.2969 -0.355755
-19.4152 -10.952 -0.463949
-19.2297 -11.1674 -0.372643
-19.687 -10.9261 -0.299059
-19.1297 -11.4334 0.0042665
-18.863 -11.6876 0.1417
-16.2249 -10.8591 1.47208
-19.3316 -11.3337 0.121011
-18.2903 -11.2547 0.782804
-15.2954 -11.9929 -2.02862
-16.73 -11.7791 -1.56492
-14.8291 -13.4773 -0.809753
-15.2088 -12.8891 -0.825266
-18.5836 -10.7211 -2.01671
-17.9149 -11.2968 -1.70705
-17.8523 -11.3741 -1.65173
-18.4557 -10.9852 -1.65409
-18.0232 -11.446 -1.41745
-18.0085 -11.565 -1.18855
-17.9922 -11.5709 -1.17859
-18.9793 -10.7324 -1.50642
-16.1304 -12.5226 -0.163679
-18.4083 -11.4787 -0.832528
-18.5913 -11.4895 -0.606917
-15.9099 -12.9317 0.7571
-15.9658 -12.9204 0.751251
-19.2215 -11.0122 -0.60178
-18.9015 -11.4748 -0.281789
-16.2389 -10.8415 1.50006
-16.0477 -11.0623 1.65035
-16.9668 -10.8537 1.26386
-18.277 -10.7783 -2.22619
-18.0364 -11.4974 -1.2187
-17.5613 -11.5654 -0.603838
-18.4477 -11.5381 -0.746142
-18.5165 -11.4651 -0.752043
-17.768 -11.1908 -0.2437
-15.8831 -12.8556 0.559345
-16.8556 -12.1201 0.357652
-19.165 -11.1121 -0.56488
-19.166 -11.2091 -0.334578
-16.7322 -11.8373 -2.33876
-17.7834 -11.3395 -1.84522
-17.9707 -11.2226 -1.79298
-18.0723 -11.441 -1.25972
-18.1504 -11.5133 -1.03944
-17.6186 -11.5029 -0.651024
-18.5701 -11.3895 -0.786125
-19.3343 -10.917 -0.693291
-16.2001 -10.9046 1.59227
-16.407 -10.8356 1.87246
-16.3497 -11.9374 -1.68701
-17.3851 -11.4361 -1.06959
-18.0617 -11.4455 -1.26916
-17.7317 -11.3493 -0.349556
-19.1652 -11.2465 -0.354967
-17.8327 -11.4338 0.334329
-17.7057 -11.5211 0.371079
-16.698 -11.6727 -2.91694
-16.3284 -12.0039 -1.67683
-18.4547 -11.1791 -1.33714
-15.5133 -13.2531 0.0332169
-18.6289 -11.1313 -1.17768
-16.4478 -12.4066 0.174837
-19.5392 -11.141 0.0426729
-17.9897 -11.5807 0.797151
-17.8213 -11.3598 -1.61496
-16.2758 -12.4127 -0.818308
-15.4761 -13.0122 -0.380895
-16.7031 -12.2556 -0.00755775
-16.7686 -12.2009 0.106899
-17.4463 -11.4327 -0.0699505
-17.9586 -11.3923 -1.56136
-16.2046 -12.6083 0.420595
-15.2617 -12.9334 -0.982727
-16.1375 -12.4796 -0.405522
-16.1952 -10.8807 1.5618
-18.2465 -11.1313 -1.36282
-18.1864 -10.5783 -2.77829
-17.6251 -11.0159 -2.68661
-14.7702 -12.3556 -2.12158
-16.1136 -11.7285 -2.05777
-17.367 -11.4058 -2.29842
-18.5998 -10.5484 -2.3298
-18.4694 -10.7685 -2.10459
-17.1111 -11.7383 -1.93294
-17.9231 -11.3286 -1.72385
-18.441 -10.9792 -1.7126
-17.8699 -11.3955 -1.65414
-17.8251 -11.4312 -1.66579
-17.8664 -11.4062 -1.62769
-19.002 -10.687 -1.59978
-16.0231 -12.3047 -1.03936
-18.8228 -10.8332 -1.51711
-19.1644 -10.7436 -1.22869
-18.0742 -11.6404 -0.990486
-18.7046 -11.1707 -1.01932
-18.7809 -11.1494 -1.02693
-18.3036 -11.4877 -0.9098
-18.3747 -11.4449 -0.930398
-18.9635 -11.1312 -0.778977
-18.5401 -11.4944 -0.629987
-15.7422 -12.8481 -0.0538652
-19.0301 -11.2025 -0.569934
-19.0493 -11.181 -0.557456
-17.5491 -11.4044 -0.134454
-19.6586 -10.7605 -0.574359
-19.3713 -11.0363 -0.408835
-16.4623 -12.3529 0.284906
-15.9939 -12.7567 0.455885
-16.0105 -12.8419 0.629362
-19.4342 -11.22 0.0497044
-18.1277 -11.3923 0.730441
-16.0222 -11.0624 1.60656
-16.4104 -11.7381 -2.77777
-17.8129 -10.8498 -2.72712
-15.5266 -11.8848 -1.99769
-18.3284 -11.1305 -1.56464
-17.3421 -11.4548 -1.0686
-14.7439 -13.5092 -0.775629
-15.9381 -12.4588 -0.242735
-19.1893 -10.9012 -0.854718
-18.4934 -11.5313 -0.614811
-18.9354 -11.4737 -0.133441
-19.4957 -11.1926 0.0120979
-18.0503 -11.4476 0.651285
-18.976 -11.5814 0.392371
-18.3198 -11.2338 0.754385
-18.2723 -11.2573 0.775512
-16.5742 -11.7745 -2.52425
-18.5273 -10.9866 -1.62567
-19.3353 -10.828 -0.891741
-16.2519 -12.4984 -0.212798
-16.3735 -12.4748 -0.244603
-18.8767 -11.2599 -0.488875
-15.7123 -13.0149 0.638315
-19.2902 -11.2947 0.113971
-18.4208 -10.6701 1.03041
-16.0367 -11.1408 1.79793
-14.649 -12.6374 -1.59344
-15.5848 -12.5557 -1.19093
-17.8998 -11.528 -1.41066
-17.2959 -11.4499 -1.08511
-15.0633 -13.5168 -0.471724
-15.7704 -12.8613 -0.0170562
-19.3159 -11.2623 0.294414
-18.1126 -11.5563 -1.04292
