-17.1828 -11.5681 0.112137
-17.8078 -11.5027 1.2221
-16.63 -12.1402 -0.816304
-16.5666 -12.1611 -0.798989
-16.4824 -12.3891 -0.52484
-15.2244 -12.5699 -1.31558
-16.064 -12.5911 -0.0634597
-16.2813 -12.3926 0.500233
-14.7955 -12.7944 -1.37607
-15.01 -12.8452 -1.10408
-15.7826 -12.6422 0.0661689
-14.9326 -12.8973 -1.03529
-15.0656 -13.027 -0.535063
-15.315 -13.0786 -0.156292
-15.8045 -12.7763 0.713264
-14.9135 -13.0993 -0.52006
-14.8126 -13.6034 -0.217093
-17.9436 -10.6417 -2.85371
-17.5721 -10.9038 -2.89293
-18.2808 -10.897 -1.92351
-18.2989 -10.8957 -1.89199
-19.2979 -10.8987 -0.447638
-17.613 -11.3669 -1.80574
-18.5798 -11.5297 -0.0682088
-18.8396 -11.5141 0.509104
-16.926 -11.8529 -1.77416
-15.8862 -12.1295 -2.66281
-15.912 -12.3121 -0.909513
-15.9363 -12.3166 -0.87318
-16.2109 -12.4235 -0.246565
-16.1161 -12.5318 -0.149459
-16.1158 -12.5587 -0.0839614
-15.2205 -13.0901 -0.26094
-15.2202 -13.1074 -0.195611
-15.1024 -13.2031 -0.20474
-18.1742 -10.9072 -1.96905
-18.2438 -10.9215 -1.88148
-17.0798 -11.4564 -2.44082
-17.6142 -11.2346 0.0133544
-16.0323 -12.3665 -0.618177
-16.0714 -12.3896 -0.543695
-15.9765 -12.4082 -0.61468
-16.0327 -12.4271 -0.510374
-16.3554 -12.4328 -0.0763558
-15.4245 -12.4957 -1.21513
-15.8719 -12.4827 -0.629736
-16.2424 -12.4463 -0.151669
-14.8451 -12.7821 -1.37447
-15.191 -13.0621 -0.315496
-15.1855 -13.1688 -0.147325
-15.1888 -13.1982 -0.0572698
-18.5027 -10.8509 -1.7118
-17.809 -11.3639 -1.47413
-16.5753 -12.1937 0.184585
-16.3859 -12.3332 -0.186728
-16.0358 -12.3938 -0.554865
-14.9638 -12.6402 -1.47412
-16.9765 -11.4297 -2.5778
-15.5743 -11.9665 -2.10936
-14.618 -13.5338 -0.585508
-18.8679 -10.8875 -1.07272
-17.0544 -11.286 -1.27131
-16.4087 -12.096 -1.1719
-15.9608 -12.6773 -0.15673
-14.5932 -12.952 -0.968683
-14.9176 -13.6212 -0.0682102
-17.8775 -11.2394 0.493409
-16.6478 -12.089 -0.819733
-15.4996 -12.3885 -1.21554
-14.0879 -13.4466 -1.12271
-17.729 -11.4018 -0.437818
-18.8485 -10.9346 -1.01991
-18.8144 -10.898 -1.03524
-18.3706 -11.261 -1.00617
-17.5876 -11.0194 -2.60234
-18.1184 -11.5191 -0.790585
-18.1022 -11.5332 -0.774221
-17.5961 -11.2742 0.0560178
-17.5494 -11.5593 -1.49821
-17.2812 -11.5439 -1.93853
-16.9062 -11.3454 -2.86818
-16.8995 -11.373 -2.88542
-16.8768 -11.3837 -2.84877
-16.9813 -11.4535 -2.57137
-16.9482 -11.4612 -2.63825
-16.9362 -11.4607 -2.63293
-16.858 -11.6909 -2.28892
-16.8259 -11.6946 -2.27717
-16.689 -11.5835 -2.683
-16.7011 -11.65 -2.60718
-16.6887 -11.6475 -2.5695
-17.1597 -11.9305 -0.466369
-16.8499 -11.8463 -1.9256
-17.1544 -11.962 -0.472
-16.5184 -10.8522 1.58247
-16.9952 -11.8179 0.35736
-16.3182 -11.7801 -2.82895
-16.4507 -12.1929 -0.990601
-15.7817 -12.1089 -2.83837
-15.4757 -12.6481 -0.845506
-15.4946 -12.6545 -0.811641
-15.7946 -12.7836 0.713627
-15.1743 -13.083 -0.288131
-14.4073 -13.518 -0.949252
-13.723 -12.8366 -1.88193
-19.1042 -10.91 -0.624386
-18.8905 -10.9468 -0.85011
-18.7307 -10.907 -1.12321
-18.6855 -11.0473 -0.883198
-18.3853 -10.8534 -1.78857
-18.4221 -11.196 -0.973659
-18.6179 -11.4012 -0.34776
-17.9821 -10.9823 -2.12893
-18.5197 -11.5273 -0.196161
-17.9462 -11.1703 -1.7977
-17.6849 -11.0138 -2.41454
-18.1543 -11.5755 -0.56334
-17.8172 -11.3913 -1.49084
-17.3512 -11.2319 -2.48045
-17.545 -11.601 -1.50891
-16.9541 -11.3806 -2.69198
-17.2668 -11.5544 0.152485
-17.2462 -11.5332 0.172579
-16.8765 -11.5726 -2.44639
-17.2501 -11.5616 0.156236
-16.6555 -11.6031 -2.71006
-16.5192 -11.6763 -2.73908
-16.5073 -11.6995 -2.731
-16.7252 -12.0855 -0.768543
-15.9192 -11.0262 1.8793
-15.7388 -11.1031 1.80779
-15.6467 -11.0669 1.62174
-15.1019 -12.0402 -2.20188
-15.8331 -12.5893 0.0201286
-15.4911 -11.271 1.89901
-15.8431 -12.7498 0.748545
-15.438 -13.1816 0.252062
-15.1418 -13.1253 -0.270493
-14.8564 -12.9766 -0.827452
-14.5027 -12.8008 -1.39174
-19.3472 -11.1123 0.0936285
-18.6604 -11.0607 -0.979328
-17.7409 -10.7077 -3.04512
-18.8469 -11.5253 0.495808
-17.9071 -11.1834 -1.75973
-17.6845 -11.0503 -2.41147
-17.6391 -11.0374 -2.40247
-18.2086 -11.7036 -0.300903
-17.4613 -11.2641 -2.31427
-17.5622 -11.2998 0.102856
-17.644 -11.4562 0.569259
-16.9409 -11.3009 -1.14997
-17.2474 -11.558 0.198598
-17.1698 -11.5601 0.0963165
-16.6289 -11.6353 -2.62644
-16.4655 -10.8218 1.6129
-16.3194 -10.7414 2.11319
-16.7744 -11.9687 0.411677
-16.2225 -11.9761 -2.5532
-16.5403 -12.1296 -0.922938
-16.5365 -12.1855 -0.795803
-16.3847 -12.168 -1.06283
-16.2927 -12.4458 -0.130435
-16.3133 -12.38 0.546813
-15.7249 -12.2106 -1.21276
-15.8231 -12.406 -0.773963
-15.3913 -11.3426 1.87379
-15.8069 -12.8369 0.860859
-15.1644 -13.1166 -0.261587
-14.4404 -12.8158 -1.39627
-13.4378 -14.1276 -1.86779
-18.2837 -10.9089 -1.86876
-18.2128 -11.1536 -1.43323
-18.2293 -11.3396 -1.01281
-17.6147 -11.1514 -2.29186
-17.6755 -11.371 -1.78424
-17.6176 -11.3711 -1.75828
-17.0183 -11.1608 -2.99715
-17.1942 -11.5553 -2.11752
-17.0657 -11.465 -2.43918
-17.5068 -11.6617 0.824794
-17.2693 -11.5363 0.160453
-16.9445 -11.8416 -1.74715
-17.188 -11.9474 -0.482015
-16.4358 -12.0991 -1.11577
-16.1872 -12.1096 -1.41085
-16.3359 -12.3542 0.575715
-16.2134 -12.4403 -0.257859
-15.8707 -12.3176 -0.924867
-15.7784 -12.7929 0.680531
-15.2418 -13.1206 -0.186619
-15.123 -13.037 -0.539608
-14.9557 -13.1596 -0.431933
-18.4 -10.8367 -1.82436
-18.144 -10.791 -2.26377
-18.0951 -10.779 -2.36946
-18.2496 -10.9234 -1.84982
-17.6444 -11.225 0.0875202
-16.9335 -11.3443 -2.8453
-17.5273 -11.6435 0.846242
-16.8685 -11.8424 -1.89507
-16.2554 -10.8083 1.6109
-16.195 -10.8068 1.59161
-16.0713 -12.4008 -0.520066
-16.0129 -12.3744 -0.669228
-16.124 -12.5718 -0.104476
-16.0783 -12.5822 -0.162163
-15.2596 -13.1606 -0.0645429
-15.1039 -13.0351 -0.488808
-15.2084 -13.1186 -0.153847
-14.3872 -12.8528 -1.38506
-14.8031 -13.5472 -0.482056
-14.6883 -13.5702 -0.491309
-18.805 -10.8527 -1.24991
-18.1253 -10.7626 -2.38341
-18.4364 -11.2597 -0.894954
-17.4706 -11.2732 -0.0367555
-17.1372 -11.9564 -0.524979
-15.5493 -11.9906 -2.11368
-14.6979 -13.5548 -0.558008
-17.6083 -11.3379 -1.91164
-17.5155 -11.2726 0.0315303
-15.0584 -12.5682 -1.60517
-14.8272 -12.9576 -0.863442
-14.6811 -12.8928 -1.16931
-14.3629 -13.5069 -0.803801
-15.4589 -12.106 -1.67906
-15.8683 -12.7726 0.746859
-18.8881 -10.9011 -1.06954
-17.3987 -11.4978 -0.525183
-17.5796 -11.5508 0.682971
-16.2958 -12.0327 -2.25682
-15.4885 -11.9869 -2.13359
-17.5341 -11.3399 0.122198
-16.4546 -12.4102 0.0969998
-14.8726 -13.6105 -0.110528
-15.306 -12.2752 -1.37729
-16.1432 -10.7791 1.38997
-19.3815 -10.8301 -0.378407
-18.7143 -11.1234 -0.782347
-18.4663 -11.179 -0.994896
-18.5129 -10.6277 -2.13648
-17.7141 -11.4435 0.688106
-18.3183 -10.7031 -2.19727
-18.2383 -10.7855 -2.18696
-18.1159 -11.5303 -0.765401
-18.0547 -10.8924 -2.14264
-18.0489 -10.7495 -2.49337
-17.997 -10.7221 -2.61086
-16.4806 -10.8223 1.43311
-17.8684 -10.8541 -2.53008
-17.2474 -11.5321 0.141414
-17.8122 -10.8406 -2.67535
-17.783 -10.8266 -2.68557
-17.6748 -11.6872 -1.0022
-17.1249 -11.6656 0.239472
-17.6112 -11.3851 -1.75197
-17.594 -11.0458 -2.57774
-17.4439 -11.5479 -1.67656
-17.1567 -11.9675 -0.446445
-17.401 -11.0546 -2.69929
-17.3787 -11.3248 -2.26554
-17.2694 -11.5486 -1.93297
-16.6833 -12.073 0.460447
-17.1766 -11.5165 -2.15307
-15.7156 -11.0981 1.80677
-17.0333 -11.4804 -2.38342
-15.6412 -11.0492 1.62757
-17.0233 -11.4706 -2.46666
-16.9887 -11.3636 -2.73698
-16.8816 -11.8488 -1.83584
-16.9175 -11.5801 -2.38606
-16.5059 -12.2369 0.0736995
-16.9182 -11.3274 -2.92542
-16.9131 -11.4773 -2.60411
-16.8325 -11.7933 -1.97797
-16.8579 -11.5629 -2.49969
-16.8147 -11.9683 -1.67634
-16.8089 -11.5524 -2.58663
-16.485 -12.0864 -1.16046
-16.3374 -12.3468 -0.218899
-16.4688 -12.1927 -0.983891
-16.691 -11.6075 -2.66949
-16.6468 -11.6527 -2.57177
-16.0017 -12.5183 -0.353295
-16.3136 -11.7911 -2.79427
-15.7402 -12.8661 0.823406
-15.7185 -12.9136 0.879915
-15.7082 -12.9343 0.927157
-16.2559 -11.8566 -2.74846
-16.2448 -11.8407 -2.7816
-15.7673 -12.1091 -2.87321
-15.7508 -12.0909 -2.90218
-15.3399 -11.9852 -1.89399
-14.8637 -12.2214 -2.14324
-18.7806 -11.5421 0.557132
-18.8793 -10.9646 -0.827584
-18.7382 -11.0556 -0.812913
-18.6146 -11.405 -0.343222
-18.6047 -11.3692 -0.413249
-17.8034 -11.5036 1.21137
-18.31 -11.1705 -1.3047
-17.5918 -11.27 0.0626854
-17.9438 -11.1853 -1.71456
-17.9332 -11.1944 -1.69859
-17.883 -11.4932 -1.14288
-17.8495 -10.8479 -2.56066
-17.2156 -11.5496 0.0849928
-17.6883 -11.1863 -2.11223
-17.134 -11.6666 0.263552
-17.5685 -11.5653 -1.49636
-17.5737 -11.5613 -1.50683
-17.5677 -11.595 -1.4758
-17.5396 -11.5805 -1.45693
-17.5651 -10.9946 -2.58698
-17.5804 -11.0237 -2.53686
-17.4631 -11.547 -1.6803
-17.4381 -11.5785 -1.65217
-17.5011 -11.1018 -2.56123
-17.4307 -11.0626 -2.72243
-17.3883 -11.2123 -2.48788
-17.3955 -10.9761 -2.97937
-16.6861 -12.0703 0.431826
-16.6443 -12.1004 0.482961
-15.7273 -11.0019 1.61377
-16.8547 -12.0551 -0.656413
-16.9536 -11.479 -2.56034
-16.9096 -11.5547 -2.39837
-16.9117 -11.4774 -2.64585
-16.5543 -12.1148 -0.671979
-16.2107 -12.4796 0.657856
-15.4018 -11.3544 1.95726
-16.4593 -12.0888 -1.12199
-15.3986 -11.3488 1.86559
-15.3426 -11.3216 1.78953
-16.2362 -12.424 -0.211937
-16.0677 -12.3112 -0.673643
-16.0169 -12.5076 -0.381522
-16.0244 -12.4405 -0.517861
-16.2208 -11.9716 -2.53159
-15.7644 -12.2208 -1.21919
-15.3762 -13.3197 0.412613
-15.2724 -11.9819 -1.93052
-15.0248 -13.5934 0.106043
-14.9438 -13.581 0.0816145
-19.2122 -10.9676 -0.405521
-18.8376 -11.5167 0.465801
-18.7784 -10.8294 -1.32781
-17.8916 -11.3355 0.681615
-18.4839 -10.5958 -2.19827
-18.4311 -10.5825 -2.31336
-18.3788 -10.8641 -1.80733
-17.779 -11.3444 0.545172
-17.7636 -11.3099 0.46129
-18.2507 -11.4121 -0.786686
-18.2176 -11.1554 -1.42495
-18.2115 -11.211 -1.30441
-18.1541 -11.529 -0.622291
-18.1717 -10.6131 -2.56284
-17.9706 -10.9648 -2.15162
-17.7861 -11.3811 -1.53057
-17.6705 -11.0467 -2.42784
-17.557 -11.5591 -1.51116
-17.5343 -11.5743 -1.48362
-17.6016 -10.9135 -2.79264
-17.5695 -10.8876 -2.85795
-17.5737 -10.8891 -2.89333
-17.5457 -11.1517 -2.39003
-17.2581 -11.6937 -0.765186
-17.4439 -11.0646 -2.64698
-17.4008 -11.2591 -2.3353
-17.3478 -11.3743 -2.21238
-17.1181 -11.7001 -1.79611
-16.7463 -11.8025 -1.07648
-15.6362 -11.0568 1.62382
-16.6474 -12.0594 -0.976995
-15.5003 -11.2944 1.96887
-16.5357 -12.1404 -0.91939
-15.8361 -12.5769 0.0556106
-16.2488 -11.8458 -2.63278
-15.6235 -12.5718 -0.112836
-15.6181 -12.9951 0.261277
-15.3448 -13.2528 0.257442
-15.3285 -12.1119 -1.68026
-15.1474 -13.1118 -0.254922
-15.0254 -13.2072 -0.215626
-14.8834 -13.1154 -0.55313
-14.4225 -12.6652 -1.60773
-14.3842 -12.8968 -1.35007
-14.3689 -13.4983 -1.00391
-18.1548 -11.1638 0.978111
-17.8322 -11.2833 0.564652
-17.7772 -11.4064 0.670532
-17.7822 -11.3225 0.488591
-18.1561 -11.5834 -0.563559
-18.174 -10.7826 -2.27315
-17.5167 -11.6872 0.847121
-17.6003 -10.8556 -2.8877
-17.433 -11.5995 -1.57693
-16.7762 -11.9474 0.332071
-15.4833 -11.3495 2.05966
-16.6384 -11.5508 -2.9479
-16.0667 -12.4891 -0.343757
-15.0798 -11.5988 1.94781
-15.9518 -12.3407 -0.808377
-15.897 -12.2746 -0.954462
-15.2561 -13.1563 -0.0711321
-15.1688 -13.2366 -0.0277613
-15.1112 -13.0327 -0.507305
-14.9727 -13.1464 -0.46462
-18.8427 -11.3677 -0.108625
-18.3478 -11.1693 -1.23333
-18.2532 -11.5352 -0.553791
-18.2801 -10.9151 -1.86583
-18.2154 -11.3141 -1.09726
-16.1992 -10.8048 1.63426
-16.9784 -11.2663 -1.13092
-15.6861 -11.073 1.70422
-16.5791 -12.1903 0.229791
-16.7347 -12.1022 -0.699869
-16.4478 -12.2229 0.425765
-16.3349 -12.3421 0.54246
-16.3001 -12.3772 0.584233
-16.3044 -12.3857 0.403011
-16.735 -11.6023 -2.6304
-16.4792 -12.1231 -1.08979
-16.6471 -11.6141 -2.62129
-16.4003 -12.2248 -0.90026
-16.5702 -11.6138 -2.73564
-16.1424 -12.3791 -0.513885
-15.9003 -12.5156 -0.537645
-15.9018 -11.6975 -2.04156
-15.273 -11.9854 -1.90551
-14.5472 -12.5191 -1.92544
-14.3891 -12.6501 -1.83436
-14.2568 -12.7861 -1.79012
-13.9475 -13.3718 -1.24585
-17.6142 -11.5239 -1.47707
-16.7674 -11.981 0.369267
-16.6411 -12.1234 0.485389
-16.9271 -12.0076 -0.716061
-16.3972 -12.3027 -0.796426
-16.2641 -12.5299 0.0268463
-16.5875 -11.5741 -2.82936
-16.1329 -12.5307 -0.138422
-16.1172 -12.3205 -0.678691
-15.8519 -12.8065 0.780875
-15.1797 -13.1599 -0.139584
-14.5805 -12.4893 -1.97284
-18.008 -11.0198 -2.0153
-17.0886 -11.6655 0.227913
-16.5693 -12.1365 0.272772
-16.2374 -12.474 -0.231368
-15.7526 -12.8623 0.782039
-15.2539 -11.9973 -1.94665
-15.1361 -12.533 -1.50691
-18.1768 -11.1867 0.730671
-18.2383 -10.918 -1.90626
-17.5707 -11.5377 0.653166
-17.1368 -11.3345 -1.10603
-16.2871 -12.356 -0.310683
-16.0151 -12.3144 -0.749073
-15.5215 -11.9408 -2.20211
-15.2946 -12.693 -0.915524
-13.9303 -13.4723 -1.20742
-16.1925 -12.4647 -0.207383
-16.175 -12.5485 -0.0270626
-15.3195 -13.0999 -0.111454
-16.1555 -12.4385 -0.343423
-15.4565 -12.1146 -1.97069
-14.6079 -12.9034 -1.35805
-16.073 -10.8265 1.86447
-15.2887 -12.1318 -1.50985
-19.399 -10.965 -0.125362
-19.26 -11.0759 -0.0596237
-19.3674 -10.8426 -0.402535
-19.0661 -11.1223 -0.277837
-18.8483 -11.4223 0.0663391
-18.8649 -11.3794 -0.0460076
-18.9544 -11.0834 -0.476941
-16.2093 -10.7407 1.93787
-18.7856 -11.1445 -0.627317
-17.6272 -11.5033 0.631097
-18.6867 -11.0683 -0.852446
-18.7618 -10.827 -1.32939
-18.2251 -11.5991 -0.419769
-17.5894 -11.2521 0.0501725
-18.4723 -11.1944 -0.975648
-17.3614 -11.4071 0.0343933
-17.1444 -11.6577 0.246481
-18.2732 -11.0966 -1.45401
-18.0083 -11.441 -1.07597
-18.2197 -11.1267 -1.47438
-16.7953 -11.9722 0.420005
-18.3674 -10.8365 -1.86379
-18.3572 -10.8083 -1.8978
-18.3354 -10.8404 -1.88281
-18.1203 -11.1756 -1.53281
-18.4225 -10.68 -2.1497
-17.8316 -11.3634 -1.58748
-18.1607 -10.8309 -2.17386
-17.7905 -11.3642 -1.61634
-17.7796 -11.3506 -1.61811
-17.5747 -11.5904 -1.45688
-17.5565 -11.5847 -1.45734
-17.5858 -11.5338 -1.52544
-16.326 -12.4058 -0.161878
-17.5159 -11.1668 -2.33461
-16.6896 -11.9141 -1.11594
-17.1061 -11.7256 -1.76596
-16.9944 -11.8049 -1.73904
-17.8082 -10.6653 -3.0431
-17.4107 -11.159 -2.54994
-15.6611 -12.566 -0.110568
-17.405 -11.0696 -2.72906
-15.6256 -12.574 -0.123349
-17.3178 -11.1376 -2.68039
-17.5049 -10.8979 -2.97809
-17.3111 -11.1073 -2.73335
-17.3844 -11.0531 -2.84313
-17.3367 -11.0646 -2.82187
-17.3531 -11.0445 -2.85223
-16.8515 -11.6361 -2.28876
-16.9949 -11.4849 -2.51486
-16.991 -11.4684 -2.51136
-16.9526 -11.4456 -2.56638
-16.862 -11.5107 -2.56396
-16.9859 -11.3561 -2.7421
-16.836 -11.5557 -2.53087
-16.8179 -11.5643 -2.54132
-15.1323 -13.1406 -0.253257
-16.7077 -11.645 -2.6162
-16.8713 -11.369 -2.86036
-16.3673 -11.7365 -2.8205
-16.4301 -11.6066 -2.92949
-15.0785 -12.694 -1.26394
-14.6493 -12.8172 -1.27368
-19.2907 -11.1048 -0.0102191
-19.0587 -11.3507 0.326157
-19.1164 -10.8709 -0.733053
-18.7816 -11.1368 -0.678072
-18.8807 -10.892 -1.00055
-18.8535 -10.8995 -1.00871
-18.3795 -11.5094 -0.439097
-16.136 -10.7751 1.51402
-18.7291 -10.851 -1.33264
-18.4232 -11.0612 -1.29848
-17.1396 -11.7063 0.344687
-17.2302 -11.5284 0.103006
-18.259 -11.1753 -1.27968
-18.2787 -11.1409 -1.33677
-17.1485 -11.5846 0.107674
-18.443 -10.9198 -1.6561
-18.2983 -11.0742 -1.45938
-18.3674 -10.9518 -1.63894
-18.1414 -11.2552 -1.30799
-18.3984 -10.8655 -1.76972
-18.3836 -10.838 -1.80679
-18.2572 -11.0279 -1.60578
-18.2406 -11.0647 -1.57035
-18.3776 -10.7209 -2.08071
-17.2602 -11.6203 -0.503371
-18.3118 -10.7066 -2.18829
-18.1379 -10.8831 -2.0659
-17.8194 -11.3663 -1.5669
-17.9575 -11.1957 -1.77359
-16.1821 -12.5321 0.697169
-17.6362 -11.6113 -1.33194
-18.0446 -10.923 -2.13367
-18.1958 -10.6729 -2.44634
-18.1307 -10.7072 -2.38029
-18.2395 -10.5894 -2.58706
-18.2779 -10.5269 -2.61401
-18.1733 -10.6439 -2.52761
-18.1431 -10.6639 -2.51098
-16.8886 -12.0494 -0.662293
-16.8541 -12.0561 -0.671608
-17.45 -11.5573 -1.64678
-16.9739 -11.3054 -1.08762
-17.9877 -10.7469 -2.60165
-17.5879 -11.2912 -2.02744
-16.3258 -12.4092 -0.173084
-18.0128 -10.6173 -2.83115
-17.3579 -11.5406 -1.81863
-16.053 -12.5977 -0.10253
-17.2376 -11.5795 -1.85779
-17.4214 -11.3051 -2.27631
-15.744 -12.5351 0.012155
-17.1832 -11.5135 -2.16091
-15.9845 -12.5079 -0.405261
-17.7156 -10.6829 -3.07776
-17.6206 -10.8159 -2.9278
-16.8709 -11.8579 -1.81344
-15.6708 -12.587 -0.125899
-17.3751 -11.0708 -2.74901
-15.9719 -12.3831 -0.723553
-15.9545 -12.359 -0.759875
-17.0109 -11.4698 -2.45432
-16.8625 -11.7135 -2.20359
-17.0858 -11.2579 -2.78751
-15.1493 -13.2377 -0.0492597
-16.0738 -12.0772 -1.57007
-16.5687 -11.7805 -2.45167
-15.117 -13.1158 -0.388604
-15.4335 -12.6322 -0.966918
-16.6075 -11.5061 -2.97487
-14.7324 -13.6286 -0.284601
-16.4144 -11.689 -2.81471
-15.3407 -12.5284 -1.26628
-16.2086 -11.8928 -2.66888
-15.369 -12.0571 -1.68374
-15.0893 -12.5035 -1.57945
-14.5343 -12.7786 -1.30732
-14.1265 -12.8469 -1.84854
-13.6734 -12.8563 -1.88308
-18.6673 -11.5544 0.0632059
-17.783 -11.4582 0.79881
-17.7769 -11.4846 0.770222
-18.8428 -10.9141 -1.01239
-18.726 -10.9188 -1.15325
-18.3666 -11.2867 -0.874657
-18.3642 -11.2726 -0.930528
-18.1832 -11.5468 -0.657827
-15.7074 -11.0301 1.67842
-15.4121 -11.3963 1.95907
-18.2592 -11.0726 -1.51622
-18.0692 -11.0343 -1.88836
-17.7897 -11.4139 -1.46772
-16.8255 -12.1561 -0.485774
-15.756 -12.9453 0.924285
-17.5383 -11.484 -1.72209
-17.9229 -10.8221 -2.53938
-18.0043 -10.6621 -2.7607
-17.1021 -11.7036 -1.84345
-17.7728 -10.6899 -3.0195
-17.1336 -11.25 -2.82763
-16.061 -12.2617 -1.35624
-15.8229 -12.0769 -1.14931
-15.1287 -13.1908 -0.20088
-15.0913 -13.1899 -0.229672
-14.4056 -12.661 -1.87685
-13.8666 -13.3802 -1.19947
-14.1496 -12.9128 -1.6002
-12.9313 -14.3504 -2.15049
-19.2455 -10.9764 -0.250574
-19.0688 -11.1971 -0.0750978
-18.7488 -11.5826 0.323036
-18.9643 -11.007 -0.663467
-17.8093 -11.4052 0.67479
-18.6359 -11.2867 -0.555893
-18.6091 -11.1651 -0.839098
-15.925 -11.0286 1.89282
-16.0705 -10.7613 1.42372
-18.2692 -11.4052 -0.790127
-18.4696 -10.6549 -2.08237
-16.6989 -12.0463 0.435016
-16.153 -12.5738 0.779613
-16.4671 -12.3812 -0.490746
-16.1772 -12.5161 -0.128107
-16.4636 -12.1738 -0.9597
-16.8945 -11.8695 -1.81199
-17.3692 -11.066 -2.84669
-16.9549 -11.4369 -2.67958
-15.2523 -12.7274 -0.953435
-14.4174 -12.8457 -1.35507
-13.425 -14.2658 -1.69279
-19.1759 -10.9131 -0.516166
-18.2822 -11.4837 -0.574954
-17.1712 -11.564 0.434538
-17.4379 -11.5275 -0.495001
-18.0151 -11.312 -1.34228
-17.7345 -11.6348 -1.0529
-17.8489 -11.3922 -1.4646
-17.5898 -11.5491 -1.48181
-17.6075 -11.5221 -1.50971
-17.9541 -10.9728 -2.1631
-16.6493 -12.426 -0.27351
-17.5294 -11.4702 -1.66487
-17.8392 -10.9486 -2.32183
-16.7222 -12.0896 -0.725995
-16.1347 -12.3979 -0.469315
-16.1284 -12.3408 -0.505868
-15.2883 -13.109 -0.0787483
-16.8749 -11.5038 -2.61906
-15.2802 -13.0034 -0.316439
-15.1115 -13.1305 -0.26735
-16.5761 -11.6789 -2.72034
-16.0315 -11.7041 -1.97694
-15.935 -11.6739 -2.07346
-14.9902 -12.924 -0.975491
-14.8338 -12.2835 -2.02991
-17.787 -11.34 0.581009
-17.6279 -11.2564 0.101326
-18.1634 -11.5517 -0.629411
-18.4332 -11.1427 -1.16656
-18.2359 -11.1811 -1.27234
-17.6348 -11.5324 -1.48623
-16.2662 -12.404 0.394346
-15.8225 -12.7763 0.771605
-15.9637 -12.255 -0.919017
-14.6332 -13.607 -0.449823
-18.4357 -11.0992 -1.17021
-15.4699 -11.3308 1.98749
-16.7486 -12.0368 0.440455
-16.7612 -11.9912 0.393621
-17.7419 -11.5361 -1.24849
-15.7744 -12.8014 0.779737
-16.8333 -11.4719 -1.21986
-15.4366 -12.8559 -0.376671
-17.8457 -11.2666 0.485753
-17.5605 -11.5359 0.621102
-16.1461 -11.9169 -1.57747
-15.3562 -12.6886 -0.91805
-15.3949 -12.0249 -2.03022
-15.7877 -12.7726 0.958084
-16.2654 -12.4778 -0.142578
-16.2692 -12.3887 -0.253522
-14.0451 -13.4743 -1.1642
-14.0107 -13.4339 -1.18404
-18.636 -11.4347 -0.23679
-15.5228 -11.3149 1.96502
-17.4933 -11.4961 -1.59421
-14.8651 -12.6032 -1.53749
-13.8876 -12.9809 -1.96702
-16.6137 -10.582 2.00534
-17.7589 -11.4447 1.2809
-17.7935 -11.5701 1.2406
-18.7588 -11.5581 0.585641
-18.8099 -11.5294 0.510039
-19.2206 -11.2477 0.220563
-19.279 -11.1168 -0.00755474
-19.2674 -11.0981 -0.0327819
-17.611 -11.5046 0.653203
-19.3563 -10.8489 -0.372887
-18.883 -11.3407 -0.135074
-18.9647 -11.1794 -0.223714
-18.7948 -11.3883 -0.114596
-19.2004 -10.9323 -0.478068
-19.0551 -11.042 -0.488542
-18.8663 -11.1568 -0.448461
-18.621 -11.4206 -0.334012
-17.2029 -11.6453 0.318162
-19.1316 -10.8548 -0.709658
-19.1244 -10.8536 -0.745052
-17.0002 -11.8325 0.372278
-18.867 -11.0527 -0.638762
-18.5935 -11.3607 -0.516602
-18.8736 -11.0711 -0.63901
-19.016 -10.9231 -0.751088
-18.6364 -11.2526 -0.578086
-18.3357 -11.5741 -0.444844
-15.5891 -13.0244 0.970067
-18.2273 -11.5974 -0.395674
-19.1309 -10.763 -0.8612
-17.3655 -11.4149 0.0354423
-17.3693 -11.3875 -0.00335289
-18.6846 -11.0705 -0.85711
-18.5774 -11.2024 -0.831042
-16.2885 -12.4177 0.340452
-18.6336 -11.1228 -0.876793
-18.6455 -11.1364 -0.902429
-19.0205 -10.745 -1.07806
-18.6336 -11.1292 -0.88681
-18.2883 -11.4432 -0.750557
-18.4516 -11.2402 -0.855882
-18.4641 -11.1589 -0.958807
-18.819 -10.8701 -1.21077
-17.3217 -11.5858 -0.492915
-17.8386 -11.735 -0.797581
-18.7293 -10.8298 -1.41586
-18.7396 -10.8087 -1.42785
-18.5573 -10.9385 -1.3578
-18.3625 -11.1453 -1.25828
-18.4259 -11.0584 -1.32162
-17.2698 -11.7117 -0.749508
-18.1983 -11.2111 -1.31196
-18.271 -11.0995 -1.44075
-18.288 -11.0973 -1.45218
-15.6077 -12.5793 -0.0883918
-15.6927 -12.5716 -0.124366
-16.6146 -12.0978 -0.592654
-16.6048 -12.1087 -0.617923
-18.3085 -11.0317 -1.50937
-15.6671 -12.5824 -0.143233
-17.5532 -11.7075 -1.18536
-15.718 -12.8036 -0.297835
-18.2578 -11.0843 -1.57922
-18.185 -11.1114 -1.57604
-18.159 -11.1418 -1.54842
-16.5967 -12.1504 -0.784173
-17.9465 -11.3123 -1.49549
-17.6255 -11.6057 -1.35405
-15.6823 -12.7596 -0.377114
-15.122 -13.1333 -0.249147
-17.6901 -11.4368 -1.54298
-17.6081 -11.4969 -1.55262
-18.2548 -10.9032 -1.92338
-18.2673 -10.8803 -1.95454
-18.3079 -10.816 -1.98576
-17.9133 -11.1744 -1.83773
-17.9297 -11.1649 -1.85451
-18.0277 -11.0364 -1.91039
-14.9223 -13.1985 -0.436842
-17.6552 -11.3863 -1.76922
-18.0507 -11.0165 -1.9524
-15.9006 -12.3048 -0.924228
-17.4986 -11.4468 -1.7901
-18.0934 -10.9063 -2.08941
-17.4766 -11.4363 -1.82215
-17.3989 -11.5242 -1.78014
-18.4662 -10.5952 -2.28434
-17.1323 -11.729 -1.77662
-17.1068 -11.7221 -1.75846
-17.0812 -11.7435 -1.75982
-17.1731 -11.6616 -1.80704
-17.5228 -11.3675 -1.97654
-16.8182 -11.982 -1.67119
-17.2208 -11.6144 -1.8723
-17.658 -11.2512 -2.05091
-16.9926 -11.8136 -1.76462
-17.1431 -11.6657 -1.85979
-16.9112 -11.8376 -1.80035
-18.2628 -10.6439 -2.38407
-17.4036 -11.3638 -2.12987
-17.4117 -11.3478 -2.15504
-18.1192 -10.7092 -2.46219
-16.7118 -11.9122 -1.93198
-18.1939 -10.6188 -2.58105
-17.1997 -11.4822 -2.18646
-17.3345 -11.3901 -2.21823
-17.4038 -11.2994 -2.25336
-18.0874 -10.721 -2.53395
-17.3801 -11.3438 -2.24804
-17.8811 -10.8586 -2.50914
-17.895 -10.8329 -2.5221
-17.8824 -10.8443 -2.52393
-18.0445 -10.7005 -2.57984
-16.7923 -11.7125 -2.25567
-16.8719 -11.6655 -2.28458
-16.5574 -11.9251 -2.18048
-16.8712 -11.6224 -2.33121
-17.125 -11.4329 -2.40634
-17.1356 -11.4138 -2.44802
-17.1671 -11.3783 -2.44671
-17.1795 -11.3607 -2.47156
-17.8202 -10.7604 -2.72117
-16.6878 -11.7527 -2.29256
-18.0175 -10.6232 -2.83514
-18.066 -10.552 -2.8729
-18.0647 -10.5294 -2.90088
-17.035 -11.4468 -2.51668
-17.2443 -11.214 -2.63583
-16.5463 -11.8011 -2.43209
-16.3357 -11.9723 -2.3904
-16.8232 -11.5341 -2.60109
-17.3711 -11.068 -2.837
-17.0008 -11.3716 -2.70006
-17.8057 -10.6746 -3.03269
-17.6694 -10.7508 -2.99143
-17.4913 -10.9144 -2.94821
-16.9553 -11.3734 -2.75527
-17.6581 -10.7485 -3.03404
-17.4925 -10.8733 -2.98727
-17.7303 -10.676 -3.05895
-15.1876 -12.0926 -1.83338
-15.3121 -11.9974 -1.89337
-15.2174 -12.0806 -1.84511
-16.376 -11.7518 -2.76381
-16.3691 -11.7511 -2.81155
-16.6155 -11.5376 -2.9182
-16.8248 -11.3515 -3.00221
-16.4106 -11.6931 -2.84927
-16.9036 -11.2918 -3.04652
-14.6852 -12.3688 -2.09042
-14.8579 -12.1954 -2.16469
-15.7339 -12.1333 -2.89209
-15.4669 -11.0622 2.56209
-18.9118 -11.4362 0.161648
-19.4229 -10.9526 -0.117566
-19.2024 -11.1681 -0.00545362
-19.0173 -11.3193 0.0497884
-15.0266 -11.6163 1.88989
-19.2863 -10.9081 -0.443383
-17.5636 -11.3416 0.167559
-19.0744 -10.9351 -0.642162
-18.849 -11.0612 -0.651462
-15.72 -12.9676 0.966309
-18.2105 -11.6541 -0.362088
-16.22 -12.4637 0.623554
-18.4843 -11.2841 -0.75281
-18.3974 -11.2759 -0.867725
-18.3837 -11.3068 -0.873592
-18.3065 -11.3022 -0.998835
-18.0119 -11.5396 -0.880044
-18.0785 -11.4249 -1.01074
-18.7873 -10.7955 -1.36847
-16.003 -12.6092 -0.00728257
-18.3404 -11.1366 -1.21582
-15.3893 -13.1664 0.216242
-17.6754 -11.6999 -1.00524
-18.0849 -11.2975 -1.25173
-16.4752 -12.3658 -0.519776
-15.6892 -12.5759 -0.0862521
-16.0894 -12.4257 -0.44782
-16.0576 -12.3762 -0.621812
-17.5427 -11.5837 -1.42585
-17.5346 -11.5862 -1.43737
-17.5657 -11.5181 -1.54324
-17.4405 -11.5714 -1.65736
-16.5796 -11.8628 -1.31237
-17.3911 -11.3517 -2.12326
-17.1678 -11.5285 -2.13468
-14.9601 -12.8696 -1.08828
-17.9174 -10.7727 -2.58416
-15.0995 -12.5987 -1.43136
-17.6734 -10.9152 -2.67533
-16.842 -11.5362 -2.53164
-16.4055 -11.9329 -2.376
-16.7698 -11.5863 -2.55033
-16.3979 -11.8586 -2.46893
-17.5299 -10.9115 -2.9369
-14.4317 -12.8044 -1.3917
-16.6829 -11.6227 -2.61826
-17.4736 -10.9454 -2.95436
-15.1283 -12.1532 -1.81461
-16.6645 -11.5481 -2.7914
-16.9116 -11.3538 -2.89473
-15.8349 -12.1198 -2.76008
-15.9353 -11.9935 -2.8744
-13.8918 -12.7498 -1.88558
-16.2253 -10.7901 1.62041
-16.2902 -10.8003 1.61928
-15.7227 -11.0643 1.74617
-17.4735 -11.6202 0.719185
-19.1889 -10.925 -0.468568
-18.9557 -11.1106 -0.449247
-15.7754 -12.8115 0.734232
-18.5067 -11.2731 -0.730308
-16.2573 -12.4073 0.383936
-18.1846 -11.5579 -0.686918
-18.0118 -11.6879 -0.600269
-18.3913 -11.2511 -0.989902
-17.1669 -11.9619 -0.461026
-17.9341 -11.6072 -0.847897
-18.1422 -11.3749 -1.05096
-18.7254 -10.8451 -1.3258
-15.5658 -13.0157 0.24701
-16.0332 -12.6042 -0.0271017
-15.7817 -12.5838 -0.124617
-17.9907 -11.4012 -1.33809
-17.7119 -11.5977 -1.19699
-17.5964 -11.7037 -1.17446
-17.584 -11.6959 -1.19828
-18.1075 -11.1883 -1.45035
-16.068 -12.4441 -0.481182
-15.2353 -13.1434 -0.10947
-17.812 -11.4222 -1.41962
-16.9095 -11.313 -1.17974
-16.2226 -12.3308 -0.988061
-17.9093 -11.1776 -1.8197
-17.5729 -11.3313 -1.99872
-16.092 -12.2306 -1.36176
-16.835 -11.8541 -1.94698
-16.6017 -12.0183 -1.9089
-17.7408 -10.8383 -2.7074
-17.0164 -11.4613 -2.53149
-15.9865 -11.7883 -1.91994
-16.9541 -11.4827 -2.57914
-16.8924 -11.5006 -2.61532
-16.6834 -11.6128 -2.60792
-15.5692 -11.9738 -2.10998
-13.4683 -14.1183 -1.80524
-18.7097 -11.6006 0.599013
-16.2061 -10.7895 1.44699
-17.5006 -11.6746 0.897794
-17.0986 -11.7458 0.352192
-17.3606 -11.3496 -0.0371066
-18.2188 -11.587 -0.543857
-18.2 -11.5362 -0.626316
-18.7544 -10.9953 -0.96733
-18.3197 -11.4241 -0.781393
-16.6079 -12.3225 0.0367758
-16.5907 -12.3155 0.0255817
-18.8549 -10.8368 -1.2122
-16.6177 -12.405 -0.299289
-18.0082 -11.4387 -1.12107
-16.6634 -12.1061 -0.764671
-16.0048 -12.4016 -0.600189
-17.6193 -11.4961 -1.4889
-17.5653 -11.5557 -1.47392
-17.5122 -11.585 -1.52442
-17.4085 -11.5721 -1.66992
-15.9294 -12.2595 -0.941501
-14.8915 -13.1078 -0.566557
-16.3044 -12.1031 -1.36462
-15.8291 -12.0974 -1.14885
-14.9744 -12.7991 -0.794265
-15.0042 -12.7861 -0.844803
-16.1598 -11.8675 -1.60216
-16.5248 -11.9176 -2.17739
-15.9841 -11.8002 -1.91961
-16.3704 -11.9573 -2.35956
-15.2309 -12.1928 -1.69238
-16.7523 -11.5851 -2.62071
-15.5305 -11.9559 -2.14316
-15.0991 -12.0265 -2.16197
-13.8266 -12.9506 -1.89293
-19.0107 -11.3404 0.491673
-18.2804 -11.5986 -0.393543
-18.2664 -11.5848 -0.403314
-15.8705 -12.7695 0.813528
-18.3098 -11.5621 -0.447514
-17.33 -11.4106 -0.0289351
-18.1696 -11.57 -0.564882
-18.2082 -11.4575 -0.747651
-18.1938 -11.4387 -0.797783
-16.5835 -12.3489 -0.00419802
-17.4459 -11.4983 -0.469878
-16.6979 -12.3562 -0.268857
-18.0122 -11.4573 -1.05931
-16.7154 -12.0586 -0.709708
-17.639 -11.62 -1.33965
-18.0041 -11.2008 -1.7442
-17.9359 -11.1923 -1.73811
-18.0527 -10.9547 -2.10335
-15.257 -12.7902 -1.03809
-16.1229 -11.8686 -1.62236
-18.0983 -10.5832 -2.78627
-16.7374 -11.6231 -2.55717
-16.6625 -11.6899 -2.5488
-15.2005 -12.1256 -1.79448
-15.2426 -12.065 -1.82263
-15.5168 -11.9483 -2.18056
-15.2434 -11.9997 -2.08091
-14.1151 -12.9495 -1.64937
-13.3541 -14.2541 -1.70195
-14.6492 -12.425 -2.00943
-18.4947 -10.7059 0.949525
-17.7644 -11.5115 1.25075
-18.1226 -11.1861 0.912188
-17.6404 -11.2515 0.118499
-17.563 -11.2286 -0.137988
-16.4116 -12.3742 0.278401
-16.3035 -12.3954 0.275984
-15.8596 -12.5612 0.0278504
-16.8524 -12.0802 -0.643224
-17.1677 -11.4598 -0.930471
-16.0237 -12.2863 -1.2847
-16.0066 -12.2059 -1.29265
-15.7176 -12.0916 -1.11913
-15.5543 -12.441 -1.1479
-15.0359 -12.6253 -1.49472
-16.892 -11.3319 -2.99425
-15.1664 -12.0048 -2.07093
-13.6389 -13.1173 -1.84379
-13.7202 -12.8591 -1.87305
-13.749 -12.7823 -1.95424
-16.3776 -12.2598 0.417664
-16.2615 -12.5233 -0.0136465
-17.526 -11.4388 -1.73367
-17.1234 -11.1196 -3.0452
-15.4029 -12.0095 -2.3046
-17.4434 -11.5687 0.532035
-18.7279 -11.1124 -0.675543
-16.7248 -11.9326 -1.88366
-14.8994 -12.6978 -1.46908
-14.0415 -13.5434 -1.14642
-15.9325 -11.8211 -2.0095
-16.4841 -12.2943 0.170637
-16.8971 -11.9887 -0.771072
-16.7624 -11.9601 0.261834
-16.8622 -11.8519 0.157464
-16.2746 -12.4925 -0.154077
-17.7424 -11.5399 -1.2318
-17.5651 -11.4884 -1.59557
-16.0582 -10.8195 1.78113
-18.2699 -11.3842 -0.810238
-17.6021 -11.5574 -0.590838
-17.4314 -11.4885 -1.69089
-15.0629 -12.8793 -0.767526
-15.0928 -12.8213 -0.93022
-15.944 -11.9419 -2.891
-14.3242 -12.7964 -1.42979
-16.97 -11.3978 -2.71413
-16.7884 -11.5783 -2.60619
-17.5602 -11.0201 -2.60703
-17.5635 -11.0361 -2.60567
-17.5981 -11.0273 -2.59602
-16.8076 -11.6972 -2.27749
-17.8835 -10.8379 -2.49953
-17.8918 -10.8676 -2.49176
-17.7364 -11.0163 -2.40421
-15.2709 -12.5473 -1.29608
-17.3368 -11.344 -2.23764
-17.0484 -11.6323 -2.11279
-16.1922 -12.0663 -1.45089
-18.136 -10.8247 -2.24609
-17.3763 -11.5195 -1.80422
-17.4688 -11.435 -1.82468
-18.244 -10.9145 -1.93374
-15.0538 -13.0877 -0.494188
-18.0308 -11.1152 -1.74896
-17.5783 -11.5215 -1.538
-16.0425 -12.358 -0.653485
-18.4284 -10.917 -1.72549
-17.7033 -11.5131 -1.3733
-18.1606 -11.1502 -1.52673
-16.0607 -12.4066 -0.482429
-17.1814 -11.4619 -0.926246
-16.627 -12.1046 -0.607935
-16.4818 -12.3641 -0.527664
-15.6793 -12.5606 -0.0964511
-18.5849 -10.9436 -1.35466
-18.7239 -10.8467 -1.41268
-18.0841 -11.3728 -1.10596
-16.004 -12.6042 -0.0722915
-16.1817 -12.5145 -0.143252
-16.2271 -12.4364 -0.1549
-18.053 -11.4446 -1.02521
-16.1202 -12.5484 -0.103936
-17.8134 -11.7204 -0.799934
-18.2344 -11.3753 -0.984465
-18.0369 -11.5458 -0.889689
-18.9864 -10.8186 -1.03338
-18.4849 -11.273 -0.749286
-18.5174 -11.266 -0.749996
-16.3354 -12.4123 0.329523
-15.969 -12.6165 0.59902
-18.2296 -11.6289 -0.394803
-18.7653 -11.1575 -0.631567
-18.8895 -11.0075 -0.688775
-19.1324 -10.8296 -0.733304
-16.3187 -12.3954 0.628812
-17.1778 -11.6361 0.234711
-17.5706 -11.3388 0.16657
-18.6582 -11.3729 -0.32973
-18.4397 -11.5702 -0.233778
-19.0291 -11.0715 -0.447308
-19.2148 -10.9498 -0.431886
-18.7296 -11.4148 -0.106125
-18.8156 -11.3559 -0.140893
-18.8246 -11.3329 -0.149538
-19.0251 -11.1532 -0.21636
-19.1435 -11.1381 -0.148566
-18.9108 -11.3678 0.0081097
-17.8584 -11.2878 0.552779
-15.0192 -11.6001 1.88766
-18.8015 -11.5241 0.192997
-19.3879 -11.0011 -0.0711397
-18.7896 -11.5167 0.592344
-17.701 -11.5069 1.30077
-15.4526 -11.0899 2.56736
-14.2457 -12.775 -1.83826
-15.5659 -11.9904 -2.10993
-17.5713 -10.885 -2.93675
-16.9346 -11.4449 -2.6642
-15.0866 -12.5989 -1.4282
-16.6639 -11.9594 -1.90138
-17.3705 -11.4872 -1.94308
-17.1319 -11.7216 -1.78317
-18.1849 -10.8408 -2.12203
-18.2291 -10.8226 -2.07825
-15.8193 -12.444 -0.821633
-18.2399 -10.9272 -1.85154
-17.6756 -11.44 -1.56535
-17.5432 -11.5717 -1.51078
-17.5487 -11.5862 -1.45031
-18.3352 -10.9937 -1.626
-17.7175 -11.6062 -1.23045
-18.2115 -11.1439 -1.4185
-16.2798 -12.3917 -0.204573
-18.2403 -11.5974 -0.411672
-18.7904 -11.1303 -0.644203
-18.8755 -11.0745 -0.638552
-17.5866 -11.2372 0.0266864
-17.0992 -11.7054 0.291966
-17.4636 -11.4275 0.161618
-17.1591 -11.6894 0.318296
-19.1763 -10.9236 -0.465273
-19.0135 -11.1734 -0.216338
-18.8537 -11.4682 0.17218
-18.919 -11.4087 0.152982
-15.3742 -11.3836 1.95016
-18.1607 -11.187 0.976292
-14.5891 -12.5005 -1.97511
-15.1709 -12.0818 -1.87529
-15.1808 -12.1285 -1.79213
-15.253 -12.1831 -1.67466
-16.1488 -12.0799 -1.47085
-17.1035 -11.729 -1.74094
-16.3683 -12.0773 -1.35055
-15.9071 -12.263 -0.933797
-16.4728 -12.0972 -1.12839
-18.3814 -10.8265 -1.87533
-17.6277 -11.4948 -1.47531
-16.7169 -12.0809 -0.749948
-16.4803 -12.3929 -0.494864
-17.3698 -11.5479 -0.478541
-17.3185 -11.6057 -0.453735
-18.132 -11.5847 -0.652227
-17.1837 -11.5426 0.0392213
-18.815 -11.0552 -0.732098
-18.7278 -11.1603 -0.671467
-18.3385 -11.5698 -0.415611
-18.7034 -11.2212 -0.573489
-18.9193 -11.0299 -0.661896
-15.6621 -12.9664 0.947631
-18.8178 -11.1962 -0.410146
-15.7494 -10.955 1.55153
-18.5708 -11.7265 0.318592
-18.7012 -11.5953 0.60061
-17.9891 -11.2583 0.940502
-15.2808 -11.572 2.17379
-14.1125 -12.9959 -1.63474
-15.2168 -12.0547 -1.85896
-16.5814 -11.8841 -2.19045
-18.0924 -11.0726 -1.76625
-16.3348 -12.4037 -0.203969
-18.2237 -11.5074 -0.708439
-18.2788 -11.5443 -0.573662
-16.9697 -11.7095 0.136511
-18.2934 -11.5516 -0.470789
-17.0554 -11.7544 0.331765
-18.4986 -11.5343 -0.274276
-18.9018 -11.1628 -0.376317
-15.9057 -11.0084 1.87107
-16.7726 -11.5933 -2.63737
-16.6001 -12.0799 -0.97739
-16.8497 -12.0417 -0.711839
-16.3331 -12.4156 0.150895
-17.6397 -11.3839 0.45645
-15.4186 -11.9523 -2.22786
-17.0757 -11.6421 -2.12849
-17.6156 -11.3841 -1.77935
-16.1109 -12.5701 -0.00992819
-16.2826 -12.3992 0.297133
-17.7163 -11.574 0.986748
-15.9017 -12.186 -1.29795
-15.5695 -12.4412 -1.01831
-15.5176 -12.5802 -0.973755
-17.8161 -11.3099 -1.64936
-18.0557 -11.3193 -1.33986
-17.9639 -11.4275 -1.16297
-17.8818 -11.6117 -0.860407
-15.0414 -12.6777 -1.28265
-16.1217 -12.5124 -0.416939
-16.2415 -12.4346 -0.215365
-16.4986 -12.2233 0.264084
-15.946 -12.6585 0.650392
-15.8877 -10.8099 1.44466
-18.1937 -11.3845 -0.887729
-15.7748 -12.8764 0.973797
-15.1727 -12.9305 -0.599174
-16.1978 -12.5103 -0.108264
-17.6555 -10.7509 -3.04011
-17.5725 -11.0383 -2.57764
-17.6819 -11.1216 -2.2535
-16.7863 -11.7325 -2.24009
-15.1744 -12.0803 -1.80976
-18.0869 -10.9283 -2.08521
-14.3121 -12.8364 -1.45867
-18.3775 -10.9687 -1.55655
-17.5705 -11.5067 -1.55143
-18.2083 -11.1394 -1.44089
-18.7724 -10.7738 -1.42247
-17.5228 -11.5799 -1.43272
-18.7646 -10.8027 -1.41784
-18.4728 -11.0326 -1.30139
-18.4206 -11.2072 -0.961389
-16.6689 -12.1271 -0.800919
-18.4779 -11.2629 -0.845498
-15.6595 -12.6297 -0.555717
-18.9029 -10.946 -0.78699
-16.5945 -12.1193 -0.603637
-18.4262 -11.3342 -0.774555
-18.3291 -11.4095 -0.69272
-18.917 -11.0319 -0.667638
-18.0995 -11.6038 -0.564354
-19.3869 -10.812 -0.386933
-17.5308 -11.2316 -0.091788
-19.2956 -10.9053 -0.347318
-18.7431 -11.2821 -0.333577
-15.9475 -12.6084 -0.0164034
-15.7123 -12.563 0.0871236
-17.1629 -11.5538 0.0577325
-17.3451 -11.4542 0.0574489
-18.8124 -11.372 -0.143
-18.8025 -11.5417 0.224489
-17.8528 -11.2957 0.548346
-19.0529 -11.2883 0.464732
-18.954 -11.3665 0.486672
-16.6369 -10.8435 1.24218
-16.7267 -11.6079 -2.60812
-17.5905 -11.0924 -2.39755
-16.8134 -11.6827 -2.29704
-18.3558 -10.8495 -1.87979
-17.5778 -11.547 -1.48303
-17.6213 -11.5342 -1.4295
-18.2317 -11.1395 -1.4256
-17.5696 -11.5827 -1.42518
-18.2482 -11.1045 -1.4005
-18.7433 -10.8224 -1.40224
-16.2444 -12.3178 -0.960954
-18.5037 -11.1352 -0.983727
-18.3861 -11.2531 -1.00359
-18.9588 -10.8665 -0.849034
-18.5867 -11.1608 -0.861518
-18.9904 -11.0609 -0.485459
-18.5344 -11.3982 -0.443466
-16.2759 -12.4183 -0.197276
-15.845 -12.5469 -0.0093695
-17.2942 -11.448 0.0483837
-14.9315 -13.6115 -0.0448058
-18.876 -11.3075 -0.0878902
-15.741 -10.9735 1.55644
-16.6738 -11.6397 -2.64718
-16.2173 -11.9585 -2.61154
-14.4413 -12.7823 -1.44515
-14.2969 -12.8564 -1.43049
-17.7299 -11.4127 -1.58793
-18.5826 -11.0772 -1.11813
-16.7138 -12.0872 -0.743572
-17.8238 -11.7494 -0.793145
-18.019 -11.6414 -0.620909
-16.3395 -12.3444 -0.224366
-18.7905 -11.5885 0.390873
-18.7121 -11.5887 0.582026
-17.8721 -11.4241 0.900954
-16.3485 -11.9535 -2.36972
-15.9396 -11.8407 -1.89074
-17.5364 -11.3627 -1.95592
-17.1805 -11.6304 -1.86684
-17.724 -11.5003 -1.3811
-15.3435 -12.6773 -0.945233
-18.822 -10.9181 -1.05575
-16.6892 -12.1102 -0.769424
-19.3282 -10.9147 -0.360237
-18.5348 -11.4823 -0.286019
-18.4852 -11.5109 -0.283695
-15.7857 -12.6608 0.0821675
-18.8029 -11.4079 -0.103115
-18.6773 -11.5076 -0.057107
-16.2986 -12.4494 0.269935
-16.2501 -12.4223 0.364878
-18.066 -11.2027 0.833308
-15.845 -10.8252 1.51364
-17.7744 -11.5189 1.24039
-17.7353 -11.5292 1.28447
-16.4687 -11.6963 -2.72917
-13.7591 -12.846 -1.91208
-18.7019 -11.6413 0.49777
-15.6652 -12.9422 0.852634
-15.8322 -12.8277 0.907147
-17.0364 -11.3113 -1.27177
-16.6287 -12.2708 0.069999
-16.6869 -12.2344 0.140607
-15.9117 -10.9016 1.71085
-17.7028 -11.5669 -1.23665
-15.1986 -13.0628 -0.294365
-17.5959 -11.5478 1.24255
-17.7407 -11.528 -1.17597
-15.7794 -11.9342 -1.94273
-14.1054 -12.9373 -1.76333
-16.5809 -11.6342 -2.71462
-17.6272 -11.6055 -1.35127
-18.124 -11.5239 -0.75521
-15.292 -12.5335 -1.297
-14.0235 -13.2172 -1.57887
-17.2224 -11.5803 0.210615
-18.5951 -11.7401 0.331211
-18.6063 -11.714 0.363877
-14.9426 -13.1708 -0.424088
-15.8084 -12.5851 0.0195955
-15.4595 -13.07 0.863176
-18.3005 -10.8903 -1.9106
-18.2875 -10.8754 -1.88961
-16.9203 -11.8716 -1.74943
-18.4221 -11.2454 -1.00804
-18.7383 -11.1025 -0.769347
-18.5532 -11.5276 -0.0409651
-17.738 -11.2078 0.138679
-18.7125 -11.6036 0.608535
-15.8019 -12.5389 -0.000184224
-16.3775 -12.271 0.780873
-18.3987 -10.605 -2.30652
-16.6678 -11.6249 -2.6175
-15.999 -12.0406 -2.64548
-14.8432 -12.7623 -1.42085
-12.9155 -14.3665 -2.13576
-16.0407 -12.3545 -0.686006
-18.6043 -11.5522 -0.0610622
-16.1591 -12.5164 -0.171451
-16.3229 -12.4129 0.311659
-14.9986 -13.6013 0.0341726
-18.3997 -10.6203 -2.32774
-15.1152 -13.1509 -0.270375
-15.175 -13.1818 -0.142809
-14.7698 -13.6911 -0.202515
-16.735 -11.6129 -2.48204
-18.1008 -11.5871 -0.607825
-16.5264 -12.1099 -0.98926
-18.7242 -11.2698 -0.387759
-13.8912 -13.3904 -1.34172
-19.3542 -10.9023 -0.378108
-16.0382 -12.5428 0.588013
-16.0935 -11.8065 -1.56492
-15.8628 -12.7349 -0.203262
-15.6276 -12.7783 -0.341876
-13.7599 -13.0936 -1.84019
-17.9842 -10.6161 -2.83674
-17.9024 -10.8295 -2.50665
-17.5409 -11.3516 -1.95173
-18.9158 -10.9059 -0.86694
-16.7728 -11.7384 -2.23479
-16.9001 -11.8478 -1.82401
-17.8285 -11.5703 -1.05546
-16.893 -11.295 -1.14396
-19.0872 -11.1897 -0.103503
-15.3791 -12.4876 -1.23784
-15.5726 -12.6076 -0.790946
-16.1266 -12.5734 -0.0586257
-16.4506 -10.8455 1.61303
-16.6793 -11.6296 -2.63411
-18.867 -10.937 -0.892767
-15.395 -12.0597 -1.75773
-17.8488 -11.2931 0.543043
-15.5313 -12.4487 -1.1612
-15.3577 -12.5166 -1.26607
-15.8453 -12.4186 -0.795957
-16.097 -12.3838 -0.528948
-16.3179 -12.4101 -0.171261
-15.2679 -13.2641 0.187371
-17.9499 -10.9884 -2.14198
-17.4821 -11.4004 -1.97916
-17.0029 -11.8109 -1.78543
-18.1542 -11.5514 -0.566577
-14.361 -12.805 -1.46142
-17.5508 -11.6086 0.744622
-16.1669 -12.5121 -0.151483
-16.3096 -12.4685 -0.00298685
-15.2165 -13.0628 -0.314055
-15.0638 -13.1865 -0.262565
-15.1897 -13.2052 -0.000793623
-17.254 -11.5262 0.166616
-16.6185 -12.1809 0.235575
-16.2954 -12.464 -0.0941768
-15.1702 -13.1418 -0.250969
-18.6601 -11.4918 -0.0971426
-16.0184 -12.311 -1.31189
-18.8586 -10.9342 -0.955936
-15.5798 -12.6272 -0.743165
-17.794 -11.5423 -1.12329
-17.1304 -11.6489 -0.965834
-16.2846 -12.0384 -2.28745
-17.9029 -10.86 -2.50436
-18.7871 -10.927 -1.05131
-18.857 -10.9477 -0.874723
-18.1916 -11.1147 -1.48015
-18.6837 -11.0512 -0.883072
-17.9144 -11.2011 -1.77379
-17.8954 -11.1888 -1.78722
-16.9781 -11.3843 -2.71915
-16.9396 -11.5614 -2.34589
-17.5521 -11.6004 -1.46209
-15.5521 -11.9338 -2.22614
-15.2625 -12.0211 -1.85816
-15.8983 -12.4689 -0.571183
-15.7552 -12.5739 -0.0846636
-15.0534 -12.9787 -0.598461
-15.1338 -13.1026 -0.341137
-15.1746 -13.1659 -0.0828472
-15.1302 -13.2605 -0.05019
-18.2363 -11.1466 -1.41673
-17.4377 -11.2653 -2.37238
-17.9314 -11.5204 -1.05846
-16.8094 -11.683 -2.27827
-16.2119 -11.9655 -2.56471
-16.0494 -12.3746 -0.629401
-15.298 -12.5273 -1.27826
-14.9762 -12.8924 -1.00823
-15.2119 -13.0531 -0.317661
-15.2356 -13.1025 -0.269887
-15.1889 -13.121 -0.306276
-15.1002 -13.1796 -0.201495
-15.2269 -13.2185 -0.0312597
-17.9944 -10.6429 -2.82229
-18.8292 -10.8478 -1.14241
-18.8196 -10.9183 -1.01766
-18.7302 -10.9888 -0.936357
-18.2719 -11.1329 -1.35809
-17.6651 -11.3599 -1.76117
-15.8181 -12.1256 -2.72052
-17.5247 -11.6698 0.898538
-15.8722 -12.5001 -0.639968
-15.0951 -13.0837 -0.437248
-14.9282 -13.1739 -0.441115
-18.7589 -10.9389 -1.04791
-17.514 -11.282 0.00378101
-18.1005 -11.2462 0.770087
-15.8804 -12.3748 -0.837709
-16.0826 -12.4895 -0.271045
-15.1803 -13.1565 -0.136252
-15.1825 -13.2251 -0.0598567
-15.2093 -13.2187 0.00491744
-15.2572 -13.2471 0.0938391
-15.2752 -13.2325 0.139823
-15.3744 -13.2864 0.395615
-16.0589 -12.4792 -0.358441
-17.8483 -11.5006 -1.1416
-15.4217 -12.6885 -0.798625
-14.7337 -13.5396 -0.479843
-18.8819 -10.8927 -1.06148
-16.1472 -12.5774 0.0105568
-16.6365 -11.6743 -1.28689
-15.4531 -12.6664 -0.662628
-16.1804 -10.8219 1.87089
-17.6062 -11.5803 -1.3267
-18.4812 -10.6073 -2.18409
-18.865 -10.9334 -0.967408
-17.7505 -10.6687 -3.07645
-18.7524 -10.9313 -1.12896
-17.8939 -10.8506 -2.49364
-18.7242 -11.0633 -0.817384
-17.5825 -10.8972 -2.86097
-18.3431 -11.1367 -1.27117
-18.1923 -11.1436 -1.50121
-17.411 -10.9731 -2.92909
-17.4109 -10.9888 -2.91749
-17.8185 -11.3768 -1.49717
-18.7401 -11.6237 0.326386
-17.5468 -11.593 -1.46767
-16.9344 -11.4438 -2.63
-16.9221 -11.546 -2.39831
-16.8525 -11.5869 -2.48298
-16.6648 -11.6552 -2.62507
-16.5081 -11.6952 -2.74539
-16.9017 -11.8531 -1.82707
-16.7192 -12.0897 -0.756713
-16.604 -12.0913 -0.645122
-16.453 -12.2045 -0.944212
-16.0717 -12.2176 -1.36014
-16.4768 -12.4002 -0.469093
-16.0677 -12.3367 -0.699291
-16.1964 -12.3435 -0.437377
-16.0038 -12.3822 -0.63866
-16.2587 -12.4618 -0.150652
-15.9083 -11.0071 1.87611
-15.2563 -12.5885 -1.29368
-15.7792 -12.636 0.0523542
-14.3187 -12.7072 -1.87971
-15.4248 -11.3782 1.92956
-15.1375 -13.1137 -0.278156
-15.136 -13.2329 -0.0651365
-15.2983 -13.264 0.246777
-14.8054 -13.637 -0.212715
-17.9881 -10.9602 -2.12766
-17.6838 -10.9223 -2.67522
-17.7079 -11.0592 -2.39367
-17.6588 -11.0714 -2.38076
-17.9659 -11.1865 -1.75509
-17.6202 -11.1542 -2.29726
-17.5952 -11.1355 -2.30173
-17.413 -11.259 -2.34932
-18.1325 -11.5843 -0.62552
-17.6244 -11.5994 -1.37659
-16.9264 -11.864 -1.74566
-17.2563 -11.5602 0.197137
-17.4979 -11.642 0.803217
-16.4469 -12.1007 -1.12897
-16.7503 -12.3398 -0.278737
-15.6084 -12.281 -1.19172
-15.8405 -12.5958 0.0572918
-15.8288 -12.7793 0.750503
-15.0677 -12.9828 -0.618165
-15.246 -13.0552 -0.267638
-15.2216 -13.0458 -0.326222
-15.1943 -13.1872 -0.114962
-15.0477 -13.2218 -0.201766
-14.9329 -13.5835 0.00450542
-14.7761 -13.6468 -0.227919
-18.0762 -10.7247 -2.48376
-18.3951 -10.8467 -1.807
-17.9407 -11.0057 -2.13338
-16.9738 -11.2917 -1.14179
-17.7106 -11.457 0.669258
-16.9139 -11.8562 -1.76838
-15.9504 -12.3105 -0.870074
-15.9965 -12.3778 -0.658401
-16.2856 -12.4069 -0.172495
-16.2814 -12.5231 0.0383806
-15.4092 -12.8621 -0.492025
-15.798 -12.7753 0.711038
-15.4911 -11.2768 1.87253
-15.1598 -13.0997 -0.314212
-15.2262 -13.0978 -0.185379
-14.7987 -13.0221 -0.837539
-15.1465 -13.1464 -0.232248
-15.1704 -13.2225 -0.0218119
-14.2677 -13.4917 -0.767469
-18.2471 -10.8992 -1.94829
-17.447 -11.0533 -2.68978
-15.6888 -12.205 -1.20738
-15.5975 -12.3295 -1.18654
-15.0184 -12.5674 -1.57852
-15.2053 -13.0575 -0.352245
-15.1884 -13.074 -0.310444
-15.4021 -13.2475 0.294781
-14.7425 -13.6343 -0.342555
-13.8779 -13.3799 -1.19657
-18.138 -10.7868 -2.2893
-18.2375 -10.905 -1.86711
-18.7012 -11.048 -0.89078
-17.6657 -10.9276 -2.68865
-17.802 -11.5639 -1.12572
-16.8102 -12.2039 -0.465889
-16.3168 -12.4008 -0.163447
-16.2737 -12.3956 -0.226817
-16.1796 -12.5213 -0.104986
-15.9493 -12.4812 -0.586519
-16.1055 -12.5482 -0.179574
-15.2732 -13.1531 -0.0510056
-15.5488 -11.286 2.45399
-15.0819 -13.1893 -0.191743
-15.024 -13.212 -0.25685
-13.9425 -13.3586 -1.303
-18.8057 -10.84 -1.27609
-18.7108 -10.9282 -1.12448
-17.519 -11.2988 0.0418028
-15.7705 -12.2051 -1.05258
-16.1599 -12.3992 -0.395542
-16.0913 -12.4309 -0.435607
-15.9333 -12.3778 -0.737489
-15.3397 -13.1485 -0.018047
-15.3263 -13.1505 0.064538
-14.6177 -13.5499 -0.588555
-15.4864 -12.0946 -1.4662
-15.3037 -12.7589 -0.763205
-16.1616 -10.7823 1.9065
-15.7349 -12.4824 -0.795843
-15.7344 -12.7016 -0.480582
-14.1002 -13.3236 -1.43907
-16.197 -12.2882 -0.755434
-19.0867 -10.9278 -0.632448
-17.9554 -10.6271 -2.87744
-18.0263 -11.0314 -1.94628
-17.5824 -10.8701 -2.82838
-17.5817 -10.8924 -2.90285
-18.169 -11.708 -0.245702
-17.6115 -11.0199 -2.58495
-17.5728 -11.0269 -2.56071
-17.4401 -11.5328 -1.6895
-17.2747 -11.542 0.167051
-17.2545 -11.5369 0.131427
-17.2561 -11.5487 0.210701
-17.0318 -11.4731 -2.47501
-16.9254 -11.4547 -2.62181
-16.851 -11.6949 -2.23523
-16.516 -11.6745 -2.73857
-16.5764 -12.1203 -0.639421
-16.3127 -12.3912 -0.232895
-15.1806 -12.7648 -0.961609
-14.4865 -12.5535 -1.97854
-14.1308 -12.8762 -1.8268
-18.473 -10.597 -2.17917
-17.9804 -10.6055 -2.88045
-18.0478 -10.7379 -2.50216
-18.172 -11.1137 -1.5682
-17.9423 -11.1521 -1.79104
-17.9266 -11.2121 -1.78985
-17.7124 -11.046 -2.39117
-17.6494 -11.0382 -2.44322
-17.6669 -11.0424 -2.42439
-17.8114 -11.4073 -1.50767
-17.7099 -11.4475 0.684051
-17.4262 -11.2633 -2.35248
-16.9267 -11.8781 -1.74629
-16.9075 -11.8706 -1.76988
-16.5593 -11.5327 -2.97741
-16.6043 -12.0253 -1.92719
-16.6957 -12.096 -0.767442
-16.5167 -12.1382 -0.973089
-16.5028 -12.139 -0.980268
-15.7172 -10.9951 1.61729
-15.9748 -12.5032 -0.422753
-15.414 -11.357 1.91408
-15.3939 -11.3474 1.85983
-15.0556 -12.9872 -0.617673
-15.0283 -13.6034 0.0616672
-18.7519 -11.0053 -0.91949
-18.3291 -11.1724 -1.23785
-17.891 -11.3474 0.72797
-17.8748 -11.3941 -1.4621
-17.4276 -10.9962 -2.90979
-17.6663 -11.3726 -1.78217
-17.5096 -11.6669 0.84726
-17.1633 -11.5259 -2.14437
-17.1657 -11.8628 -0.621276
-16.6146 -11.5216 -2.93943
-16.4839 -12.08 -1.1452
-16.3033 -12.3948 0.389452
-16.1916 -12.4582 -0.184277
-16.1914 -12.5229 -0.107248
-16.0153 -12.3866 -0.596471
-15.9623 -12.4387 -0.580895
-15.8507 -12.4157 -0.818831
-15.2361 -13.0702 -0.246571
-15.2222 -13.1142 -0.168661
-15.3231 -13.2429 0.20633
-15.2973 -13.2549 0.161317
-15.319 -13.2854 0.256825
-15.2423 -13.1938 0.0142332
-15.1701 -13.0929 -0.31057
-14.9628 -12.9196 -0.975576
-14.7707 -12.7489 -1.57373
-14.4794 -12.8178 -1.24375
-18.922 -10.9182 -0.862101
-18.7177 -11.0811 -0.777252
-18.147 -10.7732 -2.27257
-18.3077 -11.1267 -1.37625
-18.2247 -11.3295 -1.011
-17.1899 -11.4824 -0.877299
-16.8904 -11.3624 -2.9033
-16.4752 -12.0341 -1.2209
-16.2598 -12.4313 -0.186851
-16.0949 -12.3532 -0.560059
-16.0467 -12.4011 -0.517113
-15.9005 -12.2624 -0.960945
-15.1862 -12.1927 -1.71835
-15.3768 -13.2544 0.310203
-15.1163 -13.1785 -0.184483
-15.0406 -13.2119 -0.240934
-18.5401 -10.6183 -2.09531
-18.0297 -11.0492 -1.93879
-18.0746 -11.2742 -1.36522
-18.1865 -11.4975 -0.712685
-17.1878 -11.8522 -0.625732
-16.0001 -12.4639 -0.455164
-15.2502 -13.1044 -0.177608
-17.6018 -11.6092 0.866065
-16.2377 -12.3209 -0.457037
-16.1362 -12.5768 -0.031263
-17.1284 -11.8936 -0.663729
-16.1406 -11.8387 -1.60835
-15.2007 -13.0085 -0.435672
-14.529 -12.7598 -1.22937
-14.3413 -12.8641 -1.39015
-14.4607 -12.6859 -1.72352
-18.0265 -11.0443 -1.92084
-17.8419 -11.3949 -1.5252
-17.1316 -11.6649 0.248656
-17.5582 -11.5319 -1.53915
-17.5831 -11.5873 -1.47671
-17.4991 -11.3838 -1.99702
-17.5168 -11.2001 -2.30739
-17.464 -11.5467 -1.67087
-17.4429 -11.5479 -1.70034
-16.9144 -11.4467 -2.61711
-16.6222 -12.0739 -0.630593
-16.6883 -11.6584 -2.55132
-16.4483 -12.1756 -1.01196
-16.2294 -11.9786 -2.55516
-15.7357 -12.8945 0.84417
-15.7087 -12.5665 -0.0557916
-15.3419 -12.6566 -0.896464
-14.9945 -12.7848 -1.19725
-14.9587 -12.1908 -2.085
-14.9561 -12.1751 -2.10287
-14.8173 -13.6248 -0.150754
-14.7813 -12.3309 -2.03655
-14.7877 -12.3682 -1.99923
-14.7195 -12.3354 -2.04089
-14.4886 -12.5541 -1.98921
-14.4552 -12.6249 -1.86465
-14.287 -12.7489 -1.81591
-14.2752 -12.7756 -1.78921
