-18.6602 -10.6503 -2.12603
-18.6793 -10.6515 -2.09504
-19.7203 -10.7692 -0.685591
-17.9994 -11.1348 -2.03005
-19.018 -11.4372 -0.341472
-19.2946 -11.4687 0.22735
-17.3171 -11.6281 -2.02075
-16.2535 -11.8371 -2.89971
-16.3322 -12.1695 -1.17013
-16.3575 -12.1768 -1.13502
-16.6511 -12.3346 -0.528089
-16.56 -12.4516 -0.437986
-16.5618 -12.4841 -0.375073
-15.6654 -13.0067 -0.571392
-15.6671 -13.0295 -0.507814
-15.5498 -13.1252 -0.52177
-18.5525 -10.6575 -2.16921
-18.6247 -10.6786 -2.08522
-17.4485 -11.1744 -2.65492
-18.0533 -11.1592 -0.207112
-16.4614 -12.2475 -0.888132
-16.5028 -12.2766 -0.817071
-16.406 -12.2899 -0.886639
-16.4653 -12.3171 -0.786
-16.8006 -12.3571 -0.36353
-15.8371 -12.3307 -1.47631
-16.3015 -12.3638 -0.905043
-16.6856 -12.3651 -0.436451
-15.2553 -12.6077 -1.64302
-15.6341 -12.9744 -0.622468
-15.6343 -13.0952 -0.464021
-15.6405 -13.1322 -0.376967
-18.888 -10.6204 -1.91759
-18.2051 -11.1584 -1.70518
-17.0265 -12.1392 -0.0893826
-16.8272 -12.248 -0.46574
-16.4668 -12.2801 -0.827525
-15.3701 -12.4567 -1.73345
-17.341 -11.137 -2.78607
-15.957 -11.7252 -2.32556
-15.0567 -13.4266 -0.915553
-19.272 -10.7084 -1.29478
-17.4563 -11.1053 -1.47483
-16.8194 -11.927 -1.42707
-16.4056 -12.5975 -0.453311
-15.0166 -12.8143 -1.24632
-15.372 -13.5552 -0.416515
-18.3306 -11.2028 0.262988
-17.0688 -11.948 -1.08262
-15.9115 -12.2232 -1.46964
-14.5104 -13.2985 -1.42781
-18.1559 -11.286 -0.674119
-19.2545 -10.76 -1.2457
-19.2197 -10.7226 -1.25683
-18.7795 -11.0908 -1.24641
-17.9483 -10.7204 -2.79271
-18.5356 -11.3688 -1.04671
-18.52 -11.3845 -1.03116
-18.0367 -11.2026 -0.16752
-17.9462 -11.3535 -1.73853
-17.6651 -11.3028 -2.16801
-17.2616 -11.0287 -3.06597
-17.2546 -11.0548 -3.08533
-17.2331 -11.0688 -3.04909
-17.3461 -11.1612 -2.78185
-17.3112 -11.1634 -2.84816
-17.2994 -11.1635 -2.84249
-17.2329 -11.4231 -2.51747
-17.2012 -11.4282 -2.50518
-17.0516 -11.2839 -2.89583
-17.0664 -11.3566 -2.8264
-17.0551 -11.3574 -2.7883
-17.5897 -11.8156 -0.731753
-17.2365 -11.6093 -2.16881
-17.5844 -11.8465 -0.739917
-17.0014 -10.9233 1.41991
-17.4487 -11.7757 0.102996
-16.6781 -11.4707 -3.04747
-16.8674 -12.0386 -1.25607
-16.1438 -11.8025 -3.06978
-15.9002 -12.5138 -1.1228
-15.9202 -12.5228 -1.09017
-16.2657 -12.7797 0.40907
-15.6183 -12.9978 -0.596537
-14.8353 -13.3815 -1.27038
-14.1192 -12.629 -2.12088
-19.5216 -10.767 -0.857019
-19.3016 -10.7863 -1.07885
-19.1336 -10.7247 -1.3428
-19.0964 -10.8856 -1.11458
-18.7684 -10.6175 -1.99089
-18.8315 -11.0284 -1.20991
-19.0471 -11.2848 -0.609894
-18.3563 -10.7204 -2.32938
-18.9542 -11.4243 -0.466961
-18.3314 -10.9365 -2.01468
-18.051 -10.7301 -2.60799
-18.5785 -11.4443 -0.826293
-18.213 -11.1843 -1.72442
-17.7171 -10.9448 -2.68283
-17.9418 -11.3941 -1.75266
-17.3149 -11.0785 -2.8949
-17.7123 -11.4931 -0.086132
-17.6922 -11.4739 -0.0637048
-17.2459 -11.2916 -2.66463
-17.6958 -11.5007 -0.0825365
-17.0175 -11.3014 -2.92351
-16.8809 -11.3731 -2.9548
-16.8694 -11.397 -2.94841
-17.1476 -11.9481 -1.03356
-16.4124 -11.1278 1.71772
-16.2305 -11.2 1.64507
-16.1328 -11.1488 1.46555
-15.4826 -11.7952 -2.41048
-16.2825 -12.5261 -0.265931
-15.9868 -11.3774 1.72856
-16.315 -12.7485 0.445369
-15.8985 -13.1399 -0.0746347
-15.5867 -13.0417 -0.581685
-15.284 -12.8484 -1.11534
-14.9127 -12.6282 -1.65201
-19.787 -11.028 -0.166374
-19.0686 -10.8909 -1.21074
-18.0864 -10.3704 -3.21121
-19.3015 -11.4787 0.212933
-18.2935 -10.9531 -1.97687
-18.051 -10.7667 -2.60807
-18.0057 -10.755 -2.59669
-18.6414 -11.5939 -0.577528
-17.8322 -10.9901 -2.52327
-18.0043 -11.2323 -0.1221
-18.101 -11.4274 0.326556
-17.3465 -11.1317 -1.35202
-17.6943 -11.5008 -0.0399644
-17.6137 -11.4948 -0.139772
-16.9936 -11.3409 -2.84224
-16.9493 -10.8962 1.45435
-16.8174 -10.8605 1.96369
-17.2307 -11.9327 0.150434
-16.5918 -11.6905 -2.78699
-16.9585 -11.9805 -1.1858
-16.9588 -12.0472 -1.06391
-16.7991 -12.0082 -1.32396
-16.7365 -12.366 -0.416707
-16.7765 -12.3584 0.262822
-16.1355 -12.044 -1.458
-16.2479 -12.2755 -1.04067
-15.8868 -11.4475 1.70014
-16.2828 -12.8453 0.550747
-15.6094 -13.0336 -0.572711
-14.8504 -12.6432 -1.65602
-13.8434 -13.919 -2.20981
-18.6649 -10.6668 -2.07261
-18.6085 -10.9487 -1.65792
-18.6386 -11.1699 -1.25574
-17.9854 -10.8784 -2.49566
-18.0626 -11.1401 -2.01079
-18.0055 -11.143 -1.98328
-17.3686 -10.8327 -3.18173
-17.573 -11.2997 -2.34476
-17.4345 -11.1833 -2.65362
-17.9727 -11.6554 0.567274
-17.7149 -11.4757 -0.0767086
-17.3363 -11.619 -1.9934
-17.6176 -11.8308 -0.749601
-16.8482 -11.9346 -1.37222
-16.5911 -11.922 -1.65984
-16.7998 -12.3349 0.293181
-16.6534 -12.3503 -0.540856
-16.2905 -12.174 -1.1847
-16.2487 -12.7862 0.375777
-15.689 -13.0433 -0.50062
-15.5593 -12.9308 -0.841541
-15.3961 -13.0638 -0.740071
-18.7819 -10.5976 -2.02552
-18.5128 -10.5168 -2.45183
-18.4607 -10.4961 -2.55465
-18.6315 -10.6832 -2.05403
-18.0855 -11.1558 -0.133296
-17.2896 -11.0293 -3.04387
-17.9937 -11.639 0.589606
-17.256 -11.6079 -2.13861
-16.7391 -10.8845 1.45956
-16.6782 -10.8819 1.44221
-16.5034 -12.2898 -0.794499
-16.4405 -12.2512 -0.939097
-16.5695 -12.4953 -0.396866
-16.5222 -12.5011 -0.453896
-15.7108 -13.0934 -0.383002
-15.5418 -12.9334 -0.790238
-15.6566 -13.0444 -0.466851
-14.7977 -12.6816 -1.64651
-15.2448 -13.447 -0.818987
-15.13 -13.4703 -0.826894
-19.2037 -10.659 -1.46644
-18.4904 -10.4783 -2.56799
-18.8486 -11.0985 -1.13743
-17.9085 -11.1947 -0.256218
-17.5657 -11.8365 -0.791701
-15.932 -11.7491 -2.33121
-15.1375 -13.4491 -0.892266
-17.9914 -11.0968 -2.13288
-17.9554 -11.1996 -0.189451
-15.4603 -12.3728 -1.86046
-15.2536 -12.8267 -1.14871
-15.0982 -12.7371 -1.44353
-14.7951 -13.3834 -1.1233
-15.8552 -11.9022 -1.90574
-16.3403 -12.7709 0.440995
-19.2924 -10.722 -1.29336
-17.8239 -11.3773 -0.759915
-18.0405 -11.5321 0.433495
-16.6742 -11.7718 -2.49882
-15.8706 -11.7443 -2.34899
-17.9771 -11.2742 -0.105488
-16.9048 -12.3485 -0.191788
-15.3257 -13.5414 -0.456444
-15.7124 -12.0982 -1.61539
-16.6203 -10.8375 1.24527
-19.8054 -10.706 -0.613135
-19.1287 -10.9697 -1.02152
-18.875 -11.0092 -1.23087
-18.8841 -10.3615 -2.32158
-18.1744 -11.4244 0.443989
-18.6884 -10.4332 -2.38304
-18.6093 -10.517 -2.37757
-18.5339 -11.3822 -1.02252
-18.4278 -10.6289 -2.33737
-18.4107 -10.4565 -2.67417
-18.3552 -10.4196 -2.78733
-16.9591 -10.8811 1.27483
-18.23 -10.5593 -2.71456
-17.6925 -11.47 -0.0946747
-18.1694 -10.5338 -2.85646
-18.1398 -10.5194 -2.86459
-18.0871 -11.5224 -1.2592
-17.5738 -11.6126 -0.00500709
-17.9994 -11.1576 -1.97803
-17.9556 -10.7488 -2.77066
-17.8355 -11.3278 -1.91214
-17.5875 -11.8542 -0.715009
-17.7592 -10.7489 -2.88693
-17.7514 -11.0555 -2.47761
-17.6536 -11.3081 -2.16255
-17.1418 -12.0416 0.192637
-17.5541 -11.2581 -2.37632
-16.2074 -11.1951 1.64515
-17.4039 -11.2037 -2.59848
-16.1274 -11.1317 1.47303
-17.3913 -11.1869 -2.68025
-17.3481 -11.0574 -2.93925
-17.2709 -11.6191 -2.08054
-17.2887 -11.3039 -2.60638
-16.9542 -12.1734 -0.201541
-17.2718 -11.0058 -3.12177
-17.2772 -11.1828 -2.81455
-17.2172 -11.5521 -2.2159
-17.2257 -11.2776 -2.71635
-17.2095 -11.7526 -1.93008
-17.174 -11.2601 -2.80062
-16.8959 -11.9177 -1.41704
-16.7779 -12.2593 -0.497562
-16.8857 -12.0389 -1.24989
-17.0542 -11.3089 -2.8845
-17.0131 -11.3628 -2.7898
-16.4395 -12.4218 -0.63654
-16.6745 -11.4847 -3.01375
-16.2151 -12.8719 0.512849
-16.1954 -12.9242 0.565663
-16.1868 -12.949 0.611214
-16.6187 -11.5544 -2.97211
-16.6065 -11.5359 -3.00343
-16.1283 -11.7999 -3.10407
-16.1109 -11.7794 -3.13088
-15.7291 -11.7646 -2.10596
-15.2474 -11.9829 -2.36086
-19.2372 -11.5014 0.274456
-19.2912 -10.8061 -1.05763
-19.1513 -10.8994 -1.04681
-19.0439 -11.289 -0.60561
-19.0317 -11.2473 -0.671971
-18.2794 -11.5283 0.957355
-18.7096 -10.9756 -1.53417
-18.0326 -11.199 -0.160391
-18.3316 -10.9586 -1.9331
-18.3215 -10.9691 -1.91768
-18.2897 -11.315 -1.38856
-18.2102 -10.5506 -2.74394
-17.6591 -11.4829 -0.151456
-18.0645 -10.9278 -2.32189
-17.5836 -11.6156 0.0186248
-17.9655 -11.3594 -1.73777
-17.9703 -11.3546 -1.748
-17.9655 -11.3908 -1.71982
-17.9379 -11.3782 -1.69897
-17.9261 -10.6972 -2.77463
-17.9431 -10.7304 -2.72766
-17.8546 -11.3264 -1.91634
-17.8307 -11.3604 -1.89032
-17.8636 -10.8068 -2.75638
-17.7882 -10.7546 -2.91152
-17.7537 -10.9243 -2.68961
-17.7449 -10.6466 -3.15893
-17.1436 -12.0365 0.164285
-17.1035 -12.0712 0.213823
-16.2127 -11.0826 1.46089
-17.2801 -11.9263 -0.92299
-17.3189 -11.1879 -2.77227
-17.2803 -11.2776 -2.61623
-17.2746 -11.1793 -2.85609
-16.9798 -11.9873 -0.935015
-16.6779 -12.4681 0.367774
-15.8998 -11.4663 1.78194
-16.8714 -11.9236 -1.3782
-15.8939 -11.4529 1.69123
-15.8355 -11.4198 1.61943
-16.6774 -12.3378 -0.494372
-16.4947 -12.1873 -0.939617
-16.4538 -12.4085 -0.664159
-16.4569 -12.3299 -0.794374
-16.5907 -11.688 -2.76504
-16.1749 -12.0532 -1.46642
-15.8424 -13.2918 0.0751333
-15.6606 -11.7588 -2.14012
-15.4841 -13.5415 -0.24366
-15.4023 -13.5278 -0.264593
-19.6363 -10.8423 -0.647124
-19.2914 -11.4677 0.184053
-19.1747 -10.6294 -1.54125
-18.3508 -11.3146 0.441737
-18.8532 -10.3246 -2.37954
-18.7968 -10.302 -2.49149
-18.7615 -10.6265 -2.0103
-18.2344 -11.3127 0.308323
-18.2162 -11.2713 0.228206
-18.6672 -11.2613 -1.0374
-18.6136 -10.9511 -1.64997
-18.6114 -11.0169 -1.53455
-18.5763 -11.3929 -0.880988
-18.5304 -10.3135 -2.73513
-18.344 -10.7011 -2.35014
-18.1807 -11.1709 -1.76221
-18.0365 -10.7618 -2.62366
-17.9535 -11.3521 -1.75164
-17.9317 -11.3698 -1.72486
-17.9559 -10.5984 -2.97349
-17.9218 -10.5673 -3.03538
-17.925 -10.5657 -3.07087
-17.9136 -10.8708 -2.59146
-17.6776 -11.553 -1.01176
-17.8037 -10.7629 -2.83693
-17.7711 -10.9839 -2.54206
-17.7225 -11.1097 -2.42804
-17.5074 -11.4722 -2.03496
-17.1577 -11.6396 -1.31646
-16.1223 -11.139 1.46879
-17.0635 -11.9049 -1.23666
-15.9982 -11.4067 1.79585
-16.954 -11.9916 -1.18307
-16.2865 -12.5169 -0.22962
-16.6149 -11.5537 -2.85578
-16.069 -12.4993 -0.390823
-16.0775 -12.9532 -0.0545611
-15.806 -13.2122 -0.0727358
-15.7248 -11.9092 -1.9037
-15.5927 -13.0295 -0.565171
-15.4725 -13.1291 -0.53075
-15.3201 -13.01 -0.854887
-14.8252 -12.4752 -1.85312
-14.7962 -12.7285 -1.61538
-14.7952 -13.3576 -1.32202
-18.6215 -11.1665 0.744242
-18.2877 -11.2531 0.331458
-18.2367 -11.3853 0.427875
-18.2357 -11.286 0.253774
-18.5803 -11.4521 -0.827238
-18.5425 -10.5073 -2.46131
-17.9835 -11.6827 0.587026
-17.9515 -10.5326 -3.06314
-17.8279 -11.3879 -1.81706
-17.2299 -11.9046 0.0729478
-15.9843 -11.4695 1.88201
-16.993 -11.229 -3.15537
-16.5046 -12.3929 -0.626392
-15.5794 -11.7121 1.76073
-16.3751 -12.2062 -1.07301
-16.3156 -12.1283 -1.21122
-15.707 -13.0886 -0.389092
-15.6216 -13.1732 -0.350315
-15.5485 -12.9294 -0.808658
-15.4121 -13.0477 -0.771973
-19.2785 -11.2698 -0.375311
-18.7494 -10.9802 -1.46408
-18.6773 -11.404 -0.816149
-18.6614 -10.6732 -2.07013
-18.6221 -11.1374 -1.33725
-16.6837 -10.8836 1.48473
-17.3843 -11.0985 -1.33114
-16.1747 -11.1616 1.54603
-17.0316 -12.1396 -0.0441771
-17.1592 -11.9706 -0.96688
-16.9063 -12.1902 0.151949
-16.7978 -12.32 0.261132
-16.7644 -12.359 0.300707
-16.7634 -12.3518 0.119376
-17.0993 -11.3067 -2.84638
-16.8925 -11.9603 -1.34965
-17.0118 -11.3201 -2.83581
-16.8199 -12.0787 -1.16741
-16.9316 -11.3107 -2.94746
-16.5745 -12.268 -0.788514
-16.3328 -12.4042 -0.816979
-16.2845 -11.46 -2.24427
-15.6619 -11.7644 -2.11553
-14.9395 -12.3012 -2.16052
-14.7851 -12.441 -2.07656
-14.6551 -12.5815 -2.04041
-14.3659 -13.2148 -1.53997
-18.0115 -11.3194 -1.7163
-17.2225 -11.9414 0.107344
-17.1006 -12.0943 0.214351
-17.3504 -11.8731 -0.980377
-16.8204 -12.1653 -1.07062
-16.7131 -12.4635 -0.266497
-16.9458 -11.2629 -3.03787
-16.5771 -12.4513 -0.427381
-16.5441 -12.1957 -0.946867
-16.3252 -12.8078 0.472423
-15.6286 -13.087 -0.455377
-14.9712 -12.2671 -2.2061
-18.3857 -10.7672 -2.22018
-17.5372 -11.6119 -0.015469
-17.0227 -12.0898 0.00354093
-16.6785 -12.3859 -0.518062
-16.2264 -12.8644 0.471626
-15.6417 -11.7729 -2.15697
-15.5406 -12.3455 -1.76181
-18.6364 -11.1678 0.495224
-18.6185 -10.673 -2.10943
-18.0307 -11.5166 0.405195
-17.5439 -11.1671 -1.31678
-16.725 -12.2611 -0.588316
-16.4399 -12.1846 -1.01351
-15.9013 -11.6922 -2.4142
-15.7175 -12.5542 -1.1912
-14.3506 -13.3183 -1.50986
-16.6342 -12.3791 -0.492088
-16.6226 -12.4782 -0.319225
-15.7688 -13.0284 -0.426215
-16.5931 -12.3417 -0.624247
-15.8443 -11.8858 -2.19684
-15.0195 -12.7322 -1.63031
-16.5643 -10.9261 1.71575
-15.6902 -11.9441 -1.73456
-19.8313 -10.8619 -0.373254
-19.6951 -10.9794 -0.313357
-19.7907 -10.7165 -0.637836
-19.4951 -11.0087 -0.529094
-19.2897 -11.3392 -0.205934
-19.3027 -11.2867 -0.314601
-19.3774 -10.9538 -0.720819
-16.7022 -10.8457 1.79231
-19.2047 -11.0034 -0.870998
-18.0862 -11.4799 0.384564
-19.0987 -10.9091 -1.08579
-19.1581 -10.627 -1.54213
-18.6537 -11.4795 -0.68738
-18.0297 -11.1801 -0.171242
-18.8817 -11.0262 -1.2132
-17.8024 -11.3353 -0.19376
-17.5935 -11.6052 0.00208858
-18.6679 -10.8895 -1.67544
-18.4166 -11.2676 -1.32103
-18.614 -10.9183 -1.69679
-17.2517 -11.9367 0.157834
-18.7482 -10.5943 -2.06383
-18.7368 -10.5633 -2.09498
-18.7156 -10.5968 -2.08219
-18.5132 -10.9629 -1.75633
-18.7938 -10.4133 -2.33667
-18.2244 -11.148 -1.81866
-18.5324 -10.564 -2.3662
-18.1825 -11.1467 -1.8463
-18.1714 -11.1332 -1.84658
-17.973 -11.3878 -1.70079
-17.9547 -11.3822 -1.70022
-17.9817 -11.3254 -1.76451
-16.7686 -12.3231 -0.445533
-17.8855 -10.8909 -2.53672
-17.1005 -11.7478 -1.36373
-17.4964 -11.5004 -2.00678
-17.3861 -11.5827 -1.9836
-18.1534 -10.3277 -3.20748
-17.774 -10.8656 -2.74746
-16.1066 -12.4933 -0.389141
-17.7624 -10.7613 -2.91798
-16.0708 -12.5006 -0.401544
-17.6772 -10.834 -2.87287
-17.8537 -10.5679 -3.15407
-17.6686 -10.7993 -2.92281
-17.7383 -10.7352 -3.02958
-17.6914 -10.7489 -3.00802
-17.7067 -10.7262 -3.037
-17.2259 -11.3686 -2.51241
-17.3617 -11.1972 -2.72867
-17.3578 -11.1812 -2.72366
-17.3175 -11.1541 -2.77537
-17.2275 -11.2199 -2.77597
-17.3451 -11.0495 -2.94362
-17.2028 -11.2679 -2.74615
-17.1845 -11.2757 -2.75678
-15.5778 -13.0586 -0.565565
-17.0727 -11.3507 -2.83514
-17.2271 -11.0532 -3.05922
-16.7271 -11.4276 -3.03671
-16.7857 -11.2882 -3.13586
-15.4912 -12.5273 -1.53206
-15.0628 -12.6532 -1.54005
-19.7274 -11.0121 -0.267522
-19.5071 -11.2882 0.052944
-19.5303 -10.7187 -0.962226
-19.1992 -10.9914 -0.920762
-19.287 -10.7189 -1.22367
-19.2596 -10.7259 -1.23166
-18.8068 -11.387 -0.703331
-16.6167 -10.8443 1.36936
-19.1254 -10.651 -1.54651
-18.8221 -10.8661 -1.52181
-17.5918 -11.6621 0.095846
-17.6741 -11.4632 -0.132115
-18.6594 -10.983 -1.50821
-18.6771 -10.9436 -1.56266
-17.5929 -11.5204 -0.129965
-18.8304 -10.6944 -1.86633
-18.6926 -10.8665 -1.67958
-18.7556 -10.7284 -1.84984
-18.5415 -11.0613 -1.53991
-18.7821 -10.631 -1.97354
-18.766 -10.6005 -2.00766
-18.6469 -10.8081 -1.82021
-18.6317 -10.8481 -1.78762
-18.7512 -10.4604 -2.27019
-17.6869 -11.5025 -0.744769
-18.6822 -10.4376 -2.37421
-18.5132 -10.6255 -2.26253
-18.2128 -11.1528 -1.79807
-18.3436 -10.9637 -1.99318
-16.6509 -12.5241 0.403224
-18.0383 -11.4188 -1.57994
-18.4182 -10.6604 -2.33079
-18.5584 -10.3829 -2.62495
-18.4955 -10.4233 -2.56027
-18.5973 -10.2872 -2.75916
-18.6346 -10.2222 -2.78171
-18.5333 -10.3472 -2.70275
-18.5037 -10.3689 -2.68704
-17.3137 -11.9197 -0.929324
-17.279 -11.9259 -0.938187
-17.8425 -11.3397 -1.88347
-17.3814 -11.1413 -1.29127
-18.3464 -10.4452 -2.78003
-17.9674 -11.0405 -2.24359
-16.7681 -12.3255 -0.456976
-18.3638 -10.2962 -2.99814
-17.7453 -11.3091 -2.05053
-16.4987 -12.522 -0.395123
-17.6242 -11.3456 -2.08942
-17.7937 -11.0346 -2.48786
-16.1928 -12.4723 -0.266645
-17.5604 -11.2544 -2.38406
-16.4208 -12.4072 -0.686905
-18.0599 -10.3431 -3.24085
-17.9703 -10.4894 -3.10024
-17.2609 -11.6302 -2.05872
-16.116 -12.5129 -0.4065
-17.7319 -10.761 -2.93709
-16.398 -12.2556 -0.992767
-16.3793 -12.2286 -1.02637
-17.3793 -11.1873 -2.66755
-17.24 -11.453 -2.43458
-17.4429 -10.9468 -2.98325
-15.6015 -13.1726 -0.371257
-16.4729 -11.8772 -1.81236
-16.9396 -11.5012 -2.67898
-15.5584 -13.0223 -0.697773
-15.8544 -12.4879 -1.24113
-16.961 -11.1825 -3.17749
-15.1805 -13.5457 -0.627328
-16.774 -11.3803 -3.0282
-15.7521 -12.3596 -1.52765
-16.574 -11.5977 -2.89462
-15.7648 -11.854 -1.90361
-15.4914 -12.3103 -1.83017
-14.9466 -12.6129 -1.56693
-14.5235 -12.6383 -2.10009
-14.0697 -12.649 -2.12229
-19.1095 -11.4722 -0.215237
-18.2467 -11.4478 0.550999
-18.2399 -11.4718 0.520425
-19.2489 -10.7403 -1.23628
-19.1281 -10.7339 -1.37361
-18.7796 -11.1278 -1.11754
-18.7754 -11.109 -1.1719
-18.6044 -11.4073 -0.918743
-16.1948 -11.1164 1.52342
-15.9105 -11.5081 1.77985
-18.6519 -10.8604 -1.73493
-18.4508 -10.792 -2.09678
-18.1864 -11.209 -1.70255
-17.2566 -12.0418 -0.760917
-16.2345 -12.9593 0.606034
-17.9281 -11.2593 -1.95469
-18.284 -10.5261 -2.72263
-18.3576 -10.347 -2.9316
-17.49 -11.4718 -2.08195
-18.1189 -10.3545 -3.18508
-17.4895 -10.935 -3.02389
-16.4676 -12.0795 -1.61494
-16.2344 -11.9154 -1.38612
-15.5761 -13.1131 -0.517623
-15.5379 -13.11 -0.545143
-14.8003 -12.4481 -2.12029
-14.2865 -13.2278 -1.49217
-14.5544 -12.7251 -1.85912
-13.3304 -14.1216 -2.496
-19.6743 -10.864 -0.49453
-19.5044 -11.1006 -0.333715
-19.1989 -11.5219 0.0387503
-19.3813 -10.8616 -0.900278
-18.2688 -11.3842 0.431297
-19.0581 -11.1527 -0.807823
-19.0222 -11.0074 -1.07861
-16.4187 -11.1313 1.73082
-16.5485 -10.8234 1.2825
-18.6855 -11.254 -1.04077
-18.8427 -10.3936 -2.26879
-17.1564 -12.0127 0.169167
-16.6245 -12.5729 0.482571
-16.8997 -12.269 -0.774967
-16.6216 -12.4373 -0.417127
-16.8811 -12.0222 -1.22402
-17.2846 -11.6417 -2.05895
-17.7231 -10.7478 -3.03379
-17.3164 -11.1357 -2.88743
-15.6743 -12.5856 -1.2307
-14.8288 -12.6768 -1.61691
-13.8367 -14.0719 -2.04706
-19.5965 -10.7787 -0.751573
-18.7053 -11.3506 -0.83362
-17.6251 -11.5277 0.196678
-17.8641 -11.409 -0.733534
-18.4147 -11.1161 -1.57532
-18.1449 -11.4652 -1.30688
-18.2455 -11.187 -1.69927
-17.9871 -11.3444 -1.7225
-18.0038 -11.3149 -1.74846
-18.3272 -10.7082 -2.36178
-17.0886 -12.3306 -0.567717
-17.9208 -11.2506 -1.89627
-18.2075 -10.6716 -2.51448
-17.1458 -11.9559 -0.991452
-16.5682 -12.2907 -0.745527
-16.5605 -12.2307 -0.776832
-15.7386 -13.0406 -0.393533
-17.2388 -11.2083 -2.83062
-15.7228 -12.915 -0.620907
-15.5565 -13.0474 -0.578127
-16.9383 -11.3768 -2.93799
-16.416 -11.4709 -2.18421
-16.3165 -11.4334 -2.27496
-15.413 -12.782 -1.26208
-15.2213 -12.0548 -2.25248
-18.2434 -11.3114 0.34416
-18.0697 -11.1884 -0.121775
-18.5855 -11.4147 -0.890295
-18.8366 -10.9586 -1.39775
-18.6365 -10.9896 -1.50073
-18.0318 -11.3269 -1.72674
-16.7252 -12.3697 0.110268
-16.2953 -12.7772 0.466634
-16.3831 -12.1113 -1.17615
-15.0763 -13.511 -0.787165
-18.8387 -10.9149 -1.39771
-15.9686 -11.4448 1.81213
-17.2061 -12.0032 0.173975
-17.2171 -11.9537 0.130895
-18.1459 -11.35 -1.49338
-16.2476 -12.8033 0.473956
-17.2381 -11.297 -1.43326
-15.8764 -12.7615 -0.672681
-18.2988 -11.2295 0.253934
-18.0195 -11.5121 0.373719
-16.5437 -11.7162 -1.808
-15.7789 -12.549 -1.1951
-15.7803 -11.7919 -2.24663
-16.266 -12.7898 0.653663
-16.7091 -12.3971 -0.430775
-16.709 -12.2988 -0.533695
-14.4666 -13.3229 -1.47029
-14.4314 -13.2813 -1.48558
-19.0686 -11.3275 -0.502785
-16.0207 -11.4266 1.7896
-17.887 -11.2828 -1.82709
-15.2692 -12.4153 -1.79053
-14.2821 -12.7639 -2.22277
-17.1073 -10.6895 1.86158
-18.2366 -11.4761 1.03295
-18.2709 -11.5972 0.981016
-19.2164 -11.5199 0.302095
-19.265 -11.4843 0.227814
-19.6651 -11.175 -0.0479915
-19.7159 -11.0244 -0.265566
-19.7034 -11.0037 -0.288746
-18.0708 -11.4832 0.406933
-19.7805 -10.7254 -0.608535
-19.3179 -11.2403 -0.400485
-19.3958 -11.0712 -0.477204
-19.2306 -11.2902 -0.381651
-19.6222 -10.8009 -0.715992
-19.4774 -10.9107 -0.731698
-19.2906 -11.0303 -0.696257
-19.0506 -11.3052 -0.597957
-17.654 -11.5984 0.0728648
-19.5461 -10.7045 -0.937973
-19.5378 -10.7003 -0.972911
-17.4542 -11.7915 0.116448
-19.2851 -10.9103 -0.876827
-19.0174 -11.2302 -0.77385
-19.2918 -10.9284 -0.878842
-19.4298 -10.7701 -0.981802
-19.0577 -11.1168 -0.827001
-18.7633 -11.4514 -0.713371
-16.0696 -13.0436 0.649605
-18.6566 -11.4798 -0.663295
-19.5403 -10.6 -1.08096
-17.8066 -11.3431 -0.193507
-17.8091 -11.3125 -0.229895
-19.0965 -10.9109 -1.09057
-18.991 -11.0456 -1.07289
-16.7459 -12.3785 0.0547754
-19.0453 -10.9618 -1.11321
-19.0565 -10.9731 -1.14026
-19.4235 -10.5645 -1.29221
-19.045 -10.9673 -1.12374
-18.706 -11.2951 -1.00518
-18.8648 -11.0823 -1.09728
-18.8736 -10.9923 -1.19313
-19.219 -10.6796 -1.42936
-17.7485 -11.4684 -0.733146
-18.2572 -11.586 -1.06424
-19.123 -10.6227 -1.62756
-19.1329 -10.6006 -1.63798
-18.9536 -10.7376 -1.57417
-18.7633 -10.954 -1.48728
-18.8241 -10.8613 -1.54468
-17.6899 -11.5723 -0.998035
-18.598 -11.0165 -1.54169
-18.666 -10.8935 -1.66242
-18.6827 -10.8902 -1.67411
-16.054 -12.509 -0.366671
-16.1378 -12.4974 -0.404276
-17.0423 -11.9765 -0.856277
-17.0318 -11.9853 -0.8821
-18.7011 -10.8198 -1.726
-16.1117 -12.5068 -0.423259
-17.9603 -11.5279 -1.43985
-16.1596 -12.7135 -0.59774
-18.6487 -10.8667 -1.79864
-18.5762 -10.8946 -1.79571
-18.5513 -10.9275 -1.77008
-17.019 -12.0127 -1.05102
-18.3416 -11.1039 -1.72596
-18.0269 -11.4113 -1.60116
-16.1213 -12.6631 -0.671878
-15.5676 -13.0517 -0.560546
-18.0848 -11.2263 -1.77661
-18.003 -11.2861 -1.78903
-18.6343 -10.6567 -2.12568
-18.6457 -10.6311 -2.15511
-18.685 -10.5639 -2.18182
-18.2974 -10.9374 -2.05395
-18.3132 -10.9263 -2.0703
-18.4086 -10.7926 -2.11771
-15.3629 -13.1024 -0.747354
-18.0429 -11.1569 -1.99657
-18.4303 -10.769 -2.15849
-16.3203 -12.161 -1.18382
-17.8862 -11.2169 -2.01808
-18.4681 -10.647 -2.28667
-17.8632 -11.2038 -2.04847
-17.7874 -11.2957 -2.01197
-18.8329 -10.3168 -2.46469
-17.5223 -11.5026 -2.01845
-17.4974 -11.4975 -1.99904
-17.4718 -11.5189 -2.0015
-17.5617 -11.4324 -2.04411
-17.9043 -11.1215 -2.19761
-17.2133 -11.7666 -1.92624
-17.6072 -11.3793 -2.1064
-18.0364 -10.998 -2.26554
-17.3837 -11.5892 -2.00978
-17.5303 -11.4322 -2.09612
-17.3014 -11.6108 -2.04509
-18.627 -10.3588 -2.56237
-17.7806 -11.1058 -2.34657
-17.7879 -11.0877 -2.37049
-18.4816 -10.4184 -2.64166
-17.0988 -11.6757 -2.17688
-18.5521 -10.3174 -2.7544
-17.5759 -11.2208 -2.40726
-17.7092 -11.1251 -2.43485
-17.7768 -11.0311 -2.46401
-18.4478 -10.4243 -2.71324
-17.7535 -11.0759 -2.46185
-18.2433 -10.5654 -2.69446
-18.2566 -10.5386 -2.70556
-18.2441 -10.55 -2.708
-18.4034 -10.4003 -2.75595
-17.1684 -11.4482 -2.48434
-17.2467 -11.3981 -2.51136
-16.9372 -11.6686 -2.42103
-17.2443 -11.3511 -2.55407
-17.4945 -11.1535 -2.61985
-17.5038 -11.1308 -2.66002
-17.5351 -11.0953 -2.65656
-17.5465 -11.0755 -2.68015
-18.1755 -10.45 -2.89541
-17.0631 -11.486 -2.52153
-18.3684 -10.3016 -3.00275
-18.4153 -10.227 -3.03561
-18.413 -10.2021 -3.0615
-17.4014 -11.1588 -2.72836
-17.6055 -10.9146 -2.83297
-16.9179 -11.5236 -2.66061
-16.7097 -11.6997 -2.62779
-17.1879 -11.2404 -2.81386
-17.7254 -10.7507 -3.02437
-17.3613 -11.0684 -2.90351
-18.1513 -10.3379 -3.19784
-18.0168 -10.4186 -3.1594
-17.8411 -10.5869 -3.12534
-17.3142 -11.0658 -2.95734
-18.0042 -10.4128 -3.20131
-17.8409 -10.5427 -3.16074
-18.0752 -10.3377 -3.22195
-15.5794 -11.8782 -2.05048
-15.7014 -11.7771 -2.1056
-15.6087 -11.865 -2.06198
-16.7375 -11.4476 -2.98183
-16.7292 -11.4428 -3.0291
-16.9709 -11.2187 -3.124
-17.1764 -11.0241 -3.19763
-16.7692 -11.3814 -3.06287
-17.2534 -10.9601 -3.23888
-15.0716 -12.136 -2.31583
-15.2408 -11.9552 -2.37981
-16.0946 -11.8227 -3.124
-15.9807 -11.2266 2.40758
-19.356 -11.3607 -0.114039
-19.8553 -10.85 -0.365109
-19.6397 -11.0764 -0.265694
-19.4574 -11.2335 -0.21839
-15.5246 -11.7251 1.70306
-19.7089 -10.779 -0.681831
-18.0079 -11.2795 -0.0613047
-19.4914 -10.7909 -0.876034
-19.2667 -10.9178 -0.889689
-16.1999 -12.9854 0.647001
-18.6412 -11.5393 -0.634252
-16.6861 -12.4493 0.334715
-18.9007 -11.1346 -0.999347
-18.8105 -11.1174 -1.11059
-18.7968 -11.1478 -1.1187
-18.716 -11.1331 -1.24082
-18.4267 -11.3826 -1.13451
-18.4886 -11.2565 -1.25669
-19.1822 -10.592 -1.57907
-16.4517 -12.542 -0.299817
-18.7423 -10.9492 -1.44362
-15.8487 -13.1221 -0.107597
-18.0877 -11.5347 -1.26333
-18.4869 -11.1088 -1.4859
-16.9069 -12.2511 -0.802785
-16.1355 -12.505 -0.366588
-16.5239 -12.3206 -0.725216
-16.4866 -12.2566 -0.893312
-17.9419 -11.3841 -1.66839
-17.9335 -11.3856 -1.67984
-17.961 -11.3084 -1.7803
-17.8328 -11.3529 -1.89496
-16.9845 -11.6809 -1.55178
-17.7682 -11.0944 -2.33859
-17.546 -11.2717 -2.35878
-15.3792 -12.7184 -1.36885
-18.2767 -10.473 -2.76281
-15.5067 -12.4178 -1.69119
-18.0312 -10.6095 -2.85889
-17.2087 -11.2483 -2.74541
-16.7797 -11.6611 -2.61206
-17.1363 -11.2973 -2.76627
-16.7688 -11.5791 -2.69798
-17.88 -10.5847 -3.11493
-14.8418 -12.6324 -1.65024
-17.0477 -11.3286 -2.83455
-17.8235 -10.6175 -3.13363
-15.521 -11.9407 -2.0353
-17.0237 -11.2395 -3.00002
-17.2663 -11.0348 -3.09329
-16.1993 -11.8196 -2.99427
-16.2955 -11.683 -3.10012
-14.2872 -12.5406 -2.12188
-16.7092 -10.8675 1.47146
-16.7741 -10.877 1.46758
-16.2124 -11.1562 1.5875
-17.936 -11.6053 0.466633
-19.6109 -10.7946 -0.70557
-19.3796 -10.9834 -0.695623
-16.2473 -12.8094 0.427741
-18.9238 -11.1253 -0.976634
-16.7159 -12.3721 0.0998765
-18.6051 -11.4158 -0.948714
-18.4357 -11.5544 -0.868657
-18.8007 -11.0822 -1.22995
-17.5973 -11.8472 -0.729338
-18.3502 -11.4535 -1.10608
-18.5507 -11.2026 -1.29427
-19.1219 -10.6457 -1.53907
-16.025 -12.973 -0.0690438
-16.4812 -12.5351 -0.319996
-16.2268 -12.5088 -0.408133
-18.391 -11.2056 -1.57813
-18.1178 -11.4161 -1.44653
-18.0038 -11.5247 -1.42992
-17.9907 -11.515 -1.45262
-18.503 -10.9827 -1.67494
-16.5016 -12.3363 -0.759411
-15.6849 -13.0727 -0.425565
-18.2101 -11.2211 -1.656
-17.3143 -11.1415 -1.38181
-16.6404 -12.1783 -1.25887
-18.294 -10.9422 -2.03616
-17.9535 -11.0831 -2.21802
-16.4981 -12.0477 -1.61865
-17.221 -11.6154 -2.19035
-16.9901 -11.7843 -2.15987
-18.0971 -10.5296 -2.88613
-17.3825 -11.1721 -2.74382
-16.3733 -11.5601 -2.1334
-17.3189 -11.1899 -2.79132
-17.2564 -11.2052 -2.82713
-17.0484 -11.3196 -2.82342
-15.9519 -11.7325 -2.32666
-13.8756 -13.9149 -2.1476
-19.168 -11.5639 0.313162
-16.6849 -10.8521 1.29936
-17.9688 -11.6746 0.639039
-17.5514 -11.7024 0.101094
-17.7991 -11.2718 -0.25999
-18.6436 -11.4567 -0.809723
-18.6221 -11.3992 -0.88693
-19.1624 -10.8259 -1.19586
-18.7364 -11.2731 -1.03515
-17.0557 -12.2545 -0.248612
-17.038 -12.2467 -0.258658
-19.2546 -10.646 -1.42895
-17.0561 -12.3077 -0.590674
-18.4152 -11.2614 -1.36573
-17.0861 -11.9696 -1.0297
-16.4346 -12.2843 -0.872449
-18.016 -11.2906 -1.72583
-17.9628 -11.3518 -1.71449
-17.9085 -11.3771 -1.76578
-17.8005 -11.3529 -1.90661
-16.3482 -12.1141 -1.19795
-15.3277 -13.0012 -0.867834
-16.7095 -11.9184 -1.61661
-16.2408 -11.9358 -1.38761
-15.4017 -12.6733 -1.07039
-15.4299 -12.6557 -1.12045
-16.5564 -11.6647 -1.82873
-16.9047 -11.6618 -2.41637
-16.371 -11.572 -2.13402
-16.7453 -11.6871 -2.59678
-15.6275 -11.9897 -1.91994
-17.1167 -11.2903 -2.83576
-15.9121 -11.7122 -2.35705
-15.4808 -11.785 -2.36948
-14.2232 -12.7406 -2.14462
-19.4639 -11.2926 0.220034
-18.7097 -11.4807 -0.662805
-18.6953 -11.4662 -0.67094
-16.3444 -12.7735 0.507598
-18.7372 -11.4394 -0.714252
-17.7691 -11.3336 -0.256225
-18.5937 -11.4385 -0.827791
-18.6262 -11.3103 -1.00122
-18.6102 -11.2874 -1.04912
-17.0302 -12.2775 -0.290988
-17.8727 -11.382 -0.706233
-17.1368 -12.261 -0.55847
-18.4211 -11.2852 -1.30595
-17.1393 -11.9265 -0.972365
-18.0409 -11.4268 -1.58844
-18.3911 -10.9709 -1.96569
-18.3231 -10.9636 -1.95693
-18.4274 -10.6944 -2.30355
-15.6769 -12.6408 -1.32055
-16.5189 -11.6644 -1.84788
-18.4504 -10.2653 -2.95296
-17.1039 -11.3337 -2.77532
-17.0298 -11.4017 -2.77059
-15.5936 -11.9143 -2.01496
-15.6345 -11.8511 -2.03898
-15.8973 -11.7015 -2.39324
-15.6272 -11.7639 -2.29059
-14.5187 -12.7577 -1.91025
-13.7655 -14.0601 -2.05315
-15.0384 -12.1993 -2.23898
-18.9573 -10.7046 0.745462
-18.2417 -11.54 0.997013
-18.5875 -11.1833 0.677595
-18.0827 -11.1848 -0.104608
-17.9976 -11.1407 -0.355842
-16.8668 -12.3286 -0.00679891
-16.7589 -12.3506 -0.00793585
-16.309 -12.4986 -0.256584
-17.2784 -11.9524 -0.911948
-17.5808 -11.3067 -1.15362
-16.4326 -12.1104 -1.54474
-16.4146 -12.0299 -1.54524
-16.1302 -11.9336 -1.35431
-15.9685 -12.2807 -1.40837
-15.4414 -12.4394 -1.75474
-17.2436 -11.0046 -3.18995
-15.5506 -11.7705 -2.27887
-14.0382 -12.9128 -2.10466
-14.1167 -12.6522 -2.11388
-14.1427 -12.5684 -2.18895
-16.8362 -12.227 0.142713
-16.7093 -12.4535 -0.306181
-17.9152 -11.2134 -1.96198
-17.472 -10.7865 -3.22904
-15.7802 -11.7529 -2.51878
-17.9 -11.5383 0.285549
-19.1453 -10.9679 -0.914603
-17.1133 -11.7001 -2.13089
-15.3062 -12.5151 -1.73154
-14.464 -13.3934 -1.45843
-16.3169 -11.5856 -2.22387
-16.9356 -12.2391 -0.109322
-17.3186 -11.8499 -1.03267
-17.2142 -11.9113 0.00229955
-17.3101 -11.7936 -0.0951833
-16.7181 -12.4106 -0.44375
-18.1469 -11.3552 -1.4771
-17.9587 -11.2744 -1.82985
-16.547 -10.9122 1.63378
-18.6855 -11.2313 -1.05901
-18.0257 -11.429 -0.836265
-17.8222 -11.2675 -1.92094
-15.4915 -12.7547 -1.05321
-15.5162 -12.6826 -1.21109
-16.3033 -11.6301 -3.11246
-14.7331 -12.6221 -1.68439
-17.3303 -11.0936 -2.91891
-17.1532 -11.2844 -2.82174
-17.9208 -10.7209 -2.79665
-17.9242 -10.737 -2.79677
-17.9591 -10.7287 -2.78739
-17.1828 -11.4309 -2.5052
-18.2458 -10.5456 -2.68318
-18.2545 -10.5758 -2.67824
-18.1028 -10.7329 -2.59939
-15.6816 -12.3765 -1.55695
-17.7105 -11.0775 -2.45027
-17.4279 -11.3781 -2.34249
-16.5946 -11.8754 -1.69613
-18.5055 -10.5519 -2.43689
-17.764 -11.2891 -2.03489
-17.8552 -11.2023 -2.05064
-18.6233 -10.6672 -2.13667
-15.4918 -12.9858 -0.798684
-18.417 -10.885 -1.96382
-17.9738 -11.3122 -1.77575
-16.4705 -12.2359 -0.922851
-18.8138 -10.6858 -1.93479
-18.1035 -11.3167 -1.61459
-18.5536 -10.9377 -1.74924
-16.494 -12.2989 -0.757214
-17.5946 -11.3091 -1.14999
-17.0543 -11.9819 -0.872443
-16.9132 -12.2487 -0.810682
-16.1252 -12.489 -0.375144
-18.9813 -10.7426 -1.57227
-19.1178 -10.6398 -1.62569
-18.491 -11.1964 -1.3472
-16.4507 -12.5314 -0.364158
-16.6256 -12.4344 -0.432202
-16.6701 -12.3551 -0.438374
-18.4627 -11.2751 -1.27206
-16.5655 -12.472 -0.394198
-18.2318 -11.5715 -1.0646
-18.6448 -11.2078 -1.23073
-18.4513 -11.3878 -1.14536
-19.3912 -10.6419 -1.25307
-18.9014 -11.1238 -0.994903
-18.9338 -11.1165 -0.995937
-16.7925 -12.3717 0.0430131
-16.4356 -12.6017 0.304322
-18.6591 -11.5112 -0.665205
-19.1843 -11.0162 -0.875767
-19.3058 -10.8607 -0.923382
-19.546 -10.6773 -0.959372
-16.7844 -12.3807 0.343002
-17.6264 -11.5823 -0.00872423
-18.0149 -11.2766 -0.0622547
-19.0876 -11.2578 -0.590657
-18.8734 -11.4645 -0.505819
-19.4528 -10.9438 -0.692428
-19.6381 -10.8222 -0.671923
-19.1658 -11.318 -0.373626
-19.2504 -11.2556 -0.405655
-19.259 -11.2318 -0.412538
-19.4562 -11.0451 -0.46936
-19.5764 -11.0348 -0.403944
-19.35 -11.2793 -0.261024
-18.3136 -11.2563 0.318491
-15.5171 -11.7087 1.70245
-19.2473 -11.452 -0.0872258
-19.8221 -10.9027 -0.322052
-19.2471 -11.4789 0.311458
-18.1798 -11.5403 1.04904
-15.9667 -11.2547 2.41086
-14.6425 -12.5665 -2.08708
-15.9487 -11.7491 -2.32794
-17.9212 -10.5579 -3.11368
-17.2966 -11.1452 -2.87221
-15.4939 -12.4183 -1.68768
-17.0521 -11.7257 -2.1491
-17.7539 -11.2451 -2.17023
-17.5218 -11.4946 -2.02432
-18.5582 -10.5781 -2.31613
-18.6035 -10.5633 -2.27224
-16.243 -12.3093 -1.09131
-18.6217 -10.687 -2.05578
-18.0696 -11.2277 -1.79875
-17.9398 -11.3648 -1.75195
-17.9472 -11.3844 -1.69314
-18.7241 -10.7717 -1.83964
-18.1225 -11.4216 -1.48075
-18.6076 -10.9403 -1.64238
-16.721 -12.3059 -0.485509
-18.669 -11.4783 -0.679605
-19.2089 -10.9878 -0.886727
-19.2937 -10.9319 -0.878733
-18.0261 -11.1632 -0.193264
-17.5499 -11.657 0.044578
-17.9084 -11.3656 -0.0717539
-17.6105 -11.6428 0.0704564
-19.5984 -10.7936 -0.701809
-19.4448 -11.0653 -0.470743
-19.2985 -11.394 -0.10464
-19.3627 -11.3324 -0.120505
-15.8722 -11.4951 1.77315
-18.6275 -11.1894 0.740262
-14.9798 -12.278 -2.20958
-15.5614 -11.864 -2.09081
-15.5741 -11.9176 -2.0123
-15.65 -11.9814 -1.90209
-16.5507 -11.8876 -1.71593
-17.4947 -11.5059 -1.98209
-16.7736 -11.8933 -1.60221
-16.3262 -12.1184 -1.18993
-16.8847 -11.9312 -1.38567
-18.7618 -10.5832 -2.07486
-18.0248 -11.2904 -1.71242
-17.1398 -11.9452 -1.0144
-16.9129 -12.2802 -0.780454
-17.7967 -11.4314 -0.716946
-17.7465 -11.4916 -0.695751
-18.5537 -11.446 -0.914964
-17.6259 -11.4724 -0.195529
-19.2303 -10.9052 -0.968494
-19.1457 -11.0159 -0.914666
-18.767 -11.4495 -0.683964
-19.1246 -11.0853 -0.821642
-19.3365 -10.885 -0.899399
-16.1414 -12.9831 0.63017
-19.2436 -11.0733 -0.660101
-16.2326 -11.0304 1.40232
-19.0218 -11.6665 0.0270445
-19.1596 -11.5588 0.315453
-18.4554 -11.259 0.703406
-15.7868 -11.7029 1.98231
-14.5168 -12.8053 -1.89961
-15.6075 -11.838 -2.07352
-16.9606 -11.6267 -2.42812
-18.4778 -10.8405 -1.97914
-16.7761 -12.3173 -0.487514
-18.6431 -11.3633 -0.966915
-18.7024 -11.4111 -0.837453
-17.4159 -11.649 -0.106871
-18.7201 -11.4271 -0.736052
-17.5076 -11.7097 0.0812507
-18.9308 -11.4248 -0.544749
-19.3283 -11.0421 -0.625946
-16.3986 -11.1095 1.71145
-17.1366 -11.2968 -2.85363
-17.0164 -11.9258 -1.23747
-17.2733 -11.9082 -0.976887
-16.7849 -12.3597 -0.135097
-18.0928 -11.3458 0.220565
-15.7977 -11.7023 -2.43787
-17.4549 -11.3863 -2.35976
-18.003 -11.1542 -2.00534
-16.5592 -12.5018 -0.302183
-16.7387 -12.3563 0.0134017
-18.1862 -11.58 0.730103
-16.3095 -12.0105 -1.5458
-15.9875 -12.2919 -1.27976
-15.9379 -12.4347 -1.24587
-18.2067 -11.0895 -1.87524
-18.4554 -11.1232 -1.5747
-18.3696 -11.2471 -1.40523
-18.2976 -11.4574 -1.11743
-15.4534 -12.5098 -1.54823
-16.5576 -12.4093 -0.702854
-16.6827 -12.348 -0.498848
-16.9524 -12.1763 -0.0105631
-16.4144 -12.6482 0.352528
-16.3667 -10.8753 1.30442
-18.6071 -11.2257 -1.13401
-16.2543 -12.8946 0.660742
-15.6066 -12.8191 -0.893112
-16.6427 -12.433 -0.397457
-18.0015 -10.4147 -3.20749
-17.934 -10.7415 -2.7693
-18.0535 -10.8513 -2.45681
-17.1629 -11.4695 -2.47038
-15.5668 -11.8681 -2.02552
-18.4619 -10.6694 -2.28419
-14.7205 -12.6596 -1.71626
-18.7683 -10.7523 -1.76954
-17.9654 -11.2963 -1.78762
-18.6037 -10.9339 -1.6642
-19.1655 -10.5659 -1.63056
-17.9218 -11.3799 -1.67434
-19.1581 -10.5952 -1.62821
-18.8714 -10.837 -1.52368
-18.8305 -11.0406 -1.19861
-17.0906 -11.9874 -1.06777
-18.8916 -11.1055 -1.08964
-16.0923 -12.5186 -0.837896
-19.3158 -10.7908 -1.01627
-17.022 -11.9972 -0.86849
-18.8424 -11.1832 -1.02365
-18.7482 -11.2661 -0.945848
-19.334 -10.8865 -0.905218
-18.5239 -11.4728 -0.828161
-19.8105 -10.6871 -0.620222
-17.9668 -11.148 -0.309173
-19.721 -10.7844 -0.586187
-19.1718 -11.1661 -0.5891
-16.3959 -12.541 -0.307245
-16.1636 -12.5069 -0.193484
-17.6057 -11.4852 -0.177455
-17.7871 -11.3843 -0.174392
-19.2473 -11.2714 -0.409041
-19.2493 -11.4721 -0.0574034
-18.3079 -11.2638 0.313559
-19.5049 -11.238 0.196486
-19.4073 -11.3187 0.214435
-17.1098 -10.8844 1.07837
-17.0917 -11.3142 -2.82444
-17.9577 -10.8107 -2.59513
-17.188 -11.4147 -2.52358
-18.7362 -10.606 -2.08055
-17.975 -11.3422 -1.72317
-18.02 -11.3337 -1.67002
-18.6275 -10.9351 -1.64966
-17.9688 -11.3829 -1.66841
-18.6445 -10.9022 -1.62212
-19.1374 -10.6164 -1.61376
-16.6629 -12.1675 -1.23138
-18.9124 -10.9662 -1.21704
-18.795 -11.083 -1.2436
-19.3694 -10.7058 -1.07282
-18.9991 -11.0014 -1.09992
-19.413 -10.9304 -0.728401
-18.9607 -11.2743 -0.702549
-16.7176 -12.333 -0.480422
-16.2932 -12.4813 -0.291997
-17.7359 -11.3778 -0.181423
-15.3865 -13.5474 -0.392766
-19.312 -11.2113 -0.35043
-16.2245 -11.0493 1.40585
-17.0379 -11.3431 -2.86456
-16.5848 -11.6681 -2.84343
-14.8496 -12.6057 -1.70184
-14.7062 -12.6821 -1.68948
-18.123 -11.1981 -1.82044
-18.9869 -10.8961 -1.34815
-17.1369 -11.9521 -1.00851
-18.2426 -11.6008 -1.06064
-18.442 -11.5062 -0.885411
-16.7798 -12.2564 -0.502859
-19.2426 -11.5332 0.1046
-19.1698 -11.5505 0.297203
-18.3385 -11.4218 0.653099
-16.723 -11.6826 -2.60594
-16.3277 -11.6152 -2.10749
-17.9185 -11.1184 -2.17705
-17.5672 -11.3961 -2.10119
-18.1238 -11.3031 -1.62184
-15.7653 -12.5355 -1.22083
-19.2269 -10.7408 -1.2792
-17.1117 -11.973 -1.03553
-19.7532 -10.7924 -0.600799
-18.9664 -11.3717 -0.553009
-18.917 -11.4008 -0.551727
-16.2375 -12.6032 -0.208946
-19.2392 -11.3107 -0.372144
-19.1157 -11.4152 -0.33131
-16.7542 -12.4039 -0.0184672
-16.7083 -12.3855 0.0798085
-18.5288 -11.1936 0.599236
-16.3262 -10.8969 1.37301
-18.2514 -11.5464 0.985775
-18.2137 -11.5608 1.0299
-16.8308 -11.3944 -2.9452
-14.1545 -12.6355 -2.15275
-19.1575 -11.5958 0.209056
-16.1416 -12.9508 0.537559
-16.3093 -12.8399 0.596915
-17.4385 -11.1307 -1.47695
-17.077 -12.2057 -0.211673
-17.137 -12.175 -0.139891
-16.3992 -10.9893 1.56091
-18.1073 -11.3821 -1.48312
-15.6423 -12.9769 -0.601703
-18.0733 -11.5771 0.990548
-18.1467 -11.3482 -1.42042
-16.1666 -11.7054 -2.16272
-14.5055 -12.7359 -2.02242
-16.943 -11.3327 -2.92858
-18.0287 -11.4114 -1.59842
-18.5422 -11.3766 -1.01205
-15.7026 -12.3626 -1.55729
-14.431 -13.0314 -1.86047
-17.6698 -11.5243 -0.0292018
-19.0466 -11.6809 0.0377369
-19.0585 -11.6576 0.0721952
-15.3833 -13.0757 -0.732844
-16.2578 -12.5222 -0.265395
-15.9372 -13.081 0.54295
-18.6803 -10.6445 -2.11316
-18.6679 -10.6316 -2.0906
-17.3122 -11.6489 -1.99756
-18.8308 -11.0747 -1.24841
-19.1529 -10.9498 -1.00746
-18.9923 -11.4376 -0.313393
-18.1805 -11.1421 -0.0835448
-19.1711 -11.5677 0.322305
-16.2504 -12.4746 -0.28093
-16.8469 -12.2693 0.503459
-18.7649 -10.3253 -2.48569
-17.0327 -11.331 -2.83356
-16.3662 -11.749 -2.87803
-15.2519 -12.584 -1.68745
-13.3151 -14.139 -2.48227
-16.4676 -12.2296 -0.95488
-19.0429 -11.4599 -0.336993
-16.6022 -12.434 -0.459795
-16.7795 -12.3709 0.0255259
-15.4558 -13.5435 -0.315167
-18.7653 -10.3388 -2.50818
-15.5603 -13.0675 -0.583007
-15.624 -13.1087 -0.460344
-15.2208 -13.6147 -0.552043
-17.1037 -11.3301 -2.69956
-18.5238 -11.4525 -0.870052
-16.9425 -11.9553 -1.24975
-19.1512 -11.1494 -0.641453
-14.307 -13.2255 -1.63543
-19.7787 -10.7782 -0.618278
-16.5039 -12.5267 0.297723
-16.4908 -11.6077 -1.78449
-16.3066 -12.6518 -0.501794
-16.0677 -12.6853 -0.636823
-14.159 -12.8882 -2.1025
-18.335 -10.2947 -3.00278
-18.2644 -10.5365 -2.69009
-17.923 -11.1077 -2.17205
-19.3261 -10.7439 -1.09282
-17.1496 -11.476 -2.46522
-17.2897 -11.619 -2.06922
-18.2384 -11.3998 -1.30657
-17.2988 -11.1268 -1.34415
-19.5218 -11.0906 -0.361895
-15.791 -12.3211 -1.49692
-15.9985 -12.4772 -1.06776
-16.5734 -12.5008 -0.351417
-16.9346 -10.92 1.45287
-17.0437 -11.3342 -2.85084
-19.2768 -10.7731 -1.11981
-15.7887 -11.8499 -1.97825
-18.3037 -11.2608 0.30862
-15.9451 -12.2874 -1.4216
-15.769 -12.3477 -1.52691
-16.2695 -12.2859 -1.06429
-16.5288 -12.2718 -0.802616
-16.7603 -12.3267 -0.455013
-15.7272 -13.2182 -0.141287
-18.3238 -10.7256 -2.34197
-17.8638 -11.1545 -2.20189
-17.3933 -11.5846 -2.03056
-18.5782 -11.42 -0.827438
-14.769 -12.6277 -1.71769
-18.014 -11.5952 0.490745
-16.6106 -12.4314 -0.439764
-16.7573 -12.3993 -0.292221
-15.6597 -12.975 -0.621822
-15.5094 -13.1041 -0.576817
-15.6431 -13.144 -0.32135
-17.6997 -11.4663 -0.0692597
-17.071 -12.1304 -0.0387382
-16.7403 -12.3872 -0.382238
-15.6158 -13.0595 -0.564472
-19.0972 -11.3961 -0.36932
-16.4266 -12.1327 -1.5738
-19.2666 -10.765 -1.18224
-16.0072 -12.5008 -1.02207
-18.2016 -11.3665 -1.37072
-17.5438 -11.4924 -1.20405
-16.6622 -11.7749 -2.52949
-18.2653 -10.5671 -2.69046
-19.1922 -10.7503 -1.27455
-19.2674 -10.7855 -1.10248
-18.5857 -10.9061 -1.7007
-19.0947 -10.8894 -1.11473
-18.3005 -10.9695 -1.99261
-18.2811 -10.9563 -2.00438
-17.3381 -11.0797 -2.92297
-17.3119 -11.2885 -2.5654
-17.9503 -11.3975 -1.70618
-15.931 -11.6829 -2.43841
-15.6531 -11.8041 -2.07115
-16.3294 -12.3548 -0.8463
-16.2015 -12.5026 -0.366733
-15.4877 -12.8683 -0.893129
-15.5764 -13.0131 -0.649845
-15.6253 -13.098 -0.399252
-15.5825 -13.1955 -0.373605
-18.6324 -10.9429 -1.64156
-17.8069 -10.9866 -2.58057
-18.3408 -11.3489 -1.30823
-17.1845 -11.4166 -2.50479
-16.5809 -11.6791 -2.79724
-16.4781 -12.2545 -0.900496
-15.709 -12.3579 -1.53826
-15.3978 -12.7478 -1.29155
-15.6549 -12.965 -0.624444
-15.6803 -13.0182 -0.58181
-15.6327 -13.0339 -0.6183
-15.5475 -13.1022 -0.516454
-15.6794 -13.1543 -0.353905
-18.3459 -10.3226 -2.99099
-19.2311 -10.6632 -1.35966
-19.2256 -10.7442 -1.24121
-19.1392 -10.8223 -1.16376
-18.6697 -10.9339 -1.58301
-18.0529 -11.1312 -1.98656
-16.1837 -11.8289 -2.95489
-17.9929 -11.6697 0.6395
-16.3016 -12.3803 -0.916745
-15.5349 -12.9864 -0.742824
-15.3685 -13.0774 -0.74965
-19.1642 -10.7627 -1.27138
-17.9531 -11.2066 -0.217852
-18.5616 -11.2312 0.531544
-16.3031 -12.2383 -1.10311
-16.5227 -12.3994 -0.554473
-15.6294 -13.0839 -0.451785
-15.6342 -13.1589 -0.381682
-15.6629 -13.1577 -0.317388
-15.7136 -13.1932 -0.232655
-15.7328 -13.1825 -0.186119
-15.8398 -13.2573 0.0611213
-16.4963 -12.3819 -0.639939
-18.2551 -11.3228 -1.38692
-15.8479 -12.5585 -1.07804
-15.1754 -13.4403 -0.814142
-19.2864 -10.7144 -1.28445
-16.5962 -12.5105 -0.283454
-17.0408 -11.4948 -1.5118
-15.8832 -12.5479 -0.941606
-16.6719 -10.9211 1.71945
-18.0083 -11.3886 -1.57118
-18.8509 -10.3374 -2.36634
-19.2725 -10.7632 -1.19378
-18.0947 -10.3287 -3.23933
-19.1552 -10.7482 -1.35125
-18.2565 -10.5586 -2.6787
-19.1371 -10.9068 -1.05152
-17.9348 -10.5765 -3.0396
-18.7433 -10.9445 -1.49881
-18.586 -10.9331 -1.72418
-17.7618 -10.6478 -3.10904
-17.7622 -10.6645 -3.09884
-18.214 -11.1692 -1.72951
-19.1905 -11.5632 0.0387955
-17.9448 -11.3897 -1.71095
-17.2975 -11.1469 -2.83805
-17.2927 -11.2688 -2.61577
-17.2209 -11.3029 -2.70162
-17.0296 -11.3606 -2.84362
-16.8697 -11.3915 -2.96239
-17.2913 -11.624 -2.07276
-17.1419 -11.9534 -1.02196
-17.03 -11.9657 -0.907671
-16.8711 -12.0542 -1.21094
-16.4778 -12.0351 -1.61533
-16.9102 -12.2897 -0.755321
-16.4941 -12.2105 -0.967353
-16.6305 -12.2386 -0.710805
-16.4323 -12.2616 -0.90906
-16.7021 -12.3805 -0.437241
-16.4014 -11.1086 1.71651
-15.6673 -12.418 -1.5577
-16.2299 -12.5759 -0.236313
-14.7137 -12.4947 -2.12462
-15.9222 -11.4874 1.75165
-15.5821 -13.0295 -0.588192
-15.5876 -13.1666 -0.386277
-15.7593 -13.2228 -0.0829834
-15.2557 -13.5596 -0.558561
-18.3621 -10.6984 -2.32638
-18.0417 -10.6165 -2.85968
-18.075 -10.7768 -2.59178
-18.0263 -10.7906 -2.57856
-18.3525 -10.9561 -1.97421
-17.9907 -10.8806 -2.50143
-17.9655 -10.8619 -2.50356
-17.7829 -10.9825 -2.55636
-18.555 -11.4478 -0.888342
-18.0251 -11.4032 -1.62303
-17.3184 -11.6417 -1.99334
-17.7031 -11.5027 -0.0418579
-17.9631 -11.6341 0.547732
-16.8588 -11.9349 -1.38582
-17.1888 -12.2433 -0.568399
-16.0202 -12.117 -1.43978
-16.291 -12.5357 -0.229693
-16.301 -12.7782 0.445185
-15.5014 -12.8705 -0.913514
-15.6905 -12.9711 -0.575788
-15.6643 -12.957 -0.632627
-15.6441 -13.1162 -0.433627
-15.4953 -13.1446 -0.51885
-15.3891 -13.5237 -0.341287
-15.2259 -13.5684 -0.573706
-18.4381 -10.4324 -2.66325
-18.7777 -10.609 -2.00894
-18.3149 -10.7437 -2.33464
-17.3796 -11.1229 -1.34402
-18.1705 -11.4362 0.424162
-17.3052 -11.632 -2.01493
-16.3717 -12.1708 -1.13181
-16.4244 -12.2556 -0.92813
-16.7279 -12.3237 -0.455037
-16.7307 -12.4576 -0.254918
-15.8456 -12.7579 -0.7873
-16.269 -12.7711 0.407113
-15.986 -11.381 1.70168
-15.6032 -13.0122 -0.623527
-15.6734 -13.0208 -0.49697
-15.2264 -12.8934 -1.12765
-15.5926 -13.066 -0.545547
-15.6232 -13.1597 -0.343223
-14.7009 -13.3722 -1.08307
-18.6259 -10.6507 -2.14994
-17.8054 -10.748 -2.87867
-16.0995 -12.0392 -1.45112
-16.0098 -12.166 -1.43849
-15.421 -12.3747 -1.83272
-15.6473 -12.9665 -0.65908
-15.6317 -12.9867 -0.618383
-15.8643 -13.2095 -0.0367363
-15.1889 -13.5464 -0.685829
-14.2979 -13.2277 -1.48959
-18.5061 -10.5104 -2.47672
-18.6187 -10.6635 -2.06931
-19.1119 -10.8854 -1.12263
-18.0232 -10.6208 -2.873
-18.2097 -11.3877 -1.37523
-17.2422 -12.0913 -0.744789
-16.7593 -12.3181 -0.446399
-16.7143 -12.3078 -0.507817
-16.6247 -12.4444 -0.394615
-16.38 -12.3653 -0.864099
-16.5486 -12.4656 -0.469093
-15.7247 -13.0871 -0.36927
-16.0609 -11.4395 2.27829
-15.5296 -13.1128 -0.507054
-15.47 -13.1304 -0.572186
-14.3592 -13.1967 -1.5956
-19.2035 -10.6441 -1.49144
-19.1138 -10.746 -1.34534
-17.9594 -11.2265 -0.181576
-16.1857 -12.0519 -1.29932
-16.5956 -12.298 -0.672891
-16.5261 -12.3268 -0.713551
-16.359 -12.2494 -1.00508
-15.7921 -13.0846 -0.337955
-15.7812 -13.0938 -0.2555
-15.0564 -13.4423 -0.919956
-15.8888 -11.9089 -1.69356
-15.7315 -12.6328 -1.04545
-16.6539 -10.8849 1.75887
-16.1596 -12.3505 -1.06651
-16.1699 -12.5959 -0.771412
-14.5126 -13.1487 -1.73263
-16.6213 -12.1562 -1.0228
-19.5039 -10.7843 -0.866083
-18.3052 -10.3025 -3.04344
-18.4061 -10.7846 -2.15298
-17.9354 -10.5523 -3.00481
-17.9327 -10.5681 -3.08086
-18.6035 -11.6034 -0.521798
-17.9727 -10.7222 -2.77612
-17.9348 -10.7316 -2.75147
-17.8312 -11.3117 -1.92362
-17.7205 -11.4819 -0.0707825
-17.6993 -11.4739 -0.105239
-17.7033 -11.4925 -0.0273586
-17.3996 -11.1886 -2.68903
-17.2888 -11.1586 -2.83058
-17.2275 -11.4318 -2.46415
-16.8777 -11.3714 -2.95405
-17.0029 -11.9953 -0.903696
-16.7531 -12.3025 -0.514611
-15.6027 -12.6229 -1.24001
-14.8775 -12.3314 -2.21461
-14.5287 -12.6693 -2.08109
-18.8428 -10.3277 -2.36032
-18.3299 -10.2804 -3.04528
-18.4093 -10.4443 -2.6819
-18.5635 -10.8977 -1.78773
-18.3276 -10.919 -2.00636
-18.3124 -10.979 -2.0099
-18.0794 -10.7638 -2.58827
-18.0148 -10.7522 -2.63763
-18.0329 -10.7578 -2.61974
-18.2068 -11.1987 -1.74238
-18.1701 -11.428 0.439733
-17.7959 -10.9864 -2.56025
-17.3188 -11.6556 -1.99518
-17.2989 -11.6463 -2.01748
-16.9129 -11.2093 -3.18093
-16.9922 -11.7898 -2.17877
-17.1181 -11.9589 -1.03251
-16.9335 -11.985 -1.23581
-16.9194 -11.9853 -1.24263
-16.2026 -11.0762 1.46528
-16.4106 -12.401 -0.703639
-15.9108 -11.4651 1.73836
-15.889 -11.4511 1.68574
-15.4894 -12.8751 -0.913058
-15.4863 -13.5476 -0.288819
-19.1614 -10.8399 -1.149
-18.7306 -10.983 -1.46831
-18.3517 -11.3304 0.486894
-18.2715 -11.1889 -1.69769
-17.7792 -10.6723 -3.09229
-18.0535 -11.142 -2.0086
-17.9762 -11.6625 0.589115
-17.5412 -11.2683 -2.36808
-17.5906 -11.7347 -0.880353
-16.9693 -11.2009 -3.14373
-16.8952 -11.9126 -1.40126
-16.762 -12.3597 0.105122
-16.6339 -12.3747 -0.468492
-16.6364 -12.4457 -0.397348
-16.4451 -12.2696 -0.867757
-16.3929 -12.3233 -0.855212
-16.2742 -12.281 -1.08698
-15.6813 -12.988 -0.55582
-15.67 -13.0387 -0.481624
-15.7827 -13.1981 -0.122161
-15.7557 -13.2064 -0.167278
-15.7804 -13.2449 -0.0754205
-15.696 -13.1335 -0.306919
-15.6136 -13.0057 -0.619617
-15.3856 -12.7778 -1.26099
-15.1748 -12.5583 -1.83647
-14.8938 -12.658 -1.50542
-19.3326 -10.7566 -1.08924
-19.132 -10.928 -1.0129
-18.5154 -10.4982 -2.45915
-18.7048 -10.9259 -1.60158
-18.6341 -11.16 -1.25293
-17.6046 -11.3336 -1.10325
-17.2449 -11.0428 -3.10196
-16.884 -11.8604 -1.47244
-16.7019 -12.347 -0.470698
-16.5255 -12.2387 -0.830903
-16.479 -12.2905 -0.790874
-16.3188 -12.1156 -1.21674
-15.5821 -11.9878 -1.94451
-15.8396 -13.2179 -0.0212449
-15.5641 -13.1023 -0.499879
-15.487 -13.1314 -0.556795
-18.9125 -10.3554 -2.28056
-18.4099 -10.8029 -2.14715
-18.4732 -11.076 -1.59662
-18.6057 -11.3534 -0.969225
-17.6125 -11.7236 -0.88452
-16.4346 -12.3589 -0.733257
-15.6976 -13.0278 -0.49049
-18.0685 -11.6058 0.610169
-16.671 -12.214 -0.729619
-16.5839 -12.5065 -0.324736
-17.5523 -11.7622 -0.924223
-16.5369 -11.6356 -1.83186
-15.6399 -12.9106 -0.737807
-14.9435 -12.6009 -1.48753
-14.7518 -12.6929 -1.65125
-14.8602 -12.4856 -1.97132
-18.4072 -10.7996 -2.12876
-18.2367 -11.1846 -1.75965
-17.5808 -11.6127 0.00400178
-17.9536 -11.3226 -1.7772
-17.9808 -11.3829 -1.72051
-17.8802 -11.1362 -2.21873
-17.8874 -10.9264 -2.5125
-17.8557 -11.3269 -1.90695
-17.8338 -11.3258 -1.9358
-17.2779 -11.1511 -2.82489
-17.0486 -11.9494 -0.892226
-17.0553 -11.3699 -2.77112
-16.8642 -12.0196 -1.27579
-16.5987 -11.6928 -2.78936
-16.2115 -12.9019 0.53121
-16.1558 -12.4981 -0.336009
-15.7651 -12.5191 -1.17044
-15.4098 -12.6242 -1.47105
-15.3438 -11.9566 -2.30295
-15.3407 -11.9395 -2.31932
-15.2693 -13.5526 -0.496145
-15.1689 -12.102 -2.26168
-15.1767 -12.1422 -2.22791
-15.1071 -12.1066 -2.26461
-14.8793 -12.3312 -2.22536
-14.8501 -12.4127 -2.10644
-14.6842 -12.542 -2.06377
-14.6734 -12.571 -2.03913
-14.5013 -12.6464 -2.09494
-19.1812 -10.6129 -1.52025
-18.6174 -10.6229 -2.14825
-18.5754 -10.8933 -1.79095
-18.0357 -11.2024 -0.16719
-18.4362 -10.4211 -2.73142
-18.3429 -10.975 -1.95399
-18.2706 -10.5846 -2.64689
-18.1902 -11.1829 -1.75233
-17.9588 -11.3543 -1.74726
-16.4658 -12.2358 -0.957649
-15.4568 -12.9562 -0.837245
-18.2301 -11.3597 0.416959
-18.6349 -10.9432 -1.6309
-18.6233 -11.4162 -0.903071
-18.6285 -11.3686 -0.946389
-18.4821 -10.7525 -2.13614
-18.2968 -10.3387 -2.99699
-18.1824 -11.1615 -1.80665
-17.5922 -11.5639 -0.102407
-17.8191 -10.937 -2.55461
-17.2377 -11.9095 0.0583763
