-13.7016 -13.517 -1.16889
-14.991 -12.1762 -1.80082
-15.8435 -12.2053 -2.54796
-17.4336 -10.7605 -3.33133
-14.1981 -12.9075 -1.44641
-17.0852 -10.9491 -3.42257
-16.6586 -11.365 -3.20553
-15.8562 -12.0751 -2.78908
-16.1209 -11.8689 -2.94831
-15.9923 -11.9359 -2.95233
-15.9381 -11.9537 -3.00133
-15.9829 -11.8789 -3.04006
-13.6206 -14.04 -1.82512
-15.1427 -11.8793 -2.41608
-13.4663 -14.0297 -2.09892
-14.1526 -12.5913 -2.25262
-13.0782 -14.2902 -2.12286
-13.1076 -14.2214 -2.19485
-13.5427 -13.8165 -2.44952
-17.6527 -11.351 0.881887
-17.6221 -11.4018 0.856458
-18.8007 -11.3345 0.273182
-17.5248 -11.3277 0.577317
-17.2128 -11.4936 0.441309
-16.8927 -11.7446 0.461954
-16.5271 -12.0504 0.577376
-16.9129 -11.6529 0.26043
-15.2144 -13.132 0.928087
-15.4756 -12.893 0.809008
-18.3766 -11.3043 -0.526403
-18.1141 -11.4826 -0.462438
-18.5595 -11.0602 -0.731365
-18.0687 -11.5377 -0.549756
-18.3541 -11.266 -0.65563
-18.7727 -10.8633 -0.887094
-18.617 -10.9422 -0.886817
-16.7017 -12.116 -0.541582
-16.6969 -12.0791 -0.578689
-14.7297 -13.6648 0.0801939
-14.6615 -13.6665 0.0939063
-16.7852 -11.4454 -0.913173
-17.5285 -11.4849 -1.43959
-18.0621 -10.9719 -1.77133
-17.4564 -11.5406 -1.56431
-15.6312 -12.5069 -0.714743
-14.8839 -13.0769 -0.469238
-16.0389 -12.1845 -1.26171
-16.4583 -11.991 -2.02179
-17.0753 -11.3452 -2.6454
-17.555 -10.8168 -3.0718
-14.7722 -12.7362 -1.60821
-15.2181 -12.035 -1.92322
-13.6904 -13.4724 -1.1981
-14.2462 -12.84 -1.4902
-15.8825 -12.0197 -2.98285
-15.8738 -11.9884 -3.08674
-14.355 -12.4339 -2.33125
-14.0502 -12.6694 -2.22656
-15.9256 -10.8102 1.94592
-15.1748 -11.4015 2.09482
-17.8033 -11.3205 1.00612
-18.8548 -11.0389 -0.249957
-17.3468 -11.3163 0.290261
-18.4319 -11.3585 -0.288274
-17.3858 -11.2507 0.133906
-16.4114 -12.0723 0.404739
-18.1168 -11.4881 -0.51795
-18.0158 -11.5918 -0.505673
-17.2337 -11.5784 -0.34946
-17.1823 -11.5706 -0.35679
-15.5908 -12.6741 0.172368
-17.6915 -11.6102 -0.879287
-15.4924 -12.6638 0.195688
-15.299 -12.9792 0.219311
-15.4198 -12.6653 0.170467
-16.4463 -12.2983 -0.407888
-15.1121 -13.2402 0.187004
-17.583 -11.4853 -1.42201
-14.5139 -13.7231 -0.256291
-15.7156 -12.3827 -0.809527
-16.7917 -11.9169 -1.69762
-15.993 -12.1423 -1.3678
-15.221 -12.6051 -1.17034
-16.4637 -12.0053 -2.05765
-14.6982 -12.9338 -1.25037
-17.6443 -10.7469 -3.0402
-17.6932 -10.6901 -3.08282
-15.7232 -11.7678 -1.95503
-14.2086 -12.9548 -1.35996
-14.2473 -12.8526 -1.46158
-14.261 -12.8127 -1.47856
-15.1409 -12.1068 -2.00367
-13.4659 -14.287 -1.46065
-15.9234 -12.0123 -2.95593
-14.4621 -12.6023 -1.9171
-15.9772 -11.8644 -3.12076
-12.8078 -14.4748 -2.10659
-17.8073 -11.3106 1.02742
-18.6046 -11.4213 0.153114
-15.2475 -13.0956 0.95646
-16.345 -12.295 0.364904
-16.2312 -12.4268 0.148467
-18.4027 -10.9778 -1.19634
-15.8483 -12.6463 -0.0313957
-18.0795 -11.2044 -1.25316
-17.891 -11.1351 -1.69527
-14.4581 -13.6941 -0.344979
-15.9618 -11.9079 -1.41399
-17.1739 -11.0864 -3.05972
-15.0131 -12.1568 -1.92971
-15.1078 -12.0546 -2.03928
-15.291 -12.093 -2.23019
-13.9793 -13.0635 -1.58206
-15.8478 -11.9393 -3.09655
-13.4821 -14.0796 -1.93686
-13.6168 -13.1137 -1.85387
-13.7282 -12.808 -2.02485
-17.7616 -11.308 0.991229
-18.7189 -11.4166 0.393503
-15.103 -13.3163 0.346184
-15.5902 -12.6299 0.13126
-15.4789 -12.6224 0.121854
-16.9999 -11.6649 -0.717525
-15.9766 -12.443 -0.341829
-17.9889 -11.0665 -1.75128
-14.6392 -13.5864 -0.278583
-15.7844 -12.2812 -1.21237
-15.8466 -12.336 -1.32647
-14.8476 -12.7717 -1.37762
-14.8432 -12.3462 -1.74781
-13.842 -13.2925 -1.58098
-13.537 -14.1327 -1.8292
-13.5216 -14.0727 -1.98419
-15.1335 -11.228 2.60835
-18.2812 -11.4202 -0.494669
-18.5489 -11.1418 -0.622561
-15.3491 -12.9741 0.163525
-14.6693 -12.9509 -0.69179
-15.1245 -12.2219 -1.71487
-13.9923 -13.1905 -1.41332
-15.4105 -11.1382 1.93503
-15.6336 -10.8088 1.52593
-17.0664 -11.4306 0.132151
-16.4172 -12.2314 0.352364
-16.6678 -12.1141 -0.549403
-17.7507 -11.4441 -1.14143
-15.2367 -12.8322 -0.610555
-15.5463 -12.3859 -0.961712
-14.3913 -12.8526 -1.4298
-17.4683 -11.59 -1.28784
-14.7254 -12.8607 -1.13202
-15.6934 -12.7807 0.966119
-15.3169 -12.2599 -1.27252
-15.43 -12.8157 -0.0363944
-15.4217 -12.5033 -0.668842
-15.0763 -12.3947 -1.37876
-13.0876 -14.3079 -2.11709
-13.7769 -12.869 -1.86508
-13.4801 -14.0284 -2.11802
-13.601 -14.0027 -1.97271
-14.323 -12.7059 -1.85385
-16.756 -11.2727 -3.27144
-16.2852 -11.7163 -3.05661
-16.6508 -11.3567 -3.20845
-17.0705 -10.9855 -3.40775
-17.4707 -10.7358 -3.30121
-14.1818 -12.8855 -1.47321
-15.8867 -12.1542 -2.52044
-16.1295 -11.9861 -2.63176
-17.5659 -10.7208 -3.17395
-15.1641 -12.1913 -1.69651
-14.9877 -12.5903 -1.51391
-16.7995 -11.5593 -2.49969
-16.4496 -11.8531 -2.32819
-15.0747 -12.5703 -1.42021
-16.9966 -11.4956 -2.29489
-16.8874 -11.7473 -1.93188
-16.895 -11.7426 -1.92368
-16.6354 -11.9442 -1.78132
-18.0195 -10.7373 -2.38639
-18.0788 -10.7265 -2.38022
-15.3088 -12.7404 -0.873325
-18.2016 -10.7806 -2.095
-16.4798 -11.9647 -1.0574
-17.9233 -11.1556 -1.58221
-18.0973 -11.1295 -1.35948
-16.4845 -12.1616 -0.660533
-18.0894 -11.1938 -1.23736
-18.1168 -11.2504 -1.02868
-15.296 -12.9539 0.240491
-15.2293 -13.1995 0.26429
-15.6048 -12.6839 0.153783
-15.7346 -12.6454 0.122877
-16.5064 -12.3843 -0.150198
-16.9571 -12.0316 -0.308262
-17.0862 -11.664 -0.30544
-17.8929 -11.6236 -0.555164
-18.3108 -11.3275 -0.605997
-18.7535 -10.9479 -0.660529
-16.8661 -11.7122 0.2263
-17.0753 -11.5095 0.207995
-18.5913 -11.1719 -0.438208
-18.5501 -11.1924 -0.408012
-16.6501 -11.9049 0.406673
-18.5595 -11.2414 -0.389929
-15.2094 -13.1332 0.959341
-18.6544 -11.1214 -0.393508
-15.2238 -13.1393 0.966809
-16.3325 -12.2043 0.603339
-16.9134 -11.6875 0.395296
-16.8192 -11.8184 0.439829
-15.9634 -12.52 0.773775
-15.9946 -12.4921 0.761824
-15.9625 -12.5311 0.786307
-15.4009 -13.0239 0.9993
-16.917 -11.7372 0.460989
-16.3941 -12.18 0.682341
-18.7161 -11.1673 -0.241942
-16.8906 -11.7371 0.483532
-18.5599 -11.3014 -0.161733
-18.6018 -11.2657 -0.192692
-19.1606 -10.8749 -0.142263
-18.7194 -11.3048 0.0473802
-18.7209 -11.2539 0.0481162
-15.0902 -11.3834 1.90917
-18.9997 -11.1933 0.726313
-15.5014 -11.1111 1.98029
-15.8694 -10.7741 2.05738
-13.0822 -14.2975 -2.13983
-13.1177 -14.2403 -2.14597
-15.9499 -11.9267 -2.9522
-16.1387 -11.7813 -3.04715
-17.1018 -10.9502 -3.40555
-17.4732 -10.7147 -3.40045
-16.0391 -12.0598 -2.6037
-14.2076 -12.9094 -1.44211
-16.5153 -11.6736 -2.7768
-14.7883 -12.7084 -1.55267
-17.6447 -10.8084 -2.84698
-14.9402 -12.7086 -1.35065
-16.5383 -11.961 -2.08343
-17.341 -11.2084 -2.41919
-17.4521 -11.2406 -2.1934
-16.0466 -12.2171 -1.27672
-16.1665 -12.1871 -1.02144
-14.5279 -13.7553 -0.143489
-14.6503 -13.645 -0.127769
-16.2484 -12.3102 -0.752892
-18.2653 -10.9421 -1.53799
-14.6708 -13.6808 0.0691589
-14.733 -13.6533 0.0679167
-16.3551 -12.3321 -0.433812
-15.9955 -12.5289 -0.0750715
-15.0245 -13.642 0.418019
-18.1299 -11.483 -0.481122
-15.5247 -12.8865 0.855536
-15.4338 -12.9719 0.992728
-18.5073 -11.3592 -0.141549
-18.4067 -11.4613 -0.106724
-18.9346 -11.0634 -0.0559855
-16.3355 -11.779 -2.6975
-15.1059 -12.2963 -1.61823
-15.1225 -12.5647 -1.40916
-16.4084 -12.0301 -2.05259
-16.7755 -11.8898 -1.71666
-14.3686 -13.6982 -0.532303
-14.327 -13.7638 -0.492674
-16.1686 -12.1967 -1.18962
-17.9157 -11.0235 -1.90312
-14.5981 -13.6595 -0.18347
-15.2687 -12.8401 -0.309299
-16.6385 -12.1713 -0.500163
-18.238 -11.1813 -0.971612
-17.2206 -11.5908 -0.291773
-18.3473 -11.2571 -0.671611
-18.7765 -11.0323 -0.410306
-18.87 -11.0309 -0.264634
-18.5878 -11.4678 0.0913657
-13.2123 -14.0928 -2.13909
-13.2868 -14.2249 -1.87782
-13.1914 -14.3927 -1.7096
-17.4423 -10.7355 -3.34352
-16.9592 -11.1912 -3.03895
-16.8941 -11.4622 -2.55707
-15.075 -12.6754 -1.236
-14.3153 -13.7591 -0.483737
-14.8331 -13.1868 -0.377542
-16.8542 -11.3841 -1.14556
-17.7302 -11.5684 -0.904252
-15.6381 -12.7235 0.222098
-16.2148 -12.4589 0.166854
-18.6049 -11.4782 0.11016
-15.9905 -12.1229 -2.58484
-15.5699 -12.2365 -0.995917
-17.8468 -11.2559 -1.5437
-15.8579 -12.4777 -0.356964
-15.556 -12.6241 0.163959
-17.296 -11.5386 -0.198147
-18.4351 -11.3121 -0.299534
-14.7994 -12.2833 -1.74176
-14.505 -13.479 -0.748823
-15.1039 -12.809 -0.84212
-15.5108 -10.9267 1.59195
-13.4224 -14.165 -1.93096
-17.5119 -11.5451 -1.12616
-15.3325 -12.877 0.21311
-15.3858 -12.7917 0.235513
-16.1028 -12.5279 0.0455928
-16.7145 -12.1187 0.166815
-14.2444 -13.0145 -1.42494
-14.7362 -12.8964 -1.16098
-18.1782 -11.2428 -0.958012
-15.3213 -13.1683 0.387052
-17.9981 -11.4663 -0.685665
-16.9728 -11.5463 0.189849
-15.4141 -11.1412 1.93507
-15.0279 -12.2368 -1.73009
-15.4243 -12.7984 -0.00756769
-16.8635 -11.5849 -1.38831
-17.4038 -10.785 -3.3343
-17.0452 -11.2032 -2.9941
-16.3084 -11.8381 -2.71249
-16.7033 -11.6562 -2.44569
-14.3496 -12.6833 -1.86404
-16.9 -11.595 -2.22377
-18.2886 -10.7021 -2.10064
-18.1875 -10.7648 -2.07491
-14.2206 -12.8577 -1.45301
-14.1254 -12.9614 -1.43983
-15.921 -12.183 -1.47856
-18.0462 -11.0083 -1.76307
-15.9388 -12.1831 -1.46588
-16.9146 -11.8274 -1.61683
-17.6619 -11.304 -1.64192
-14.9575 -12.7678 -1.21345
-18.5448 -10.7066 -1.60183
-16.4412 -11.9661 -1.16438
-15.0433 -12.7877 -0.880931
-15.2108 -12.7346 -0.882848
-18.581 -10.8888 -1.19839
-16.5118 -12.1012 -0.841045
-18.8824 -10.7526 -1.03481
-18.8907 -10.7834 -0.822448
-18.5872 -11.0381 -0.71209
-18.6042 -11.0528 -0.676735
-15.8358 -12.5198 -0.367667
-17.9496 -11.5697 -0.574017
-17.9253 -11.6084 -0.541333
-15.8491 -12.554 -0.227852
-16.8559 -12.1171 -0.268117
-18.5212 -11.2796 -0.336013
-18.4638 -11.311 -0.339346
-14.6026 -13.6944 -0.147619
-18.6099 -11.2381 -0.181695
-19.2073 -10.8492 -0.163451
-15.3815 -12.698 0.198685
-18.563 -11.3085 -0.124883
-19.1796 -10.8735 -0.107175
-19.0423 -10.9962 -0.0751269
-15.3049 -12.9749 0.234573
-18.6954 -11.3106 0.0263619
-18.7485 -11.2858 0.0258094
-18.4664 -11.5225 0.140349
-15.2065 -13.2841 0.446203
-18.654 -11.4755 0.381117
-17.6012 -11.3232 0.732773
-18.9326 -11.3341 0.479013
-16.2218 -10.8588 1.37226
-18.5105 -10.6963 1.03333
-17.8301 -11.2461 1.00962
-15.2761 -11.1604 1.70794
-15.7279 -10.8759 1.81264
-15.0743 -11.3835 1.90502
-14.9416 -11.5335 2.06493
-14.5635 -12.2292 -2.39722
-16.9759 -11.1889 -3.02907
-15.0844 -12.285 -1.60116
-16.7618 -11.9157 -1.70298
-16.0311 -12.2032 -1.28637
-14.678 -12.9726 -1.09355
-16.1338 -12.1334 -1.17377
-16.7519 -11.4031 -0.992148
-17.6182 -11.4898 -1.28138
-18.0883 -11.1912 -1.248
-18.0032 -11.5515 -0.516876
-15.0744 -13.0864 -0.205156
-18.3832 -11.3613 -0.329079
-14.7299 -13.6724 0.088197
-18.7346 -11.2605 0.0445847
-18.491 -11.4978 0.112562
-16.4348 -12.0989 0.585242
-15.689 -10.8987 1.78905
-14.1697 -12.9366 -1.4458
-16.655 -11.9502 -1.81661
-17.4986 -11.4437 -1.56943
-14.827 -12.8858 -1.07074
-17.7844 -11.4503 -1.13778
-17.6867 -11.6151 -0.863311
-14.3781 -13.6802 -0.517579
-14.4088 -13.6449 -0.492678
-18.7022 -10.9801 -0.664922
-17.3166 -11.467 -0.196579
-15.1034 -13.1938 0.0167423
-15.6104 -12.6431 0.106742
-18.9084 -11.0786 -0.0734342
-16.4581 -12.2841 0.2892
-15.3068 -13.0904 0.282336
-17.8177 -11.21 1.04276
-15.3048 -12.1079 -1.95831
-15.0858 -12.2759 -1.623
-14.3936 -12.8531 -1.28435
-13.7334 -13.5292 -1.39379
-17.6755 -11.4392 -1.31009
-17.6613 -11.4912 -1.26092
-17.6291 -11.6126 -1.03833
-17.7629 -11.567 -0.904584
-18.4504 -11.0827 -0.879146
-14.9555 -12.1681 -2.07827
-15.7729 -12.2448 -1.69665
-15.0956 -12.7909 -0.872258
-15.1382 -12.8237 -0.763114
-18.6784 -10.9934 -0.663981
-17.3114 -11.4832 -0.188723
-15.2048 -13.2173 0.284353
-16.3608 -12.2615 0.376954
-15.8323 -12.5817 0.697414
-14.9908 -12.1488 -2.01247
-15.2889 -12.8711 -0.330904
-15.1429 -11.1856 2.59995
-15.6313 -12.0967 -1.95201
-15.9464 -12.5939 0.0341627
-16.1041 -12.5116 0.0574336
-14.8495 -12.8292 -1.2268
-17.2033 -11.5118 -0.120971
-15.8664 -12.6009 -0.688255
-14.2764 -13.799 -0.365859
-16.7833 -11.2624 -3.25386
-18.3479 -10.6925 -1.94277
-14.9979 -12.2371 -1.78146
-18.8513 -10.708 -0.999711
-18.2857 -11.1331 -1.10011
-18.7272 -10.9742 -0.631484
-18.713 -10.9898 -0.643292
-17.9998 -11.4038 -0.84865
-15.2002 -12.5589 -1.28667
-14.105 -12.9516 -1.43185
-15.1826 -12.5715 -1.2057
-15.2269 -12.5939 -1.16861
-13.3978 -14.0783 -2.09636
-18.4881 -11.2779 -0.343501
-18.7933 -11.0954 -0.207361
-18.9237 -11.0803 -0.0511921
-16.3842 -12.2386 -0.673752
-15.6466 -12.4346 -0.762348
-18.4859 -11.5175 0.139799
-16.7515 -11.8073 0.327161
-16.054 -12.4892 -0.0572278
-17.6012 -11.3471 0.725539
-17.6637 -11.3451 0.892295
-16.3264 -12.2338 0.617405
-15.2824 -13.2238 0.418893
-15.2776 -11.1436 1.725
-17.3937 -11.4271 -1.82413
-15.0315 -12.2017 -1.78249
-19.1322 -10.7001 -0.614982
-18.9526 -10.8378 -0.622254
-18.5744 -11.0528 -0.701392
-17.7379 -11.5784 -0.854542
-14.0128 -13.0179 -1.43528
-16.1768 -12.2212 -1.07299
-14.982 -12.715 -1.23413
-19.2226 -10.8203 -0.244387
-18.0174 -11.545 -0.541583
-17.9482 -11.5679 -0.528946
-18.346 -11.3803 -0.32878
-17.2395 -11.4056 0.214248
-18.5286 -11.4872 0.126743
-14.9195 -13.1248 -0.398062
-14.786 -13.2177 -0.346411
-15.014 -13.1248 -0.224968
-14.4428 -13.6254 -0.485196
-14.9371 -13.3446 0.10772
-15.0901 -13.299 0.310558
-15.0997 -12.177 -1.78645
-17.7203 -11.4821 -1.27726
-15.7619 -12.2882 -1.59725
-19.1055 -10.7272 -0.623867
-15.031 -12.627 -1.40318
-17.6912 -11.6341 -0.860992
-14.3579 -12.9158 -1.3586
-19.1705 -10.8423 -0.215282
-15.3832 -12.6841 -0.687839
-15.399 -12.6347 -0.00715937
-17.8419 -11.1707 1.07322
-15.4787 -12.6391 0.206246
-14.9451 -13.2085 -0.133657
-15.1975 -13.1821 0.220102
-15.2551 -13.1706 0.272694
-14.6595 -13.6522 0.108408
-15.6235 -10.9741 1.81749
-16.4814 -12.1225 -0.853347
-15.1084 -12.7378 -0.875097
-15.1477 -12.7753 -0.803789
-18.5605 -11.4278 0.141848
-16.9859 -11.6103 0.287315
-15.9163 -12.5408 -0.173093
-14.9744 -13.143 -0.158601
-14.8738 -13.2501 -0.117652
-17.8489 -11.3856 -1.24964
-14.3518 -12.7969 -1.47826
-16.1991 -12.2843 -0.953082
-16.1507 -12.3311 -0.821949
-17.3366 -11.3595 -0.0729111
-17.1859 -11.4027 0.105299
-17.0317 -11.5589 0.226846
-16.5107 -12.3724 -0.289197
-16.6559 -11.8931 0.411469
-16.0872 -12.5062 0.0531603
-15.6821 -12.7005 0.770283
-15.1033 -12.1761 -1.7525
-17.7395 -11.5498 -1.01584
-13.5539 -14.0355 -1.96048
-15.6536 -12.4382 -0.739975
-16.218 -12.4344 0.130669
-17.2167 -11.587 -0.321124
-18.369 -10.7006 -1.95959
-17.4462 -11.1407 -2.41138
-19.0545 -10.767 -0.59318
-18.6701 -10.9734 -0.677728
-18.6928 -10.9656 -0.63866
-16.3868 -12.2155 -0.651203
-15.107 -12.662 -1.23885
-16.8394 -11.7832 0.435801
-14.8379 -12.93 -1.02298
-16.3368 -12.2115 0.639227
-13.4472 -14.0705 -2.02472
-15.3728 -11.1538 1.89948
-15.1239 -13.1928 0.0497179
-14.7015 -13.6586 0.0367936
-16.679 -11.8469 -2.0658
-16.7365 -11.4053 -0.978893
-17.2459 -11.4061 0.219377
-16.3685 -12.2385 -0.672812
-15.1981 -12.6073 -1.20111
-15.0892 -12.6727 -1.22735
-15.9072 -12.4149 -0.542542
-15.9042 -12.5488 -0.221166
-15.7972 -12.5754 -0.255803
-16.0485 -12.4921 -0.072314
-15.9252 -12.5304 -0.12894
-16.0793 -12.4816 -0.0352604
-14.8805 -13.1477 -0.393979
-14.8577 -13.2288 -0.266972
-15.049 -13.2795 0.101082
-14.9365 -13.3196 0.0875496
-15.0886 -13.295 0.326116
-15.3998 -13.0339 0.99864
-15.9 -11.948 -3.01746
-16.6764 -11.9574 -1.78241
-16.807 -11.9227 -1.61248
-17.9576 -11.5716 -0.506357
-16.0403 -12.5337 -0.0177657
-15.335 -11.1645 1.83696
-16.0457 -12.4608 0.769152
-13.2954 -14.2585 -1.88545
-14.8144 -13.2346 -0.314935
-15.2113 -13.213 0.268663
-18.5751 -11.0057 -0.801717
-18.6986 -10.9992 -0.632685
-14.6974 -12.8431 -1.36273
-13.9038 -13.5346 -1.06464
-17.1461 -11.4869 0.230397
-15.4004 -12.67 -0.695009
-15.2461 -12.7675 -0.684005
-15.7962 -11.8468 -2.03714
-16.9259 -11.6083 -0.803027
-17.4958 -11.2496 0.308333
-15.9158 -12.6443 0.109774
-17.2301 -11.5402 -0.33316
-16.8999 -12.0787 -0.368327
-14.1094 -12.9553 -1.47143
-14.7897 -13.6241 0.0413955
-15.7996 -12.3322 -1.03357
-15.8124 -12.7989 -0.0525526
-14.4696 -13.2188 -0.805967
-17.8942 -10.7469 -2.61659
-17.625 -11.6434 -0.888783
-17.6257 -11.652 -0.850795
-17.5164 -11.2579 0.281495
-16.7854 -11.9308 -1.63412
-16.7571 -11.9316 -1.67423
-15.6625 -10.9245 1.78721
-15.2193 -12.5786 -1.28048
-15.1919 -12.597 -1.16608
-15.0756 -11.3775 1.91913
-15.214 -12.9467 -0.369784
-15.3909 -13.017 1.01579
-13.4296 -14.0682 -2.07357
-18.5424 -11.1099 -0.592948
-17.5859 -11.6564 -0.905991
-17.6239 -11.6719 -0.861618
-15.1773 -12.609 -1.18947
-15.7989 -12.5205 -0.407857
-16.0291 -12.5866 0.0742372
-15.9314 -12.5922 0.00252835
-14.658 -12.9028 -1.29811
-15.3071 -13.2428 0.448734
-13.4688 -14.0836 -2.00535
-15.8512 -12.0076 -2.96403
-17.238 -11.366 0.121894
-16.037 -12.5069 -0.0738227
-14.6684 -13.0092 -1.08187
-15.093 -13.1573 -0.00486556
-15.2185 -13.21 0.265403
-14.8348 -13.2854 -0.161679
-15.0665 -13.3371 0.297961
-14.7187 -13.5738 -0.236976
-14.9986 -13.6191 0.366378
-16.9512 -11.6148 0.288963
-15.2628 -12.5379 -1.15909
-13.4853 -14.0387 -2.04761
-14.7835 -13.6802 0.106435
-15.0698 -12.6428 -1.29277
-14.1938 -12.9301 -1.38024
-14.6742 -13.6824 0.0136692
-15.5018 -12.1045 -1.87879
-15.7977 -12.6505 -0.0346866
-15.2952 -12.7072 -0.485637
-14.6731 -13.6046 -0.195118
-17.7159 -10.6694 -3.00927
-17.7144 -10.6961 -2.98308
-18.6057 -10.9662 -0.877063
-18.6563 -10.98 -0.743102
-18.5422 -11.1164 -0.611824
-17.7844 -11.2727 -1.57878
-16.9369 -11.2289 -3.03651
-16.9324 -11.2605 -2.97531
-17.2916 -11.3283 -2.20144
-17.4534 -11.4801 -1.60772
-17.9189 -11.5754 -0.590324
-16.2768 -12.1952 -0.939965
-16.3438 -12.2031 -0.838816
-16.01 -12.4058 -0.304292
-16.0055 -12.5149 -0.123729
-15.4095 -13.0676 0.393669
-14.7124 -13.4982 -0.320615
-13.1763 -14.3309 -1.91528
-18.5501 -11.1012 -0.612523
-18.143 -11.2342 -1.08527
-18.0303 -11.2312 -1.23359
-17.441 -11.1323 -2.42738
-17.7448 -11.4419 -1.21376
-17.343 -11.3554 -2.15465
-17.9374 -11.5684 -0.560167
-16.8331 -11.566 -2.45292
-16.1605 -11.8693 -2.8429
-16.2023 -11.9016 -2.68281
-15.8959 -12.016 -2.95323
-15.7913 -12.6539 -0.00330645
-14.8272 -13.121 -0.489753
-17.9799 -10.8777 -2.16916
-17.4165 -10.8071 -3.2659
-17.486 -11.1185 -2.43706
-16.8491 -11.3341 -1.01447
-16.1985 -11.7288 -3.05793
-16.2465 -11.9035 -2.65825
-15.9053 -12.5389 -0.18671
-14.8116 -13.2381 -0.309225
-14.4983 -13.6155 -0.425159
-14.4469 -13.6164 -0.424812
-17.7545 -10.6961 -2.88211
-17.5662 -10.9908 -2.53733
-17.6452 -11.4294 -1.30225
-16.7044 -11.4507 -1.01086
-15.9033 -12.643 0.00993465
-13.4769 -14.0298 -2.06153
-15.0886 -13.2962 0.291795
-18.6807 -10.9345 -0.846072
-15.1121 -13.1422 -0.00431307
-14.8382 -13.0279 -0.647044
-14.0142 -13.5555 -0.789191
-17.3189 -11.5351 -0.184981
-17.8983 -10.7373 -2.64246
-17.8708 -10.7273 -2.63646
-17.7244 -10.6991 -2.97011
-17.9325 -11.1036 -1.76375
-15.6459 -10.895 1.72691
-17.4502 -11.4845 -1.6176
-17.2978 -11.3332 -2.20126
-15.5031 -11.0976 1.99137
-16.9805 -11.0778 -3.41374
-16.9309 -11.5667 -2.27671
-16.5695 -11.414 -3.23827
-16.5773 -11.708 -2.55919
-15.0066 -11.441 1.97362
-15.5835 -12.7063 0.171811
-15.1264 -12.1382 -1.79055
-15.3239 -12.7576 0.100224
-15.1748 -13.2511 0.272308
-15.1877 -13.2983 0.460857
-14.8229 -12.9143 -1.05515
-14.7958 -13.2186 -0.365144
-14.3029 -12.8044 -1.51956
-14.2509 -12.8708 -1.46449
-13.5681 -14.066 -1.83171
-18.4817 -11.0976 -0.735777
-18.4695 -11.1145 -0.766625
-18.1722 -10.6179 -2.46166
-18.1319 -10.9862 -1.66716
-18.069 -11.2035 -1.22492
-15.9052 -10.8505 1.75952
-17.4582 -11.1318 -2.42634
-16.7512 -12.0524 -0.429612
-15.9194 -11.9989 -2.93581
-15.9132 -12.2913 -1.26728
-15.8126 -12.4484 -0.495217
-15.778 -12.4311 -0.62116
-15.0418 -12.5513 -1.47659
-15.2378 -13.1765 0.225306
-14.7198 -12.7547 -1.48291
-14.9422 -13.1948 -0.240572
-14.7479 -13.642 0.190025
-14.6791 -13.5695 -0.269663
-13.4554 -14.0635 -2.01386
-13.4061 -14.0603 -2.09197
-13.249 -14.3818 -1.63868
-18.5696 -11.0822 -0.590351
-18.4231 -11.1236 -0.86388
-17.4059 -11.4133 -1.82703
-17.4101 -11.4197 -1.81595
-15.7844 -11.9741 -1.74601
-15.7072 -12.5412 -0.431879
-15.2152 -13.2221 0.311117
-15.14 -13.2963 0.315555
-15.1379 -13.3648 0.504199
-14.8664 -13.3021 -0.103832
-14.7007 -13.5632 -0.258123
-13.5389 -14.0468 -1.95512
-13.5196 -14.0495 -1.91374
-13.1871 -14.3192 -1.9127
-17.4024 -10.8325 -3.28235
-17.6958 -11.5561 -1.00693
-16.6433 -12.2511 -0.271309
-16.0124 -12.4094 -0.256177
-15.2107 -13.1987 0.199189
-15.1721 -13.1761 0.131468
-15.1172 -13.1929 0.147868
-14.1703 -12.5545 -2.24464
-14.9521 -13.271 -0.0183836
-13.9575 -12.9797 -1.75747
-17.4621 -11.2713 0.275431
-17.7003 -11.6047 -0.920579
-16.6209 -12.2214 -0.389939
-16.1486 -11.8561 -2.89578
-16.077 -11.8387 -2.98573
-15.1579 -12.8184 -0.737163
-14.7697 -13.6545 0.0389734
-15.2378 -12.933 -0.418016
-15.4978 -12.6275 -0.625129
-18.1946 -11.3292 -0.682347
-17.9429 -11.3459 -1.06785
-16.9096 -11.7291 0.407113
-15.1964 -11.3254 2.00547
-15.0168 -11.4571 1.96685
-17.4115 -11.4566 -1.78487
-16.868 -12.0971 -0.251006
-17.3481 -10.8214 -3.365
-16.0399 -12.4147 0.62763
-16.7865 -11.4517 -2.75458
-16.084 -12.4735 -0.0635308
-15.7974 -12.5242 -0.36712
-16.22 -11.9065 -2.6623
-15.4071 -13.0796 0.39116
-15.8848 -11.9953 -2.88043
-15.8948 -12.0037 -2.9402
-15.8937 -12.0136 -2.94161
-15.8401 -11.9941 -3.06261
-15.2585 -12.587 -1.12486
-14.9617 -13.2369 -0.00821166
-14.9047 -12.3045 -1.789
-14.7974 -12.9465 -1.02216
-14.2722 -12.8635 -1.47923
-13.3212 -14.0924 -2.134
-18.456 -11.0762 -0.854709
-17.0037 -11.6198 0.369802
-17.8871 -10.4401 -3.30421
-17.4954 -11.1187 -2.41048
-17.4599 -11.1325 -2.44605
-17.4361 -10.8166 -3.17792
-16.9379 -11.5671 -2.25996
-16.9582 -11.2954 -2.83286
-16.8651 -11.1898 -3.27537
-16.1104 -12.5201 0.0986463
-16.6755 -11.8356 -2.08971
-15.7573 -12.5097 -0.455853
-16.2474 -11.8862 -2.6944
-15.6594 -12.4748 -0.695996
-15.2978 -13.0644 0.0132397
-15.8638 -12.0083 -3.03258
-15.1328 -13.2389 0.264544
-15.1127 -13.2854 0.323177
-15.1448 -13.1631 0.109067
-15.1128 -13.3026 0.374989
-15.1038 -12.2272 -1.68322
-14.9315 -13.1358 -0.337909
-14.9451 -13.1003 -0.443466
-14.8857 -13.2149 -0.148956
-14.4498 -13.7628 -0.22953
-18.6437 -11.0044 -0.743384
-18.4562 -11.0971 -0.798016
-17.6599 -11.4557 -1.26559
-17.6548 -10.71 -3.15246
-16.98 -12.0128 -0.301602
-16.4012 -12.1559 0.638403
-16.6946 -12.1677 -0.394026
-15.9355 -12.5655 0.823786
-16.1148 -12.4615 -0.0354479
-16.2454 -12.3265 -0.764539
-15.9086 -12.6618 0.0547644
-15.9037 -12.3839 -0.527586
-15.8299 -11.9809 -3.08958
-15.1816 -13.1412 0.0162497
-15.1275 -13.226 0.181483
-15.069 -13.1271 -0.180352
-14.9185 -13.6441 0.244887
-14.7156 -12.9038 -1.25368
-14.7111 -12.7825 -1.46486
-18.703 -11.0101 -0.617863
-15.4317 -11.1772 2.01011
-15.228 -11.3251 1.9914
-16.6331 -11.9117 0.427009
-16.9993 -11.9533 -0.436381
-16.943 -11.2445 -2.95737
-16.5064 -11.7078 -2.62589
-15.8818 -12.4076 -0.435673
-15.8584 -12.5457 -0.260135
-15.8599 -12.4362 -0.502129
-15.8123 -12.4967 -0.432563
-15.385 -12.9921 0.904832
-15.0018 -13.2056 0.0273238
-15.0059 -13.1447 -0.165873
-14.9863 -13.211 -0.0888571
-13.5292 -14.2406 -1.51404
-13.5303 -14.0701 -1.87907
-18.5547 -11.0376 -0.831619
-17.1201 -11.5003 0.234606
-16.8743 -11.7 0.357316
-15.6899 -12.7142 0.778688
-16.056 -11.869 -3.00624
-14.8936 -12.6912 -1.41081
-14.5371 -13.6503 -0.311085
-16.9743 -11.9719 -0.349881
-15.1179 -13.1251 -0.0107132
-16.6081 -12.2095 -0.415398
-15.1992 -13.1508 0.156807
-14.8993 -13.166 -0.281501
-14.8475 -12.7594 -1.23746
-14.2468 -13.81 -0.381649
-15.4867 -12.6365 -0.661251
-15.1318 -12.313 -1.49201
-18.7393 -11.0876 -0.441712
-15.423 -11.1661 2.02311
-17.3516 -11.3935 0.299506
-15.1658 -11.3682 2.10365
-15.3411 -11.0815 1.68183
-15.0994 -11.4045 2.00153
-15.0217 -11.4258 1.92467
-16.8755 -11.7857 0.47693
-16.9552 -11.6104 0.266109
-18.1357 -10.9415 -1.77691
-17.0807 -11.6594 -0.305485
-17.8917 -11.1277 -1.72239
-18.0301 -10.7804 -2.23389
-17.427 -11.4931 -1.58192
-16.516 -12.4092 -0.165561
-17.3927 -11.2885 -2.15115
-17.7451 -10.7541 -2.88692
-17.8969 -10.4365 -3.2955
-16.3799 -12.1955 -0.514202
-15.4445 -12.9846 1.03827
-15.5342 -12.8232 0.795677
-16.0536 -12.454 -0.0632123
-15.9986 -12.5185 -0.0804084
-17.1897 -11.4845 -2.05876
-17.6431 -10.7071 -3.13428
-17.285 -11.3009 -2.33963
-17.735 -10.4651 -3.539
-16.0049 -12.4228 -0.316052
-17.3926 -10.9234 -3.02783
-17.3564 -10.9577 -3.01272
-17.3972 -10.8658 -3.15788
-16.9356 -11.5704 -2.26212
-16.8369 -11.5572 -2.53361
-16.9353 -11.3159 -2.94592
-16.8818 -11.3151 -2.94069
-15.9843 -12.0553 -1.37152
-15.1958 -13.2102 0.28046
-16.3915 -12.0389 -1.97449
-16.8655 -11.2244 -3.22556
-16.408 -11.6074 -3.08627
-16.418 -11.5574 -3.11453
-15.2483 -12.7453 -0.865202
-14.8368 -13.288 -0.119736
-14.9326 -13.1043 -0.413137
-14.6596 -13.7037 0.0406911
-15.9541 -11.9168 -3.00861
-14.787 -12.9144 -1.09211
-14.6022 -12.4671 -1.98065
-14.5048 -12.5576 -1.91124
-14.146 -12.85 -1.78326
-14.2992 -12.4486 -2.29475
-15.0837 -11.2816 2.63129
-18.6087 -10.9001 -0.921954
-17.0071 -11.6271 0.393277
-17.0322 -11.5892 0.30856
-18.4166 -10.6463 -2.01776
-18.215 -10.9142 -1.68953
-17.2296 -11.5816 -0.334391
-16.55 -12.0245 0.537558
-17.9198 -11.2666 -1.3318
-16.5057 -12.0132 0.435399
-17.9458 -11.1237 -1.72734
-17.6451 -11.4597 -1.33056
-16.085 -12.4204 0.700735
-17.5918 -11.156 -2.21369
-17.2032 -11.576 -1.79314
-17.5322 -10.9384 -2.74707
-15.9094 -12.6411 0.0274073
-17.6319 -10.7408 -3.14921
-17.2512 -11.1773 -2.59109
-15.6085 -12.6725 0.163067
-15.8588 -12.569 -0.224365
-17.4339 -10.8316 -3.19459
-17.3966 -10.8528 -3.16765
-16.6817 -11.912 -1.82767
-16.8545 -11.5628 -2.52843
-16.9072 -11.2846 -2.99719
-15.2123 -13.2056 0.245417
-15.1837 -13.2372 0.284396
-15.2991 -13.0367 -0.0517637
-16.892 -11.1682 -3.30444
-15.0256 -13.6609 0.416259
-14.7991 -13.6603 0.141484
-14.7246 -13.2245 -0.410069
-15.979 -11.902 -3.01698
-15.0306 -12.6841 -1.23155
-15.0053 -12.7446 -1.22265
-15.1008 -12.2155 -1.69063
-15.8476 -12.0534 -2.93523
-15.819 -12.0113 -3.03202
-15.832 -11.9974 -3.08114
-14.4626 -13.7391 -0.239702
-15.0156 -12.1405 -2.08572
-14.2844 -12.7121 -1.8109
-14.148 -12.8918 -1.76309
-14.0746 -12.9225 -1.75352
-13.7234 -13.4656 -1.17168
-13.5783 -14.0242 -1.94975
-13.3764 -14.0454 -2.19784
-13.2079 -14.1745 -2.22398
-15.9093 -10.7848 1.97027
-17.5923 -11.369 0.751844
-18.9674 -10.7051 -0.867015
-15.4562 -11.1424 2.03988
-18.5323 -11.2317 -0.395555
-18.4842 -11.1147 -0.82293
-18.2892 -10.957 -1.48815
-18.0967 -10.745 -2.31071
-17.6561 -11.4261 -1.40401
-18.0134 -10.667 -2.60975
-16.1059 -12.53 0.081721
-16.1254 -12.506 0.0581451
-16.0759 -12.4736 -0.0229032
-16.0306 -12.5102 -0.0127021
-16.4663 -12.1258 -0.841329
-15.9727 -12.4932 -0.141577
-16.0086 -12.4361 -0.248687
-15.8483 -12.6459 0.0462436
-17.338 -11.1037 -2.74047
-15.8429 -12.5438 -0.278453
-15.4967 -12.6321 0.150739
-15.3729 -12.702 0.172669
-15.7534 -12.4773 -0.609083
-15.2823 -13.2098 0.38789
-15.6409 -12.4659 -0.733997
-16.6201 -11.5755 -2.7535
-15.2611 -12.8546 -0.584689
-15.0407 -13.1522 -0.190728
-14.9438 -13.2668 0.0110282
-14.9472 -13.1524 -0.309897
-15.9445 -11.9005 -3.04256
-14.5508 -13.7105 -0.227257
-14.3105 -12.8886 -1.39495
-14.2397 -12.9343 -1.38518
-14.1519 -12.9177 -1.41704
-15.4227 -11.1538 2.00825
-17.3059 -11.393 0.29597
-17.0073 -11.5501 0.175945
-17.9042 -11.4355 -0.94078
-14.7714 -11.6602 2.04472
-16.4646 -12.097 0.620988
-16.2132 -12.2762 0.565812
-16.0761 -12.5141 0.0391983
-16.2347 -12.3675 -0.698232
-15.1337 -13.2985 0.276856
-15.1485 -13.1366 -0.00837769
-15.0209 -13.0937 -0.259339
-14.9107 -13.2311 -0.169447
-16.2473 -11.7191 -3.04476
-16.0002 -11.8887 -3.08412
-14.1533 -12.9151 -1.43116
-18.5909 -11.1633 -0.450412
-17.375 -11.3231 0.25143
-16.9349 -11.7203 0.427847
-16.7421 -12.0995 -0.491346
-15.6862 -12.7115 0.785494
-16.0384 -12.5656 0.070389
-15.2572 -13.1614 0.310745
-15.672 -12.4138 -0.718557
-16.1252 -11.7981 -3.00473
-14.693 -13.4225 -0.331853
-15.0294 -12.5758 -1.51836
-14.3464 -13.746 -0.534828
-15.4398 -13.0226 1.09173
-16.0355 -12.2261 -1.18917
-15.6795 -12.4001 -0.78613
-15.1592 -12.8268 -0.839115
-15.0369 -12.225 -1.73834
-15.1755 -12.819 -0.795847
-14.9531 -12.6097 -1.55177
-16.0095 -12.2395 -1.20327
-15.2268 -12.8917 -0.203413
-15.4227 -12.8717 -0.24342
-15.6472 -10.8561 1.66797
-15.4129 -11.0818 1.8242
-18.7244 -11.3027 0.0571401
-15.0262 -11.4289 1.93583
-18.5849 -11.2554 -0.16972
-18.8085 -10.9945 -0.483905
-18.3662 -11.4614 -0.140522
-18.6147 -11.1803 -0.441497
-18.3351 -11.4542 -0.21052
-18.5682 -11.1419 -0.445534
-17.3758 -11.2706 0.187328
-18.4409 -11.2465 -0.488794
-17.0024 -11.6469 0.380822
-17.1453 -11.497 0.226414
-17.2361 -11.3282 0.0624392
-18.2287 -11.377 -0.588356
-18.2107 -11.3862 -0.573695
-16.9685 -11.5891 0.221021
-16.661 -11.8749 0.392608
-16.4374 -12.1184 0.558568
-18.6281 -10.8092 -1.21867
-17.9199 -11.4819 -0.834301
-15.7396 -12.7317 0.850544
-17.7058 -11.6043 -0.900074
-17.6569 -11.6666 -0.855361
-16.9645 -12.0207 -0.298516
-17.9293 -11.2573 -1.31159
-15.2494 -13.1159 0.990642
-18.221 -10.9233 -1.65941
-18.3314 -10.7785 -1.83357
-17.9608 -11.116 -1.7156
-17.8757 -11.1532 -1.70919
-18.3076 -10.653 -2.1532
-15.9161 -12.6036 -0.00513981
-16.7659 -11.4342 -1.01805
-15.8948 -12.5498 -0.282094
-17.6705 -11.1537 -1.9665
-15.3335 -12.6787 0.136677
-18.0191 -10.7614 -2.32887
-15.2866 -12.9472 0.184496
-15.1674 -13.2208 0.269759
-16.4786 -11.8278 -1.02763
-15.0719 -13.3234 0.324843
-17.7832 -10.9644 -2.31485
-16.2993 -12.1762 -0.971063
-18.0918 -10.5502 -2.72767
-16.216 -12.2518 -0.949239
-17.5537 -11.1456 -2.22273
-17.9765 -10.6634 -2.66835
-16.9707 -11.7827 -1.67688
-17.3435 -11.3823 -2.14807
-17.2327 -11.43 -2.07919
-17.1742 -11.5195 -2.05493
-15.6158 -12.4622 -0.7848
-16.7215 -11.8892 -1.84559
-17.0583 -11.4679 -2.29461
-16.9451 -11.5632 -2.28506
-17.8247 -10.5281 -3.17656
-17.2505 -11.1931 -2.60923
-15.9214 -12.1858 -1.48468
-17.3941 -10.9227 -3.02962
-17.3725 -10.9484 -3.01177
-16.8317 -11.5154 -2.54322
-17.0169 -11.2487 -2.89929
-17.4086 -10.7856 -3.34204
-17.0315 -11.2227 -3.01223
-16.9256 -11.2823 -2.9438
-16.6604 -11.532 -2.81788
-14.9806 -12.7436 -1.23558
-14.9901 -12.5962 -1.4946
-14.684 -12.8923 -1.26215
-16.3585 -11.6281 -3.08729
-16.0458 -11.9088 -2.94685
-14.8489 -12.2833 -2.04676
-14.5936 -12.472 -1.9754
-14.3148 -12.6918 -1.86123
-15.4618 -11.1506 2.01578
-19.1896 -10.8682 -0.138662
-19.1305 -10.9667 -0.077542
-18.9012 -11.1212 -0.0397762
-17.5238 -11.4178 0.725102
-17.5196 -11.3391 0.610631
-15.4287 -11.0215 1.65905
-18.5963 -11.2369 -0.399613
-14.8159 -11.568 1.89156
-18.2673 -11.3931 -0.459685
-16.8552 -11.753 0.455623
-17.2878 -11.2981 0.0713057
-16.9853 -11.5891 0.230062
-16.898 -11.644 0.256805
-17.997 -11.5979 -0.480908
-17.3022 -11.459 -0.174825
-17.2182 -11.5964 -0.312641
-16.0235 -12.3723 0.595275
-18.4957 -10.7682 -1.53322
-18.4578 -10.625 -1.99278
-15.9937 -12.5964 0.0115723
-17.8687 -11.1496 -1.73191
-18.2684 -10.6791 -2.1509
-16.4017 -12.2995 -0.419582
-17.7189 -11.12 -1.99222
-16.4484 -12.1597 -0.858543
-15.3633 -12.7201 0.0537236
-16.3 -12.2728 -0.818202
-16.324 -12.2202 -0.844078
-15.7955 -12.5338 -0.465775
-15.0051 -13.2822 0.0896128
-17.2318 -11.4353 -2.07311
-16.1053 -12.1705 -1.11873
-17.0193 -11.5011 -2.30922
-14.6859 -13.6799 0.0430026
-16.7111 -11.806 -2.11632
-17.6409 -10.7499 -3.08428
-16.4538 -11.9846 -2.01319
-16.3796 -12.0474 -1.97822
-15.9034 -12.0133 -1.53813
-17.487 -10.8214 -3.17151
-16.4519 -12.0169 -2.06886
-16.819 -11.5399 -2.5217
-16.9505 -11.317 -2.83256
-17.5252 -10.6463 -3.48429
-17.3752 -10.8091 -3.33082
-16.7025 -11.522 -2.71398
-14.76 -13.0117 -0.792273
-16.6289 -11.5537 -2.81249
-15.088 -12.2334 -1.64585
-16.4255 -11.5402 -3.11694
-16.3929 -11.5775 -3.11213
-15.0958 -12.2032 -1.74207
-16.2044 -11.7624 -3.04923
-15.9178 -12.0279 -2.89126
-15.8521 -12.0592 -2.96938
-15.9303 -11.9467 -3.14729
-13.9224 -12.7022 -1.94748
-13.6275 -14.027 -1.864
-13.5589 -14.019 -1.96381
-13.3042 -14.3116 -1.73407
-18.6235 -11.4061 0.108836
-18.5431 -11.1388 -0.575236
-18.3139 -11.3403 -0.496915
-18.1137 -11.4877 -0.554303
-16.4322 -12.1015 0.581215
-15.9643 -12.5297 0.775779
-17.1846 -11.5732 -0.398073
-17.7051 -11.6363 -0.852138
-15.4326 -13.0212 1.02954
-18.2937 -10.9545 -1.46518
-16.1396 -12.5015 -0.0353468
-16.3899 -12.2939 -0.429253
-15.9679 -12.4706 -0.13408
-15.8869 -12.5057 -0.309751
-16.4668 -12.1415 -0.843937
-16.2644 -12.2969 -0.773713
-17.0783 -11.7093 -1.67593
-15.427 -12.8607 -0.235526
-17.4561 -11.1173 -2.44128
-16.9545 -11.63 -1.97363
-15.6464 -12.4442 -0.741465
-15.9775 -12.0703 -1.39404
-14.6966 -13.1937 -0.498893
-17.4679 -10.7591 -3.34514
-16.5758 -11.7448 -2.4469
-15.1957 -12.1487 -1.7538
-15.0141 -12.2228 -1.76965
-15.1681 -12.1528 -2.02186
-15.1452 -12.1343 -2.03503
-15.9074 -11.9261 -3.09318
-15.8151 -12.0283 -3.01112
-15.8675 -11.9691 -3.07483
-14.8455 -11.9293 -2.28264
-14.144 -12.8969 -1.74583
-18.7564 -11.3771 0.743714
-15.739 -10.927 1.8968
-18.5614 -11.2049 -0.444957
-17.0099 -11.6185 0.347299
-18.1898 -11.189 -1.09722
-18.2961 -10.8033 -1.88695
-16.2156 -12.418 -0.606783
-16.4074 -12.1653 -0.818756
-15.1311 -13.21 0.139196
-15.1373 -13.1268 0.0152549
-16.6428 -11.7126 -2.43481
-16.926 -11.3114 -2.80317
-13.4443 -14.1528 -1.79572
-15.7871 -10.8567 2.09305
-19.1106 -10.9242 -0.0977351
-18.3072 -11.3175 -0.578607
-17.6284 -11.6121 -0.998664
-17.6738 -11.3939 -1.4537
-15.4534 -12.6018 0.0639258
-14.5398 -13.6789 -0.35872
-15.0652 -12.2214 -1.72247
-16.6408 -12.1552 -0.486934
-17.7966 -11.2702 -1.59822
-15.3427 -12.6509 -1.02273
-15.1735 -12.2479 -1.61132
-16.0181 -12.4842 -0.107494
-15.7988 -12.3357 -0.934584
-14.8774 -12.6013 -1.52003
-15.7963 -10.8241 2.10265
-15.5712 -12.657 -0.574442
-14.26 -12.9322 -1.4078
-13.0693 -14.2846 -2.14748
-14.1026 -12.6195 -2.23288
-14.0582 -12.9444 -1.75269
-14.001 -13.1037 -1.4376
-14.2632 -12.897 -1.42248
-16.4632 -11.8202 -2.62885
-17.5596 -10.8433 -2.89978
-16.7946 -11.5577 -2.49764
-16.4446 -11.8733 -2.32268
-17.2875 -11.2688 -2.38168
-17.4477 -11.2339 -2.18717
-16.7952 -11.8282 -1.90557
-16.6712 -11.9191 -1.82152
-18.0602 -10.7343 -2.37744
-14.3589 -13.7029 -0.484086
-17.0414 -11.7505 -1.66572
-16.9912 -11.8137 -1.64059
-18.1715 -10.7989 -2.09607
-14.8053 -13.1507 -0.42309
-14.8182 -13.153 -0.400096
-15.6975 -12.4295 -0.745318
-14.4937 -13.709 -0.258566
-14.6144 -13.7082 -0.141637
-15.2446 -12.8283 -0.316352
-16.2458 -12.3158 -0.762937
-18.3543 -10.8776 -1.50392
-17.6595 -11.5717 -1.05422
-17.9158 -11.4531 -0.9503
-17.7129 -11.6693 -0.841047
-18.2826 -11.1472 -1.06961
-18.2135 -11.1904 -1.0213
-15.3863 -12.8229 0.248779
-15.7551 -12.71 0.126778
-17.0642 -11.6811 -0.0109186
-17.0932 -11.7923 -0.0292767
-17.0726 -11.7872 -0.0379044
-16.571 -11.9422 0.399575
-17.1046 -11.4709 0.209732
-17.1167 -11.5101 0.226767
-18.6661 -11.1626 -0.439238
-16.978 -11.6475 0.377946
-15.4558 -12.9787 0.994386
-19.1322 -11.0626 0.163477
-14.1423 -12.9591 -1.37194
-16.595 -11.6846 -2.81237
-14.2602 -12.8791 -1.39478
-14.7481 -12.7354 -1.54875
-16.6211 -11.7072 -2.46536
-16.9192 -11.4636 -2.58719
-16.9931 -11.3775 -2.58046
-16.0607 -12.2054 -1.29498
-16.9842 -11.8047 -1.68946
-18.2344 -10.8925 -1.68333
-17.7217 -11.41 -1.23846
-18.1231 -11.1906 -1.24374
-15.0974 -13.2323 0.170396
-17.1431 -11.6323 -0.347186
-18.6811 -10.9155 -0.898809
-17.3337 -11.383 -0.0568077
-15.702 -12.7223 0.742939
-18.8334 -10.9941 -0.494607
-16.8034 -11.8424 0.488343
-18.501 -11.3353 -0.130287
-18.8906 -11.0588 -0.252152
-15.2212 -11.304 1.97242
-14.9681 -11.5291 2.08439
-15.9443 -12.0056 -2.96571
-16.9135 -11.3062 -2.83442
-16.4964 -11.7288 -2.59438
-15.0698 -12.6839 -1.23537
-16.5831 -12.0074 -1.77451
-16.0224 -12.2493 -1.26978
-17.9853 -11.0315 -1.72424
-17.7716 -11.3013 -1.55774
-16.4982 -12.0998 -0.868847
-16.3781 -12.2218 -0.611087
-14.7483 -13.6659 0.168842
-17.7271 -11.5655 -0.92378
-15.9192 -12.6027 0.0923119
-18.1692 -11.2857 -0.755407
-18.2166 -11.2954 -0.738115
-16.324 -12.2876 0.399261
-18.5711 -11.3241 -0.123309
-17.0056 -11.2076 -2.95205
-14.4651 -13.6837 -0.348608
-17.9891 -11.0872 -1.745
-17.6332 -11.3821 -1.39125
-17.724 -11.5238 -1.06923
-15.3993 -12.9648 0.268818
-15.7333 -12.6698 0.177044
-17.3852 -11.3866 0.361982
-18.4845 -11.5196 0.142778
-14.2638 -13.0217 -1.30856
-15.7223 -12.2988 -1.18421
-14.6889 -12.9906 -0.671342
-16.1735 -12.4558 0.19291
-18.0595 -11.4641 -0.617946
-18.758 -11.4077 0.38861
-15.9371 -10.7882 1.95404
-15.1442 -11.2106 2.59509
-16.0716 -12.2343 -1.20944
-15.3432 -12.7935 0.136384
-17.2072 -11.6323 -0.263515
-14.9946 -12.1568 -1.79781
-16.9729 -11.5244 -0.993806
-15.7002 -10.9444 1.78076
-15.3039 -12.7073 -1.06648
-17.0787 -11.6463 -0.401163
-17.1512 -11.4136 0.167327
-14.2261 -12.7886 -1.81645
-15.9268 -12.1834 -1.50697
-18.4311 -10.6356 -1.99107
-17.4784 -11.4679 -1.57802
-18.0303 -11.0898 -1.60638
-15.3465 -12.709 -0.7271
-15.644 -12.4825 -0.74027
-18.2741 -11.1522 -1.07625
-18.2374 -11.1675 -1.03393
-17.9003 -11.4565 -0.954638
-17.0062 -11.8275 -0.621061
-17.8321 -11.5531 -0.754935
-18.9725 -10.7078 -0.863088
-18.4323 -11.2155 -0.663943
-16.9411 -12.0196 -0.300469
-19.019 -10.8019 -0.54695
-18.6366 -11.1838 -0.405531
-18.4173 -11.3639 -0.331245
-18.5357 -11.348 -0.163552
-19.1812 -10.8815 -0.105032
-18.945 -11.0775 -0.0627008
-16.8382 -11.7731 0.418349
-17.0432 -11.6342 0.437296
-18.7687 -11.2373 0.0166864
-18.7453 -11.2741 0.0378483
-18.7802 -11.2594 0.0473085
-18.4885 -11.5091 0.125277
-15.7153 -12.7093 0.810188
-18.7556 -11.413 0.323451
-18.899 -11.2679 0.778227
-18.1137 -10.3087 1.26838
-13.6352 -12.9674 -1.84067
-16.0148 -12.0863 -2.57703
-15.7331 -12.0077 -1.74591
-16.6732 -11.945 -1.8252
-14.4435 -13.6596 -0.499967
-17.7663 -11.5674 -0.857516
-17.678 -11.6438 -0.848879
-17.0705 -11.7035 -0.246252
-18.0622 -11.504 -0.527163
-18.0099 -11.5377 -0.504719
-16.7 -11.8648 0.366763
-19.195 -10.8944 -0.0840123
-16.9886 -11.647 0.388415
-18.9334 -11.0963 -0.0171887
-19.1621 -11.0141 0.155056
-16.1452 -11.7873 -2.99766
-16.7828 -11.4369 -2.8528
-14.3501 -12.9391 -1.28938
-15.0443 -12.6432 -1.40754
-17.7763 -11.5405 -0.9188
-17.7135 -11.6372 -0.838796
-16.6592 -12.114 -0.555478
-17.8341 -11.578 -0.713404
-17.9165 -11.6031 -0.576731
-17.8262 -11.3282 1.0071
-17.8199 -11.2128 1.04692
-15.8297 -12.0016 -2.87572
-17.6655 -11.6156 -0.931198
-16.3762 -12.2197 -0.584443
-15.5865 -12.8746 1.02627
-13.9773 -13.1241 -1.61351
-16.8221 -11.4442 -1.19722
-14.4825 -13.4394 -0.730622
-18.539 -11.0644 -0.768568
-16.3716 -12.2826 0.357723
-15.5311 -12.8 0.761179
-15.4374 -12.8851 -0.263508
-17.2826 -11.4302 -0.106296
-18.0967 -10.2836 1.242
-15.0579 -12.2435 -1.73797
-14.7751 -12.4404 -1.704
-13.9079 -13.2625 -1.6188
-17.0319 -11.2138 -2.99976
-15.7872 -12.211 -1.68226
-18.2812 -11.1542 -1.0971
-14.6677 -12.9988 -1.08719
-18.6245 -10.9751 -0.89728
-18.6007 -10.9669 -0.875495
-18.6059 -10.9985 -0.851958
-15.3622 -12.7167 -0.743106
-19.3133 -10.7389 -0.271807
-18.4414 -11.3388 -0.341878
-18.4349 -11.2985 -0.300616
-16.9484 -12.0139 -0.302076
-17.2149 -11.365 0.128989
-16.9872 -11.6549 0.426329
-16.2966 -12.171 0.450206
-15.2666 -13.163 0.28038
-16.0942 -12.4192 0.745656
-14.1601 -12.9108 -1.45381
-14.2014 -12.8821 -1.44477
-13.5063 -14.0785 -1.98
-14.0416 -13.1611 -1.41803
-17.8262 -11.3654 -1.28704
-16.174 -12.1286 -1.23629
-13.5308 -14.2335 -1.50734
-17.7104 -11.6302 -0.856742
-15.1933 -12.7653 -0.868513
-18.585 -11.1654 -0.416254
-17.29 -11.257 0.0800818
-15.4032 -12.9545 -0.238344
-15.6707 -12.8754 -0.233128
-18.7305 -11.267 0.0379848
-16.8156 -11.756 0.330078
-15.5711 -12.7037 0.181449
-15.245 -13.2689 0.44045
-17.7023 -11.4476 -1.31217
-18.0212 -11.2088 -1.21891
-14.0858 -13.021 -1.47292
-17.7684 -11.5394 -0.905289
-17.3366 -11.3537 -0.0755756
-16.8566 -11.7467 0.363791
-14.7308 -13.6219 -0.0983892
-15.7058 -12.6646 0.735757
-17.1526 -11.4009 0.161324
-15.4444 -12.8691 -0.214116
-15.9337 -12.078 -1.48685
-15.1519 -13.0779 -0.375301
-16.6295 -12.2199 -0.429149
-17.0215 -11.2076 -3.05732
-17.4056 -11.4522 -1.8059
-16.8803 -11.8975 -1.60653
-18.5981 -10.9626 -0.896647
-18.6022 -10.9917 -0.856736
-18.5532 -11.0115 -0.856244
-13.4215 -13.9035 -2.40297
-15.1925 -12.5776 -1.20205
-18.0049 -11.5373 -0.52048
-14.6208 -12.8856 -1.31175
-15.704 -12.428 -0.745757
-16.7879 -11.7624 0.284641
-16.7697 -11.7773 0.330466
-15.0666 -11.3701 1.92526
-16.5797 -11.8792 -2.0962
-18.6017 -11.0109 -0.832908
-19.1779 -10.8286 -0.227593
-14.1668 -12.9399 -1.42849
-17.3103 -11.3016 0.0834641
-15.2943 -12.7231 -0.906986
-14.4392 -13.6726 -0.517312
-14.996 -13.2989 0.131988
-14.6994 -13.6632 0.029238
-15.6971 -11.957 -1.93858
-16.4833 -12.1052 -0.85634
-15.272 -12.7767 -0.675017
-16.5845 -11.928 0.39846
-16.0112 -12.5669 -0.012902
-14.8341 -13.2296 -0.304937
-15.1859 -13.2728 0.409215
-16.4892 -11.7254 -2.58997
-17.6142 -11.3822 0.87403
-16.1371 -12.3268 0.576196
-15.2554 -12.9085 -0.320304
-15.7573 -11.8265 -1.965
-16.7418 -11.6902 -0.834574
-16.7905 -11.6809 -0.727865
-15.5649 -12.8208 -0.351349
-15.673 -12.8123 -0.243287
-17.2412 -11.4231 -0.115796
-14.7438 -12.7528 -1.22629
-17.6751 -10.9335 -2.50628
-18.711 -10.9615 -0.649745
-14.6341 -12.9056 -1.32213
-15.9059 -12.3921 -0.53551
-15.9988 -12.5465 -0.0221141
-16.1317 -12.4935 0.0801557
-14.9546 -13.3055 0.128444
-15.0963 -13.26 0.199067
-15.0896 -13.3112 0.306979
-18.6872 -10.9528 -0.870307
-16.6766 -11.8377 -2.0545
-16.672 -11.9644 -1.74937
-16.2666 -12.1002 -1.1947
-16.5336 -12.3261 -0.249437
-15.7324 -10.8982 1.87553
-15.3347 -11.1535 1.82961
-14.4508 -13.6584 -0.506409
-14.3956 -13.6027 -0.448177
-15.1818 -13.2346 0.309327
-18.5823 -10.9954 -0.833745
-15.0419 -12.7776 -0.892011
-15.3867 -12.6983 -0.676125
-17.1283 -11.4748 0.226579
-15.2556 -13.2142 0.370481
-15.1754 -12.1722 -1.63668
-14.4297 -13.6166 -0.519669
-15.5386 -12.1436 -1.88453
-17.2678 -11.5269 -0.301406
-15.1964 -12.6722 -1.15591
-16.5384 -11.741 -1.04935
-18.6718 -10.9883 -0.685374
-17.6151 -11.6757 -0.855092
-15.9096 -12.468 -0.396155
-16.1226 -12.4987 0.0713134
-15.057 -13.1877 -0.0404058
-15.0471 -13.2746 0.10205
-15.6635 -11.8358 -1.97912
-16.7979 -11.9267 -1.58355
-16.0979 -12.3759 -0.818818
-15.2079 -13.2387 0.311166
-18.6449 -11.0254 -0.595396
-15.2557 -12.7418 -0.564387
-15.2627 -12.9881 -0.359115
-14.9765 -13.2977 0.118211
-18.691 -10.9817 -0.629379
-18.4107 -11.1223 -0.910683
-15.4158 -12.6575 -0.670368
-15.2505 -12.7784 -0.698579
-14.7404 -13.0082 -0.944162
-18.6742 -10.9938 -0.70241
-18.2215 -11.3739 -0.630781
-17.6279 -11.689 -0.86824
-15.0511 -13.2827 0.154578
-17.2757 -11.5397 -0.308072
-16.1236 -12.3982 -0.803302
-16.0458 -12.4858 -0.0344853
-14.9975 -13.1975 -0.160726
-14.7292 -13.5714 -0.235626
-12.8139 -14.4858 -2.13958
-17.8106 -11.0764 -1.9542
-16.0955 -11.8961 -2.87698
-15.0081 -12.1934 -1.7997
-15.0438 -12.1981 -1.73672
-16.1378 -12.4392 -0.0602625
-14.0127 -13.3221 -1.43434
-13.476 -14.0517 -2.05975
-16.6956 -11.5242 -1.00542
-15.221 -13.2191 0.311398
-17.3528 -11.288 0.149357
-15.5045 -12.1017 -1.93329
-14.6931 -13.7088 -0.00690551
-15.561 -12.5803 -0.666181
-17.79 -10.6997 -2.81338
-18.5761 -11.1113 -0.54851
-18.477 -11.1082 -0.749383
-18.2105 -11.3349 -0.684566
-16.9403 -11.2348 -3.0285
-16.8212 -11.2842 -3.12143
-17.3522 -11.2887 0.0976248
-16.8304 -11.5878 -2.46272
-16.5711 -11.7275 -2.44173
-16.2077 -11.9001 -2.67091
-15.1064 -13.2932 0.269391
-13.5023 -14.2219 -1.55681
-17.4371 -11.1507 -2.4399
-16.5022 -11.7224 -2.59438
-16.2594 -11.8741 -2.65488
-15.8018 -11.9712 -1.7551
-15.0805 -11.2956 2.61089
-14.1388 -12.932 -1.44321
-15.1246 -13.2881 0.321775
-13.5388 -14.0473 -1.92599
-17.7612 -10.692 -2.90316
-17.6687 -10.6857 -3.05859
-17.4342 -11.4509 -1.6846
-16.1323 -12.201 -1.06874
-13.4947 -14.0386 -1.96221
-17.4949 -11.2301 0.312795
-17.3636 -11.2667 0.17019
-15.0274 -11.2951 2.57633
-15.1074 -13.3539 0.426948
-14.7482 -13.667 0.0039155
-18.7061 -10.9908 -0.62103
-17.2424 -11.2222 0.0555786
-15.1729 -13.287 0.417732
-14.8436 -13.6475 0.104549
-14.1175 -13.5832 -0.846824
-14.0213 -13.5609 -0.819946
-16.1267 -12.4074 -0.0534099
-15.9243 -12.2502 -1.36797
-15.4039 -12.5923 0.277469
-17.8843 -10.7436 -2.68562
-17.3506 -11.2826 0.0772924
-17.3406 -11.338 -2.16591
-16.821 -11.2867 -3.11714
-16.7673 -12.0797 -0.428192
-16.2264 -11.89 -2.63632
-15.2558 -12.9261 -0.479024
-15.1137 -13.2848 0.277059
-14.5941 -13.7028 -0.13011
-14.0025 -13.3352 -1.37309
-13.4745 -14.049 -2.02485
-13.5311 -14.2406 -1.52656
-18.705 -11.0013 -0.641312
-18.503 -11.0751 -0.817273
-18.4359 -11.0969 -0.786704
-17.7865 -10.9461 -2.29998
-17.8313 -11.0672 -1.94014
-17.6896 -11.5818 -0.98742
-17.372 -11.4632 -1.8167
-15.2756 -13.1721 0.280903
-15.1352 -13.1262 -0.00157554
-15.2559 -13.2415 0.374998
-15.1271 -13.1922 0.126865
-14.5739 -13.7163 -0.206082
-17.7429 -10.7212 -2.93185
-17.8409 -11.1199 -1.81858
-16.7349 -11.924 -1.72381
-15.1277 -12.1054 -1.8899
-15.1792 -13.1757 0.12268
-15.1574 -13.2968 0.40335
-17.5066 -11.2545 0.319764
-16.1483 -11.8649 -2.8787
-15.2436 -12.5363 -1.20445
-15.2823 -12.7166 -0.458217
-15.1675 -12.9603 -0.439903
-15.3126 -13.0085 -0.219737
-15.8404 -10.7924 1.49369
-15.3612 -12.7508 -0.275041
-18.6687 -11.0238 -0.637266
-18.226 -11.3575 -0.681107
-17.3653 -11.3304 0.280363
-15.6397 -10.8945 1.7086
-17.3923 -11.4608 -1.80899
-17.3228 -11.3676 -2.15234
-15.136 -11.3795 2.02332
-16.799 -11.4408 -2.76741
-16.5917 -11.7307 -2.4893
-16.3684 -12.2114 -0.826631
-16.1338 -12.4703 -0.0560299
-15.9587 -11.9051 -3.03853
-15.7785 -12.4242 -0.644096
-15.8935 -12.0236 -2.95922
-15.5077 -12.6997 -0.47001
-15.1429 -13.2227 0.205172
-15.1114 -13.186 0.0734717
-14.9754 -13.2574 -0.026897
-14.9335 -13.2034 -0.208019
-14.7882 -12.9322 -1.04607
-14.7775 -12.9508 -0.966907
-14.9481 -13.6312 0.181942
-18.3943 -10.7262 -1.9351
-18.053 -11.219 -1.23527
-16.6451 -12.2443 -0.295349
-16.2283 -11.8835 -2.60844
-16.014 -12.4583 -0.205501
-16.0024 -12.407 -0.323745
-15.6874 -12.6711 0.677925
-15.7071 -12.5566 -0.452042
-15.2591 -13.1801 0.28368
-15.2615 -13.2508 0.445948
-15.185 -13.1819 0.120336
-15.1603 -13.1429 0.0238849
-15.1308 -13.3035 0.31837
-15.1257 -13.2679 0.295803
-15.1409 -13.3127 0.356719
-15.0777 -13.3198 0.309371
-14.9179 -13.0872 -0.465891
-14.5615 -13.6802 -0.292673
-13.5361 -14.2333 -1.50826
-18.2826 -10.9417 -1.52297
-18.1217 -11.267 -1.06325
-16.5069 -11.7223 -2.62659
-16.0016 -12.4529 -0.235908
-15.1674 -13.2794 0.309548
-15.1247 -13.1977 0.141538
-15.0091 -13.2781 0.098967
-14.4928 -13.6563 -0.385894
-13.404 -14.0526 -2.22821
-18.5574 -11.0414 -0.747374
-16.1141 -11.9099 -2.85245
-14.8982 -13.203 -0.248878
-14.5324 -13.7136 -0.241272
-16.6237 -12.2236 -0.403315
-13.9531 -13.0379 -1.70202
-13.9613 -13.3831 -1.31637
-15.1253 -12.8211 -0.764768
-14.87 -12.7313 -1.3628
-18.5526 -11.1148 -0.6116
-17.0343 -11.6067 0.337664
-16.0995 -12.4244 0.716432
-16.5285 -12.3933 -0.13402
-16.8106 -11.4501 -2.75343
-16.3235 -12.2137 -0.854144
-16.0223 -12.4386 -0.243024
-16.0121 -12.4649 -0.230249
-15.5703 -12.6797 0.151976
-15.1996 -13.2702 0.442793
-15.1724 -13.1647 0.0927022
-15.0466 -12.2146 -1.76063
-13.2431 -14.365 -1.67803
-18.7404 -10.9653 -0.627779
-18.6777 -11.0183 -0.607693
-18.6045 -10.971 -0.831549
-18.5809 -11.0416 -0.714546
-15.409 -11.1063 1.78984
-16.9251 -11.6149 0.252281
-15.0005 -11.4375 1.97335
-16.4069 -12.144 0.65169
-16.6343 -12.2408 -0.304996
-15.935 -12.5624 0.844706
-16.0945 -12.536 0.11772
-16.0935 -12.5189 0.0592662
-16.1261 -12.4468 -0.0568758
-16.0507 -12.5101 -0.0299371
-15.989 -12.5147 -0.0699742
-15.8721 -12.6375 -0.0391944
-15.8685 -12.493 -0.346077
-15.642 -12.4745 -0.735101
-15.9719 -11.933 -2.961
-15.2652 -13.2465 0.453511
-15.144 -13.2723 0.31845
-15.1794 -13.1134 -0.025225
-15.0733 -13.321 0.352347
-15.0556 -13.1198 -0.191056
-14.9607 -13.1854 -0.185882
-14.9281 -13.2472 -0.158432
-14.7403 -12.7565 -1.51074
-14.5324 -13.7326 -0.191512
-14.183 -12.91 -1.41353
-18.4267 -11.1291 -0.845561
-15.4484 -11.1672 2.02046
-17.0057 -11.5923 0.331729
-16.0477 -12.5299 0.050769
-15.7211 -12.6281 0.665065
-16.5255 -11.7178 -2.60723
-15.8969 -12.4305 -0.412179
-15.8653 -12.5549 -0.273266
-15.817 -12.487 -0.430302
-15.2322 -13.2778 0.475187
-15.2368 -13.2437 0.408883
-15.122 -13.2854 0.304615
-14.9938 -13.2819 0.0950644
-14.9732 -13.2094 -0.0772501
-18.5986 -11.1336 -0.473168
-18.4044 -11.1654 -0.742368
-15.7157 -12.6789 0.762583
-15.6763 -12.7055 0.769647
-14.9721 -12.6511 -1.43112
-14.5333 -13.6747 -0.343872
-17.6251 -10.7156 -3.13297
