-17.0785 -11.6573 -1.56002
-17.102 -10.6408 1.43029
-17.3232 -12.0277 -0.402388
-16.57 -12.1886 -1.24226
-16.4245 -11.4207 -2.28622
-16.7887 -12.353 -0.416921
-15.907 -11.7051 -2.57554
-17.5825 -11.093 -3.06391
-18.4896 -10.415 -3.17449
-18.5442 -10.3398 -3.18493
-19.0575 -9.9463 -3.25206
-16.4216 -11.3856 -2.32272
-19.1447 -9.95921 -3.07021
-19.3558 -9.80796 -3.08213
-18.3474 -10.6885 -2.80426
-18.2455 -10.7616 -2.78787
-18.2529 -10.8243 -2.80441
-18.2912 -10.7509 -2.80098
-18.0917 -11.0406 -2.46673
-18.9749 -10.3252 -2.5952
-17.8461 -11.2579 -2.44028
-19.0941 -10.2177 -2.59876
-16.1885 -12.097 -1.84663
-16.1114 -12.1386 -1.82986
-16.314 -12.0054 -1.85813
-17.95 -11.2582 -2.18207
-18.0338 -11.2256 -2.1967
-16.1005 -12.2161 -1.40531
-18.6549 -10.8706 -2.03013
-18.1073 -11.2663 -1.95317
-19.3763 -10.2689 -2.08826
-19.0796 -10.6526 -1.80629
-19.5718 -10.3426 -1.72605
-19.3838 -10.4964 -1.72606
-16.9812 -11.9395 -1.04961
-19.0597 -10.8948 -1.45668
-17.0544 -12.0024 -0.756378
-17.6686 -11.6218 -0.927211
-17.5271 -11.8964 -0.862649
-19.2326 -10.9037 -1.05944
-19.8718 -10.4284 -1.11022
-19.3902 -10.8332 -1.02213
-18.3541 -11.1522 -0.654993
-19.6473 -10.6478 -1.01043
-17.2748 -12.0343 -0.456744
-19.5289 -10.7866 -0.939741
-19.5514 -10.7736 -0.899073
-19.5564 -10.8567 -0.78146
-19.888 -10.5899 -0.76675
-19.7184 -10.7853 -0.605195
-18.2629 -11.1101 -0.0875361
-18.0647 -11.2911 -0.040961
-19.5088 -11.0679 -0.434666
-19.9012 -10.7595 -0.464028
-20.0759 -10.5965 -0.51842
-16.4857 -12.6087 0.320525
-17.5788 -11.6922 0.146247
-17.6078 -11.7018 0.137759
-17.1762 -12.0642 0.220282
-16.5213 -12.6185 0.388609
-18.0188 -11.3866 0.139361
-18.5225 -10.98 0.0821241
-19.6148 -11.0564 -0.286325
-20.2359 -10.5583 -0.344263
-19.9929 -10.8596 -0.0733369
-19.956 -10.914 -0.0747971
-19.757 -11.1247 -0.00466758
-20.367 -10.6811 0.113121
-20.2795 -10.8317 0.174671
-16.2632 -10.945 1.30363
-16.1344 -11.1694 1.51013
-16.1334 -11.1394 1.52238
-18.8545 -11.07 0.93213
-16.4518 -11.4604 -2.25731
-19.0292 -10.2977 -2.6377
-18.9276 -10.3742 -2.58228
-16.5381 -11.7845 -1.89062
-16.519 -11.9036 -1.78285
-16.1011 -12.2289 -1.74938
-16.5462 -11.9117 -1.75309
-16.0556 -12.2336 -1.39729
-18.1353 -10.7788 -1.35133
-15.7501 -13.0871 -1.02002
-18.9811 -10.8821 -1.48582
-17.6678 -11.6669 -1.14102
-16.6287 -12.3279 -0.919121
-19.1219 -10.9222 -1.31784
-19.051 -10.9824 -1.15047
-19.0276 -11.0714 -1.10475
-19.0573 -11.0171 -1.08513
-19.5416 -10.6714 -1.14224
-17.058 -12.1706 -0.495285
-17.6176 -11.9518 -0.631279
-17.0053 -12.1882 -0.380853
-18.4398 -11.0913 -0.621803
-19.9717 -10.4672 -0.933596
-19.1966 -11.1109 -0.751682
-19.5922 -10.8944 -0.648416
-18.5739 -10.8534 -0.162053
-17.8247 -11.47 -0.0266933
-16.2773 -12.6985 0.211602
-19.471 -11.0668 -0.434532
-17.624 -11.6805 0.106239
-17.6603 -11.6596 0.1382
-16.6676 -12.4433 0.290789
-16.5237 -12.6024 0.395894
-19.6596 -11.044 -0.266439
-19.6567 -11.136 -0.0484001
-19.6967 -11.1838 -0.0270065
-18.6888 -11.0124 0.383506
-19.9701 -11.0083 0.120812
-20.1517 -10.8862 0.123915
-18.7266 -11.1156 0.648917
-18.6485 -11.2342 0.769236
-16.4681 -10.8466 1.39612
-16.0765 -11.2009 1.53163
-20.0489 -11.009 0.69886
-15.1558 -11.961 -2.63588
-16.4235 -11.2663 -2.64794
-17.9977 -10.7623 -3.11525
-17.9102 -10.8579 -3.09003
-16.4607 -11.3551 -2.31176
-17.781 -10.9977 -2.90318
-16.2865 -11.8576 -2.15019
-16.2925 -11.8686 -2.11849
-16.1708 -11.9662 -2.05035
-17.4457 -11.566 -1.48676
-15.9788 -12.5822 -1.10831
-18.9072 -10.8536 -1.63698
-18.9705 -10.9017 -1.5103
-19.1684 -10.7646 -1.46813
-18.8917 -11.1121 -1.09312
-18.9198 -11.1366 -1.0894
-18.9372 -11.1483 -1.07038
-19.2037 -10.9472 -1.1043
-16.4477 -12.4521 -0.390325
-16.9993 -12.0825 -0.434959
-18.4358 -11.0946 -0.680138
-18.4326 -11.0682 -0.425886
-17.6183 -11.8144 -0.157576
-19.9464 -10.6267 -0.629665
-16.915 -12.1621 0.0665226
-16.5721 -12.4601 0.141995
-19.4159 -11.1287 -0.4459
-19.6254 -11.1947 -0.0173357
-18.4947 -11.205 0.527217
-16.4968 -10.7282 1.23968
-16.4088 -10.9303 1.48418
-18.0652 -10.7713 -3.12125
-16.7989 -11.2526 -2.57948
-17.6469 -11.5756 -1.26449
-17.6495 -11.6567 -1.07606
-18.9769 -11.0427 -1.10647
-19.5046 -10.6964 -1.14105
-19.1213 -11.0042 -1.06558
-19.5193 -10.9797 -0.582057
-16.6108 -12.4181 0.17059
-19.61 -11.113 -0.256503
-19.939 -11.0818 0.606158
-17.1842 -11.154 -2.231
-17.3928 -11.3639 -1.78446
-19.1676 -10.6559 -1.70922
-18.9683 -11.0515 -1.16483
-18.4437 -11.087 -0.672188
-19.3502 -11.0781 -0.577845
-18.0841 -11.3144 0.0807747
-19.6065 -11.0483 -0.262652
-19.8238 -11.0667 0.015149
-18.7859 -11.1121 0.882028
-17.0046 -10.6213 1.58892
-15.6105 -12.1783 -2.04557
-19.3232 -10.8324 -1.12548
-18.4922 -11.1157 -0.550845
-17.0436 -12.087 0.0715492
-19.5893 -10.979 -0.434995
-19.6824 -11.1539 -0.00948039
-20.0897 -11.0232 0.422065
-19.2415 -10.7012 -1.45207
-17.7587 -11.7134 -0.872602
-19.3387 -10.9821 -0.826019
-18.8672 -11.0002 -1.39955
-19.0785 -10.9209 -1.31786
-17.8939 -11.6953 -0.849877
-16.2473 -12.6932 0.154722
-19.0483 -9.94883 -3.26266
-19.3134 -9.91819 -2.92131
-17.3373 -11.1826 -3.23428
-18.6517 -10.7253 -2.31597
-19.767 -10.1257 -1.88623
-19.3374 -10.4797 -1.8629
-19.6206 -10.2792 -1.75801
-18.2577 -11.1772 -1.95544
-17.3484 -11.5013 -1.77648
-16.3164 -12.0414 -1.91468
-16.2199 -12.0311 -1.87867
-16.1117 -12.21 -1.71986
-19.8909 -10.3665 -1.22283
-18.7982 -11.0562 -1.43714
-19.9043 -10.3648 -1.15959
-19.6157 -10.5824 -1.17711
-16.1149 -12.226 -1.42651
-17.7542 -11.5205 -1.28554
-19.0552 -11.0275 -1.08609
-19.3855 -10.8123 -0.997339
-19.5019 -10.8266 -0.892272
-17.6358 -11.5991 -0.954296
-19.7315 -10.7404 -0.774737
-20.4249 -10.3327 -0.57483
-19.8084 -10.68 -0.650681
-20.301 -10.3884 -0.563616
-19.8108 -10.7104 -0.667609
-19.3163 -11.0401 -0.717656
-19.7594 -10.7957 -0.489273
-16.6568 -12.3089 -0.85044
-17.1268 -12.0252 -0.710456
-19.2464 -11.2027 -0.547963
-20.0189 -10.7188 -0.345124
-17.748 -11.8905 -0.617083
-19.4463 -11.1028 -0.446267
-19.354 -11.1707 -0.433576
-20.4427 -10.4907 -0.198788
-19.6305 -10.9952 -0.351465
-20.4386 -10.484 -0.134386
-16.7717 -12.0745 -0.492607
-20.4379 -10.5328 -0.143706
-19.7689 -10.961 -0.25001
-16.5385 -12.1519 -0.489144
-19.6599 -11.0326 -0.270381
-18.3205 -11.0752 -0.0699147
-19.7999 -11.0402 -0.0388954
-19.7459 -11.1485 -0.0158243
-19.7128 -11.1487 -0.0334816
-19.8639 -11.1364 0.203582
-18.5424 -11.1845 0.52075
-17.0036 -10.5886 1.43303
-16.0038 -11.2548 1.57236
-16.9009 -10.6911 1.92445
-18.5494 -10.3275 -3.26012
-18.4892 -10.3987 -3.16415
-18.0274 -10.9018 -2.79748
-17.8423 -11.0803 -2.71945
-16.3722 -11.4604 -2.27943
-14.862 -13.1261 -2.96381
-16.1229 -11.9018 -2.23948
-17.1309 -11.5444 -2.1067
-15.9335 -12.1325 -2.0063
-16.2929 -11.9842 -1.91056
-18.946 -10.8236 -1.59117
-18.1288 -10.7327 -1.30128
-19.5016 -10.6993 -1.12003
-16.8664 -11.8728 -1.25778
-18.9163 -11.0871 -1.08601
-19.5714 -10.7487 -0.935903
-19.8865 -10.6442 -0.638326
-15.6345 -12.9864 -1.30021
-19.2453 -11.1363 -0.665713
-19.2831 -11.1217 -0.657568
-19.5475 -11.0018 -0.451576
-19.5354 -11.058 -0.432574
-19.4623 -11.0612 -0.417781
-19.8154 -10.8905 -0.270191
-16.8331 -12.1855 -0.407408
-17.5193 -11.8952 -0.274208
-20.3562 -10.6839 0.125964
-20.3657 -10.7077 0.136582
-19.5783 -11.1928 -0.00577319
-18.3791 -11.1299 0.145186
-18.5893 -11.0758 0.412732
-20.1721 -10.9807 0.341853
-17.2484 -11.9447 0.409876
-16.2251 -12.7284 0.209172
-16.32 -12.6764 0.253981
-18.9809 -10.9299 0.853134
-18.6272 -11.2474 0.754934
-15.8381 -11.2713 1.35617
-16.5041 -11.3438 -2.48464
-17.808 -11.1262 -2.68388
-16.1709 -11.8632 -2.20659
-15.3886 -12.2064 -2.20901
-19.2681 -10.7393 -1.37893
-16.0849 -12.2552 -1.49732
-18.9137 -11.1122 -1.08957
-19.349 -11.1114 -0.569601
-19.5918 -10.9698 -0.42383
-16.7981 -12.2367 -0.441943
-17.4258 -11.8852 -0.278423
-17.7378 -11.5122 -0.0310416
-19.6028 -11.183 -0.0307299
-17.2159 -10.6444 1.40296
-17.7583 -10.9418 -3.11771
-17.7885 -10.9723 -3.10291
-17.8713 -10.9431 -2.96322
-18.3734 -10.7243 -2.69571
-15.5993 -12.1748 -2.06253
-15.6655 -12.1381 -2.03775
-16.243 -12.0439 -1.87948
-18.843 -11.0335 -1.43195
-17.5932 -11.6549 -1.262
-19.0565 -11.0334 -1.08447
-17.6884 -11.6365 -1.11407
-18.5458 -11.018 -0.459389
-17.4269 -11.9428 -0.359751
-17.4607 -11.8987 -0.28913
-16.4583 -12.5681 0.194645
-16.185 -11.2074 1.64926
-19.3964 -10.6506 -1.3525
-19.0699 -10.9801 -1.15783
-18.9727 -11.0612 -1.12791
-18.5078 -10.8679 -0.161263
-16.7645 -12.1535 -0.456045
-15.8297 -13.1216 -0.808072
-18.5613 -11.0729 0.381837
-17.4021 -11.4879 -1.74344
-16.9623 -11.8433 -1.29721
-18.472 -10.9819 -0.189899
-17.6108 -11.8575 -0.246912
-16.8235 -11.9215 -1.3315
-16.6792 -10.5503 1.19725
-15.0467 -12.7364 -2.09735
-17.3221 -12.062 -0.433879
-19.7052 -11.0647 -0.195471
-17.4773 -11.2795 -1.75022
-16.3525 -12.5602 -0.790058
-16.3526 -12.7833 -0.450296
-18.8181 -10.9505 -0.12743
-19.7379 -9.99908 -2.16916
-18.9365 -10.3673 -2.60095
-19.7208 -10.0261 -2.13464
-18.9365 -10.3939 -2.59322
-18.2626 -11.1778 -1.95788
-20.0874 -10.4216 -0.837913
-20.3163 -10.3798 -0.547433
-20.0174 -10.5433 -0.719486
-19.5995 -10.7229 -0.884774
-16.4542 -11.8887 -1.84845
-16.3211 -11.9926 -1.89426
-14.7994 -13.1231 -3.03247
-19.2872 -11.1352 -0.585537
-19.2358 -11.1973 -0.547671
-19.3436 -11.1765 -0.435178
-16.8792 -11.8245 -1.30987
-19.9664 -10.9056 -0.0291169
-20.07 -10.8868 0.0504209
-19.5989 -11.2111 -0.0350837
-18.2053 -11.2227 0.0684244
-18.1917 -11.2348 0.0815558
-18.1795 -11.2485 0.104268
-16.0261 -12.525 -1.15694
-15.9895 -12.5628 -1.15806
-19.3311 -10.4457 -1.85717
-18.1872 -11.2163 -1.96712
-16.4078 -11.5046 -2.23351
-19.9165 -10.5184 -0.90739
-18.875 -10.9772 -1.44734
-19.7459 -10.5868 -0.94678
-20.4302 -10.5064 -0.130264
-16.4129 -11.921 -1.86293
-16.5053 -11.9006 -1.80102
-15.9582 -12.114 -2.02366
-17.5629 -11.6737 -1.25865
-14.8981 -13.135 -2.88882
-16.8948 -11.8701 -1.26276
-17.1845 -11.7993 -1.04685
-18.429 -10.9446 -0.124544
-18.2088 -11.536 -0.651979
-16.637 -12.0473 -1.32161
-16.0573 -12.2264 -1.37829
-20.1214 -10.999 0.429174
-19.6983 -11.2715 0.263065
-19.6648 -11.3072 0.282777
-17.3396 -11.9874 -0.437645
-18.5503 -11.1502 0.4969
-16.8465 -12.1585 -0.476938
-16.2746 -12.5773 -0.769234
-18.5502 -11.2897 0.723577
-16.3871 -12.5748 -0.48179
-16.2155 -12.7954 -0.430986
-19.4443 -10.5945 -1.39173
-16.2874 -11.4406 -2.33016
-18.1805 -11.2388 -1.93148
-17.5245 -11.4575 -1.61853
-20.4158 -10.5022 -0.188743
-16.398 -11.8846 -1.89172
-16.5767 -12.0421 -1.50008
-17.0509 -11.891 -1.03458
-17.2798 -11.9491 -0.610439
-17.506 -11.7975 -0.129764
-17.0678 -12.152 -0.389028
-16.0564 -12.663 -0.927095
-18.0037 -10.8513 -2.94197
-19.5841 -10.7225 -0.901872
-18.9893 -11.1784 -0.903101
-17.0467 -12.1351 -0.512438
-16.0556 -12.6128 -1.03801
-16.2448 -12.514 -0.916287
-19.2508 -11.1463 -0.557911
-18.4888 -10.885 -0.196747
-15.7728 -13.1039 -0.993672
-16.9809 -11.3223 -2.33966
-18.3178 -11.0925 -0.0578599
-17.0954 -11.6944 -1.55538
-16.3407 -11.9528 -1.9113
-19.7054 -11.0201 -0.135771
-18.7955 -10.7719 -2.02031
-19.8622 -10.6999 -0.60031
-19.2584 -11.0532 -0.722063
-19.6659 -11.0099 -0.258058
-16.397 -11.9312 -1.89633
-16.0882 -12.2611 -1.62685
-16.4313 -12.3029 -0.97997
-15.8053 -13.1438 -0.80988
-19.4144 -9.95965 -2.67095
-19.1516 -10.1737 -2.64307
-19.732 -10.5905 -0.956592
-19.0571 -11.0484 -1.09244
-19.2136 -11.0955 -0.748181
-17.5772 -11.6738 -1.25404
-18.7088 -11.13 0.678581
-15.4768 -12.134 -2.22168
-16.6275 -12.0509 -1.32061
-17.1767 -12.0221 -0.585874
-17.1859 -12.0563 -0.546228
-16.7145 -12.0649 -0.538957
-16.1692 -12.5708 -0.895524
-16.249 -12.7225 -0.538519
-16.1411 -12.7694 -0.627572
-19.9492 -10.4752 -0.86618
-20.367 -10.5223 -0.200627
-19.9051 -10.6613 -0.613093
-19.8823 -10.6722 -0.581321
-18.2301 -11.2126 0.071792
-16.3802 -12.0772 -1.51505
-16.6849 -12.0236 -1.26115
-17.2753 -11.9538 -0.607997
-16.4824 -12.5438 0.154099
-16.661 -12.021 -1.30647
-18.2441 -10.7717 -1.43052
-19.2576 -11.1773 -0.568165
-16.3419 -12.6809 -0.394529
-19.2882 -9.94367 -2.96377
-17.3293 -11.2106 -1.91415
-18.5615 -11.1607 0.516771
-18.5947 -11.0001 -0.558474
-17.039 -12.2189 -0.660894
-16.8611 -12.2385 -0.841443
-19.2612 -9.87088 -3.05545
-19.0035 -10.181 -2.82447
-19.8515 -10.6888 -0.622676
-18.3014 -10.7455 -2.75423
-19.2136 -11.0911 -0.784633
-19.2025 -11.0974 -0.803401
-17.7326 -11.0094 -3.0795
-19.7155 -11.276 0.57488
-18.2194 -11.1616 -0.000705615
-17.0452 -11.8384 -1.16177
-16.3841 -11.8051 -2.05449
-16.4813 -11.8489 -1.81746
-16.4705 -10.8543 1.41121
-16.0819 -12.6371 -0.927156
-19.3981 -9.92721 -2.74644
-19.9689 -10.4742 -0.912606
-19.9907 -10.5402 -0.673931
-19.4883 -10.6595 -1.19003
-17.186 -11.3289 -3.20527
-18.5857 -11.1679 0.560104
-17.8095 -11.4925 -1.28011
-17.8336 -11.7611 -0.713461
-17.0604 -11.8598 -1.09987
-17.3128 -11.9645 -0.555829
-17.2238 -11.9671 -0.67146
-17.1695 -12.0413 -0.619157
-16.3299 -12.1523 -1.4901
-16.5438 -12.5952 -0.262275
-16.4001 -12.7029 -0.419785
-16.2727 -12.7667 -0.453877
-19.9257 -10.4871 -0.915333
-18.3069 -10.7572 -2.74895
-17.9607 -10.886 -2.91739
-17.0866 -11.8767 -1.02043
-16.991 -11.9154 -1.02014
-17.2672 -11.9486 -0.609883
-17.0114 -12.0148 -0.81708
-17.1073 -12.0835 -0.626708
-16.8139 -12.2333 0.0654357
-16.029 -12.5763 -1.06
-16.5857 -11.8396 -1.74435
-17.2462 -12.0184 -0.50843
-17.2508 -12.0326 -0.476983
-16.0399 -12.5332 -1.12319
-16.3478 -12.7355 -0.363647
-16.3361 -12.7614 -0.316613
-19.8973 -10.8772 -0.185597
-18.5932 -11.1553 0.523605
-16.2415 -11.5087 -2.39216
-15.7112 -12.9505 -1.34515
-19.1345 -9.94939 -3.05279
-18.6142 -10.8477 -0.0564922
-17.2356 -11.1841 -2.17058
-19.0785 -10.8457 -1.43448
-18.9507 -11.0887 -1.16562
-16.99 -10.573 1.62241
-18.4506 -11.0483 -0.527544
-14.9683 -12.9269 -1.82678
-18.5447 -11.0718 -1.22117
-19.9533 -10.4798 -0.864957
-19.761 -10.6071 -0.837042
-18.9691 -10.166 -2.87738
-19.0177 -10.1943 -2.77026
-19.3088 -10.4318 -1.93016
-18.9927 -10.3863 -2.40173
-19.1537 -10.6309 -1.77183
-18.795 -10.3795 -2.72722
-18.5635 -10.8973 -0.0593321
-18.5205 -10.9432 -2.04142
-18.2104 -10.8541 -2.63155
-18.2334 -10.8875 -2.60983
-18.0288 -10.8963 -2.83703
-18.1572 -11.2376 -2.00402
-17.8093 -11.4852 -1.27047
-16.7632 -12.1908 -0.431666
-16.1206 -11.1021 1.43646
-16.1599 -12.4734 -1.13958
-16.147 -12.6016 -0.885248
-16.3414 -12.7334 -0.440205
-15.3163 -12.5024 -2.21896
-14.5739 -13.2059 -3.23736
-19.251 -9.84698 -3.11017
-19.241 -9.87633 -3.11179
-19.5391 -10.3585 -1.74838
-19.0047 -10.147 -2.85641
-18.9377 -10.3616 -2.54591
-19.5056 -11.1875 -0.142202
-18.5909 -10.8457 -0.143421
-18.0758 -10.8912 -2.88139
-18.1926 -11.1815 -0.0141551
-18.1946 -11.1958 -0.00159422
-17.5981 -11.5802 -1.37568
-17.5697 -11.8057 -0.101671
-17.1471 -12.0788 -0.556074
-17.024 -12.0329 -0.840106
-14.6687 -13.3123 -2.86516
-19.3638 -9.92208 -2.74045
-19.2649 -10.3848 -2.10367
-18.7776 -11.0912 0.676154
-18.7293 -11.1516 0.702854
-18.5208 -11.0596 -0.575012
-18.0692 -10.9147 -2.75781
-17.2034 -11.3507 -3.0756
-17.1098 -11.8336 -1.05663
-17.255 -11.9746 -0.606575
-16.4063 -11.3553 -2.35348
-16.7768 -11.7238 -1.67853
-15.6575 -12.1081 -1.93288
-16.3258 -12.6927 -0.525217
-16.1961 -12.5997 -0.900185
-15.8297 -12.4324 -1.49977
-15.8643 -13.0658 -0.684333
-15.0097 -12.6587 -2.10717
-14.5754 -13.4916 -2.66072
-19.3486 -9.96725 -2.7118
-19.0255 -10.3507 -2.54304
-18.3084 -11.0984 -0.0331285
-16.4975 -11.3689 -2.30706
-16.3791 -11.4571 -2.30905
-16.5671 -11.7866 -1.88887
-15.9344 -12.3351 -1.51864
-16.1156 -12.6582 -0.820576
-18.0992 -11.2362 -2.0359
-16.5813 -11.8521 -1.76031
-16.5628 -11.8529 -1.81955
-18.2183 -11.182 -0.0233838
-17.8118 -11.6072 -0.988471
-16.2601 -11.5096 -2.30159
-16.2528 -12.8496 -0.349973
-18.6434 -10.9074 0.0989678
-18.5855 -10.862 -0.0772782
-19.763 -10.5493 -0.993202
-18.9685 -11.0628 -1.155
-18.6757 -10.8723 0.0240278
-18.3836 -10.9953 -0.928458
-16.2197 -12.4569 -1.07177
-17.1208 -11.6902 -1.5638
-16.7411 -11.8582 -1.5382
-16.4187 -12.2975 -0.870935
-18.6974 -10.911 0.237457
-16.8706 -12.1397 -0.947422
-16.4324 -12.4289 -0.901911
-19.986 -10.5383 -0.717247
-19.9551 -10.4665 -0.950675
-19.7987 -10.0352 -1.96571
-19.3949 -9.96459 -2.65993
-19.0286 -10.4082 -2.36918
-18.9891 -10.1792 -2.82883
-19.0265 -10.3997 -2.37122
-18.7936 -10.3521 -2.77268
-18.3589 -10.6695 -2.84757
-18.2257 -10.8701 -2.595
-18.2284 -10.8645 -2.63953
-18.2071 -10.8976 -2.62953
-17.6619 -11.5941 -0.91687
-17.7167 -11.0402 -3.05432
-17.6858 -10.9623 -3.21629
-17.649 -10.9702 -3.23791
-16.1462 -11.1531 1.5673
-16.1386 -11.1329 1.50825
-16.7714 -12.1574 -0.418777
-15.823 -11.2929 1.38704
-16.6161 -12.0981 -0.622313
-15.7313 -11.3781 1.4161
-16.4042 -12.1035 -1.49091
-16.21 -12.5251 -0.947195
-15.5875 -11.9238 -2.57565
-15.862 -13.0778 -0.784947
-15.5729 -12.9223 -1.52334
-15.3207 -12.5062 -2.28707
-14.5638 -13.2104 -3.23848
-19.9157 -10.5175 -0.871891
-19.7922 -10.6176 -0.843568
-19.5287 -10.3048 -1.79627
-19.2376 -10.2204 -2.38243
-19.1097 -10.8446 -1.43632
-18.8006 -10.3718 -2.71277
-18.2349 -10.8632 -2.56399
-18.149 -11.2549 -1.96158
-16.4505 -10.9476 1.58035
-17.2179 -12.0184 -0.0687637
-17.306 -12.017 -0.47568
-17.2326 -11.9849 -0.643616
-17.0708 -11.7534 -1.27737
-17.0548 -12.1288 -0.590613
-16.4094 -11.4375 -2.27902
-16.5341 -12.6007 -0.267001
-16.2514 -12.5344 -0.891806
-16.1302 -12.435 -1.2096
-15.9449 -12.342 -1.49916
-19.866 -10.6345 -0.665648
-19.2651 -9.85302 -3.06908
-19.2792 -10.3889 -2.082
-18.553 -10.8853 -0.0559248
-18.9883 -11.0173 -1.22118
-18.8537 -10.7551 -2.00843
-18.3145 -10.7591 -2.73885
-18.1263 -11.2344 -1.9964
-17.265 -12.0073 -0.487453
-17.1301 -11.9116 -0.927578
-16.2314 -12.5962 -0.776991
-16.1886 -12.5926 -0.887668
-15.7748 -12.1367 -1.94209
-19.4384 -10.6522 -1.32503
-18.0831 -11.171 -2.19133
-16.4019 -12.6976 -0.346596
-16.272 -12.8034 -0.375689
-16.1547 -12.5207 -1.06346
-16.1639 -12.7354 -0.646754
-15.7301 -13.0321 -1.18996
-14.5486 -13.4809 -2.72186
-14.189 -13.4916 -3.21024
-19.7542 -10.04 -2.02809
-18.6536 -11.0376 0.403167
-18.2055 -10.7588 -1.2573
-16.9907 -11.8457 -1.1596
-16.2449 -11.8964 -2.04643
-15.7752 -13.0043 -1.19162
-18.8306 -10.7255 -1.94647
-18.0357 -10.9202 -1.36967
-17.8101 -11.6316 -0.912722
-17.0482 -12.1076 -0.595801
-16.3151 -12.7049 0.26826
-17.1163 -11.7629 -1.24105
-15.8872 -12.779 -1.17838
-18.1688 -11.2132 -0.0270584
-15.8616 -12.9603 -1.10904
-16.5593 -11.3943 -2.15046
-16.164 -11.8888 -2.0011
-16.4223 -12.1213 -1.58828
-19.9829 -10.4858 -0.804411
-19.9683 -10.4683 -0.92927
-19.5521 -10.3372 -1.80803
-18.1422 -11.1912 -0.0628508
-18.0878 -11.2715 -0.033326
-18.9854 -10.5734 -2.09031
-19.0369 -10.3919 -2.36111
-18.9716 -10.3367 -2.57966
-18.9394 -10.3777 -2.54051
-17.9494 -11.5712 -0.927065
-18.4783 -10.3622 -3.20109
-18.455 -10.4147 -3.19024
-18.4392 -10.457 -3.19835
-18.1423 -11.2646 -1.93299
-17.6267 -11.6288 -0.974928
-17.2359 -12.0722 -0.419348
-16.7296 -12.1863 -0.450178
-15.898 -11.6891 -2.57169
-15.5841 -11.9398 -2.59869
-18.5711 -10.896 -0.0621814
-18.151 -11.1906 -0.0420794
-18.9918 -10.8779 -1.49822
-17.9018 -11.5702 -0.858892
-17.7246 -11.8838 -0.607325
-18.1435 -11.254 -1.96867
-18.1222 -11.2387 -2.00331
-18.3204 -10.7214 -2.80024
-17.6067 -11.7105 -1.10651
-18.1755 -10.7184 -3.00687
-17.6124 -11.608 -1.31052
-17.1988 -11.9926 -0.610021
-17.2312 -11.8642 -0.82572
-17.9782 -10.7457 -3.15244
-16.2754 -12.8787 -0.246451
-16.2732 -12.6261 -0.642482
-16.1849 -12.5476 -0.938814
-16.1889 -12.5843 -0.901705
-16.0053 -12.0837 -2.08001
-15.4632 -12.1426 -2.17534
-14.5609 -13.4773 -2.68077
-19.7717 -10.6053 -0.88164
-19.7691 -10.6367 -0.830899
-19.5527 -10.349 -1.76063
-19.5324 -10.331 -1.79868
-18.5718 -10.9519 0.0368738
-19.512 -10.3264 -1.83193
-19.258 -10.4564 -1.89098
-18.0597 -11.3712 0.100753
-16.4813 -10.7826 1.32792
-16.4679 -10.8343 1.38756
-18.8392 -10.2789 -2.91246
-18.0447 -10.8028 -1.27235
-18.0933 -11.1584 -2.17179
-15.7954 -11.3398 1.44811
-17.1874 -12.0259 -0.593428
-17.1261 -11.9085 -0.912155
-16.718 -12.4062 0.20694
-17.0611 -11.8749 -1.04325
-17.0109 -11.91 -1.04197
-16.3313 -12.6474 0.178143
-16.2996 -12.7071 0.271455
-16.1824 -12.4388 -1.17853
-16.041 -12.6952 -0.88303
-14.9332 -13.1252 -2.86267
-14.5019 -13.3922 -2.91508
-19.6929 -10.3566 -1.58504
-18.5937 -10.908 -0.04189
-17.3056 -12.0055 -0.504389
-17.0385 -11.9753 -0.842544
-16.5325 -12.1367 -0.479665
-16.5306 -12.3081 -0.427522
-16.3394 -12.6808 0.235862
-16.2604 -12.4901 -0.974913
-16.0628 -13.0829 -0.55063
-15.8918 -11.735 -2.53056
-19.9798 -10.452 -0.921284
-19.875 -10.5577 -0.852677
-19.8871 -10.4934 -0.975685
-19.3434 -10.371 -2.02607
-16.2512 -11.0865 1.53517
-17.1725 -12.1005 -0.355661
-17.0351 -11.862 -1.12407
-16.4451 -11.4017 -2.30117
-15.0479 -12.6766 -2.06455
-18.6008 -11.265 0.720083
-19.5152 -10.3461 -1.80105
-17.6279 -11.5172 -1.46668
-16.8292 -11.2499 -2.53705
-16.2778 -12.7072 -0.481207
-16.1734 -12.4296 -1.14847
-18.2291 -11.1685 -0.0146112
-16.3533 -11.7462 -2.15362
-16.2843 -11.956 -1.94294
-17.3285 -11.301 -1.93798
-16.7661 -12.1666 -0.601915
-16.6844 -12.1675 -0.902566
-15.6996 -11.9583 -2.34594
-16.2541 -12.5932 -0.675301
-16.0007 -12.3882 -1.48297
-15.7889 -13.1254 -0.887377
-20.4266 -10.5173 -0.152832
-20.3051 -10.6528 -0.0900286
-19.9822 -10.6581 -0.487567
-18.54 -10.9602 0.0421323
-18.492 -10.965 0.0122079
-16.4881 -10.8468 1.46496
-19.747 -10.0893 -1.91409
-18.1297 -11.2055 -0.0826808
-17.9834 -11.3939 0.0986839
-19.3873 -10.5995 -1.48577
-19.5257 -10.34 -1.81453
-16.0432 -11.184 1.46249
-19.1809 -10.6641 -1.70354
-19.5293 -10.047 -2.32912
-19.2638 -10.3956 -2.05804
-18.0999 -10.782 -1.24422
-18.9511 -10.4067 -2.479
-18.9864 -10.3328 -2.58693
-18.6594 -10.7055 -2.31225
-18.6852 -10.6859 -2.33021
-18.6443 -10.6968 -2.32908
-18.2575 -11.2138 -1.97211
-18.1601 -11.2276 -2.04976
-16.7296 -12.203 -0.426347
-18.5691 -10.4121 -3.00553
-18.2857 -10.7455 -2.76411
-16.9773 -11.9418 -1.09126
-16.8543 -11.9003 -1.29764
-18.172 -10.688 -3.10062
-18.0152 -10.783 -3.14168
-16.4012 -11.3065 -2.67836
-15.5651 -12.9082 -1.53207
-15.3085 -12.1828 -2.21791
-15.5786 -11.9012 -2.60779
-19.9201 -10.8473 -0.215956
-19.5912 -11.2505 0.141374
-19.4832 -10.854 -0.844874
-19.3801 -11.0104 -0.715125
-19.8794 -9.94691 -2.03879
-19.8128 -10.0494 -1.96611
-19.7656 -10.1369 -1.88734
-19.7939 -10.046 -1.97799
-16.4128 -10.8253 1.25888
-18.9614 -10.3524 -2.56805
-18.7217 -10.6333 -2.36668
-17.1191 -12.0904 -0.493028
-18.8524 -10.1397 -3.13678
-16.8022 -12.1308 -0.441266
-18.7791 -10.1507 -3.21432
-17.0076 -11.7145 -1.35739
-16.159 -12.7192 -0.638269
-16.1703 -12.5569 -0.934799
-16.1603 -12.5947 -0.909699
-16.0337 -12.4992 -1.16664
-15.9758 -12.6019 -1.1385
-16.0407 -12.2335 -1.4143
-14.5312 -13.4748 -2.72327
-19.971 -10.5834 -0.689297
-19.8538 -10.6204 -0.730801
-18.5199 -11.0041 0.0834125
-19.3338 -11.0143 -0.740163
-19.5056 -10.6953 -1.17271
-19.5338 -10.6499 -1.21025
-19.4545 -10.7112 -1.15451
-19.6261 -10.3167 -1.72302
-17.8423 -11.4236 -0.0270738
-18.9638 -10.869 -1.49233
-19.0231 -10.4094 -2.36076
-16.6976 -12.4573 0.29643
-17.225 -12.115 -0.393519
-17.077 -12.1412 -0.50809
-17.4665 -11.7821 -1.14612
-16.9044 -12.1625 -0.44443
-17.0175 -11.9728 -0.880872
-18.1811 -10.7175 -3.00573
-15.5926 -12.0796 -2.1543
-16.0999 -10.9794 2.16014
-16.7301 -10.6243 1.34549
-16.4813 -10.9352 1.58754
-19.2826 -11.0605 -0.698814
-16.5067 -10.7846 1.31791
-19.8015 -10.0654 -1.91082
-19.7898 -10.0696 -1.92592
-16.2418 -11.08 1.56734
-17.8558 -11.4337 0.000756823
-16.0424 -11.1808 1.43927
-15.824 -11.2857 1.36665
-18.1718 -10.8316 -1.24439
-16.6704 -12.4759 0.312563
-16.6578 -12.4021 0.137089
-17.2537 -11.9458 -0.71604
-17.2168 -11.8396 -0.846706
-17.4449 -11.7867 -1.14317
-17.1137 -11.9338 -0.856296
-16.9798 -11.9703 -1.02344
-18.2047 -10.6649 -3.02122
-16.3224 -12.6742 -0.579855
-18.0157 -10.8718 -2.97494
-16.2084 -12.5833 -0.904172
-16.1388 -12.4973 -1.07672
-16.1148 -12.5049 -1.04825
-16.7428 -11.1877 -2.74995
-15.6858 -13.098 -1.16078
-16.4895 -10.8336 1.37004
-15.8216 -11.3308 1.41419
-17.0522 -12.1439 0.244682
-16.8358 -12.2704 0.155429
-18.4594 -11.0216 -1.95356
-16.3803 -12.6557 0.208649
-16.1427 -12.5568 -0.986555
-16.1604 -12.4261 -1.17841
-18.9516 -10.8974 -1.55529
-17.0072 -12.2175 0.34635
-18.0256 -11.5552 -0.895258
-16.0466 -12.4864 -1.20044
-15.7182 -13.0938 -1.06953
-14.8398 -13.1698 -2.84884
-18.3469 -11.0337 -0.0864789
-17.8001 -11.5152 0.0232804
-16.4097 -12.1591 -1.49525
-16.6159 -12.3606 -0.369749
-15.8069 -13.0798 -0.85445
-20.4873 -10.483 -0.158064
-20.4118 -10.5405 -0.135374
-19.9643 -10.9869 0.119651
-16.9877 -10.5849 1.42407
-20.0321 -10.8345 -0.0799166
-20.0067 -10.8352 -0.071678
-16.4359 -10.9337 1.57237
-16.1018 -11.1822 1.53577
-19.5649 -10.9119 -0.624861
-15.7569 -11.3836 1.43492
-18.3516 -11.0527 -0.0970893
-15.759 -11.3664 1.38802
-18.2516 -11.1047 -0.0737265
-18.1595 -11.2101 -0.0518916
-17.9728 -11.324 -0.0743452
-19.5432 -10.6274 -1.1891
-19.4972 -10.6697 -1.20887
-19.2764 -10.8192 -1.22705
-19.4221 -10.572 -1.42049
-19.9368 -9.94711 -1.96293
-17.7214 -11.8948 -0.627081
-18.9994 -10.8643 -1.50284
-19.5465 -10.2887 -1.87185
-18.9434 -10.9013 -1.49181
-17.9491 -11.5681 -0.955102
-18.8747 -10.9135 -1.59104
-19.7154 -10.0016 -2.14098
-19.7027 -10.0501 -2.16736
-17.6689 -11.6171 -0.92826
-16.9666 -12.1656 -0.499911
-17.6438 -11.6277 -0.970479
-19.5503 -10.0419 -2.29763
-19.5205 -10.0776 -2.30428
-17.2665 -11.8421 -0.855402
-19.5246 -10.0242 -2.41349
-19.546 -9.99384 -2.42096
-17.8309 -11.3765 -1.40364
-19.5229 -9.93761 -2.53764
-19.0633 -10.3702 -2.35914
-17.7838 -11.3321 -1.5176
-17.0512 -11.8615 -1.05896
-18.6022 -10.7881 -2.30254
-18.2778 -11.003 -2.23842
-18.6837 -10.5802 -2.5621
-19.3032 -9.93612 -2.98466
-19.2869 -9.90524 -2.96312
-18.3476 -10.808 -2.52734
-18.1318 -11.0444 -2.39664
-19.0671 -10.0087 -3.00121
-18.8287 -10.3066 -2.86605
-18.8532 -10.2661 -2.88481
-19.2153 -9.85567 -3.18295
-18.1749 -10.8634 -2.69747
-17.1037 -11.6179 -1.99115
-17.95 -10.9921 -2.70341
-18.3393 -10.5497 -3.04754
-16.5 -11.8992 -1.78124
-16.5141 -11.3415 -2.39204
-16.3949 -11.3589 -2.37588
-17.1305 -11.2816 -3.30538
-15.6324 -12.0203 -2.15668
-15.5191 -12.1112 -2.13461
-16.0735 -11.5649 -2.61045
-20.2022 -10.8536 0.160255
-16.4917 -10.9379 1.58301
-16.457 -10.954 1.59691
-16.7935 -10.5946 1.37265
-19.9468 -10.8303 -0.226922
-19.6246 -11.0575 -0.278959
-16.0439 -11.209 1.46288
-20.154 -10.3328 -0.858881
-19.5941 -10.8306 -0.682204
-19.3494 -11.0999 -0.559966
-15.8476 -11.2746 1.34065
-18.3061 -11.0949 -0.045852
-20.0009 -10.2601 -1.24892
-17.2129 -11.9875 -0.0643394
-19.5124 -10.3439 -1.82905
-19.5135 -10.3173 -1.84686
-18.9162 -10.8808 -1.60264
-19.0267 -10.765 -1.71192
-17.1628 -12.0585 -0.574753
-19.6429 -10.067 -2.14486
-19.2848 -10.2679 -2.26921
-16.2663 -12.7962 -0.400551
-18.4406 -10.9998 -1.98021
-17.6078 -11.5267 -1.4387
-16.9709 -11.9381 -1.04433
-16.9251 -11.7685 -1.30813
-19.2006 -9.98106 -2.95243
-16.0517 -12.6627 -0.924568
-17.9568 -11.1749 -2.43212
-15.9364 -12.6013 -1.16934
-18.0773 -10.9135 -2.78352
-18.0752 -10.8636 -2.85068
-18.1364 -10.6677 -3.14019
-16.5885 -11.3725 -2.23455
-15.9374 -12.1682 -2.04524
-15.6582 -12.1034 -2.08706
-15.8252 -11.769 -2.58777
-14.8835 -13.123 -2.96055
-14.6526 -13.3225 -2.89769
-14.5049 -13.2991 -3.09454
-14.5281 -13.2475 -3.22355
-19.8147 -10.8204 -0.501107
-18.5623 -10.9369 0.0506698
-19.6005 -10.9024 -0.627099
-19.4613 -10.9546 -0.700852
-18.11 -11.2945 0.0902983
-19.3087 -11.0803 -0.698849
-17.3711 -11.8228 0.0271331
-19.4538 -10.6069 -1.39243
-19.4088 -10.6288 -1.38511
-16.5191 -12.6196 0.393656
-19.571 -10.295 -1.84288
-17.2553 -12.0758 -0.422932
-19.174 -10.6663 -1.71065
-18.9418 -10.8426 -1.60627
-17.0692 -12.1341 -0.489581
-17.0948 -12.0972 -0.568763
-16.7901 -12.1707 -0.430371
-18.8398 -10.8575 -1.79132
-17.6501 -11.6383 -1.12503
-17.0976 -11.9497 -0.890885
-16.3163 -12.6565 -0.59353
-18.2362 -11.1889 -1.94972
-18.9053 -10.4848 -2.37649
-18.7036 -10.6897 -2.31902
-18.9021 -10.3862 -2.58166
-18.3489 -10.9741 -2.2198
-16.8966 -11.8846 -1.27127
-17.0187 -11.7455 -1.33165
-18.1867 -11.0985 -2.2061
-18.9881 -10.1783 -2.90893
-15.7642 -13.0321 -1.03442
-17.7956 -11.3248 -2.3852
-17.8269 -11.2426 -2.44575
-18.1675 -10.85 -2.71099
-17.8377 -11.1107 -2.68069
-16.0419 -12.2185 -1.38986
-18.5254 -10.3669 -3.123
-17.8651 -10.8895 -3.06277
-15.6778 -11.8926 -2.52369
-14.6906 -13.2753 -2.92068
-14.6155 -13.2761 -3.00862
-19.5355 -11.1638 -0.176734
-18.0786 -11.315 0.0915735
-19.3206 -11.0194 -0.761505
-18.1536 -11.1983 -0.123524
-18.4928 -11.0707 -0.628937
-17.6607 -11.7411 -0.845427
-16.8797 -12.1637 -0.431352
-16.749 -12.2223 -0.3948
-17.059 -11.7184 -1.32545
-18.0076 -10.8524 -2.96025
-15.8906 -11.7528 -2.55617
-19.0509 -10.9651 -1.28865
-16.769 -12.1728 -0.493627
-17.6354 -11.6792 -1.06328
-16.1044 -12.5113 -1.12014
-15.5275 -12.1785 -2.1236
-16.1855 -11.1383 -2.81815
-20.1003 -10.9277 0.177924
-16.4719 -10.82 1.37529
-19.3207 -11.0748 -0.678204
-19.105 -11.0109 -1.14682
-19.1216 -10.7988 -1.39477
-14.1597 -13.5444 -3.20097
-20.4145 -10.4293 -0.130099
-20.4888 -10.443 -0.235644
-16.2006 -11.1629 1.63867
-18.5173 -10.9698 -0.215398
-17.093 -11.5854 -1.68146
-16.0031 -12.1284 -2.00213
-17.8468 -11.4054 -0.0695776
-16.9806 -12.2161 0.347803
-17.0389 -11.9746 -0.96669
-17.2372 -11.5557 -1.80068
-16.0393 -12.0325 -2.05456
-14.5475 -13.3976 -2.90812
-18.5842 -10.3225 -3.21026
-18.8132 -10.4267 -2.57967
-18.7405 -10.6383 -2.34859
-19.0137 -10.4206 -2.37904
-18.3325 -11.1617 -1.94742
-15.9723 -12.5825 -1.17022
-19.3152 -10.4541 -1.88191
-19.6426 -10.22 -1.86591
-19.0321 -10.714 -1.73147
-19.6406 -10.2507 -1.79219
-19.3141 -10.5108 -1.73979
-19.5625 -10.4646 -1.512
-19.4201 -10.5879 -1.48816
-19.5259 -10.5078 -1.49755
-17.7405 -11.6093 -1.06867
-16.5761 -12.1237 -0.569982
-19.4728 -10.7205 -1.16077
-19.7679 -10.4563 -1.20569
-19.2797 -10.9767 -0.934539
-19.5636 -10.7859 -0.883296
-19.7306 -10.7107 -0.765346
-20.0973 -10.4195 -0.816468
-19.705 -10.8058 -0.600247
-19.8062 -10.7909 -0.535426
-16.6033 -12.4714 0.194646
-19.8378 -10.7966 -0.506428
-19.8593 -10.8072 -0.519534
-19.7853 -10.8537 -0.492665
-19.708 -10.9466 -0.472514
-17.1004 -12.1152 0.211421
-17.6538 -11.6509 0.131014
-17.6624 -11.6581 0.136191
-18.0175 -11.3912 0.137011
-18.0688 -11.3767 0.140218
-19.9463 -10.7649 -0.287088
-19.6773 -11.1429 -0.0336927
-19.6925 -11.1521 -0.0301622
-19.8486 -11.0365 -0.0522803
-18.7391 -11.0298 0.519549
-18.7408 -11.087 0.637655
-16.0614 -11.186 1.53275
-20.1325 -10.947 0.648943
-20.0504 -11.02 0.677563
-16.1068 -10.9177 2.17844
-17.7618 -10.9413 -3.09794
-18.0049 -10.7712 -3.10195
-18.131 -10.7024 -3.09549
-15.3255 -12.3021 -2.2403
-19.0273 -10.0503 -3.13992
-19.1538 -10.3446 -2.26919
-17.3902 -11.495 -1.76174
-18.1655 -11.3139 -1.84802
-18.8429 -10.8527 -1.76042
-15.789 -13.0592 -1.02349
-18.9311 -10.8728 -1.6111
-19.6593 -10.3451 -1.61972
-18.9659 -10.8956 -1.49154
-15.8607 -13.0983 -0.786645
-15.8931 -13.0675 -0.756003
-18.3123 -10.9631 -1.08532
-19.1335 -10.8755 -1.32842
-18.9232 -11.1427 -1.09755
-18.4527 -11.115 -0.615221
-19.3458 -11.0709 -0.705136
-19.176 -11.1932 -0.676117
-19.2577 -11.1355 -0.667887
-19.3901 -11.0436 -0.657434
-17.6149 -11.8052 -0.125218
-17.2339 -12.0091 -0.0565454
-18.5722 -10.8598 -0.171539
-17.3114 -11.8857 0.0551553
-19.7585 -10.8912 -0.473408
-17.0464 -12.199 0.30651
-20.0639 -11.0028 0.190394
-19.881 -11.1534 0.241619
-16.6728 -10.7291 1.44664
-15.2837 -11.8251 -2.67203
-17.2019 -11.1435 -2.21914
-17.8864 -11.1996 -2.46384
-18.8331 -10.5851 -2.36285
-18.108 -10.8094 -1.33182
-19.2149 -10.9526 -1.09484
-19.1024 -11.017 -1.08534
-19.0996 -11.0179 -1.06092
-19.1 -11.0886 -0.928851
-19.2862 -11.0762 -0.691853
-19.4279 -11.0843 -0.45457
-18.5684 -10.9423 0.062539
-19.6226 -11.1009 -0.262759
-19.8936 -11.1119 0.604067
-16.0844 -12.1735 -1.80447
-17.321 -11.534 -1.71492
-19.1034 -10.8388 -1.49232
-19.0039 -10.9316 -1.45256
-19.2013 -10.8916 -1.13311
-19.3547 -11.0913 -0.595975
-19.5221 -10.9972 -0.606976
-16.7754 -12.2642 0.0985685
-20.2268 -10.6879 -0.075227
-18.8732 -11.0139 0.847568
-18.8255 -11.1017 0.837817
-16.4554 -10.8838 1.45893
-16.4718 -10.9127 1.60208
-16.1382 -12.2299 -1.46911
-18.8127 -10.9328 -1.65079
-18.4282 -11.1293 -0.584577
-19.559 -10.9769 -0.456395
-19.6825 -11.1447 -0.0245832
-20.089 -11.043 0.402494
-16.2195 -11.0592 1.50193
-15.248 -12.3896 -2.39814
-15.6103 -12.2266 -1.99618
-15.9279 -12.3682 -1.43386
-16.7094 -11.993 -1.27935
-18.8139 -10.9261 -1.59249
-17.2558 -11.9779 -0.623533
-18.8835 -11.0068 0.866219
-16.8192 -11.8384 -1.70215
-16.4363 -12.1367 -1.44481
-16.4872 -12.4032 -0.885996
-17.147 -11.9482 -0.748031
-16.9288 -12.1422 0.0363292
-16.4451 -11.4986 -2.4174
-16.1904 -12.1597 -1.40329
-16.2077 -12.325 -1.22167
-15.7015 -12.7443 -1.41977
-18.4638 -10.7899 -2.54175
-17.1879 -11.2023 -2.25597
-18.3447 -11.1029 -1.95818
-16.1846 -12.0614 -1.86326
-19.6101 -10.3032 -1.75272
-19.192 -10.638 -1.66614
-18.9345 -10.8703 -1.59574
-16.4456 -12.0924 -1.49632
-16.9784 -11.781 -1.29468
-16.5997 -12.0983 -1.3388
-19.9121 -10.4972 -1.00435
-19.5465 -10.7812 -0.916732
-19.7069 -10.7577 -0.760285
-19.8219 -10.6952 -0.644524
-19.2499 -11.1229 -0.667304
-17.6101 -11.9603 -0.640935
-15.8629 -13.1038 -0.775476
-18.4107 -10.9739 -0.128597
-17.0345 -12.1823 -0.376459
-19.5815 -11.0483 -0.368573
-19.8657 -10.8462 -0.263197
-20.4448 -10.5124 -0.204097
-20.4763 -10.4846 -0.167212
-20.4303 -10.5516 -0.122184
-20.1217 -10.7885 -0.0628983
-17.2465 -12.0147 -0.0636291
-20.0735 -10.8124 -0.0615964
-19.7474 -11.0933 -0.0308667
-19.6603 -11.1732 -0.0279949
-17.3198 -11.8848 0.102105
-20.3542 -10.7466 0.151834
-18.5598 -11.0844 0.399443
-19.8489 -11.1571 0.243824
-18.7405 -11.0265 0.510663
-20.1489 -11.0202 0.399375
-19.7101 -10.4242 0.965722
-16.7366 -10.6414 1.40767
-18.9805 -10.7566 -1.7863
-17.5131 -11.4867 -1.67911
-18.8441 -10.9798 -1.44412
-18.859 -11.0446 -1.43883
-18.9444 -11.1442 -1.10777
-18.9397 -11.1178 -1.08626
-16.496 -12.2194 -1.01611
-19.9596 -10.4748 -0.962785
-19.1784 -11.187 -0.64965
-19.272 -11.1165 -0.648811
-15.8809 -13.0609 -0.764098
-19.3508 -11.0941 -0.594249
-19.5436 -11.0252 -0.451019
-19.508 -11.0465 -0.434063
-19.4888 -11.0725 -0.460794
-17.9632 -11.3284 -0.105707
-17.4119 -11.7769 0.0443541
-19.7907 -11.0547 -0.00997233
-18.7433 -11.0988 0.642934
-16.0475 -11.0659 2.15933
-17.7913 -11.2842 -2.4285
-18.884 -10.9581 -1.4403
-18.8475 -11.0356 -1.2763
-19.826 -10.7309 -0.621488
-18.5163 -10.889 -0.145494
-17.3947 -11.9564 -0.355956
-17.7435 -11.6377 0.148142
-16.0915 -10.9578 2.16915
-16.5553 -12.0489 -1.52525
-15.685 -12.816 -1.56328
-18.3295 -11.045 -0.0457717
-17.3888 -11.2176 -1.89865
-18.9668 -11.049 -1.11495
-19.7606 -10.3197 0.954984
-17.3155 -11.4641 -1.87161
-17.5968 -11.7976 -0.860287
-17.2614 -12.0151 -0.626304
-19.3872 -11.0657 -0.579346
-16.1388 -12.0552 -1.89173
-18.9136 -10.9244 -1.44799
-19.5725 -11.193 0.0336182
-16.6872 -12.3749 0.161247
-16.5521 -11.8367 -1.83024
-18.7897 -11.0335 -0.642711
-16.8107 -11.3085 -1.98768
-18.5512 -10.3278 -3.28572
-18.768 -10.8163 -2.02954
-18.1784 -11.2278 -1.93043
-18.8405 -11.0025 -1.45287
-18.9447 -11.133 -1.08301
-19.8237 -10.7355 -0.635069
-19.36 -11.1603 -0.423277
-17.6929 -11.6287 0.138174
-17.8154 -11.1182 -2.70563
-18.8057 -10.779 -2.02852
-17.1286 -11.5599 -2.10782
-19.4614 -10.5964 -1.40232
-18.8911 -10.9632 -1.45693
-20.2448 -10.4136 -0.633868
-16.8828 -11.8692 -1.3225
-19.2408 -11.157 -0.672007
-19.5651 -11.2328 -0.0207138
-19.8009 -11.2035 0.267068
-17.5174 -11.8105 -0.124251
-20.0027 -10.0532 0.93412
-18.8338 -11.0293 -1.44188
-16.5615 -12.0389 -1.5181
-16.3635 -12.1264 -1.52829
-19.9125 -10.6289 -0.621315
-18.9754 -11.1905 -0.892248
-19.665 -10.9319 -0.482415
-18.5057 -10.8576 -0.162124
-15.5855 -12.9338 -1.31546
-16.8265 -12.1043 -0.494027
-16.7025 -12.0904 -0.506214
-17.9815 -10.849 -2.97478
-14.8937 -13.1184 -2.96387
-17.108 -11.5669 -1.64176
-16.8709 -12.3339 -0.85066
-19.6795 -11.1405 0.0185976
-17.0892 -11.5573 -1.69608
-18.4205 -11.1827 -0.739788
-18.906 -11.0194 0.822635
-19.6542 -10.7128 -0.834493
-16.8397 -12.2295 -0.843457
-16.3207 -11.8295 -1.89859
-18.3844 -11.2043 -0.650731
-19.2425 -11.093 -0.765835
-17.1874 -12.0401 0.217879
-16.2178 -12.7832 -0.456606
-19.7865 -10.6274 -0.842273
-19.8825 -10.5963 -0.785051
-19.9596 -10.5444 -0.731054
-19.0633 -11.0581 -1.08484
-17.5467 -11.8664 -0.861835
-17.0792 -11.9886 -0.767635
-16.2588 -12.7172 -0.549885
-16.434 -12.733 -0.306424
-19.0114 -10.8402 -1.467
-18.9846 -11.1898 -0.909377
-19.2595 -11.1588 -0.570086
-14.8862 -13.1119 -2.94292
-16.9709 -11.3117 -2.35486
-17.1527 -11.1968 -2.20475
-16.4582 -12.1006 -1.43096
-19.7751 -10.6229 -0.822729
-19.8548 -10.7121 -0.604768
-19.9693 -10.9145 -0.0678989
-16.5592 -11.8115 -1.87936
-18.9872 -10.9667 0.821758
-16.8755 -11.9333 -1.24642
-17.1206 -11.8759 -0.918511
-16.7171 -12.2694 -0.872902
-16.8205 -12.2 -0.646525
-16.6897 -12.0729 -0.50895
-16.2442 -12.5168 -0.909107
-15.9517 -12.6498 -1.10719
-19.2122 -11.1881 -0.579753
-18.1615 -10.7334 -1.34776
-15.6343 -12.9581 -1.30855
-17.7844 -11.514 -1.2745
-16.6106 -12.3075 -0.891214
-16.3299 -11.9442 -1.92416
-18.5625 -11.1399 0.525206
-16.2904 -11.9945 -1.94215
-19.0948 -10.8069 -1.47391
-16.8631 -12.2798 -0.849245
-20.0034 -10.5109 -0.706649
-19.9679 -10.5413 -0.706154
-18.5598 -11.1776 0.541642
-17.1058 -11.9859 -0.775839
-16.7366 -10.646 1.41582
-16.1625 -12.5554 -0.935578
-15.911 -12.9709 -1.02773
-18.794 -10.7592 -1.98221
-19.8676 -10.6894 -0.577491
-17.2462 -11.9756 -0.612559
-17.2677 -11.9807 -0.549405
-16.3175 -12.69 -0.481478
-19.5027 -10.864 -0.798291
-18.1627 -10.749 -1.35128
-16.4292 -12.0842 -1.47583
-16.1707 -12.6066 -0.894407
-16.2256 -12.6112 -0.832299
-19.8804 -10.6406 -0.566485
-18.2718 -11.0848 -0.0559431
-16.1079 -12.6036 -1.00527
-18.5846 -11.1544 0.535944
-17.5084 -11.8245 -0.166966
-16.2518 -12.1573 -1.52924
-16.9561 -11.255 -2.42028
-18.5586 -11.0057 -0.592006
-17.9189 -11.1524 -1.32742
-16.5498 -11.1967 -2.5284
-19.2762 -9.87069 -3.05544
-19.3435 -9.90056 -2.88034
-19.9334 -10.5092 -0.864126
-19.9544 -10.5271 -0.820126
-19.9745 -10.5264 -0.698889
-19.8378 -10.6293 -0.685169
-18.3542 -10.6568 -2.85134
-18.9073 -11.1151 -1.15578
-17.7189 -11.0067 -3.1047
-16.4125 -11.9266 -1.85928
-16.3298 -12.7043 -0.471026
-16.027 -12.7127 -0.858398
-19.4302 -10.6357 -1.3941
-18.8671 -10.8417 -1.79346
-17.7521 -11.003 -3.02123
-17.1844 -11.3155 -3.17381
-17.1144 -11.8962 -0.973082
-18.8754 -10.7943 -1.86974
-16.427 -12.71 -0.321531
-17.8263 -11.3401 -2.21337
-16.4512 -11.3911 -2.29855
-16.1042 -12.5824 -1.01953
-16.3242 -12.8178 -0.264669
-20.021 -10.4536 -0.882381
-18.6712 -10.873 0.058158
-18.6474 -10.8953 0.0781258
-15.1533 -12.7795 -1.82652
-15.8844 -12.9709 -1.03299
-19.8792 -10.5655 -0.805133
-19.7378 -10.5646 -1.01336
-18.958 -11.0807 -1.15797
-16.5325 -11.7423 -1.87284
-18.5109 -11.0887 -0.517058
-18.5315 -11.0901 -1.2029
-19.3886 -9.98265 -2.66099
-19.9942 -10.5266 -0.756399
-19.776 -10.6539 -0.829342
-18.1898 -10.8853 -2.60607
-17.2126 -11.9427 -0.680474
-16.1528 -12.4657 -1.1491
-15.5889 -12.7962 -1.82541
-19.3959 -9.92677 -2.75704
-19.3998 -9.95909 -2.67992
-19.7903 -10.6187 -0.837779
-19.0035 -10.3695 -2.44983
-17.8733 -11.7719 -0.663107
-17.0133 -12.0458 -0.852607
-16.4312 -12.1177 -1.46494
-16.1081 -12.7351 -0.677074
-15.2352 -12.7781 -1.8895
-14.5514 -13.4798 -2.69024
-19.7629 -10.0387 -2.0621
-19.8882 -10.5284 -0.891189
-18.7697 -10.6037 -2.37302
-16.5836 -11.3672 -2.04393
-15.7869 -12.4485 -1.51577
-15.9421 -12.9887 -0.976867
-19.8846 -10.6129 -0.704868
-18.9678 -10.3261 -2.57633
-18.9525 -10.3575 -2.53277
-18.9805 -11.0215 -1.19122
-16.5835 -11.8371 -1.78944
-20.0053 -10.4394 -0.912914
-18.1126 -11.2503 -2.02125
-16.2737 -12.6144 -0.716467
-16.9286 -11.6151 -1.47558
-16.0428 -12.3935 -1.3387
-17.3093 -11.2063 -2.00579
-17.0119 -12.0957 -0.753673
-16.6775 -12.0347 -1.16463
-16.206 -12.4526 -1.08442
-16.7342 -11.8888 -1.54611
-16.054 -13.1602 -0.547776
-16.8746 -12.1346 -0.969602
-19.9977 -10.5386 -0.734141
-19.9347 -10.529 -0.87092
-19.9188 -10.5429 -0.794114
-19.8305 -10.6667 -0.710455
-19.4096 -9.95596 -2.69548
-19.4018 -9.96053 -2.6881
-19.537 -10.328 -1.80398
-18.3802 -10.8032 -2.56282
-18.2829 -10.753 -2.73448
-18.2172 -10.8837 -2.59116
-18.2058 -10.8924 -2.61818
-17.3235 -11.9341 -0.56883
-16.1535 -12.126 -1.81422
-15.6556 -11.9674 -2.25086
-14.6264 -13.3258 -2.91286
-14.5048 -13.3841 -2.94672
-18.9489 -10.3553 -2.60473
-18.8149 -10.2579 -2.99837
-18.4955 -10.3786 -3.21641
-17.1964 -12.0518 -0.570368
-16.143 -12.4603 -1.18655
-16.1201 -12.7566 -0.66946
-15.9721 -13.1164 -0.651573
-19.806 -10.0857 -1.96532
-19.407 -10.1169 -2.37438
-19.4405 -10.6423 -1.30653
-19.4336 -10.6911 -1.2595
-18.894 -10.8158 -1.80897
-18.1408 -11.0222 -2.47233
-17.8781 -11.7378 -0.71518
-17.242 -11.8644 -0.847605
-16.1574 -12.4804 -1.09896
-15.5774 -12.1132 -2.1646
-19.7719 -10.0084 -2.05025
-19.9015 -10.8599 -0.221742
-19.0144 -11.0135 -1.19621
-18.8242 -10.7973 -1.94341
-16.5207 -11.2884 -2.429
-15.6083 -12.0023 -2.20924
-15.5544 -12.1194 -2.1521
-15.7338 -12.9287 -1.3055
-15.6811 -12.9845 -1.24805
-18.8641 -10.7681 -1.93593
-15.7603 -12.9964 -1.1793
-14.1601 -13.4857 -3.2539
-17.1169 -11.7353 -1.28416
-16.4635 -12.3216 -1.08684
-15.7024 -12.0546 -2.16236
-15.9232 -13.0626 -0.83951
-19.9149 -10.4994 -0.870017
-19.8547 -10.6428 -0.686086
-19.7988 -10.073 -2.0054
-19.5234 -10.368 -1.7599
-19.5405 -10.327 -1.82217
-19.3999 -9.96375 -2.67921
-19.3962 -9.96227 -2.68507
-19.0153 -10.4214 -2.37376
-18.9312 -10.3617 -2.61311
-16.4324 -10.8136 1.26953
-18.1616 -11.2471 -1.95812
-18.1431 -11.0171 -2.43748
-18.0704 -10.8912 -2.77276
-18.0483 -10.7571 -3.13581
-17.731 -11.9064 -0.621267
-17.7214 -10.9986 -3.08672
-17.6762 -10.9775 -3.23789
-17.2029 -12.0015 -0.625078
-16.2889 -11.5105 -2.33211
-16.3259 -12.724 -0.498129
-16.208 -12.6234 -0.766375
-19.9888 -10.5672 -0.658908
-19.8938 -10.567 -0.773376
-19.6915 -9.88136 -2.47195
-18.3731 -10.8005 -2.54478
-17.7126 -11.6124 0.105612
-17.1901 -12.0594 -0.546655
-17.1498 -11.8108 -1.04808
-17.1066 -11.8484 -1.06322
-17.0504 -11.7392 -1.31611
-15.8207 -11.3224 1.41185
-16.109 -12.4502 -1.21211
-15.1037 -12.6421 -2.07181
-19.8942 -10.8473 -0.215772
-19.2735 -10.461 -1.92464
-19.2458 -10.2046 -2.40367
-18.8019 -10.393 -2.65684
-17.3187 -11.9959 -0.481683
-17.3474 -11.2347 -1.92163
-17.2902 -12.0446 -0.404218
-17.241 -12.0024 -0.490223
-17.1417 -11.8775 -0.96259
-17.0857 -11.9052 -0.979249
-17.0688 -11.7491 -1.25813
-17.058 -11.7977 -1.18836
-16.3693 -12.7421 -0.319408
-16.2403 -12.5909 -0.825609
-16.1669 -12.4751 -1.09111
-15.7781 -12.9558 -1.20883
-15.7506 -12.9948 -1.18861
-20.012 -10.5588 -0.682439
-19.2676 -9.91143 -2.98494
-18.255 -11.3995 -0.790743
-17.1204 -12.1075 -0.470954
-17.0838 -11.9715 -0.803536
-16.4763 -11.3773 -2.31929
-16.0371 -12.1279 -1.971
-15.2449 -12.7879 -1.88864
-16.1277 -11.9862 -2.02293
-19.7631 -10.5903 -0.93557
-19.7954 -10.0505 -1.98551
-19.7577 -9.98505 -2.16312
-18.5388 -10.9544 0.0322447
-19.3887 -10.612 -1.48511
-19.549 -10.0114 -2.3414
-19.2764 -10.4549 -1.88962
-19.2996 -9.91605 -2.95806
-18.9539 -10.3306 -2.61558
-16.2789 -11.0525 1.5166
-18.1443 -11.2404 -1.96398
-17.6684 -11.5903 -0.930037
-18.1268 -10.7104 -3.04169
-17.2447 -11.8641 -0.817963
-18.0329 -10.7482 -3.12649
-17.8823 -10.9271 -2.95574
-17.0679 -11.9508 -0.916401
-17.7212 -10.9958 -3.07156
-16.1907 -12.6968 -0.670027
-16.4571 -11.2727 -2.64033
-15.7539 -12.9574 -1.19148
-14.5479 -13.4919 -2.67404
-19.5041 -10.8491 -0.829718
-18.5786 -10.8785 -0.080466
-19.4221 -10.6213 -1.38339
-16.7138 -10.6274 1.347
-18.0722 -11.3611 0.102679
-16.4623 -10.9508 1.58144
-17.3112 -12.0371 -0.423027
-18.1 -10.7046 -3.08052
-17.1784 -12.0566 -0.551096
-17.2148 -11.9133 -0.756729
-17.1343 -11.898 -0.932512
-17.145 -11.8172 -1.06379
-17.0461 -11.9749 -0.842343
-17.0769 -11.8443 -1.05678
-17.0602 -11.8582 -1.05871
-16.9329 -11.9728 -1.02398
-16.9224 -11.8655 -1.27228
-16.1935 -12.7254 -0.619479
-15.6793 -11.8725 -2.51701
-19.6606 -9.89679 -2.46354
-17.3028 -12.0079 -0.474339
-17.9867 -10.7884 -3.04138
-16.8166 -12.2408 0.0855551
-17.0499 -11.8812 -1.1098
-16.2438 -12.5234 -0.97438
-16.199 -12.5529 -0.878721
-15.8978 -11.7261 -2.54896
-15.5866 -12.09 -2.13181
-19.9606 -10.6917 -0.525904
-18.6326 -11.2313 0.741107
-19.3394 -11.0012 -0.758238
-16.2417 -11.0987 1.55087
-18.0374 -11.2726 -1.11876
-17.6239 -11.532 -1.45318
-17.2415 -11.9058 -0.709594
-17.3638 -11.2424 -1.88486
-16.331 -12.6266 -0.568897
-16.2199 -12.512 -0.96961
-16.1526 -12.5449 -1.03719
-16.0706 -12.6808 -0.843327
-19.5255 -10.3574 -1.78832
-15.8111 -11.3355 1.4536
-17.1035 -12.1074 -0.587877
-19.9126 -10.4341 -1.11587
-17.937 -11.62 -0.87384
-17.2065 -11.9048 -0.772872
-16.176 -12.0042 -1.92277
-19.964 -10.5786 -0.653877
-19.7708 -9.99591 -2.16196
-18.1694 -11.1786 -0.0809597
-16.4021 -10.8246 1.26832
-19.286 -10.4768 -1.87931
-17.6942 -11.6187 0.116861
-17.6501 -11.6203 0.00617554
-15.7928 -11.3522 1.43658
-17.7328 -11.8738 -0.612666
-18.7711 -10.6183 -2.37027
-17.1209 -12.0796 -0.541665
-18.1077 -11.1814 -2.20032
-18.2896 -10.7432 -2.79794
-17.2417 -11.6003 -1.75878
-15.9832 -12.5675 -1.14765
-16.4682 -11.4354 -2.24416
-15.6935 -12.9781 -1.23417
-18.228 -11.1845 -0.0178667
-16.2361 -11.0871 1.59205
-16.2057 -11.1169 1.58181
-17.9052 -11.638 -0.833244
-18.9326 -10.3915 -2.53181
-17.1758 -12.0623 -0.548623
-17.4866 -11.7501 -1.17833
-17.2024 -11.8722 -0.801385
-17.1205 -11.8982 -0.901589
-18.3042 -10.7064 -2.82153
-17.0656 -11.766 -1.25363
-18.1391 -10.7224 -3.06493
-16.9217 -11.8234 -1.36156
-20.0505 -10.5189 -0.684024
-19.5559 -10.8934 -0.623293
-16.1226 -10.9623 2.15814
-16.509 -10.9227 1.58449
-16.4819 -10.9329 1.57491
-19.7949 -9.96647 -1.99898
-18.1813 -11.2591 0.0793249
-16.4871 -10.7739 1.30475
-16.2586 -11.0492 1.52783
-17.599 -11.6404 -0.00936627
-17.3527 -11.8662 0.0720573
-15.8172 -11.3318 1.43148
-15.8337 -11.305 1.37922
-17.9676 -11.552 -0.948398
-17.4703 -11.7829 -1.17514
-17.0836 -11.9743 -0.819046
-18.4663 -10.4321 -3.05377
-16.3378 -12.6569 -0.566435
-16.0888 -12.6253 -0.927048
-16.1287 -12.5274 -1.04076
-16.0337 -12.1194 -1.94036
-15.718 -11.8842 -2.50817
-15.3374 -12.0888 -2.58666
-19.6776 -10.7553 -0.743539
-19.7321 -10.6212 -0.946045
-19.8115 -10.0688 -1.90345
-16.4923 -10.9373 1.58208
-18.3523 -11.0561 -0.0757887
-16.4936 -10.8971 1.53945
-16.4828 -10.8191 1.35667
-17.5277 -11.7539 0.169993
-17.2036 -12.0709 -0.47156
-16.1228 -12.6821 -0.88092
-20.3575 -10.5977 -0.11209
-19.7689 -10.6382 -0.766977
-17.8926 -11.6965 -0.778957
-16.5071 -12.6365 0.422299
-17.5544 -11.6483 -1.35202
-16.5565 -12.0571 -1.53359
-16.469 -12.6404 0.401389
-17.35 -11.8004 -1.01669
-15.7455 -13.0296 -1.1996
-15.2584 -13.0671 -1.38542
-16.1787 -12.2445 -1.61833
-16.4512 -10.9216 1.55962
-18.535 -10.9853 0.0437719
-16.4014 -10.8125 1.27849
-18.2134 -11.1865 0.0207179
-18.0422 -11.3674 0.101094
-18.1332 -11.1976 -0.0466496
-15.7922 -11.3502 1.46409
-19.4051 -10.5798 -1.48978
-19.7888 -10.109 -1.917
-19.8402 -10.0074 -1.98356
-19.4466 -10.3364 -1.87864
-16.8287 -12.2982 0.173065
-19.163 -10.3521 -2.29798
-16.3106 -12.6913 0.25324
-18.7329 -10.5326 -2.53764
-18.1289 -11.2719 -1.95751
-19.0905 -10.0238 -3.01419
-16.2412 -12.7814 -0.433306
-16.51 -12.0557 -1.48261
-17.8235 -10.9093 -3.04853
-16.0835 -12.1993 -1.73266
-16.0051 -11.6041 -2.60527
-15.6374 -11.9109 -2.5688
-18.7256 -11.0461 0.522836
-19.7506 -10.695 -0.807041
-16.2092 -11.1332 1.59436
-19.7625 -10.6021 -0.929913
-19.8631 -9.98604 -2.02388
-19.5201 -10.3202 -1.84849
-17.0063 -12.2085 0.320163
-19.5735 -10.0035 -2.36581
-17.2586 -12.0638 -0.411039
-17.3293 -11.9647 -0.569641
-19.4252 -9.88501 -2.71448
-19.0092 -10.4214 -2.36656
-17.112 -12.1036 -0.549796
-17.1886 -11.9482 -0.71113
-17.1139 -11.9201 -0.860198
-16.3106 -12.657 -0.577047
-16.3296 -12.6376 -0.627152
-18.3441 -10.7183 -2.80741
-18.2087 -10.8178 -2.70948
-16.2461 -11.4266 -2.62235
-16.5004 -10.9296 1.59378
-18.5702 -10.9243 -0.05926
-19.4922 -10.6752 -1.19357
-19.6791 -10.389 -1.54631
-19.5532 -10.3564 -1.74442
-16.9441 -12.1237 -0.533494
-16.2151 -12.6681 -0.701381
-18.5084 -10.3485 -3.17586
-18.5599 -10.9295 0.0403201
-16.2418 -11.0851 1.56962
-18.1082 -11.3183 0.0886174
-18.9973 -11.1038 -1.10359
