-17.5796 -12.4951 -0.439549
-18.0872 -11.5747 0.163865
-16.1816 -12.2452 -0.608962
-19.4266 -12.1564 0.896871
-17.0456 -12.1157 0.0124764
-16.5696 -12.4952 -0.550602
-17.9808 -12.3263 -0.261136
-18.6099 -11.5142 1.64627
-17.1862 -10.1699 1.73366
-19.1995 -11.127 -2.06767
-18.6117 -11.5534 -2.74262
-20.1123 -11.3174 -1.4441
-20.3333 -11.4569 -1.42898
-19.0201 -11.4674 -1.64064
-18.1595 -11.7803 -1.64486
-18.9427 -11.7967 -1.30346
-20.186 -12.0109 0.822692
-17.5002 -11.8374 -0.540161
-15.2436 -12.3481 -2.27684
-16.5209 -12.2076 -1.17816
-16.9679 -12.1445 -0.127016
-18.5953 -11.2871 0.962694
-19.288 -11.676 1.45863
-18.8346 -11.4691 -1.80196
-19.1472 -11.7601 -1.11453
-20.743 -11.7187 -0.544528
-16.7115 -11.4026 -2.16362
-17.875 -11.7694 -1.31223
-19.7673 -11.9937 0.872375
-17.6526 -12.2924 0.259886
-17.7499 -12.1516 0.620231
-18.8865 -11.8733 -2.02385
-18.732 -12.1231 -1.30249
-19.0012 -11.2603 0.0640937
-17.0923 -12.4145 0.0268165
-20.0663 -11.065 -0.758958
-19.0235 -11.7497 0.602175
-15.6562 -12.5529 -0.679578
-17.4923 -11.1519 -2.71748
-17.7779 -12.237 -1.66999
-16.9195 -11.5012 -1.72924
-16.3262 -11.7074 -1.72569
-17.7383 -12.1821 0.218982
-16.9986 -10.816 1.70434
-15.3265 -12.2949 -2.31773
-19.3282 -11.7617 -0.719306
-20.0569 -10.875 -2.16179
-19.8146 -11.3854 -1.43526
-19.6475 -11.4044 -1.42568
-20.2373 -11.5008 -0.394751
-20.152 -11.3918 -0.378276
-18.6872 -11.4615 -2.87921
-19.865 -11.3718 0.154059
-19.0254 -11.519 -2.16026
-18.5456 -11.2457 -1.99596
-19.6849 -12.4413 0.87106
-19.1997 -11.728 -0.930799
-18.5771 -11.3487 -1.80208
-18.6849 -11.2749 -2.18612
-19.2038 -12.1987 -0.873129
-19.328 -11.6313 -2.20471
-18.5656 -11.4867 -1.94357
-18.9194 -11.714 -1.88016
-18.0306 -11.7113 -2.71844
-19.4972 -12.3519 0.364576
-18.467 -11.785 -2.59022
-18.4157 -11.9342 -2.6746
-17.7543 -11.7756 -3.47376
-17.582 -11.8539 -2.84644
-17.4639 -12.2229 -3.50966
-18.2029 -11.2086 -1.32341
-17.6696 -11.5778 -1.47866
-18.5992 -11.4186 0.443762
-18.5756 -12.3962 0.0565765
-17.6319 -11.8845 -2.3653
-18.2932 -12.2851 -1.3194
-18.112 -12.2084 -0.998764
-18.0779 -11.8217 -0.650334
-17.4112 -12.2627 -1.03369
-17.6699 -11.7781 0.0178362
-17.7009 -12.6434 0.00131666
-17.4159 -12.0531 -1.08717
-17.3508 -11.7755 -0.164225
-16.6419 -12.1229 -1.3305
-17.1263 -11.7908 0.783017
-16.6826 -12.3913 -0.170064
-16.8701 -12.0772 -0.397908
-15.5935 -13.433 -0.780103
-15.835 -12.2732 -0.668121
-17.0148 -10.8211 1.18305
-16.8803 -10.6501 1.73541
-20.075 -10.8751 -2.1271
-20.5166 -11.1938 -0.283918
-20.6301 -11.3701 -0.141328
-19.8454 -11.3665 -2.07159
-20.5344 -12.0834 0.148838
-19.5522 -11.5134 -2.33442
-19.2163 -11.1387 -1.86645
-19.6739 -11.5751 -1.61965
-19.7521 -11.4363 -1.84875
-20.062 -11.6208 -0.0687868
-19.374 -11.3997 -2.39465
-19.8112 -11.6819 -0.306765
-19.2363 -11.2751 -2.03801
-19.5786 -11.7037 -1.61204
-20.7713 -11.7944 0.298251
-18.8733 -11.4447 -2.54236
-18.8984 -11.5522 -2.11205
-18.9871 -12.026 -2.30041
-19.6321 -11.9389 -1.6648
-19.0579 -11.7874 -0.935374
-18.3182 -11.6564 -1.84136
-18.4275 -11.8349 -2.39448
-18.8957 -11.3977 0.228638
-19.1097 -11.0837 -0.454465
-18.642 -12.2658 -1.68598
-19.1724 -11.9309 0.0370135
-18.6952 -12.3192 -0.290495
-17.7618 -11.6505 -2.36644
-18.2049 -11.7045 -0.813354
-17.819 -11.9722 -0.452245
-17.1473 -11.5458 -2.37887
-18.0053 -12.4389 -0.276912
-16.8442 -11.6155 -2.83738
-18.3884 -11.6352 0.823991
-18.385 -11.6774 1.79007
-16.5854 -11.7206 -1.38003
-16.8183 -12.6681 -0.387842
-16.9991 -11.9185 -0.556352
-16.5534 -12.1932 -1.83702
-16.8771 -12.2129 -0.323246
-15.5513 -12.5554 -2.06872
-15.7457 -12.6184 -0.411521
-15.5323 -13.1686 -0.572769
-15.9643 -13.1599 -0.693978
-16.921 -10.2445 1.4563
-16.1925 -10.8888 1.50132
-20.4602 -11.4633 -0.868645
-20.1937 -11.2612 -0.805061
-20.0255 -10.9102 -1.90485
-20.3916 -11.6809 -0.157868
-20.2005 -11.3821 -1.44294
-20.0012 -11.4825 0.113278
-20.7196 -11.5738 0.0999459
-20.289 -11.4581 -0.30458
-19.0433 -11.0421 -1.69036
-19.2322 -11.4039 -2.22022
-19.3401 -11.3864 -2.17633
-19.3578 -11.202 -1.87122
-19.945 -11.628 -0.893353
-19.5631 -11.5181 -1.91233
-19.0975 -11.3005 -2.52979
-20.0865 -11.8282 0.578041
-18.2454 -11.5961 -2.55138
-19.5762 -11.6329 -1.1784
-18.6018 -11.8108 -2.22244
-18.5992 -11.865 -2.01382
-18.6932 -11.9735 -1.35543
-18.7249 -11.9702 -1.73424
-19.3249 -11.4625 0.429621
-19.3973 -11.2678 0.280892
-18.8614 -12.2614 -0.694122
-18.199 -12.057 -0.528871
-18.4235 -11.6911 -0.118838
-17.4024 -11.2624 -2.29018
-17.0546 -11.8025 -1.15837
-16.6846 -11.6856 -2.07293
-17.7936 -12.5928 -0.541307
-17.3939 -11.8953 -1.80284
-17.6226 -12.5701 -0.508377
-17.3796 -11.9865 -0.564753
-17.382 -12.047 0.177668
-17.0175 -11.9414 -0.593517
-16.7179 -12.1977 -0.0288984
-17.1799 -12.0521 0.0321272
-16.8457 -11.9294 -0.276288
-16.1885 -12.0896 -1.12749
-15.0761 -12.272 -2.88136
-16.0243 -12.6903 -0.129604
-16.2617 -12.5542 -0.320038
-14.728 -13.3724 -2.87711
-19.797 -11.5867 -1.89563
-20.927 -11.1533 0.0902468
-20.2291 -11.4477 -0.959352
-19.541 -11.6835 -2.55103
-19.5293 -11.76 -1.89639
-18.5672 -11.5683 -2.20945
-18.9743 -11.6798 -1.9887
-19.4607 -11.3739 -0.360454
-19.3803 -11.6234 -0.823311
-18.907 -11.3454 -0.999799
-19.1371 -11.757 -0.750234
-18.9816 -11.6633 -1.11393
-18.0739 -11.7722 -2.47579
-19.758 -11.8339 0.215946
-18.7815 -11.6829 0.335776
-17.8696 -11.4238 -0.925671
-17.7885 -11.5684 -0.753
-17.0618 -10.9594 -2.19792
-17.6317 -12.2481 -1.07814
-17.2911 -11.6377 -2.47059
-16.7213 -12.0126 -2.07102
-17.9453 -11.7458 0.546215
-17.1136 -11.3538 -1.32434
-17.3828 -11.9926 -1.30601
-17.6591 -12.1349 0.0854139
-16.9501 -12.2912 -0.784487
-16.2877 -11.7844 -1.88841
-16.606 -12.2139 -1.39951
-16.2563 -12.6205 -1.10555
-16.6666 -12.0959 -0.72774
-15.2866 -12.4181 -1.20725
-15.9385 -13.1726 -0.85018
-20.4377 -11.3288 -0.470163
-20.4919 -11.6379 -0.106683
-19.8538 -11.8012 -1.01057
-19.884 -11.2526 -1.01314
-19.8739 -11.9117 -1.14542
-19.5251 -11.7059 -2.07932
-19.3544 -11.4653 -2.14738
-19.3645 -12.2652 -0.608689
-19.4608 -11.6139 -0.767572
-19.2003 -11.8001 -0.0773101
-18.569 -11.2724 -2.5376
-18.392 -11.6024 -1.87015
-18.1598 -11.4039 -2.82221
-18.7959 -11.8928 0.86069
-16.705 -12.0422 -2.211
-17.242 -11.5684 -1.55825
-17.1304 -11.9311 -1.4633
-17.4404 -12.4177 -1.11454
-17.482 -11.8051 -0.83511
-17.2029 -12.276 -0.899561
-17.6575 -11.6286 -0.83859
-16.1761 -12.7539 -0.836321
-15.1976 -12.3094 -2.45746
-15.0782 -12.1901 -1.91674
-16.4657 -12.6064 0.0246424
-15.4257 -12.6636 -1.16604
-20.3104 -11.531 -0.733818
-20.2357 -11.6113 -1.08384
-19.8198 -11.4352 -1.35744
-19.6668 -11.7718 -1.27583
-19.8995 -11.882 0.178227
-19.9686 -12.181 0.231679
-17.5937 -11.3998 -2.29012
-18.5207 -11.9329 -0.878451
-17.9101 -11.6542 -0.492284
-18.9285 -11.5966 0.966652
-17.7972 -11.8603 -1.47787
-17.4123 -11.9173 -0.790439
-17.7511 -12.5079 -0.633169
-16.7312 -11.9986 -0.317625
-15.6659 -12.5888 -0.95133
-19.9157 -11.5021 -2.12512
-20.1267 -11.6954 -1.31011
-19.9965 -11.1298 -2.7535
-18.8616 -11.4189 -0.769873
-17.3378 -11.794 -0.98473
-16.4875 -12.091 -1.64309
-15.1869 -12.377 -2.23043
-17.2406 -12.4529 0.00849098
-15.2646 -12.2924 -1.77621
-19.1103 -11.3481 0.381486
-18.2675 -11.6704 0.125646
-17.0497 -11.608 -1.7615
-17.0445 -12.0645 -0.201959
-18.6307 -11.7608 -0.56175
-17.7082 -11.5993 -2.00866
-19.217 -11.6894 0.376651
-16.3089 -11.9372 -1.94623
-17.918 -12.1117 -1.66052
-18.0067 -12.2157 -0.284107
-17.7242 -12.1299 -0.872567
-20.7829 -11.7926 0.00276016
-21.1275 -11.6392 0.283543
-19.8637 -11.8816 -0.595309
-20.4437 -11.7751 -0.53395
-20.4024 -11.4109 -0.36383
-20.1765 -11.3715 -0.218431
-19.4269 -11.1159 -1.21191
-18.7929 -11.4461 -0.0504093
-19.4901 -11.839 -1.11558
-18.5861 -12.1629 -1.69606
-18.3686 -11.6163 0.573753
-18.7341 -11.6258 -2.64387
-18.875 -12.2369 -2.33753
-18.2984 -12.4085 -0.0978446
-18.8167 -11.7476 -2.84845
-18.49 -11.7219 -2.88271
-18.4903 -12.0571 -2.71206
-18.5724 -11.101 -2.30476
-17.8633 -12.0707 -1.14576
-17.4686 -12.3051 -0.528517
-18.2696 -11.8099 -2.55634
-17.2466 -12.1838 -0.00742289
-17.7834 -12.0336 -2.68749
-17.547 -11.9701 -0.920054
-16.9085 -11.9881 0.734375
-17.0183 -12.6238 -0.299521
-15.574 -12.8744 -0.67451
-15.4179 -12.7578 -1.76514
-15.3191 -12.7431 -1.43915
-20.405 -11.6532 0.476832
-19.8833 -11.5415 -0.25319
-20.4089 -12.0392 0.636537
-20.3819 -11.8291 -0.371672
-20.3348 -11.179 -1.89191
-20.4523 -11.4558 -2.30747
-20.5169 -11.0868 -2.46348
-20.0017 -11.4624 -0.796372
-19.7255 -11.5826 -1.04718
-19.238 -11.6849 -1.63834
-19.0331 -11.8789 -0.688556
-19.6322 -11.3285 -1.94121
-19.1872 -11.7138 -0.959789
-18.9523 -11.3163 -0.18235
-18.6949 -11.9333 0.046429
-19.3388 -12.0767 -1.99076
-18.925 -11.6433 -1.60017
-19.2817 -11.4613 -2.82975
-19.122 -11.4973 -2.16606
-18.2767 -11.8451 -0.317759
-18.8265 -11.7075 -2.07721
-18.7581 -11.4939 -2.07486
-18.4879 -11.0389 -2.6023
-18.6622 -11.2613 -2.55706
-18.4647 -11.697 -2.1952
-17.928 -12.0937 -0.81169
-18.6481 -11.9356 -0.97854
-18.487 -12.054 -3.00403
-18.1296 -11.9233 -2.71403
-18.16 -11.9055 -2.66886
-17.9069 -11.8701 -2.93727
-17.3096 -12.3819 -0.265359
-18.1186 -12.0672 -3.26499
-17.3258 -12.3196 -0.36207
-17.3563 -11.5767 -1.80388
-16.9729 -12.2809 -0.575743
-17.0143 -11.9375 -0.875492
-17.0491 -11.2605 -2.22004
-16.2372 -12.5467 0.0438532
-15.9735 -12.5281 -0.779781
-15.9062 -12.2831 -0.760262
-15.0937 -12.2927 -2.96285
-20.8292 -11.2057 -0.0608197
-20.6974 -12.2793 -0.0480675
-20.6009 -11.582 0.176677
-20.6814 -11.6291 -0.588051
-20.2491 -11.2148 0.0287505
-19.9855 -11.6722 -0.238476
-20.2418 -12.1251 -0.127088
-20.2429 -11.9271 -0.0330598
-19.9814 -11.2925 -0.599606
-19.9109 -10.9633 -2.17359
-19.801 -11.4309 -1.21371
-19.7223 -11.1257 -2.25577
-19.7017 -11.3373 -2.73851
-19.5255 -11.9754 -1.07719
-19.0509 -11.4104 -1.19192
-19.6739 -11.3505 -2.06577
-19.3559 -11.4563 -1.4447
-19.3801 -12.0615 -1.71228
-18.952 -11.3996 -1.28557
-18.5427 -11.4842 0.965208
-18.8879 -11.4778 -2.68882
-18.1567 -11.7031 0.337484
-18.4199 -11.8296 -1.99083
-18.3884 -11.8882 -1.62703
-17.8488 -12.1793 -0.455606
-17.6479 -11.3563 -1.86393
-17.637 -12.2152 -0.0170234
-17.4339 -12.1416 -0.141057
-17.6413 -12.7484 -0.491569
-16.6719 -11.8122 -0.925652
-17.2508 -11.7271 -1.60606
-17.3443 -11.8628 -0.823471
-17.4408 -11.9887 -0.398562
-17.3579 -11.2325 -1.07876
-16.7608 -12.5846 -0.835972
-16.9271 -12.1894 -2.02922
-16.2283 -12.4827 -1.78795
-20.4307 -12.2728 1.01382
-20.2727 -11.7603 0.421854
-20.7127 -10.8008 -0.617164
-20.4937 -11.9669 -0.601555
-20.6975 -11.0662 -1.50744
-20.3789 -11.8184 0.321555
-19.8836 -11.8142 -0.0322353
-20.0422 -11.0137 -1.07904
-20.0054 -10.8051 -2.03194
-19.8632 -11.7327 -0.0143278
-19.9783 -11.426 -1.54832
-20.1943 -11.6742 -1.19167
-19.9174 -11.3017 -1.78188
-19.889 -11.0015 -2.37358
-19.5594 -11.7815 -0.416999
-19.7443 -12.4628 0.134683
-19.7792 -11.8128 -0.52395
-19.4816 -11.6079 -1.5927
-19.9753 -11.5385 -1.2915
-19.9745 -11.4596 -1.97568
-19.1681 -11.573 -2.09806
-19.2488 -11.6048 -1.30497
-18.846 -12.0107 -1.74974
-18.2919 -11.7825 -0.704681
-17.6322 -10.9905 1.70939
-17.6945 -11.9762 -0.757065
-17.488 -11.5154 -2.86031
-17.5364 -11.5754 -2.18285
-17.3795 -11.4259 -2.06415
-16.5158 -12.4255 -0.386814
-16.9568 -11.1577 -2.31323
-19.9481 -11.6535 -0.311674
-19.6907 -12.1017 0.510827
-19.8454 -11.9206 0.518632
-19.6515 -11.3744 -0.994928
-20.2108 -11.6519 -0.824432
-20.1268 -11.8794 -0.584005
-19.6353 -11.5068 -0.608835
-20.3212 -11.6627 -1.92494
-19.688 -11.4564 -1.78604
-19.2771 -11.8005 -1.46065
-19.8848 -12.0607 -1.38703
-19.2748 -12.1104 -1.30188
-18.4097 -11.5345 0.0374033
-18.8713 -11.4005 1.07894
-19.4239 -11.6171 -1.74554
-18.667 -11.4443 -2.21771
-17.6704 -12.1209 0.258336
-17.933 -12.2283 -1.38411
-17.3441 -11.8645 -0.778421
-17.1404 -12.2288 -0.915292
-17.6837 -12.2526 -0.79232
-17.3775 -11.6291 -1.62621
-17.3245 -12.1126 -1.53547
-16.8643 -11.9163 -0.98434
-16.7094 -12.4527 0.549067
-15.9889 -12.452 0.321608
-15.9044 -12.5132 -0.879928
-16.2535 -11.7455 -2.4043
-15.9188 -11.3571 1.55293
-20.8538 -11.2988 -0.488495
-20.3203 -11.8587 -0.422491
-19.8307 -11.7695 -0.318329
-20.327 -11.8391 -1.07859
-19.6612 -11.7007 0.149886
-19.4468 -11.7056 -0.887056
-19.8592 -11.6054 -0.679647
-19.2229 -11.7884 -1.3295
-18.5263 -11.6775 -0.0117909
-17.8588 -11.919 -1.03862
-17.9095 -12.2325 -1.1913
-17.5798 -12.1465 -1.06058
-16.8372 -10.5847 1.4141
-16.328 -12.2143 0.289631
-16.9571 -12.5823 -1.19581
-16.3193 -12.2898 -0.971908
-15.5144 -11.985 -2.22374
-19.4434 -11.8236 0.999131
-18.022 -11.2154 0.401038
-18.7408 -11.7856 -2.81568
-18.0833 -11.6859 -0.948581
-17.8308 -11.7573 -1.37283
-16.6876 -10.6747 1.20152
-16.2115 -11.8317 -2.29571
-20.4351 -11.2248 -0.49551
-17.4055 -11.8552 -0.94452
-19.1264 -11.01 -0.156876
-16.5596 -12.7767 -1.13944
-15.8173 -12.2685 -2.02368
-19.1459 -11.2432 0.311316
-18.6436 -11.666 0.158153
-18.2801 -11.3987 -0.335263
-17.1712 -11.7676 -2.01853
-17.7922 -12.0395 -1.80144
-16.4005 -11.513 -2.16681
-18.2475 -12.2422 -0.901521
-20.6428 -11.7468 0.678294
-21.1857 -11.5797 0.555822
-20.7573 -11.8766 0.29365
-20.3293 -11.7447 -0.386804
-20.0302 -11.7481 -0.681619
-19.7218 -11.7063 -0.790466
-20.1074 -11.3773 -1.05872
-19.8594 -11.5388 -0.969264
-19.0159 -12.1871 -0.130065
-19.8072 -12.0134 -0.525543
-20.0794 -11.5188 -0.956572
-19.645 -11.8334 -1.21322
-16.9586 -10.6528 2.13515
-19.8195 -11.4652 -1.4558
-19.7638 -11.9814 -1.09576
-20.4273 -11.1153 -1.50783
-20.2451 -11.0619 -1.66668
-20.2448 -11.5849 -1.12936
-20.1634 -11.4055 -1.50437
-20.571 -11.0498 -1.98978
-20.0462 -11.3098 -1.22828
-19.89 -11.7408 -1.22372
-20.1249 -11.2711 -1.39186
-20.1005 -11.1493 -1.85508
-19.5317 -11.0284 -1.31332
-19.9284 -11.3048 -2.05677
-20.4758 -10.9481 -2.03068
-20.623 -10.9576 -2.38125
-19.365 -11.8002 -0.890491
-19.8971 -11.3901 -1.53078
-19.6271 -11.6033 -1.30626
-19.2914 -11.4668 -1.77028
-18.2505 -11.77 -0.0754115
-19.3623 -11.9034 -1.418
-19.2405 -11.4195 -0.709109
-20.5417 -11.4066 -2.54722
-20.4666 -10.7496 -2.08031
-19.2211 -12.0394 -1.17984
-19.6692 -12.0888 -1.28353
-20.1881 -11.1252 -2.1549
-18.7144 -12.0929 -1.39192
-19.1518 -11.4684 -0.979144
-19.9589 -10.983 -2.62683
-19.126 -12.112 -1.78072
-19.415 -11.6466 -2.10953
-16.777 -12.1361 0.353809
-19.7955 -11.1784 -2.61841
-18.6008 -11.4545 -1.97988
-16.9902 -11.9798 -0.350844
-18.4507 -11.9775 -1.38481
-19.2109 -11.1845 -2.35453
-19.2443 -11.2881 -1.95641
-17.4152 -12.4596 -0.820391
-19.3559 -11.31 -2.38872
-18.8111 -11.3721 -2.68534
-19.3479 -11.0111 -2.64126
-16.8946 -12.4976 -0.63971
-18.7321 -11.9022 -1.41321
-19.4328 -11.5459 -2.51282
-19.0771 -11.6789 -1.88671
-19.1118 -12.2579 -2.68192
-18.2891 -12.0702 -1.94321
-19.1967 -11.5914 -1.72778
-18.8132 -11.5997 -2.4894
-16.7424 -11.7746 -0.770751
-19.4151 -11.1828 -2.71623
-16.9436 -11.9924 -0.66856
-18.2747 -11.8141 -1.96607
-18.3493 -11.855 -2.20506
-18.237 -11.0987 -2.17755
-20.4098 -11.8706 0.104999
-20.7842 -11.7391 0.0650993
-19.8106 -11.7432 -0.687369
-18.9057 -11.5269 1.36224
-19.7629 -12.1531 -0.771574
-20.2038 -11.5477 -1.18786
-19.4356 -11.5764 -1.10986
-20.0477 -11.7821 -1.03295
-20.2284 -11.4769 -1.42412
-19.8985 -11.7798 -0.622327
-20.1193 -10.8957 -1.82957
-20.0688 -11.5673 -0.987268
-20.3481 -10.7932 -1.02136
-20.6868 -11.2122 -1.88817
-20.2649 -11.5351 -1.64103
-19.6783 -11.4604 -1.79385
-19.7826 -11.5759 -1.52098
-18.2417 -12.0637 -0.0617714
-18.8919 -11.8233 -0.676269
-20.1458 -11.2542 -1.94045
-19.4946 -11.85 -1.68719
-19.8297 -11.5643 -1.10022
-18.3604 -12.0425 -0.560816
-19.3868 -11.7138 -1.21544
-18.2884 -11.7959 -0.0941628
-19.1778 -11.8489 -0.977937
-20.3767 -11.1067 -1.82575
-19.0348 -11.9804 -1.46307
-19.1282 -12.0444 -1.47419
-20.3623 -11.6399 -1.85744
-18.2538 -12.6229 -0.121615
-20.1504 -11.4191 -1.76813
-19.6793 -11.3317 -1.94818
-17.0447 -11.8147 0.518199
-17.258 -11.9344 -0.00752035
-18.2825 -12.2604 -0.461549
-19.4056 -11.1905 -2.31685
-17.8287 -12.3234 -0.882604
-17.3951 -12.0651 -0.512491
-19.5487 -11.2358 -2.78292
-18.3842 -11.9227 -1.6088
-18.813 -11.1101 -1.62096
-18.6602 -11.7167 -1.47708
-19.779 -11.4027 -2.71809
-19.2759 -11.3476 -2.36161
-18.8591 -11.7916 -2.0329
-19.5366 -11.4037 -2.5526
-18.5458 -11.9676 -1.66644
-18.9867 -11.7467 -1.76478
-18.9696 -11.7329 -2.32465
-19.2707 -10.8546 -2.21677
-16.4796 -12.3633 -0.799334
-17.0016 -11.6016 -0.34517
-18.7842 -11.6401 -1.77698
-16.2331 -12.534 -0.802203
-16.8997 -12.5082 -0.785802
-19.0018 -11.4051 -2.17456
-18.915 -11.4074 -2.93307
-19.0964 -11.042 -2.86378
-18.8773 -11.5357 -2.3332
-15.9264 -12.534 -0.202139
-18.1823 -11.4705 -2.70984
-18.4519 -11.5357 -2.93103
-19.9808 -11.7579 0.255972
-20.191 -11.874 0.115131
-20.8346 -11.7247 -0.135403
-21.3101 -11.5883 -0.174172
-20.53 -11.4602 -0.259273
-20.0479 -12.2995 -0.264017
-20.5589 -11.1768 -0.653486
-19.6013 -11.244 -0.539854
-18.0961 -10.9086 1.7038
-19.8487 -11.7638 0.128855
-19.9265 -11.5266 -1.0585
-19.329 -12.1616 -0.290612
-19.5368 -11.4032 -0.570128
-20.8541 -11.6428 -0.233587
-20.1745 -11.5237 -0.87582
-19.1625 -11.4705 -0.951958
-19.8503 -11.6284 -1.35471
-19.7742 -11.5784 -1.39417
-20.4564 -11.0988 -1.65055
-19.3059 -11.5555 -0.585486
-19.5841 -11.929 -0.952413
-20.3013 -10.8128 -2.10197
-18.9852 -11.55 -1.69072
-18.9674 -11.5418 -1.65544
-18.0417 -12.4745 -0.0308492
-18.2787 -11.5439 -0.381789
-18.0928 -12.2847 -0.581608
-19.7359 -11.5358 -1.3268
-18.3193 -11.8126 -0.841847
-19.6844 -11.2668 -1.71028
-17.7881 -11.9169 -0.533647
-19.3617 -11.8211 -1.28529
-17.3509 -12.1952 0.0803994
-17.3384 -12.1574 -0.0145535
-17.5415 -12.1365 -0.416017
-18.9782 -11.7096 -2.07852
-19.2712 -11.6175 -2.03152
-19.5691 -11.1429 -2.41499
-18.2416 -11.8692 -1.94914
-19.0794 -11.5178 -2.70095
-19.3915 -11.383 -2.92465
-17.065 -11.2697 -0.949792
-18.3469 -11.9005 -1.91892
-18.2059 -11.6067 -2.85023
-15.9931 -12.5073 -0.739885
-18.3856 -11.8156 -2.73316
-18.0714 -11.3954 -2.31047
-18.3634 -11.3518 -2.38148
-17.9228 -11.9766 -2.48499
-15.6788 -12.3487 -0.537897
-17.8255 -11.9166 -2.39446
-17.8146 -11.9513 -2.65189
-16.6575 -11.5115 -2.35776
-19.9461 -12.1346 0.453208
-20.2133 -11.5058 0.372097
-20.7786 -11.7437 -0.0411561
-19.9786 -11.656 0.145094
-18.9473 -11.5067 0.750801
-19.697 -11.7574 -0.143305
-20.0038 -11.3962 -0.363949
-19.2796 -12.148 -0.0852427
-20.4838 -11.3793 -1.0093
-20.0331 -11.7844 -0.948165
-19.4656 -12.1557 -0.484647
-18.7664 -11.7837 -0.203808
-16.3763 -10.5276 1.68342
-18.8858 -11.6689 -0.479072
-20.0846 -11.6315 -1.91744
-19.1593 -11.4445 -0.724184
-19.2716 -11.9813 -1.09198
-19.3228 -11.57 -1.6796
-18.5613 -11.8347 -1.39118
-19.2169 -11.7404 -1.23572
-18.8899 -12.0006 -1.44543
-18.9679 -12.125 -1.14383
-19.641 -11.6588 -1.72083
-19.5769 -11.0452 -2.72776
-19.4545 -11.2006 -1.98937
-18.4233 -11.8947 -0.962488
-18.5985 -11.8304 -2.16572
-18.7613 -11.7612 -1.43209
-18.2602 -12.0852 -1.6186
-18.0524 -11.7113 -1.55012
-18.128 -12.153 -1.502
-17.3351 -12.0318 -1.08855
-19.1096 -11.0959 -2.18117
-19.2335 -11.3147 -2.79338
-17.0077 -11.1924 -2.09847
-15.8317 -12.7613 -0.67693
-16.7852 -10.9062 -2.75802
-16.7174 -11.3749 -2.84125
-16.2837 -11.4917 -2.92174
-15.9309 -12.1035 -2.70841
-18.8259 -11.348 0.755582
-19.7166 -12.5935 0.0144119
-20.525 -11.8117 -0.894888
-18.5713 -11.6914 0.800228
-19.8231 -11.1811 -1.57
-17.4212 -10.3556 1.32528
-18.3952 -12.2089 0.0273016
-19.7226 -11.0213 -1.8543
-17.0726 -12.0905 0.0617058
-17.8419 -11.8391 0.108461
-17.928 -12.1 -0.781302
-18.6834 -11.853 -1.11999
-19.1462 -11.3883 -1.96018
-17.2811 -12.344 -0.162757
-17.9486 -11.9891 -0.463891
-18.535 -11.3958 -2.23147
-19.1972 -11.598 -2.31661
-17.3216 -11.974 -0.303478
-16.6442 -12.1926 -0.452844
-18.4665 -11.7334 -2.21845
-16.9816 -11.9865 -0.776232
-18.6652 -11.7179 -2.43719
-17.0999 -11.1544 -1.49616
-18.9997 -11.8483 -2.5386
-16.4184 -11.8125 -2.69577
-20.0524 -11.7486 0.808774
-20.6443 -11.4654 0.0997515
-21.1444 -11.4144 -0.119873
-20.2162 -11.8517 0.223036
-20.4471 -11.2267 -1.45826
-16.448 -10.4739 2.23257
-16.3419 -10.767 1.6177
-19.271 -10.9515 -1.71317
-16.1228 -10.9015 1.31865
-18.7379 -11.3283 -2.74153
-17.5142 -12.2718 -0.518432
-18.6637 -11.0035 -2.57192
-18.5065 -11.9045 -2.44273
-16.4522 -11.3867 -2.27662
-16.0536 -11.0931 -2.69719
-18.8375 -11.5106 1.00802
-19.6411 -11.8645 0.52877
-20.1294 -11.5416 -1.05983
-20.5169 -11.1964 -1.26768
-19.6455 -11.2491 -1.69264
-17.1099 -12.3362 -0.0809041
-19.6256 -11.3467 -1.91873
-19.3127 -12.1221 -1.28636
-18.5589 -12.2373 -0.336828
-16.6768 -12.5615 0.242488
-17.4878 -12.328 -0.936901
-17.0875 -12.4557 -0.368332
-16.4286 -11.8489 -1.30946
-16.9663 -11.742 -1.85701
-18.6834 -11.3115 0.332137
-19.6307 -11.8232 -1.02826
-19.9443 -11.3262 -1.38398
-19.9947 -11.7859 -1.37708
-17.6541 -12.1329 -0.333885
-17.9554 -12.2085 -0.716834
-17.9778 -11.808 -0.626142
-17.2445 -11.4253 -2.51423
-19.7487 -11.4116 -1.41664
-18.0222 -11.8151 -0.803523
-18.5237 -11.7033 0.710496
-17.6987 -12.0735 0.0644107
-18.8713 -11.3987 -0.580383
-17.358 -11.1333 -2.64036
-17.5318 -11.6632 -1.69518
-19.9276 -10.9415 -2.5258
-19.5726 -11.4681 -2.77805
-19.0459 -11.7703 -2.68805
-19.5428 -11.2572 -2.12276
-19.305 -11.1614 -2.44689
-18.8972 -11.961 -1.74762
-19.4852 -11.3401 -2.00521
-19.3051 -11.9506 -2.1772
-19.9955 -11.2746 -1.80498
-19.4396 -11.1257 -1.67316
-18.4903 -11.9608 -1.13883
-18.9501 -11.7635 -1.4281
-19.0798 -12.0606 -1.4218
-19.6654 -11.4941 -1.3036
-20.4866 -11.146 -1.37492
-20.2672 -11.1463 -1.78153
-19.8158 -11.3367 -2.35967
-19.5869 -11.6466 -1.48771
-19.7934 -11.0707 -1.4087
-18.7783 -12.0457 -1.26876
-19.0474 -12.2106 -1.29965
-19.0767 -11.4851 -1.44682
-19.6284 -11.7413 -1.48514
-19.764 -11.4724 -1.2255
-20.0712 -11.5429 -1.84457
-17.3316 -11.582 -0.39083
-20.0033 -11.5608 -1.06213
-16.3021 -12.1637 -0.622221
-17.5598 -12.2949 -0.617433
-20.1739 -11.6214 -1.49249
-19.9187 -11.3771 -0.715644
-19.2677 -11.4758 -0.759875
-19.9735 -11.7319 -1.15906
-20.0106 -11.3177 -1.48719
-19.8179 -11.7491 -1.1618
-20.2454 -11.2458 -0.953576
-19.5465 -11.7121 -1.03457
-20.2369 -11.1275 -0.644035
-20.3745 -11.8067 -0.695981
-16.2794 -12.1376 -0.376396
-20.919 -11.3182 -1.02266
-19.5701 -11.8377 -1.24858
-16.942 -11.8389 -0.673144
-18.8351 -12.1749 -0.325337
-18.6901 -12.0183 0.0322421
-19.8834 -11.425 -0.355041
-20.1533 -11.2672 -0.302162
-19.9933 -11.6171 -0.126773
-19.8848 -11.6888 -0.0576911
-19.9875 -11.7016 -0.38201
-19.9012 -11.9852 -0.398619
-19.8086 -11.3699 -0.788557
-20.0907 -11.8591 -0.124812
-20.5563 -11.3129 -0.062303
-20.3862 -11.9612 0.391536
-19.2173 -11.5642 0.388979
-19.7462 -11.9992 0.368585
-20.1268 -11.5682 0.0537173
-20.496 -11.8144 -0.103846
-17.7102 -12.0632 0.503043
-20.3275 -11.1274 0.0464071
-18.9904 -11.5855 0.220327
-20.4369 -11.7817 -0.188322
-19.7646 -12.1239 0.478043
-16.2516 -10.6431 1.23842
-18.5344 -11.7682 -3.16417
-16.1205 -11.4792 -2.72525
-19.6545 -10.8697 -2.74189
-18.5463 -11.4094 -2.34402
-18.3777 -11.8585 -1.83614
-19.809 -11.6379 -2.29873
-18.6535 -11.738 -2.1226
-18.8889 -11.9274 -1.29084
-20.0685 -11.7761 -1.46126
-19.9091 -11.5955 -1.50207
-19.567 -11.2617 -1.31212
-19.4408 -11.5883 -1.15544
-19.9429 -11.4837 -1.50776
-19.597 -12.2177 -1.22414
-16.9278 -11.8784 -0.551265
-16.6705 -11.9577 -0.520312
-16.9885 -12.0357 -0.512245
-20.1884 -11.6268 -0.210379
-19.4763 -11.5736 -0.233745
-20.7232 -11.6237 -0.148781
-18.25 -12.0365 0.144189
-16.1403 -12.5344 0.220421
-20.4749 -11.648 0.18773
-18.8152 -11.43 0.256413
-19.8888 -12.0211 0.496904
-20.4353 -11.5428 0.367166
-20.4017 -11.7773 0.119367
-20.9286 -11.7145 0.384872
-20.3773 -11.6007 1.12117
-17.6252 -10.5347 1.68127
-16.5191 -10.295 2.00082
-16.1277 -11.9694 -2.1709
-18.2332 -11.4966 -2.60421
-19.4966 -11.6164 -2.82003
-16.7957 -11.4721 -2.53309
-20.1017 -11.0826 -2.13405
-19.12 -11.4272 -1.77769
-18.4174 -11.495 -1.88043
-17.8557 -11.556 -1.78559
-18.53 -11.9703 -1.5049
-16.5921 -11.9883 -0.805722
-20.0608 -11.1077 -1.60183
-17.3878 -11.8208 -0.94403
-19.0597 -11.5465 -1.17319
-16.8327 -12.5598 -0.623148
-19.4803 -11.8811 -1.26293
-18.8846 -12.1762 -0.581994
-19.1132 -11.9013 -0.88455
-17.163 -12.07 0.0750097
-17.3238 -12.227 -0.272579
-17.3847 -12.4796 -0.204349
-20.1868 -11.8938 0.368304
-20.2417 -11.4877 -0.405122
-19.887 -11.5524 0.0333229
-16.625 -11.9653 0.110841
-20.6092 -11.9075 0.651391
-18.9184 -11.6358 1.05637
-17.3871 -10.6564 1.73692
-17.8013 -11.9921 -2.41923
-17.6329 -11.8183 -1.19861
-18.8316 -11.9528 -1.73376
-20.5704 -11.3745 -1.42735
-19.1618 -11.5041 -1.66548
-19.0416 -11.5065 -1.03383
-17.4572 -12.1772 -1.152
-19.3932 -11.5828 -1.2045
-19.4967 -11.5318 -1.80624
-18.9446 -11.8682 -1.44039
-17.1676 -12.3004 0.0558613
-16.9963 -12.8125 -0.257523
-19.6291 -11.8475 -0.24889
-19.8 -11.9259 -0.0145044
-19.3337 -12.0529 -0.050229
-19.1929 -11.4195 -0.00334095
-19.3202 -12.4358 -0.27798
-19.4443 -12.4954 0.449087
-19.9544 -11.9951 0.72369
-20.2687 -12.2135 0.482238
-20.3061 -11.5762 0.41248
-18.6678 -11.5245 1.02601
-18.086 -10.58 1.63648
-19.1256 -11.6353 -2.52453
-16.233 -12.2134 -2.51401
-19.0288 -11.5621 -1.77398
-18.591 -11.8389 -1.5594
-19.1374 -11.6207 -1.23474
-17.7114 -11.9765 -1.1205
-18.0862 -11.9296 -1.0174
-17.2021 -11.9925 0.265015
-20.3232 -12.0039 -0.533026
-17.6216 -12.651 -0.10355
-17.7831 -12.5391 -0.214597
-16.4839 -12.5326 0.424611
-18.9756 -11.4762 -0.0221946
-18.9058 -11.3384 0.376914
-20.057 -12.0753 -0.0563964
-16.6806 -11.0668 1.42596
-17.2308 -10.5811 1.25729
-19.2543 -11.5425 -2.12081
-18.5095 -11.8156 -2.12436
-17.3416 -11.5994 -1.46469
-19.3316 -11.817 -1.18432
-17.5655 -12.083 -1.28029
-19.3292 -11.9795 -0.548272
-19.0682 -12.3322 0.0835412
-18.6364 -11.6176 1.23509
-18.7863 -10.937 0.0759783
-17.3132 -12.2326 0.103382
-19.9324 -12.0386 -0.0590394
-18.3701 -11.707 -1.22169
-19.3481 -11.5231 -1.07005
-16.803 -12.4477 0.311513
-18.8251 -11.3668 0.439037
-19.4002 -11.6424 1.13305
-19.5335 -11.6218 -1.25537
-16.9534 -12.0843 -0.558998
-18.7565 -11.2443 0.247106
-18.6987 -11.8345 -0.171634
-16.3285 -12.3934 -1.51084
-17.1201 -12.4349 -1.23705
-18.4427 -12.0218 -0.276471
-16.9159 -10.6485 1.25013
-17.9327 -11.6817 -1.44151
-19.4766 -11.8712 -0.494435
-19.6822 -11.334 -1.83106
-19.4778 -11.3423 -1.24511
-19.0624 -11.92 -1.73712
-19.8695 -11.5986 -1.38665
-19.8969 -11.4281 -0.840119
-20.9392 -10.9958 -0.718514
-20.0054 -11.5766 -1.13931
-19.4355 -11.8122 -0.743656
-18.8226 -11.8284 -0.910643
-19.425 -11.9095 -1.46656
-18.4685 -11.0539 -0.69177
-19.4633 -11.8312 -0.742054
-19.5673 -11.5505 -0.488552
-20.3009 -11.8347 -0.200366
-19.9548 -12.0157 -0.12152
-19.5184 -11.9394 -0.392315
-19.6677 -11.6353 -0.18943
-20.8696 -11.5112 0.607164
-20.1581 -11.7779 -0.246664
-18.4964 -11.9571 -0.197528
-18.3454 -11.8803 -0.690582
-17.3821 -12.2486 -1.37914
-21.0458 -11.3338 0.374076
-19.2171 -11.9621 -0.238366
-20.437 -11.5676 0.571927
-19.8401 -11.9895 0.255247
-20.5424 -11.9813 0.419524
-16.8634 -12.1799 -0.695242
-17.0741 -12.4651 -0.0826796
-16.1165 -12.8825 -1.21213
-16.5614 -12.1422 0.0347838
-16.4698 -11.9776 -0.48168
-17.0714 -12.2191 -0.332246
-15.7873 -12.4446 -0.754268
-18.1627 -11.8902 0.909876
-18.4713 -11.5213 -3.02242
-19.1415 -11.2893 -2.13341
-19.9157 -11.038 -1.73585
-18.0853 -11.3605 -2.68082
-20.3604 -11.5411 -1.73014
-20.9727 -11.0503 -0.483249
-18.6899 -11.8801 -1.25819
-18.858 -12.1658 -1.55166
-20.2607 -11.3106 -0.952461
-20.3539 -11.3081 -0.261306
-19.4381 -11.7645 -0.837969
-16.8468 -12.5047 -1.46061
-20.1551 -11.8663 -0.537393
-18.3431 -11.558 -0.454394
-20.1529 -11.3774 -0.174967
-16.7583 -11.9964 -1.11392
-17.6292 -12.2282 -0.693512
-17.1376 -11.9632 -0.620767
-16.7961 -12.1458 -0.627832
-16.9295 -12.6221 -0.58925
-19.6551 -11.7816 0.16427
-17.0896 -12.3364 -0.306392
-20.6021 -11.8197 0.611839
-19.6767 -12.0927 0.553307
-16.3365 -12.5051 -1.27945
-19.7831 -11.8427 0.489877
-17.4039 -12.4045 -0.0548969
-16.7404 -11.9105 -0.599091
-17.7454 -11.9577 -0.550776
-16.9609 -12.2497 -0.522125
-20.0191 -12.2851 0.590849
-15.5917 -12.6624 -0.777159
-17.4551 -12.3093 0.0581599
-19.8968 -11.8839 1.57849
-16.5198 -12.3358 -0.163893
-19.6877 -12.3426 1.4586
-16.272 -12.5089 0.442175
-18.3957 -11.1936 -2.74679
-19.0822 -11.6869 -2.42993
-19.2477 -11.8485 -2.49085
-18.4664 -11.7282 -2.25454
-18.4416 -11.5032 -1.56361
-20.435 -11.4029 -1.48087
-20.2302 -11.5313 -1.42687
-17.1063 -11.6255 -1.97773
-18.8691 -11.7566 -1.92946
-18.7375 -12.2113 -1.15229
-20.0388 -11.6131 -0.806547
-21.0714 -11.7023 -0.137701
-19.6285 -11.7562 -0.485359
-20.3555 -11.6663 0.34001
-17.2024 -11.8339 -1.32772
-18.9728 -12.4054 -0.552454
-19.2638 -11.0821 -0.467662
-16.6195 -12.3383 -0.871893
-16.8927 -12.4574 -0.844906
-17.5502 -12.015 -0.139235
-18.0381 -11.8657 0.174131
-16.7529 -12.2771 0.156988
-18.2994 -12.1318 0.79296
-16.3344 -12.5655 -0.0913068
-17.4662 -11.077 1.26377
-17.8469 -10.589 0.609626
-17.2345 -10.6449 1.88849
-16.3423 -11.4099 2.19849
-18.6887 -11.3948 -2.62907
-19.4052 -11.4495 -2.21896
-18.8612 -11.9987 -2.48746
-19.2912 -11.6748 -1.96411
-18.4661 -11.7609 -2.17734
-18.7121 -10.9267 -0.877707
-20.9012 -11.5833 -0.485537
-17.4361 -12.2484 -0.757053
-20.0177 -12.2996 0.00687438
-20.818 -12.2201 0.400456
-20.5834 -11.571 0.390265
-16.923 -12.044 -0.190031
-16.7113 -12.1807 -0.59843
-18.7776 -12.3703 -2.7994
-17.9937 -11.6904 -2.75084
-17.968 -11.5454 -2.65205
-18.7952 -11.6511 -1.39862
-20.7421 -11.0249 -0.0345636
-15.9896 -11.8635 -2.56636
-17.7187 -12.0094 -1.41788
-19.6945 -12.4445 0.367295
-19.7701 -11.9908 0.608904
-20.0382 -11.7236 0.62672
-17.6865 -11.99 0.601783
-20.0419 -10.9799 -2.53393
-17.4084 -11.311 -2.33555
-17.0026 -12.3171 -1.26345
-16.5378 -12.2865 -1.21986
-16.803 -11.9621 -1.03613
-20.3887 -11.8613 0.601351
-17.0261 -12.253 -0.0243704
-16.8773 -11.7625 -2.10752
-18.7183 -11.3441 -1.31525
-19.1131 -12.0513 0.107815
-19.8334 -11.513 1.16806
-19.1061 -11.1828 -0.776588
-17.1959 -12.0298 -0.366048
-18.0614 -12.0192 0.297539
-17.5658 -11.8618 -0.670767
-17.2566 -11.6465 -0.553379
-17.6026 -12.6345 -0.12523
-18.7479 -11.7683 1.33862
-19.1873 -11.8532 0.0668307
-19.164 -11.8693 -0.755518
-18.8331 -11.3788 0.0784091
-18.1077 -11.91 -0.875586
-18.2169 -11.6548 0.655826
-17.5909 -11.8652 -1.15133
-18.6031 -11.5708 1.02104
-16.8902 -11.7933 -0.511265
-17.4786 -12.3202 -0.23209
-19.4815 -11.3767 -1.69566
-18.8389 -11.4268 -1.07614
-20.2001 -11.6274 -0.386174
-19.0751 -11.9691 -1.65869
-19.4446 -11.9095 -0.361049
-16.0736 -11.7962 -2.8402
-17.2411 -12.2913 -0.371439
-16.6658 -12.1082 -0.363973
-17.3795 -12.414 -0.00233786
-16.7261 -12.2845 0.0388413
-15.7631 -12.8066 -0.926919
-17.5322 -10.6746 1.25541
-20.0183 -11.3161 -1.9955
-19.7044 -11.8714 -1.44488
-20.613 -11.6487 0.131662
-19.339 -11.9043 -1.29874
-20.3898 -12.053 0.186672
-20.7245 -11.6472 0.232342
-18.0046 -11.7338 -1.19343
-17.5792 -11.8873 -0.604224
-19.2442 -11.2464 0.905017
-17.2258 -12.2806 -0.69259
-17.457 -12.2585 -0.849256
-17.846 -12.052 -0.217903
-18.7766 -12.1491 1.22124
-17.2654 -12.1624 -0.477292
-16.9054 -11.9666 -0.342562
-16.3938 -11.7252 -0.0656674
-20.8923 -11.7493 0.60639
-17.9218 -11.2966 -2.66977
-18.8876 -11.9211 -1.42405
-19.5451 -11.9073 -0.24769
-19.6866 -11.6729 0.522691
-18.7013 -12.2442 -0.22523
-17.3241 -11.6509 -1.27819
-17.0754 -11.6611 -1.06104
-16.8891 -11.6825 -1.16294
-18.4313 -11.5378 0.331391
-17.1542 -11.9787 -0.571905
-17.1251 -12.3469 -0.129993
-16.6901 -11.9835 0.0911942
-16.2823 -12.6199 -1.35551
-20.6346 -11.4916 -1.35887
-18.683 -11.6063 -1.78348
-18.8856 -11.7641 -2.08472
-19.1219 -10.9878 -0.932477
-19.0863 -11.9169 -0.223112
-17.3107 -11.3631 -2.01354
-17.8687 -11.4824 -0.633732
-16.762 -12.267 -0.89096
-19.6311 -11.6182 -1.24701
-17.0725 -11.8578 -2.35658
-18.8945 -11.7475 0.153902
-16.559 -12.3957 0.397571
-18.5482 -11.8063 -2.66138
-18.6252 -11.4178 -2.48255
-18.0883 -11.7028 -1.86538
-19.0074 -11.5607 0.128918
-16.3363 -12.4262 -1.30837
-16.6972 -12.4333 -0.158634
-17.9025 -11.4125 -2.28768
-16.8961 -12.4889 -1.38456
-16.8109 -11.3817 -1.82063
-17.5982 -11.856 -1.4095
-19.0352 -11.6953 -1.30844
-18.4619 -11.8863 -0.443822
-18.327 -11.0117 -0.597986
-20.2019 -10.8297 -2.07134
-19.9846 -11.0528 -2.2675
-19.9486 -10.9478 -2.13886
-19.1928 -11.592 -1.27623
-18.122 -12.3957 -0.369478
-18.0929 -11.6758 -0.345621
-17.4297 -11.7397 0.020941
-17.0205 -11.8011 -1.47146
-17.3829 -12.2543 0.124273
-15.9983 -12.04 -2.26261
-20.1181 -11.9208 -1.44379
-19.5943 -11.4527 -2.58632
-19.7922 -12.0076 0.0949255
-18.7661 -11.5364 -2.52105
-19.1477 -11.791 -1.84015
-18.926 -11.4972 -1.96634
-19.1237 -11.8919 -0.0623202
-18.6822 -11.6806 -1.26702
-18.6546 -11.477 -1.3177
-18.688 -11.7839 -2.9647
-17.3243 -11.4833 -2.67966
-18.2089 -11.293 -1.34043
-17.6727 -12.0348 -2.68025
-18.5295 -12.2465 -0.580989
-17.2348 -11.7424 -1.49079
-17.9841 -12.1818 0.278653
-16.74 -11.8728 -1.67361
-16.5739 -11.92 -1.4323
-16.8716 -11.8349 -2.48339
-17.0627 -12.44 -0.009825
-16.5681 -12.5144 -1.85312
-17.585 -10.8775 1.91968
-17.5717 -10.1394 1.23843
-16.601 -12.2626 -1.82287
-15.9645 -12.2907 -0.987027
-15.8194 -13.1716 -0.805886
-14.1004 -13.0957 -2.36088
-19.9918 -11.531 -1.9768
-19.4118 -10.8591 -2.77559
-20.2738 -11.8552 -0.715571
-20.2769 -11.4623 0.275559
-19.571 -11.9313 -0.427503
-19.2257 -11.6709 -1.15382
-18.827 -11.8876 -2.8628
-19.3881 -12.0568 -0.854272
-19.9197 -12.0158 0.641822
-19.2321 -11.6892 -1.44177
-19.1911 -11.9885 -1.48344
-19.0176 -11.7998 -0.793627
-18.2001 -12.1454 -1.6044
-17.9554 -12.3051 -0.00732191
-17.2719 -11.2704 -2.23709
-17.1975 -12.3719 -1.43244
-16.2508 -12.7275 -1.22737
-17.0009 -12.5597 -0.499715
-16.4381 -11.6001 -1.83619
-16.2968 -12.0505 -1.58412
-16.0969 -12.5975 -0.720448
-16.2107 -12.0952 -1.12086
-16.3575 -12.5013 -0.536443
-16.3763 -12.6087 -0.198491
-20.4423 -11.3677 -0.58933
-20.5721 -11.2091 -0.324394
-19.626 -11.3954 -1.56389
-20.2283 -11.6223 0.118505
-19.3967 -11.225 -1.34678
-19.9636 -11.7136 -1.106
-18.717 -11.5412 -2.80129
-18.8715 -11.7261 -2.30213
-19.4318 -12.2409 -2.03559
-19.0291 -11.9563 -1.00884
-19.8207 -12.1476 0.455951
-19.1879 -12.1906 -0.227878
-18.4051 -12.0886 -0.448393
-17.1596 -11.9795 -0.823733
-17.231 -13.0728 -1.81559
-17.5558 -12.0795 -0.80754
-17.0933 -11.8836 -0.253184
-17.2672 -12.5723 -0.0592999
-16.1527 -11.932 -1.28181
-16.2583 -12.6001 -1.02969
-20.3685 -10.9645 -0.887429
-19.8299 -11.2541 -1.55048
-18.9514 -11.4072 -1.11896
-19.6974 -12.1645 -0.369312
-18.4977 -11.5597 -1.35836
-17.9733 -11.8256 -1.69691
-17.005 -12.1793 -1.0629
-16.646 -12.5421 -0.781974
-16.0609 -12.6023 -1.05442
-16.4941 -12.517 -1.29127
-16.4721 -12.6999 0.201383
-15.5492 -12.0867 -2.30515
-15.8114 -12.4105 -0.700549
-18.7473 -11.2575 -2.26507
-19.037 -12.1276 -1.50428
-17.0561 -11.2391 -1.30773
-16.5043 -10.7871 2.47383
-19.5629 -10.8002 -1.64555
-20.3593 -11.2007 -2.23638
-17.6227 -11.6512 -2.85307
-16.1647 -11.7809 -2.14637
-16.8585 -12.0746 -1.39459
-16.6808 -12.1009 0.231297
-17.932 -12.0748 -1.28928
-18.2125 -12.1395 -1.02804
-20.5748 -11.8659 -0.672181
-20.3512 -11.5082 -2.25848
-19.9483 -11.3833 -0.618429
-19.2833 -11.4581 -1.64453
-18.7417 -11.5441 -2.56973
-19.0783 -11.7714 -1.34272
-18.5859 -11.0517 0.591615
-18.7932 -11.3447 0.534587
-18.4997 -11.657 -2.24602
-19.0426 -11.4277 -2.53461
-17.4361 -11.7847 -0.928795
-17.4731 -10.7619 1.81246
-17.4116 -10.4063 1.38395
-17.3748 -11.5592 -2.32232
-16.5976 -11.5746 -0.465102
-20.6391 -11.1741 -0.080621
-20.1293 -10.7949 -2.46749
-20.0533 -11.1008 -2.50086
-20.324 -11.0927 -2.09049
-19.9378 -10.9918 -2.57355
-19.9843 -11.6509 -0.956073
-19.919 -11.423 -1.46232
-19.9054 -11.1867 -1.36698
-19.721 -11.5298 -1.51299
-19.9066 -11.1748 -2.59962
-19.3698 -11.6046 -0.783317
-19.5452 -11.3856 -2.01074
-19.49 -11.9675 -1.63551
-18.9402 -11.8252 -0.471616
-19.1481 -11.8105 -2.22774
-19.5369 -11.2565 -2.27338
-19.2856 -11.4946 -1.11117
-18.5513 -11.6195 -0.0594516
-19.3678 -11.8577 -1.52592
-18.918 -11.0784 -1.77227
-19.0187 -11.0241 -2.10535
-18.4982 -12.071 -2.63174
-18.0228 -12.0329 -0.644824
-18.2278 -12.1104 -1.04132
-18.1229 -12.0027 -1.1451
-17.0762 -12.2356 -0.966352
-17.3237 -12.3301 -0.404558
-17.3918 -11.735 -2.1811
-17.4521 -11.8881 -0.706032
-17.3489 -11.8583 -0.834139
-17.2472 -12.043 -1.07138
-15.4739 -12.7234 -2.15433
-16.0373 -12.8683 -1.68423
-21.0281 -11.9283 0.160138
-20.6032 -11.8172 0.89073
-20.886 -11.1183 -1.45942
-20.187 -11.6746 -0.292303
-19.6787 -10.7729 -2.22443
-19.7276 -11.6688 -2.58354
-19.6395 -10.7951 -2.77129
-19.5878 -11.9242 -0.302246
-19.7314 -11.1527 -2.40331
-19.0053 -11.9961 -1.18517
-19.1601 -11.5255 0.801544
-19.0775 -11.7789 -2.03517
-18.7846 -11.3698 1.11917
-18.9369 -11.1828 -1.85279
-18.6839 -11.5064 -1.52136
-18.3342 -11.6505 -0.709872
-18.2813 -11.5912 -2.63394
-18.3751 -11.8793 -3.07498
-17.8934 -12.1134 -0.589061
-18.0191 -11.6573 -1.02475
-18.054 -11.6597 -1.03659
-17.2859 -10.4814 1.53455
-17.2205 -12.0951 0.315424
-17.2123 -11.6715 -1.81194
-17.2599 -11.8658 -2.10089
-17.092 -11.5585 -2.23412
-16.2992 -11.9962 -1.52342
-15.8429 -11.6763 -2.05401
-20.1015 -11.4927 -0.296597
-20.834 -11.3486 -0.69121
-20.3649 -11.724 0.0989341
-20.7518 -11.1397 -2.36613
-20.2863 -10.7784 -2.2062
-19.6897 -11.4396 -0.686317
-20.0243 -11.2344 -1.13309
-19.5892 -11.9458 0.173912
-19.0802 -12.0259 -1.15421
-18.7501 -11.4626 0.182375
-19.7123 -11.5214 -1.93884
-18.923 -11.924 -1.752
-19.52 -11.436 -2.79272
-18.7491 -11.4656 -0.724246
-18.0873 -11.4315 1.57208
-17.9436 -11.5317 -0.841231
-17.344 -11.9647 -0.597848
-17.0197 -11.9456 -0.713035
-17.7628 -12.2773 -1.35633
-17.7617 -11.7316 -1.3501
-17.0333 -12.3894 -0.712382
-17.1619 -11.5142 -2.37945
-16.4778 -12.5866 0.394099
-16.5549 -12.3209 -0.879425
-16.1102 -12.5166 -0.438016
-15.6924 -12.6099 -1.09795
-20.4498 -11.5463 -0.503407
-20.1083 -11.2937 -1.95298
-19.6779 -11.4668 -0.795739
-19.9147 -11.6041 -0.920586
-19.6346 -11.5005 -1.19148
-19.3797 -11.1097 -2.22108
-19.727 -12.1869 -0.88056
-19.2896 -11.2922 -1.26627
-18.836 -11.8291 -1.62793
-18.7071 -11.5923 -2.53097
-17.6051 -12.1733 0.3238
-17.2312 -12.283 -0.472166
-17.4498 -12.2458 -0.195173
-16.8725 -12.1383 0.518993
-16.3858 -12.8777 -0.358393
-16.3771 -11.5764 -2.86264
-20.6857 -11.756 -0.148302
-20.2321 -11.3508 -0.689743
-19.5905 -12.1699 0.070815
-19.8258 -11.3962 -1.21928
-19.0612 -11.0003 -2.75055
-18.7603 -11.7182 -1.16483
-18.2344 -11.6281 -0.431563
-18.209 -11.5474 -1.57981
-17.8449 -10.3627 1.2013
-17.1212 -11.9138 -0.737047
-16.289 -12.0306 -1.91366
-20.7945 -11.0164 -1.87033
-20.2445 -11.475 -1.82112
-18.1364 -11.3003 -1.81626
-17.039 -11.7231 -0.748492
-19.7443 -12.2405 0.162141
-17.2136 -12.3724 -1.08627
-17.5306 -11.9975 -0.277301
-17.5846 -12.0512 -2.20579
-16.6514 -12.0307 -1.83667
-19.0113 -11.7684 1.25723
-16.4235 -11.6796 -1.10671
-17.2899 -11.6366 -2.62217
-16.4832 -12.4901 -1.64709
-15.8315 -11.8598 -2.48706
-16.1315 -12.2478 -2.36384
-17.466 -11.4905 -1.23917
-17.6252 -11.9037 -0.518314
-20.409 -11.6368 0.507828
-20.5254 -11.8237 0.365487
-20.3562 -10.9435 -0.60652
-20.4224 -11.8294 -0.132399
-19.9485 -12.3384 -0.522733
-19.3329 -11.9982 -0.456777
-20.2333 -10.7315 -2.47397
-18.8164 -12.026 0.624775
-19.4369 -11.9114 -1.02493
-18.8965 -11.7179 -0.811508
-17.6231 -11.2879 0.291246
-19.155 -11.5917 -2.27241
-17.7385 -10.858 1.35631
-18.9738 -11.4293 -1.52438
-19.9028 -11.4285 -2.03427
-19.0607 -11.9602 -2.06327
-19.3963 -11.7601 -1.57576
-18.9627 -12.0154 -1.93694
-19.6726 -11.5635 -2.38914
-19.1612 -11.5354 -1.48327
-18.8954 -10.6998 -2.19865
-17.4782 -12.2944 -0.181514
-18.8421 -11.5714 -1.51066
-19.3063 -11.4461 -2.81003
-18.6468 -11.4593 -2.54718
-18.5065 -11.6234 -1.54255
-18.9538 -11.1936 -2.39862
-18.5983 -11.6097 -2.53937
-16.9886 -12.322 0.0541003
-18.727 -10.8848 -2.9795
-18.6931 -11.6346 -2.17614
-18.4019 -11.1998 -2.83202
-18.9482 -11.6292 -2.67939
-15.7874 -10.7807 1.81033
-17.1884 -12.1863 -0.799676
-18.373 -11.2421 -2.88329
-16.5774 -12.0501 -0.235876
-18.1923 -11.4944 -3.04977
-17.8937 -11.2493 -3.73386
-17.1221 -11.4078 -2.29771
-15.8563 -12.298 -0.906926
-16.7807 -11.7222 -2.2244
-16.4622 -11.7517 -1.54491
-20.3084 -11.3861 0.268176
-20.4154 -11.5504 -0.493332
-19.7844 -12.0572 -0.496328
-20.3816 -11.7931 -0.27966
-20.2674 -11.4111 -1.13227
-18.5774 -11.6104 1.52789
-18.8484 -11.2836 1.21198
-19.3521 -11.4834 -1.17852
-19.6499 -11.7887 -0.229337
-20.0449 -10.9039 -1.65734
-20.6135 -11.1054 -1.66944
-18.9237 -11.5319 0.328071
-19.3472 -11.7044 -1.65666
-20.0758 -11.1068 -2.33835
-19.6865 -11.3305 -1.77398
-18.2573 -12.1579 0.345448
-19.7555 -11.3279 -2.32236
-19.3287 -11.8677 -0.914847
-18.4601 -11.834 -0.636353
-18.5138 -11.7649 -0.223806
-19.6897 -11.1721 -2.51079
-19.0254 -11.8015 -1.3135
-18.9736 -11.2972 -2.40864
-17.7276 -12.2686 0.673703
-19.3615 -11.331 -2.66735
-18.3239 -11.6228 -1.65127
-18.1197 -11.7277 -0.774595
-18.8008 -11.5718 -2.79116
-19.1494 -11.17 -2.59235
-19.3392 -11.5443 -2.49432
-16.8669 -12.2701 0.121663
-18.3518 -11.3595 -2.72615
-18.6556 -11.581 -2.7551
-17.5482 -11.9643 -0.645567
-17.3529 -11.8841 -1.4996
-17.0521 -11.7284 -2.51583
-15.7174 -12.9395 -0.420387
-16.4455 -12.2119 -2.26124
-20.9068 -11.4488 0.0520949
-21.0052 -11.6058 -0.0928056
-20.8414 -11.5658 0.0229492
-19.6483 -11.6551 0.0328724
-20.6746 -11.5919 -0.131407
-20.0978 -11.441 -1.10867
-19.4563 -12.0887 -0.14824
-20.6996 -11.8438 -0.882535
-19.551 -11.4884 -0.992382
-19.8098 -11.2928 -2.53863
-18.1713 -11.7226 0.19194
-19.1967 -11.8084 -1.64545
-18.7251 -11.3858 -1.35437
-18.0361 -12.1515 -0.152072
-17.4031 -11.8055 0.0901824
-17.9484 -12.122 -0.872969
-17.4137 -12.1748 -0.91483
-16.5802 -10.6506 0.939106
-17.5183 -12.3995 -1.77098
-16.5682 -11.9514 -0.107954
-17.1979 -12.2893 -1.44204
-16.7326 -12.2054 -0.549812
-17.9309 -12.0834 -2.39895
-17.1052 -11.5122 -2.10935
-16.2888 -12.6991 -1.78238
-15.642 -11.5232 -2.27197
-19.7888 -12.3778 0.581113
-20.0961 -11.5563 -0.205527
-19.5217 -12.2293 0.951821
-19.8783 -11.66 -0.401329
-20.0384 -11.4866 -0.843048
-20.3246 -11.8517 -1.2863
-20.1899 -11.8202 -0.468979
-19.8143 -11.4529 -1.02237
-19.7081 -11.3838 -0.483757
-18.7672 -11.0633 0.322461
-20.1945 -11.1939 -2.33759
-19.4116 -11.7917 -1.47243
-19.6206 -12.034 -1.28775
-19.2635 -11.3068 -2.14402
-17.3276 -10.6626 1.62322
-18.4776 -11.7271 -0.825844
-17.104 -10.4775 1.66394
-16.3194 -11.0882 2.31227
-18.6784 -11.9603 -2.363
-16.4988 -11.9716 0.38481
-18.2182 -11.6707 -2.19512
-16.1336 -11.307 -2.358
-20.1359 -11.7913 0.702607
-20.7253 -11.9467 0.722577
-20.1539 -11.5749 -0.882373
-19.3182 -11.5487 0.880401
-19.7414 -11.8008 -0.843497
-19.9753 -11.5317 -0.301301
-18.9886 -11.6256 -0.263565
-19.5545 -11.5157 -0.685109
-19.5923 -11.4491 -1.43402
-19.7817 -11.4354 -1.16277
-20.1597 -11.7272 -2.69769
-18.9891 -11.9043 -1.24778
-18.8198 -11.837 -0.480576
-17.6219 -10.7218 1.4099
-19.4088 -11.7322 -2.03589
-17.9288 -11.9006 -0.690459
-18.9535 -11.7558 -1.42412
-17.4561 -12.0216 -0.0899689
-18.2209 -12.0328 -0.693449
-17.6477 -12.1512 -0.101687
-18.7423 -11.4661 -2.59634
-17.7809 -12.5954 -0.815263
-16.6433 -11.8553 -0.172569
-17.1062 -11.7476 -1.48554
-16.089 -12.1932 -0.574784
-16.5208 -12.242 -0.744125
-16.1788 -12.0984 -1.1838
-16.3306 -11.8323 -2.26568
-16.1307 -11.6302 -2.2571
-16.0323 -11.5674 -2.26589
-14.826 -12.4285 -2.23033
-19.0461 -11.6826 -1.32052
-17.2464 -10.1445 1.5793
-18.3356 -11.4901 -2.89207
-17.2727 -11.9917 -0.306533
-18.6861 -11.6852 -2.706
-15.2173 -12.2256 -2.19868
-19.8671 -11.6309 -0.947634
-19.7251 -11.7812 -2.13268
-19.6672 -11.2907 -1.81457
-18.4157 -12.2177 -0.731911
-16.8761 -10.8398 1.21267
-18.0105 -12.1682 -0.939018
-18.3921 -11.588 -2.84201
-17.8762 -11.0702 -1.98568
-19.8131 -11.8535 -0.416059
-19.2957 -11.0606 0.471517
-19.9864 -11.2373 -1.76871
-18.3404 -11.6267 0.433314
-18.2116 -11.9493 -1.12003
-18.0536 -11.6163 -1.0438
-19.2004 -11.5515 0.1861
-20.8412 -11.4361 0.463109
-20.0478 -12.2076 0.273494
-20.4043 -11.5454 -0.852947
-20.0559 -11.3678 -0.303545
-17.6388 -10.4218 1.09407
-21.1793 -11.1773 -0.691996
-17.7025 -10.4235 1.95596
-19.7221 -11.8894 -0.335816
-20.8839 -11.5654 -0.775499
-20.2839 -11.4864 -0.90051
-20.0081 -11.5765 -0.818747
-19.9165 -11.7679 -0.956941
-20.3727 -11.5235 -0.800347
-20.1154 -11.3683 -0.959987
-18.9061 -11.757 0.0831496
-18.732 -11.7698 -0.728455
-19.9536 -11.0521 -1.26036
-20.3892 -10.6277 -1.28118
-20.2697 -10.9761 -2.12612
-19.2795 -11.7424 -1.14573
-20.6384 -11.3335 -1.30198
-19.6292 -11.8378 -1.43023
-19.3272 -11.4575 -1.20882
-19.1847 -11.7032 -0.869398
-20.4512 -11.4687 -1.5192
-20.0315 -11.2077 -1.80494
-20.2193 -11.1613 -2.21632
-18.8643 -11.9099 -1.29576
-19.4391 -11.4625 -1.41879
-19.8398 -10.9118 -1.91721
-20.4476 -10.8692 -1.65377
-19.5093 -11.6217 -1.32852
-20.5617 -11.4406 -1.61741
-19.0913 -11.2037 -1.1488
-19.0543 -11.5967 -1.32597
-19.4315 -11.5748 -1.81087
-20.1413 -11.007 -1.85952
-18.6438 -11.4501 -0.856626
-18.3393 -11.265 -1.59595
-19.1012 -11.5239 -2.02083
-19.7183 -11.6917 -1.76289
-19.3599 -11.1974 -1.84774
-18.3987 -11.9817 -2.41357
-18.5865 -11.27 -2.45239
-18.7094 -11.4258 -2.22704
-18.7198 -11.0976 -2.58741
-19.2985 -12.0046 -2.8416
-18.8744 -11.3913 -2.09216
-15.7643 -12.983 -1.31612
-20.6505 -11.9619 0.541312
-21.3471 -11.5336 -0.12852
-20.2072 -11.9455 0.219644
-20.2588 -11.9012 0.764122
-19.9972 -12.296 0.913125
-19.7939 -12.1838 0.920426
-20.374 -11.6648 0.0605953
-20.0048 -11.9039 0.21181
-19.8631 -11.3672 0.105055
-20.5494 -11.9354 0.105455
-19.8681 -12.1077 -0.397674
-20.1267 -11.4083 -0.961922
-19.4798 -11.5369 -0.858997
-18.4361 -12.0282 0.263722
-19.5364 -12.0129 -0.916289
-19.0476 -11.8983 -0.672361
-19.3628 -11.8258 -0.7048
-20.0622 -11.527 -1.36358
-18.0586 -11.9171 -0.48989
-19.2287 -12.1334 -0.967832
-19.4609 -11.2168 -1.78784
-20.1799 -11.4193 -1.51595
-16.4797 -11.8479 0.455758
-17.4365 -12.1715 -0.0561295
-19.1228 -12.0067 -1.52474
-19.0383 -11.6833 -1.67579
-18.3995 -12.2302 -1.06701
-16.9326 -12.215 -0.118277
-20.04 -11.5014 -2.19299
-16.9066 -11.9891 0.20184
-17.1162 -12.2845 -0.50457
-19.7365 -11.2962 -2.28861
-18.769 -12.0326 -1.91243
-19.2097 -11.2233 -1.72649
-19.4467 -11.488 -2.99111
-19.1701 -11.6122 -2.76802
-18.5667 -11.7702 -2.64227
-19.496 -11.0483 -2.36035
-18.8108 -11.2888 -2.66777
-19.0604 -11.2297 -2.17032
-18.3402 -11.9331 -2.31285
-18.6409 -11.3899 -3.12235
-16.6124 -11.5382 -1.48378
-16.6618 -11.8876 -1.7292
-15.849 -11.7661 -2.37753
-20.8874 -12.126 0.895864
-20.1538 -11.6495 0.016411
-19.7387 -12.2184 0.639533
-19.1551 -12.1467 0.0276875
-20.1432 -11.281 -0.686157
-19.4394 -12.065 -0.384257
-20.1813 -12.1 -0.806212
-16.9738 -10.5812 1.59068
-17.6133 -11.546 0.0564142
-18.5548 -11.7187 -0.16601
-20.1403 -11.2409 -1.62961
-20.1765 -11.0192 -1.45497
-19.0125 -11.3076 -0.72891
-18.8318 -11.2803 -0.679052
-19.891 -11.0584 -1.57653
-17.8216 -11.9035 -1.13064
-17.3069 -11.8375 -1.1001
-18.8822 -11.5021 -1.41701
-19.1417 -11.9074 -1.54592
-18.9076 -12.0449 -1.49205
-17.9436 -12.0743 -1.21766
-19.9987 -10.8304 -1.81019
-17.6702 -11.8811 -1.15594
-20.4421 -11.3363 -2.17822
-16.2343 -12.6087 -0.456488
-18.4454 -11.9475 -1.61495
-18.6802 -11.3558 -1.92142
-17.044 -11.771 -0.799462
-15.9772 -12.3678 -0.474351
-19.415 -10.9064 -2.28994
-19.2427 -11.2958 -2.58874
-19.9495 -10.8499 -2.42799
-16.6686 -12.163 -1.15665
-18.9931 -11.8812 -2.16123
-17.6806 -11.4557 -1.96851
-18.4927 -11.9561 -2.32864
-16.141 -11.8216 -1.27338
-17.5346 -11.5011 -2.39581
-17.1201 -11.5323 -2.38928
-17.0483 -12.0305 -2.16611
-17.408 -10.0517 1.4896
-20.0142 -11.6282 -0.159893
-19.2989 -11.5245 0.161932
-19.8172 -11.8587 -0.917529
-19.0297 -12.2687 -1.47322
-19.3652 -12.0009 -1.43847
-19.038 -12.2134 -1.28036
-16.6288 -11.9103 -0.869259
-20.2586 -11.1171 -2.40148
-19.3055 -10.7996 -2.96193
-17.3137 -11.8062 -0.695396
-17.537 -11.9646 -1.30108
-17.1572 -12.1341 -1.71951
-19.2775 -11.1871 -2.48752
-16.0019 -11.7705 -1.62604
-19.9664 -11.9262 0.494988
-17.6078 -10.9139 1.19257
-19.6949 -12.0113 -0.421001
-16.1921 -11.0032 1.35612
-19.4564 -11.4433 -1.20099
-17.6581 -11.741 0.0423118
-20.1369 -11.36 -1.57548
-17.5545 -11.8428 0.0812616
-19.0624 -11.6812 -1.31245
-20.0892 -11.3894 -1.63749
-18.863 -11.5938 -1.33132
-17.0822 -12.3001 -0.153724
-17.0303 -11.6466 -0.225624
-16.8297 -11.9054 0.0625095
-16.8052 -12.0515 -0.368321
