-19.7078 -10.7035 -2.67948
-20.4455 -10.3504 -2.57003
-19.6629 -11.5349 -2.33157
-19.004 -11.6882 -2.0875
-20.1786 -11.3243 -2.74075
-19.8767 -11.4079 -2.39409
-20.485 -10.5769 -1.61321
-19.8318 -10.9767 -2.06648
-19.5642 -11.232 -2.11453
-20.6122 -10.9181 -2.60324
-18.3567 -11.7717 -2.31622
-20.1373 -10.8849 -2.26158
-18.6447 -11.7426 -1.92303
-18.289 -11.9062 -1.54718
-19.2723 -11.5469 -1.80744
-20.7575 -11.3666 -2.33617
-20.2852 -11.2302 -1.40615
-18.3356 -12.0096 -1.10825
-16.2931 -12.2414 -0.711702
-17.43 -11.8001 -0.944516
-16.3138 -12.4833 -0.954825
-16.6184 -12.3497 -0.82692
-16.5418 -12.0572 -0.829952
-20.3479 -11.4151 -1.46048
-18.862 -11.8041 -0.868553
-19.7587 -11.5063 -0.665623
-18.1139 -11.5526 -0.473269
-17.806 -12.0311 -0.621634
-17.4599 -12.2161 -0.541841
-17.0389 -12.1677 -0.660403
-19.9291 -11.6814 -0.571117
-20.7312 -11.321 -0.920351
-19.6998 -11.1696 -0.452698
-19.7143 -11.7552 -0.639837
-17.7815 -12.0778 -0.191664
-17.2933 -11.9794 -0.489792
-17.4473 -11.9537 -0.349881
-16.6574 -12.4018 -0.0648209
-17.559 -12.0253 -0.252852
-18.6292 -11.3708 0.135888
-20.1462 -11.4155 -0.829897
-18.9596 -11.7627 0.162812
-19.8503 -11.3127 -0.436778
-19.2713 -11.7583 -0.564799
-19.4089 -11.8384 -0.668579
-20.028 -11.6103 -0.0691436
-17.351 -11.6075 0.250485
-20.2592 -11.6006 0.0164047
-18.9908 -10.9938 -0.116422
-19.0351 -11.1188 0.18514
-18.5368 -11.6456 0.0855678
-18.1975 -11.1733 0.528991
-20.371 -11.6711 0.105311
-18.9078 -11.0557 0.0708344
-18.5123 -11.2718 0.596358
-16.475 -12.1865 0.384799
-20.6269 -11.5801 -0.340628
-20.0786 -12.2114 0.552549
-19.8749 -11.8547 0.410035
-20.1061 -11.3809 0.0371945
-20.3758 -11.4276 0.345548
-19.634 -11.8554 -0.0776318
-21.1399 -11.4514 0.522178
-20.3082 -11.6923 0.429811
-20.0512 -12.5285 0.285962
-19.9086 -12.1153 0.369951
-20.0381 -11.8689 0.610613
-20.3497 -11.6293 0.333737
-20.4676 -11.7622 0.534788
-20.4477 -11.6003 0.682821
-20.331 -11.9945 0.843572
-20.7627 -11.7918 0.609263
-19.7845 -12.255 0.575908
-16.4377 -10.0589 1.52851
-17.7845 -10.3313 1.49124
-18.7645 -11.2235 -2.96438
-18.3272 -12.0784 -2.80788
-17.0129 -11.9523 -1.88148
-18.6098 -11.3963 -2.72543
-17.7927 -11.7978 -1.7247
-16.3891 -11.584 -2.19868
-17.3794 -11.9054 -1.80762
-20.1705 -11.2018 -2.56754
-16.6322 -11.463 -1.7503
-17.3182 -12.2219 -2.07441
-16.9971 -11.5274 -1.52668
-18.2894 -11.6266 -1.89708
-20.448 -11.0373 -1.70202
-20.826 -10.8652 -2.26054
-16.0159 -11.9919 -1.39295
-18.4961 -11.6984 -1.25808
-18.8856 -11.5986 -1.84286
-17.1297 -11.6156 -1.64665
-17.6083 -11.5258 -1.27791
-16.0579 -12.1844 -0.985112
-19.0991 -11.5232 -0.824251
-18.3615 -11.5743 -0.925272
-17.8571 -12.2471 -0.57808
-16.5648 -12.0745 -0.0499206
-20.4397 -11.4686 -0.833792
-20.35 -11.3687 -0.672465
-19.4863 -11.47 -0.202314
-16.4555 -12.0449 -0.50295
-17.3756 -12.292 -0.168187
-19.1464 -11.8199 0.00319187
-20.0513 -12.1171 -0.44707
-17.4837 -11.8718 -0.418494
-16.1497 -12.224 -0.144527
-18.5807 -11.9738 -0.153496
-20.3408 -11.4733 -0.12293
-19.9812 -11.2971 -0.27193
-17.532 -12.325 0.283926
-20.2572 -11.3795 0.253865
-17.5232 -11.9776 0.0395384
-16.8316 -12.3315 -0.10549
-16.3671 -12.497 0.493589
-18.0873 -11.7752 0.731553
-18.6187 -11.0176 0.0922632
-19.5448 -11.4474 0.208533
-19.2955 -11.7036 0.0496309
-19.768 -12.3846 0.127492
-20.5642 -11.2064 0.0278005
-16.9006 -12.4467 0.298085
-17.0035 -11.8528 0.41385
-16.6899 -12.1697 0.183594
-18.879 -11.3627 0.290297
-20.0685 -11.6207 0.171014
-21.0109 -11.2799 0.599383
-20.5612 -11.9616 0.407564
-20.4464 -11.7322 0.529811
-19.9178 -11.5916 0.558872
-19.8621 -12.4458 0.635954
-20.0818 -11.7649 1.08071
-20.3924 -11.8698 0.641558
-17.363 -10.3797 1.60535
-16.2396 -10.6197 1.66137
-19.4742 -11.4743 -3.15742
-19.9252 -10.5158 -2.95567
-16.5007 -11.7363 -1.99097
-19.0017 -11.3736 -2.32371
-18.5777 -11.7166 -1.39469
-16.0489 -12.2261 -0.915322
-20.0265 -10.9883 -1.48108
-20.0074 -11.226 -1.0917
-20.4088 -11.3279 -1.71166
-19.5941 -11.1912 -1.42096
-19.516 -11.7147 -0.727491
-16.4871 -12.6748 -0.705095
-19.6457 -11.9441 -0.95974
-19.4567 -11.6008 -0.856457
-16.6711 -12.2659 -0.040373
-19.8907 -11.3274 -0.394692
-18.2714 -12.0211 -0.472873
-19.5293 -11.6799 -0.570694
-19.6153 -11.8511 -0.784389
-20.1404 -11.9041 -0.10567
-18.3509 -11.3923 0.238016
-20.0363 -11.6625 -0.0884974
-20.4855 -11.4091 -0.018799
-18.1963 -11.5902 0.403446
-16.271 -12.2676 0.140745
-19.9154 -11.5335 0.530534
-19.9163 -11.7831 0.595829
-20.0731 -11.7632 -0.198437
-20.2395 -11.9218 0.14154
-19.1757 -11.5491 0.87823
-20.1411 -11.5281 1.26793
-16.3608 -11.8152 -2.46275
-15.7706 -11.9967 -2.26549
-16.6849 -11.6379 -2.15925
-16.1951 -11.9037 -1.83298
-18.293 -11.531 -2.44381
-19.0261 -11.2481 -2.02391
-17.877 -11.745 -1.97678
-16.1866 -12.3111 -1.79341
-17.8439 -11.8764 -1.17127
-16.6312 -12.1039 -1.18933
-15.6669 -13.0465 -0.406925
-20.0248 -11.4906 -1.42152
-19.347 -11.6841 -0.689396
-19.6033 -11.4418 -0.652512
-18.6867 -11.8689 -0.632182
-19.805 -11.6004 0.0502262
-20.0582 -11.1677 -0.179197
-18.6395 -11.4603 0.0917015
-16.2181 -12.1083 0.723392
-19.6539 -11.6636 0.0652651
-20.4253 -11.4813 0.590731
-19.9846 -11.8234 1.20827
-18.8157 -11.4311 0.906512
-18.7274 -11.3035 1.50795
-17.3333 -10.2297 1.58567
-17.7276 -10.2131 1.39828
-15.5364 -12.0257 -2.76047
-19.4509 -11.4354 -1.77069
-19.4789 -11.3435 -0.71864
-18.7218 -11.1176 -0.500843
-19.7042 -11.9649 -0.753106
-19.9293 -11.3251 -0.276975
-18.9346 -10.9744 0.0828929
-19.3293 -12.0718 0.0243414
-19.0008 -11.4116 0.39037
-18.4121 -11.4689 0.611568
-17.0322 -11.8655 0.355685
-20.4102 -11.2233 0.238372
-17.1348 -10.4498 2.0813
-19.7237 -10.7903 -3.00373
-17.056 -11.4271 -2.39309
-17.1661 -10.997 -2.29866
-17.373 -11.3247 -2.07262
-16.2787 -11.7444 -1.82855
-19.5636 -12.1952 -2.36599
-18.183 -11.5345 -1.88156
-20.5188 -10.8771 -1.27445
-19.1312 -11.4041 -1.61328
-16.4602 -12.0774 -0.379871
-17.6321 -12.2015 -0.179059
-18.9919 -11.5408 0.312285
-18.9505 -11.2896 0.823748
-16.8186 -11.9323 -2.39052
-18.3341 -11.285 -1.78891
-16.1964 -12.5909 0.00291652
-19.8881 -12.1114 -0.805062
-19.6741 -11.5428 -0.757785
-17.5506 -12.1789 -0.432085
-20.4304 -11.8255 -0.199263
-17.9826 -11.4483 0.40892
-17.7555 -11.6403 0.461829
-16.8871 -10.2459 1.54487
-20.561 -11.0384 -2.00056
-17.774 -11.884 -1.41009
-17.4054 -11.5948 -1.05863
-16.893 -12.0935 -0.854767
-17.6345 -12.0275 -0.217456
-17.4022 -12.0964 -0.53511
-19.9282 -12.1126 -0.617841
-20.2529 -11.8587 -0.0232997
-18.3624 -11.6148 -0.1763
-17.3824 -10.9863 1.13811
-17.4673 -10.1747 1.7282
-16.5633 -11.6525 -1.66139
-18.7715 -11.0946 -3.20424
-18.8597 -11.681 -3.00497
-18.0838 -11.3949 -2.99074
-18.6446 -11.3648 -2.28142
-19.3767 -11.1672 -2.71049
-20.1312 -10.8217 -1.60277
-20.1913 -11.2384 -2.04298
-15.6244 -11.5661 -2.73617
-19.7321 -11.6515 -1.08892
-18.6022 -11.1956 -1.7726
-18.7519 -11.8784 -1.63215
-17.6517 -11.0185 -1.78816
-18.0997 -11.6672 -2.13582
-18.6762 -11.5837 -1.31384
-17.8001 -11.5043 -1.6681
-19.8345 -11.025 -0.701686
-19.5295 -11.0712 -1.33732
-19.4714 -11.2664 -1.29028
-14.9158 -12.2499 -2.95047
-15.8018 -11.8292 -2.71449
-15.3781 -11.7325 -2.55492
-20.31 -11.3933 -0.772346
-20.4828 -11.7197 -0.36296
-20.1745 -11.2664 -0.525216
-19.8082 -11.8667 -1.03588
-19.5472 -11.9601 -0.830923
-18.0097 -11.8617 -0.794149
-19.4791 -11.9191 -0.850525
-20.2462 -11.6336 -0.589857
-20.2741 -11.2858 -0.360634
-20.5697 -11.5536 -0.0162248
-20.8177 -11.321 -0.26662
-19.8801 -11.7235 -0.563922
-20.4296 -11.3915 -0.450263
-20.1595 -11.6312 -0.00402003
-19.8383 -11.3235 -0.84613
-20.2874 -12.194 -0.09128
-17.7112 -11.8613 -0.515616
-18.9867 -11.8229 -0.439735
-17.1614 -11.7791 -0.965278
-17.5639 -11.7541 -0.617428
-16.4982 -11.9043 -1.23662
-20.9158 -11.5537 0.344687
-20.442 -11.7506 -0.186585
-19.7699 -11.6876 0.193786
-18.8855 -11.3555 0.137493
-20.1419 -11.7273 0.360242
-19.9138 -11.6813 0.912944
-19.9912 -12.3145 0.0589247
-16.8356 -11.6417 -0.244742
-19.0505 -11.6217 0.30194
-20.2613 -11.4893 0.643584
-16.8933 -11.6087 -0.375061
-20.1099 -11.6752 0.406872
-17.1132 -11.8601 -0.312255
-17.3075 -12.3241 -0.538718
-18.6098 -11.2203 -0.354116
-17.8154 -11.5653 0.157078
-16.3937 -11.9173 -0.609123
-16.5882 -12.2993 -0.112598
-19.976 -11.9983 1.15237
-18.4421 -11.2747 0.958953
-16.6227 -12.5311 0.247272
-18.0076 -10.5077 1.49132
-16.9914 -12.2413 0.300332
-17.8891 -10.5864 1.7329
-17.2361 -10.5485 0.755971
-16.9851 -9.97491 1.55922
-16.9786 -10.1964 1.97778
-15.7383 -10.4334 1.38536
-17.1624 -10.3105 2.14624
-19.4623 -11.1498 -3.19461
-19.9855 -10.9595 -2.60672
-18.7107 -11.418 -2.66382
-19.8607 -10.9085 -1.97525
-19.9247 -11.0249 -2.23355
-19.8925 -11.427 -2.1555
-18.045 -12.2082 -2.69158
-20.2821 -11.3419 -1.97886
-18.1147 -11.561 -2.66366
-18.9954 -11.9446 -1.88752
-19.0632 -11.5018 -1.66939
-18.1661 -11.4182 -2.00686
-16.4972 -11.6064 -2.11738
-15.5923 -12.6338 -1.93006
-19.2256 -11.8353 -1.04365
-16.4769 -12.276 -1.62345
-19.0166 -11.7554 -0.536575
-16.2738 -12.0142 -2.08482
-20.2123 -11.4412 -0.29216
-19.0908 -11.6004 -1.1527
-20.5518 -11.4823 0.278577
-19.9344 -11.6113 -0.327317
-20.8629 -10.8312 0.197446
-19.7239 -11.8699 -0.339221
-20.2833 -11.8812 0.356293
-20.1865 -12.0635 -0.0747908
-19.6924 -11.4979 -0.0509089
-19.6826 -12.0923 0.598658
-20.584 -11.9307 0.194318
-19.9074 -11.9695 0.491688
-16.5253 -11.8035 -0.743331
-17.2409 -11.6742 -0.618852
-16.1889 -12.1925 -1.09416
-16.9274 -12.095 -0.495916
-20.0287 -11.8981 0.4941
-19.8876 -12.0711 0.726811
-19.8112 -11.9415 0.212661
-16.3128 -12.5536 -0.741984
-16.6216 -11.7569 -0.311333
-18.0818 -12.3897 0.0582949
-20.2538 -12.3526 0.947129
-20.773 -11.6403 0.0239501
-15.8058 -12.1336 -0.71721
-17.4325 -12.0045 0.470147
-17.416 -11.9548 0.458985
-18.7553 -11.4605 0.606422
-18.5747 -12.0863 0.962675
-18.9451 -11.243 1.15267
-19.1739 -11.4537 0.801582
-16.667 -10.5257 1.53755
-18.4273 -11.4462 -2.28958
-17.2293 -11.6825 -2.28048
-17.1409 -11.4318 -2.30749
-17.2469 -11.7494 -1.67367
-15.3975 -12.7168 -2.88242
-14.2874 -13.0103 -3.24088
-15.935 -11.5117 -2.34252
-17.7371 -11.1482 -0.958723
-16.5537 -11.688 -1.58045
-17.1771 -11.6676 -1.19887
-16.9296 -11.863 -0.945018
-18.2093 -11.814 -0.990515
-20.1728 -12.4059 0.305473
-20.9312 -11.2058 -0.156089
-20.4267 -11.7712 -0.0923058
-20.9671 -11.3119 -0.0234685
-20.7779 -11.4416 -0.0846987
-19.898 -11.3046 -0.11777
-20.9578 -11.77 0.120187
-16.4925 -12.5954 -0.925379
-17.5517 -11.9548 -0.473348
-20.6457 -11.3083 0.630525
-17.3232 -12.2415 -0.407793
-18.3988 -11.8673 0.173339
-19.8592 -11.9049 0.239445
-16.4159 -12.3247 -0.126527
-18.6225 -11.6759 1.19452
-19.7789 -11.1165 -2.93345
-17.0077 -11.302 -1.80122
-17.1267 -11.5882 -2.28126
-16.8086 -11.5709 -2.33854
-16.9608 -11.4146 -1.67782
-19.8676 -11.4769 -1.68115
-18.3768 -11.9537 -2.16279
-20.2378 -11.2831 -0.952012
-15.5009 -12.2103 -1.79427
-20.6617 -11.5075 -0.615758
-19.2457 -11.6573 -0.372327
-15.9565 -11.5236 -1.14209
-19.6693 -11.7491 -0.314967
-19.9854 -12.2923 0.532281
-16.5503 -12.0546 -0.989207
-15.5914 -12.598 -1.27627
-18.2714 -11.6592 -0.0666557
-17.7271 -12.1906 -0.173708
-20.1832 -10.9188 -1.14162
-15.5469 -11.5903 -2.34201
-15.5811 -12.2645 -2.48389
-16.3884 -12.1996 -1.79985
-19.8801 -11.7808 -1.00512
-16.4939 -11.8846 -1.23009
-16.2159 -11.7334 -1.16253
-16.6449 -11.4507 -1.72283
-17.9651 -12.1397 -1.29121
-20.6421 -11.2939 0.283507
-19.0248 -11.644 0.0787738
-16.8207 -12.1708 -0.14139
-18.7729 -11.2766 0.58518
-19.9528 -11.9277 0.748646
-18.6298 -11.5527 -2.92429
-14.9224 -12.1625 -2.55184
-15.3874 -12.8795 -0.237566
-17.6713 -11.9139 -1.80583
-18.5954 -11.4265 0.42099
-18.0749 -11.6652 -0.690822
-19.1273 -11.522 1.29204
-16.7369 -10.3146 1.35568
-16.7382 -12.0977 -0.949997
-19.1102 -11.5497 -0.13101
-18.5694 -11.6263 -0.983808
-18.5031 -11.5336 -1.54759
-19.7695 -11.6831 0.0630369
-19.5924 -11.5396 -2.37196
-20.3517 -10.543 -2.41728
-20.1023 -11.6733 -2.37636
-20.3856 -11.5346 -0.613529
-20.6061 -11.3501 0.0136954
-20.5326 -11.8355 0.0675767
-19.0578 -11.416 -0.855623
-20.28 -11.7164 0.709871
-16.6221 -11.3355 -2.41657
-19.7436 -12.1874 0.34873
-20.1965 -11.5998 0.705509
-18.2271 -11.8547 -1.46999
-18.2657 -11.4603 0.332161
-17.1666 -11.9594 -1.24655
-17.2419 -11.8949 -0.97592
-15.5679 -12.2059 -2.03676
-18.7234 -11.3887 0.858797
-15.6445 -12.165 -2.10731
-17.7952 -11.397 0.524147
-18.0468 -11.8908 0.768725
-14.8673 -12.6358 -3.12967
-16.5529 -12.959 -0.85567
-16.8429 -12.2099 -0.871056
-17.0722 -10.5606 0.916051
-15.8574 -12.45 -0.879157
-16.0851 -13.536 -0.682797
-16.7495 -10.1304 1.11003
-17.0986 -10.2184 1.46356
-16.8725 -10.3326 1.17498
-16.5513 -10.9808 1.34312
-16.8357 -12.5577 0.503418
-15.927 -10.3038 1.36801
-20.4237 -10.6691 -2.20244
-20.9092 -11.4726 -0.628785
-19.5683 -11.408 -1.5694
-18.9941 -11.4134 -2.15335
-19.8009 -11.4564 -0.311501
-19.0454 -11.4241 -1.12176
-19.6618 -11.8149 -0.71153
-19.6539 -12.1326 -0.697471
-20.0767 -11.932 0.459789
-19.179 -12.2549 -0.0768079
-17.3835 -11.2496 -2.3334
-18.2021 -11.7526 -1.13646
-19.6059 -11.9439 0.0656971
-20.1821 -11.7637 0.597238
-16.6198 -11.705 -1.37787
-16.8626 -11.6419 -1.79866
-17.2464 -12.0728 -1.15292
-18.962 -11.7771 0.99654
-17.2147 -12.1306 -0.383618
-17.0747 -11.8614 -0.630493
-17.9967 -11.5841 0.0585619
-16.4913 -11.8415 -1.50811
-17.0672 -12.1195 -0.394044
-15.7323 -12.4471 -1.4912
-18.4594 -11.2843 -3.07832
-20.0487 -11.2296 -1.02055
-19.6407 -11.4409 -1.45068
-19.3736 -11.8599 -0.878177
-19.869 -11.7031 -1.07647
-19.5152 -12.0953 -0.91146
-20.2567 -12.192 0.298864
-15.8426 -12.2139 -1.72908
-16.6542 -12.2184 -1.76575
-16.7712 -11.8064 -0.255812
-14.2496 -12.9753 -2.93038
-17.0489 -11.5991 -0.0703991
-17.6058 -11.9078 -0.0210747
-13.725 -12.9085 -2.85176
-16.2899 -12.2636 -0.483267
-17.0582 -10.4452 1.97689
-18.5615 -12.0081 -2.36896
-19.8137 -11.7624 -0.706212
-19.6001 -11.6614 0.184305
-18.7764 -11.7096 -0.371115
-17.0213 -11.4746 -2.06061
-18.4827 -11.2114 0.968099
-17.5572 -12.2148 -0.454803
-17.5048 -11.9144 -0.214625
-16.4833 -12.4888 -1.45827
-16.2534 -12.1077 -0.776248
-15.9193 -12.5283 -1.5219
-20.5728 -10.5194 -2.79502
-20.2797 -11.4455 -1.40943
-18.991 -11.9506 -1.85336
-18.6305 -10.9395 -1.28869
-18.7373 -11.9276 -1.68787
-19.0106 -11.0409 -0.232108
-20.1263 -11.8554 0.771878
-18.2322 -12.0722 -1.15823
-17.328 -11.5164 -0.751671
-17.3101 -11.8883 -0.345012
-17.5489 -12.0723 0.951354
-18.3386 -11.7781 -0.144188
-19.1297 -11.2253 -0.417294
-16.4132 -12.0754 -2.13548
-16.8337 -11.5034 -1.25209
-16.264 -11.6238 -1.09942
-17.3723 -11.665 -1.97352
-17.5549 -11.449 -2.77085
-17.625 -11.5528 -2.38182
-17.8252 -12.4445 -0.954614
-16.697 -11.7799 -1.92904
-16.3993 -12.0614 -1.64123
-19.1332 -11.9876 -0.735304
-16.632 -11.5995 -2.11991
-20.1169 -11.0708 -2.3474
-20.0453 -10.8865 -2.78299
-19.8868 -11.2134 -2.48222
-19.7775 -11.1 -2.99579
-20.5363 -11.6188 -0.51522
-19.382 -10.9862 -3.22467
-19.7716 -11.6075 -0.166722
-20.0663 -11.5971 -0.763494
-18.7537 -11.3389 0.47637
-18.1072 -11.9195 -3.27698
-18.2177 -11.5642 1.10868
-18.8148 -11.3887 1.12624
-18.4184 -11.6562 0.989738
-18.2511 -11.8689 -0.0705503
-18.1475 -11.4935 -0.713975
-17.5343 -11.5826 -1.36768
-16.8715 -10.1521 1.52546
-17.0973 -9.90324 1.48475
-16.5109 -11.7869 -1.63758
-16.7302 -10.5683 1.45118
-16.2828 -10.4604 1.64103
-16.6008 -10.9418 1.6033
-16.8417 -12.701 -1.28619
-16.1177 -12.3031 -0.644936
-16.8319 -12.0472 -0.332534
-15.2085 -12.2661 -1.99605
-15.7135 -10.4304 0.926559
-20.108 -10.7958 -2.36016
-19.5668 -10.9132 -1.97903
-19.7031 -10.7715 -2.49994
-19.7673 -11.531 -2.08602
-19.445 -11.8906 -1.23306
-19.1813 -11.5643 -2.47497
-19.3635 -12.0887 -0.360887
-19.3885 -11.7816 -0.875447
-18.8673 -11.4286 -2.64516
-18.8155 -11.2135 -2.2946
-19.047 -11.5188 -2.66736
-19.2665 -11.4016 -0.830419
-19.5303 -12.1621 -0.631953
-18.0858 -11.4792 -3.13239
-19.7068 -11.8835 0.966238
-19.0064 -11.9322 -1.78437
-18.6729 -11.1402 1.22321
-17.7774 -11.5813 -0.983379
-18.382 -11.6635 -1.27035
-17.5776 -11.7169 -2.09611
-18.2723 -12.2719 -0.0268859
-16.9713 -10.3468 1.25862
-17.4783 -11.8663 -0.46992
-15.9555 -12.1511 -2.04655
-16.4577 -11.8186 -1.42886
-16.1537 -12.49 -1.10903
-16.406 -11.9717 -0.567883
-16.0544 -12.3859 -0.431842
-15.7276 -13.14 -0.173601
-15.8035 -10.4783 2.04479
-15.0446 -12.3056 -3.17328
-20.0503 -11.3389 -2.67388
-20.325 -10.7737 -2.39244
-20.6266 -11.0168 -0.205093
-19.8588 -11.337 -0.607707
-19.1434 -11.2547 -1.74863
-19.8563 -11.5355 -1.94229
-19.2042 -11.2276 -2.53498
-19.2782 -11.5109 -0.979615
-19.389 -12.0639 -0.321517
-18.5689 -11.6839 -0.500799
-18.9202 -11.5337 0.00491712
-18.3 -11.9651 -0.60287
-18.3742 -11.5438 0.372698
-16.9847 -11.7742 -1.56113
-17.4072 -11.7979 -0.0621077
-17.0668 -12.1825 -0.125611
-16.1687 -12.0068 -0.40147
-15.874 -12.6931 -0.658798
-15.7661 -12.6703 -0.531912
-20.2778 -10.9954 -1.69173
-19.8099 -11.2912 -1.43493
-20.8013 -11.0074 -0.319053
-19.2098 -11.3936 -1.78194
-19.4102 -11.3836 -0.892534
-18.7436 -11.7445 -2.24571
-16.9289 -11.258 -2.31016
-17.4172 -11.9027 -0.982229
-17.5067 -11.9842 -0.122222
-17.2256 -12.2492 -0.410522
-16.9855 -11.9206 -0.337162
-15.7588 -11.1105 -2.76988
-16.1134 -12.4404 -0.587938
-16.471 -11.8655 -0.295615
-16.3329 -12.4313 -0.99598
-16.1847 -12.2999 -1.12319
-16.5824 -12.3746 -0.370891
-15.6018 -12.3539 -0.5119
-19.2807 -10.9261 -2.4809
-18.1112 -11.51 -2.42206
-17.1666 -11.8889 -0.422971
-17.2757 -11.6934 -1.54281
-17.2057 -12.0596 -0.267115
-16.9817 -11.7719 -1.75227
-16.5717 -12.2877 -1.14202
-16.1988 -12.7175 -0.776419
-16.0601 -12.1609 -1.13341
-20.9652 -11.3452 -0.252526
-19.7905 -11.2764 -2.00802
-18.7411 -12.0166 -0.847531
-17.5214 -11.8094 -1.16926
-17.3703 -11.9538 -0.819516
-19.0987 -11.3829 -1.12775
-15.7584 -12.5733 -0.481841
-18.921 -11.0754 0.386549
-19.3981 -11.6266 -1.04922
-17.9482 -11.5086 -1.42688
-17.2797 -10.5816 1.32438
-14.7879 -12.1315 -2.16069
-17.4633 -10.217 1.59089
-20.489 -11.467 -1.3244
-20.4041 -11.4427 -0.212256
-20.4459 -11.2624 0.00230913
-20.2552 -11.32 -2.93822
-19.3375 -11.6572 -1.04728
-19.2774 -11.0924 -2.50348
-18.5487 -12.0715 0.958518
-19.4238 -11.7067 -1.05886
-18.9101 -11.7356 -2.98203
-18.8471 -11.677 -2.47625
-18.4501 -11.5361 -2.61351
-18.5839 -11.6619 -1.80296
-17.983 -11.6904 0.150607
-18.7013 -11.3421 -2.72456
-18.3098 -11.9624 -0.310122
-18.1539 -12.1273 -0.84524
-18.0002 -11.9473 -0.227442
-16.7788 -10.4521 1.46631
-16.6402 -10.5681 1.59065
-16.6931 -10.5067 1.05522
-17.831 -12.2296 -0.660964
-17.8593 -11.7532 -2.98133
-17.0904 -11.961 -0.408663
-17.7673 -11.032 -1.35905
-17.4684 -12.0684 0.0155264
-16.7773 -10.8521 2.00567
-16.7347 -10.789 1.91639
-16.9991 -12.4845 -1.10516
-16.8626 -11.4523 -2.50625
-17.1296 -11.2363 -2.41477
-16.2518 -10.9557 1.22242
-16.5517 -11.8644 0.573694
-16.6882 -12.0733 -0.266867
-16.3897 -12.0625 -1.13712
-16.0745 -10.6301 1.40508
-16.356 -12.2127 0.343009
-16.7137 -12.4928 -0.665082
-15.9845 -11.5313 -2.50009
-15.9136 -12.7617 -0.645364
-15.6524 -12.6065 -2.58046
-15.2194 -12.1406 -1.70334
-14.989 -12.6172 -2.93672
-15.2159 -13.1328 -3.1484
-20.4865 -11.5991 -0.363958
-20.2507 -11.4133 -0.740686
-20.4165 -11.1027 -2.08165
-20.611 -11.325 -2.20155
-21.1378 -11.0502 -2.39372
-20.463 -11.0473 -2.17262
-20.4011 -11.5187 -0.872437
-20.2933 -10.9824 -2.74743
-19.5729 -10.9273 -2.10025
-19.9573 -11.2843 -1.67891
-19.6259 -11.2802 -2.83621
-19.2336 -11.5593 -0.945606
-19.625 -11.4847 -3.67181
-19.1538 -11.0828 -1.93475
-19.1958 -12.1427 -2.61718
-18.5559 -11.2796 -2.75935
-19.11 -11.7818 -2.47363
-18.4211 -11.6947 -2.49349
-18.2822 -11.1721 -1.48961
-18.3514 -11.8805 -0.686987
-18.3866 -11.4753 -2.33247
-18.3014 -12.2791 -0.510806
-17.8215 -11.8529 -1.14252
-16.8337 -10.0696 1.158
-16.865 -10.4003 1.47592
-17.5111 -11.8444 -0.809193
-16.799 -11.1672 1.35238
-17.5854 -11.8581 -0.831498
-16.7873 -11.3307 -1.97795
-17.706 -11.6114 -1.90795
-17.0041 -11.3877 -2.36787
-16.9755 -12.4909 -0.252975
-16.8479 -11.5382 -2.19906
-16.7264 -11.8574 -0.729732
-15.962 -10.5639 1.28254
-16.916 -11.7786 0.155955
-16.8296 -11.7022 -2.00037
-16.8864 -11.4859 -2.15167
-16.4915 -12.1725 -1.3239
-16.2861 -11.843 -1.63074
-16.3331 -11.5798 -2.73418
-15.6902 -11.889 -1.93888
-16.0914 -12.8434 -1.19049
-16.3632 -11.633 -2.1572
-15.8305 -13.4137 -0.290248
-15.9705 -12.7341 -0.834097
-15.665 -13.1016 -1.43959
-15.4881 -12.1367 -1.03256
-15.506 -11.909 -2.3232
-14.4275 -12.728 -2.37859
-14.5536 -12.8721 -2.58824
-20.3893 -11.5278 -0.406922
-20.4931 -11.4705 -0.589292
-20.2768 -11.4951 -0.80852
-20.8097 -10.932 -2.6015
-20.4028 -11.3344 -1.81799
-19.6604 -11.7122 -1.80563
-19.4488 -11.8815 -0.950542
-18.9807 -11.5108 -0.259721
-18.8538 -11.4668 -1.77749
-18.6681 -12.0053 -1.78987
-18.2036 -11.3829 -1.57388
-17.0148 -10.303 1.79495
-17.7938 -11.5283 0.460327
-17.6084 -12.2875 0.0165625
-17.5411 -11.8866 -0.390735
-17.1896 -11.902 -0.60566
-16.7673 -12.3578 -0.164866
-16.661 -12.2044 0.702654
-16.9744 -11.6161 -1.85466
-16.5807 -12.4152 -0.758596
-16.4923 -11.9315 -0.924649
-16.2309 -11.7702 -0.836045
-16.2494 -12.2315 0.0303144
-16.4668 -12.1609 -1.58402
-16.1354 -12.2567 -0.927141
-16.38 -11.9038 -1.57621
-16.2188 -12.1589 -2.00026
-15.9011 -12.5424 -0.506121
-15.6269 -12.468 -3.16753
-20.0897 -11.9663 -0.409855
-20.3725 -10.7973 -2.36759
-20.0316 -11.2439 -1.53484
-18.8584 -11.4782 1.32287
-17.3227 -11.9008 -0.657899
-17.3302 -11.7447 -1.00972
-17.4253 -11.8755 -0.71885
-17.1854 -11.704 -0.898396
-17.2344 -11.5885 0.0993367
-16.6302 -12.2025 -0.799454
-16.0331 -12.7807 -0.535637
-15.2551 -12.2961 -1.29867
-19.8752 -11.1727 -1.23587
-18.997 -11.9562 0.71302
-19.3147 -11.3119 -1.20662
-18.5744 -11.0692 -1.13873
-17.4325 -12.4721 -0.616311
-17.6014 -11.9181 -0.319897
-17.3277 -11.4546 -0.625759
-16.2126 -12.2654 -0.0409943
-16.7653 -12.5206 -1.21654
-16.219 -12.2321 -1.33866
-16.404 -12.3585 -0.842761
-16.1616 -12.3783 -0.904061
-15.4049 -12.8335 -1.07649
-18.8826 -11.3603 0.801231
-19.278 -11.6012 -0.672886
-17.9116 -11.1093 -2.2724
-16.8585 -11.9639 -1.55871
-17.3045 -11.5397 -0.952286
-17.5055 -12.0195 -1.5137
-16.4808 -11.5437 -1.84229
-16.5848 -12.1846 -2.018
-18.1513 -11.8926 -1.03779
-17.9046 -11.9369 -1.01426
-17.277 -12.2482 -0.16185
-15.9296 -11.3465 -2.42766
-19.2719 -11.353 0.240077
-18.1126 -11.8942 -0.555543
-16.0306 -11.8213 -1.56137
-16.1334 -11.9322 -2.41535
-15.5266 -11.4241 -1.85749
-15.2527 -12.5191 -1.60701
-19.0964 -10.9314 0.278724
-19.067 -11.0423 -0.186108
-15.8105 -11.8136 -2.19671
-18.6566 -11.6247 -0.544553
-14.7901 -11.988 -1.72057
-18.9479 -11.499 0.888872
-16.6516 -11.8144 -1.21466
-20.0566 -11.6566 -0.488469
-21.0398 -10.7989 -1.98577
-20.2038 -11.3014 -0.866114
-20.6859 -11.6188 -1.56898
-20.6089 -11.0275 -2.48873
-19.8243 -11.9451 -0.946204
-16.7673 -10.6052 0.967196
-20.5557 -10.8677 -2.95159
-16.6672 -10.5867 1.8968
-18.9758 -11.4715 -0.241994
-17.0237 -10.3646 1.50446
-19.0967 -12.0057 -0.443972
-19.3463 -11.6908 -2.0952
-16.8118 -10.0833 1.14784
-19.6854 -11.2708 -1.93391
-19.0362 -11.1776 -1.13307
-16.4871 -10.6197 1.53607
-19.2779 -11.1373 -2.838
-16.1932 -10.6294 1.77622
-16.1914 -10.7031 1.07123
-17.9935 -11.8924 -0.9848
-19.7408 -11.025 -2.39548
-18.5384 -11.7113 -1.35029
-19.3743 -11.2954 -2.47213
-19.1837 -11.5604 -2.2116
-17.9672 -11.9229 -0.561234
-19.0477 -11.0695 -2.33788
-19.2089 -11.05 -2.70669
-19.1318 -11.72 -2.76031
-19.2929 -11.3188 -2.32265
-17.3807 -11.6545 0.137258
-18.238 -11.6389 -0.99225
-18.8245 -11.706 -2.15015
-18.7686 -11.4298 -2.05275
-16.7858 -12.7629 0.206643
-18.484 -11.4851 -1.89046
-17.244 -12.267 -1.13149
-18.8918 -11.5574 -2.47405
-18.7012 -11.3572 -2.73807
-18.0763 -11.6855 -1.58511
-16.7005 -12.3932 -0.497869
-17.1411 -11.7706 -0.0312202
-18.0134 -11.6631 -1.57783
-18.8168 -11.7618 -2.54117
-17.748 -11.7205 -2.77337
-17.8513 -11.7625 -3.21727
-17.3701 -11.8686 -0.926265
-16.5474 -11.8226 -1.29474
-16.6192 -12.4398 -1.48463
-16.4839 -12.0337 -0.426428
-16.9156 -11.6059 -2.12803
-16.0975 -11.9796 -0.867485
-16.1639 -11.7151 -2.49339
-15.9204 -12.9242 -1.79228
-15.0916 -12.8074 -1.82232
-15.2614 -12.324 -2.89522
-14.4814 -12.8221 -3.00833
-14.3813 -12.9112 -3.30734
-20.9659 -11.39 0.376242
-20.0994 -11.9513 0.394654
-20.1787 -11.5429 0.292047
-19.6604 -11.736 0.478857
-20.8254 -11.4749 -1.46148
-20.5733 -10.6233 -1.67543
-20.4748 -11.5063 -0.514113
-20.1035 -11.0504 -1.49224
-20.3415 -10.689 -1.99004
-17.0204 -10.1096 1.37053
-19.4805 -11.2479 -1.85378
-17.0668 -10.4263 1.45868
-19.3916 -11.1326 -2.56281
-17.0872 -10.4398 0.644588
-18.4692 -10.9491 -0.817211
-16.9407 -10.5698 1.71343
-17.7266 -12.1219 -0.0552059
-18.9991 -11.1353 -1.9599
-19.238 -11.4183 -2.21558
-19.1084 -11.496 -2.87031
-18.2096 -11.5198 -0.927542
-17.4127 -12.1586 -0.181613
-18.9817 -11.2703 -2.5764
-16.4931 -11.7852 0.514826
-17.6841 -11.5015 -1.69966
-18.6309 -11.2925 -2.96229
-17.5737 -11.5517 -1.2769
-17.4136 -12.1385 -1.20418
-16.7969 -11.8391 -1.66064
-16.0109 -12.6675 -0.552022
-16.7131 -11.5426 -2.35986
-16.1255 -11.9148 -1.39296
-16.7403 -12.2107 -2.06059
-16.0405 -12.326 -0.987215
-16.9064 -11.2662 -2.65964
-16.9322 -11.4172 -3.43429
-16.398 -12.2292 -2.14029
-16.4584 -11.4379 -2.93915
-15.7458 -11.6205 -2.28988
-16.3977 -11.5148 -2.54712
-15.9685 -11.6771 -2.76851
-15.787 -11.9079 -2.7452
-15.8532 -11.7007 -2.465
-14.7004 -12.5583 -3.34335
-20.5261 -11.8591 0.614349
-19.5301 -11.5998 1.43982
-20.4291 -11.9894 0.561479
-20.3435 -11.5025 -0.726563
-20.4478 -10.9489 -0.573009
-20.3925 -11.3412 -0.0642157
-18.512 -11.7821 0.485644
-20.9605 -10.9354 -2.00329
-19.8869 -11.16 -0.919845
-20.7672 -11.5475 -1.89678
-20.467 -10.7631 -1.45837
-19.9122 -11.4549 -1.32888
-20.1988 -11.369 -1.16891
-19.8082 -10.9988 -1.9898
-19.826 -10.8875 -2.31275
-19.0516 -11.5446 -1.2198
-19.3349 -11.0347 -1.75173
-19.7952 -11.0088 -1.76313
-18.5585 -11.3855 -0.702862
-17.7378 -11.8713 0.170939
-19.4399 -11.9781 -2.51402
-19.0261 -11.8488 -1.65028
-18.4873 -11.5308 -1.3369
-18.4972 -12.2788 -1.39421
-18.2556 -11.3531 -1.09577
-19.8628 -11.0208 -2.70757
-18.9904 -11.5046 -2.35764
-18.4803 -11.3158 -2.93373
-17.6313 -11.7427 0.0913445
-17.5378 -12.1375 -0.0700895
-17.3561 -12.2945 -0.552962
-18.6776 -11.5999 -2.92523
-17.1129 -11.5345 -0.761481
-18.254 -11.7589 -2.9936
-16.7995 -11.7891 -0.556585
-17.7603 -11.6552 -1.30017
-17.0621 -11.6354 -0.902901
-16.4355 -12.5084 -0.241361
-16.2975 -12.5883 -1.05989
-16.747 -11.8172 -2.14843
-16.1626 -12.53 -0.715312
-16.1517 -11.6602 -1.21728
-15.8991 -12.2196 -1.72899
-15.9334 -12.0814 -1.87359
-16.3 -11.6643 -2.07532
-15.9245 -11.702 -2.09969
-15.2313 -12.5211 -2.01626
-15.0272 -12.5134 -2.64723
-20.1736 -11.7386 -0.0435452
-20.4019 -11.8526 -0.267562
-20.3646 -11.5671 -0.231265
-20.2134 -11.7808 -0.565514
-20.1701 -11.2398 -1.30825
-20.0925 -10.8802 -2.0135
-20.2184 -11.2583 -1.60316
-19.8061 -11.576 -1.16635
-16.1844 -10.6387 1.15422
-18.6828 -12.2355 -0.833288
-18.6927 -11.5424 -2.27416
-16.0717 -10.3896 1.42483
-19.1627 -11.5645 -3.07217
-18.4854 -11.0126 -3.00879
-17.4189 -11.8015 -0.306433
-17.7454 -12.0898 -0.667004
-17.2523 -11.9354 -1.08795
-18.5457 -11.5694 -2.4477
-17.3311 -11.7801 -1.95943
-15.4693 -13.0164 -0.758418
-15.376 -12.584 -3.02204
-20.3812 -10.7578 -1.53335
-20.307 -10.951 -2.17577
-20.7365 -11.5331 -2.28181
-17.1263 -10.8065 1.16011
-19.7083 -11.4038 -2.90929
-17.5924 -12.1437 -0.330751
-17.0692 -11.9524 0.0312494
-17.115 -11.7888 -0.772045
-18.09 -11.9306 -2.09585
-16.1334 -12.6197 -0.593932
-16.3336 -12.3852 -0.720337
-15.9539 -12.8423 -0.576661
-16.3838 -11.201 -2.6063
-15.7139 -12.1189 -2.32411
-20.1818 -11.456 0.174635
-18.7611 -10.988 -0.0232493
-19.6202 -11.4472 -0.727205
-18.5533 -11.5573 0.130729
-17.2033 -12.0353 -0.889744
-16.7056 -12.5252 0.699861
-16.1382 -11.9886 -2.82564
-18.805 -10.8205 0.384724
-18.5244 -11.4357 -0.690124
-16.8374 -11.9669 -1.53023
-17.1076 -12.3228 -2.06683
-16.6395 -11.5567 -1.60045
-15.8155 -12.6665 -1.07899
-15.4857 -12.6888 -1.37036
-18.5057 -10.8867 0.249889
-16.3934 -11.7165 -2.08053
-17.2917 -10.4268 1.37547
-16.9928 -12.2942 -0.52841
-16.7516 -12.1127 -0.995944
-16.291 -12.0762 -0.951824
-16.116 -11.6642 -2.43226
-20.5987 -11.5072 0.584331
-20.2746 -11.6024 0.335918
-20.6372 -11.5166 -0.00981624
-20.4959 -11.8937 -0.227043
-19.8699 -11.4606 -0.166979
-18.7967 -11.3444 0.512354
-18.9959 -11.3388 0.589429
-17.0115 -10.7772 1.03625
-20.804 -11.3803 -1.20944
-20.4661 -11.1013 -0.671306
-19.4372 -11.1059 -0.621641
-18.358 -11.699 0.277625
-19.9468 -11.3354 -1.22156
-20.3752 -11.0565 -1.54496
-18.7361 -11.5444 -0.221694
-20.1899 -10.9826 -1.47524
-20.7626 -11.2881 -1.78933
-20.6485 -11.0713 -1.42967
-20.8308 -11.2578 -1.87777
-20.1085 -11.3407 -1.52686
-18.0372 -12.0628 -0.8283
-20.4343 -11.1262 -1.71446
-19.7869 -11.2368 -1.12531
-20.4176 -11.1903 -1.80425
-18.2748 -12.0304 -0.753393
-19.3846 -12.2252 -1.45895
-16.419 -12.6305 0.274181
-19.4781 -11.7187 -1.51022
-18.1321 -12.1552 -0.988398
-17.6217 -12.1157 -0.633659
-17.2924 -11.9439 -1.19086
-17.9474 -12.0537 -0.651814
-19.2769 -11.315 -2.34254
-17.9224 -12.1059 -0.759659
-20.7708 -10.3837 -2.5897
-17.9594 -12.1746 -0.862542
-19.2959 -11.4392 -1.93513
-17.7076 -11.7714 -0.760886
-17.3245 -11.9875 -0.583728
-19.6581 -11.3444 -2.36498
-18.5398 -11.6041 -2.11029
-15.658 -12.3295 -0.697064
-18.6205 -11.847 -2.48531
-19.3229 -10.9461 -2.54356
-16.3061 -12.6937 -0.119914
-18.6178 -11.2514 -2.21434
-17.983 -11.4933 -1.80071
-16.4005 -11.9605 -0.589787
-17.9979 -11.4236 -3.06093
-15.8032 -12.4661 -2.27503
-20.7661 -11.5152 -0.0694256
-20.5151 -11.3132 0.276697
-19.9622 -11.8624 0.172101
-20.0455 -12.1256 0.551413
-20.3488 -11.7393 -0.054048
-17.2596 -10.1176 1.07116
-17.2501 -10.0918 1.48935
-16.6262 -10.3613 1.30416
-19.8471 -11.9446 0.287873
-19.0828 -11.3612 0.370693
-18.8823 -11.2027 0.410083
-16.6949 -10.4848 1.60515
-20.9788 -11.8738 -0.780704
-16.7774 -10.4775 1.3088
-20.5593 -11.5919 -1.36986
-16.9339 -10.7925 1.00482
-16.6006 -10.6897 1.09741
-18.5268 -11.0028 -0.0397069
-18.5771 -11.7449 0.484564
-18.5241 -11.5023 0.210057
-17.8545 -11.8988 0.382335
-20.2847 -11.3869 -0.565029
-19.9656 -11.2545 -1.24965
-19.9403 -10.5967 -1.33642
-20.4588 -11.0376 -0.892814
-19.4689 -11.6813 -0.913641
-17.6111 -11.5454 0.192014
-20.1976 -10.3823 -2.33862
-16.4083 -12.3615 0.53225
-20.4842 -10.709 -1.81365
-20.0225 -11.0856 -1.93358
-19.9677 -10.8501 -2.43706
-19.5392 -10.9233 -1.70389
-17.1694 -11.9779 -0.336103
-19.4612 -11.3696 -1.93685
-16.9746 -11.8967 -0.616129
-19.8521 -10.6847 -2.55665
-20.1291 -11.1127 -3.02166
-18.0383 -12.0123 -1.37363
-19.4697 -11.1716 -2.39904
-17.6084 -11.9918 -0.952903
-16.1801 -12.5461 -0.352418
-18.9412 -11.8755 -2.81267
-19.8768 -10.8319 -3.05038
-18.6787 -11.4054 -2.64883
-16.6697 -11.9919 -1.28176
-19.8206 -11.1476 -3.44311
-18.3701 -11.2095 -3.13163
-18.8321 -11.7533 -2.56797
-18.755 -11.2086 -3.15074
-16.4113 -12.5709 -0.945223
-17.9899 -11.2763 -2.97972
-16.8835 -12.3789 -1.60198
-17.2688 -11.6954 -1.85691
-18.0154 -11.4819 -3.15974
-15.5886 -12.2673 -2.00726
-15.8693 -11.5425 -1.95391
-20.0587 -12.2906 1.48121
-20.3868 -11.9422 0.321228
-20.4158 -11.4543 0.0834794
-19.9015 -11.5306 -0.153692
-16.5679 -10.4255 1.48922
-20.6244 -11.4994 -1.17612
-19.586 -11.7143 0.191105
-20.8998 -11.1296 -0.627623
-16.7424 -10.0821 1.19462
-17.0917 -10.484 0.896454
-19.6132 -11.3515 -0.716483
-19.7483 -11.3211 -0.940686
-20.5298 -10.6166 -1.80132
-20.1069 -11.6023 -1.02275
-19.6748 -11.9061 -0.863774
-18.1311 -11.5119 -0.479611
-18.4634 -11.435 -1.10061
-16.884 -11.65 -0.351006
-19.3184 -11.4216 -1.68049
-17.6459 -12.333 -1.33586
-18.2641 -11.3752 -1.81691
-18.3999 -11.727 -1.79532
-17.3124 -11.7999 -0.884312
-18.684 -11.7312 -2.14217
-16.8439 -12.4881 -1.01339
-17.3815 -11.9264 -0.840216
-17.8879 -11.4422 -1.7042
-16.8937 -11.5113 -1.88614
-18.5563 -11.8346 -2.02502
-16.5069 -11.9687 -1.48201
-16.1971 -11.7196 -1.51459
-15.9255 -12.8344 -1.20271
-15.7929 -12.5918 -0.779116
-16.2952 -11.977 -1.97345
-17.0066 -11.4898 -1.85608
-16.0242 -11.9107 -2.43618
-20.6665 -11.6219 0.435754
-16.8855 -10.5836 1.42287
-20.1988 -11.5114 0.424691
-18.8042 -11.0359 1.12118
-18.424 -11.5856 0.714935
-19.9756 -11.6659 -0.810316
-18.9857 -11.1589 0.318502
-20.083 -11.6503 -0.161834
-19.7653 -11.5288 -0.569957
-20.0787 -11.9776 -0.0260956
-18.6908 -12.0041 0.18211
-18.4856 -11.4665 0.394222
-18.1098 -10.9739 0.213533
-18.0589 -11.8426 0.29077
-18.2657 -11.5144 0.458499
-17.5686 -11.3611 0.137984
-20.3083 -10.9091 -1.31853
-17.6726 -11.9312 -0.00157937
-19.603 -11.1035 -1.63945
-17.3454 -12.3911 -0.262428
-17.1621 -11.727 -0.081067
-17.1762 -12.0077 -0.56839
-18.3402 -11.821 -1.1137
-17.3038 -11.8813 -0.444048
-19.1901 -11.8907 -1.96549
-16.8343 -11.9124 -0.945634
-18.0346 -11.6451 -1.59544
-17.2702 -11.7027 -0.498568
-17.2708 -11.5967 -1.79881
-15.6808 -12.582 -1.13385
-16.2413 -12.6046 -1.20271
-16.5422 -12.0863 -1.39006
-16.6749 -11.9456 -2.10688
-17.1234 -11.3855 -2.25214
-20.5431 -10.9341 -0.61886
-19.8284 -11.8791 0.0394701
-17.7505 -11.3445 0.32319
-16.1651 -10.6428 1.3138
-18.669 -11.5991 -0.612106
-19.5134 -11.3804 -1.44567
-17.756 -12.2671 -0.869704
-19.3712 -11.7016 -2.1056
-17.1408 -11.865 -1.29445
-16.1212 -12.708 -0.367396
-17.6519 -11.4385 -1.23152
-18.7377 -11.1778 -2.93538
-16.3611 -12.7152 -0.70629
-16.3373 -12.1694 -1.20009
-16.929 -11.2627 -2.28557
-20.8416 -11.546 -0.703417
-16.994 -10.4682 1.23558
-16.5973 -10.4194 1.31985
-16.6244 -10.518 1.5922
-19.0892 -11.649 -0.703427
-16.9016 -12.1021 -0.368743
-19.4624 -10.7352 -2.78127
-16.3443 -11.9839 -1.37206
-18.0268 -12.1409 -1.6722
-16.2566 -12.1071 -1.28212
-15.4049 -12.2656 -2.22066
-18.2318 -11.1377 0.08334
-16.887 -12.1096 -0.74733
-20.5059 -11.5494 0.447063
-19.6317 -11.6196 -1.33135
-16.6723 -12.3421 0.61121
-17.8307 -11.5492 -0.746832
-15.7788 -12.8453 -1.05756
-16.71 -11.9852 -2.09588
-20.6191 -11.3798 0.0234403
-19.1911 -11.3884 -1.33361
-17.5894 -12.0279 -2.00805
-16.9541 -11.066 -2.20662
-15.896 -11.9746 -2.22628
-17.1419 -12.3439 -0.310004
-16.6094 -11.293 0.10206
-17.2536 -10.3198 1.46092
-20.2702 -10.8781 1.07679
-20.2777 -11.4211 0.817685
-19.8143 -11.4713 1.2598
-16.8939 -10.7031 1.45616
-16.6767 -10.8175 1.68225
-17.2219 -10.4986 1.30665
-18.0116 -10.5178 1.11979
-18.9302 -11.4676 0.993633
-20.0393 -11.3842 0.72228
-17.1374 -10.8595 0.975014
-16.8773 -10.555 1.27538
-20.1315 -11.5462 0.643999
-20.1068 -11.7098 0.303774
-20.6869 -11.5062 0.510084
-20.7834 -11.6208 0.426672
-20.185 -11.5181 0.439659
-19.9676 -11.8204 0.265797
-20.5741 -11.4177 0.252899
-19.3164 -12.1163 0.256711
-20.0271 -12.0237 0.369992
-20.1769 -11.0499 0.442105
-20.6933 -11.1212 0.206876
-18.3736 -11.5684 0.190973
-18.5943 -11.7165 0.00197914
-18.4873 -11.3031 0.188279
-18.5852 -11.8331 0.276288
-17.8984 -11.7796 0.412581
-17.902 -11.2446 0.268469
-20.3776 -11.4765 -0.196744
-18.1662 -11.97 0.452896
-17.8336 -11.2609 0.353269
-20.0555 -11.8686 -0.396793
-20.6244 -11.5789 -0.466853
-19.8468 -11.8083 0.554407
-16.9479 -11.7236 0.774007
-18.6054 -11.814 0.150298
-18.4561 -12.2869 0.678928
-18.8222 -11.6017 0.382345
-19.0077 -11.1216 0.417444
-18.2201 -11.6334 0.519175
-17.1677 -12.1674 0.240644
-16.4727 -12.6143 0.322165
-20.5998 -11.3774 -0.520568
-18.373 -11.0519 -0.0429307
-16.6414 -12.1292 0.377025
-20.1219 -12.0448 -0.551311
-20.1935 -11.1508 -0.809984
-21.0049 -11.484 -0.393669
-20.3773 -11.5764 -0.376858
-20.6184 -11.4754 -0.134874
-20.2151 -11.3999 -0.17794
-20.0122 -11.4402 -0.852996
-19.6766 -11.7155 -0.424993
-20.4583 -11.1148 -0.884058
-19.4767 -11.8467 -0.451613
-20.0544 -11.16 -0.420722
-19.9344 -11.1094 -0.499323
-19.5382 -11.4794 -0.859509
-18.8234 -11.8573 -0.388373
-19.0325 -11.4667 -0.569393
-19.7656 -11.7816 -0.271156
-19.5901 -11.5647 -0.913398
-19.0551 -11.7951 -0.356998
-17.9792 -12.176 -1.07674
-19.8953 -11.8502 -0.606035
-20.6368 -10.9548 -0.750499
-19.5886 -11.3661 -1.08217
-17.4602 -11.9931 -0.229356
-19.5749 -11.9657 -1.07947
-18.685 -11.5841 -0.363913
-20.5029 -11.2306 -0.862961
-19.4493 -12.0724 -0.46601
-19.9851 -11.8394 -0.785724
-17.2716 -12.2071 0.0528861
-20.1034 -11.5164 -1.21556
-16.985 -12.069 -0.00460475
-17.6765 -12.1076 -0.189769
-18.4677 -11.1969 -0.354517
-19.5669 -11.6411 -0.773121
-20.0554 -11.3717 -1.15763
-20.5252 -11.5919 -1.34264
-19.9571 -11.4506 -1.3975
-20.0932 -11.6985 -0.956122
-20.3342 -11.4017 -1.16607
-16.9129 -11.8216 -0.246523
-17.1792 -11.623 -0.155648
-18.5571 -11.3992 -1.02775
-19.9084 -10.9208 -1.33495
-19.8209 -11.384 -1.35446
-19.8283 -11.5397 -1.13996
-19.6587 -11.2608 -1.37621
-18.6908 -11.6471 -1.26451
-19.2984 -11.3417 -1.27121
-20.5325 -11.5441 -1.07338
-17.1932 -12.3546 -1.01551
-19.3973 -11.4696 -1.54192
-19.72 -11.5804 -1.07583
-19.0958 -12.1372 -1.97717
-19.286 -11.4285 -1.41265
-19.4137 -11.5584 -1.28938
-20.7727 -11.0594 -1.49697
-19.6055 -11.3188 -1.82008
-19.8319 -11.5321 -1.34902
-20.9828 -11.1544 -1.68221
-18.301 -11.4844 -1.14967
-20.4848 -11.2355 -1.4248
-20.1732 -11.5594 -1.48151
-16.325 -12.4738 -1.35707
-20.232 -10.4946 -1.63794
-19.7919 -11.3377 -1.83521
-19.7443 -11.7537 -1.20253
-20.7018 -11.0721 -1.44154
-19.6975 -11.7419 -1.59485
-19.4258 -11.6554 -1.63543
-18.6256 -11.6574 -1.86404
-18.9802 -11.489 -1.87934
-18.8056 -11.3749 -1.44875
-18.7084 -11.913 -1.66451
-18.8877 -11.3962 -1.86818
-20.4052 -11.0267 -2.3971
-16.7877 -11.9711 -0.990688
-20.4023 -10.8634 -2.21668
-19.8825 -11.6238 -1.44026
-20.6645 -11.0155 -1.88474
-20.6916 -10.7225 -2.03718
-20.4106 -11.3086 -1.80194
-19.5469 -10.9551 -1.95786
-18.5087 -12.0022 -1.86739
-20.6064 -11.1282 -2.03905
-19.6637 -11.2986 -2.01606
-18.2371 -11.8106 -1.9303
-17.907 -11.602 -1.78257
-20.0228 -11.2447 -1.94545
-19.5983 -11.3667 -2.33204
-19.0029 -11.359 -2.47789
-19.1419 -11.2495 -2.50066
-20.2635 -10.8558 -2.22669
-20.1298 -10.5842 -2.56085
-18.7123 -11.3457 -2.08853
-19.3066 -11.3925 -2.13245
-20.3102 -10.6292 -2.49306
-19.3817 -11.1271 -2.54116
-20.0157 -11.3594 -2.63836
-20.4477 -10.4862 -2.65283
-16.7467 -11.3849 -2.58303
-19.3685 -11.1795 -2.98817
-17.0838 -11.1834 -2.47641
-17.6376 -11.6485 -2.43175
-19.6968 -11.8357 -2.72799
-15.7291 -12.3884 -2.25782
-18.9692 -11.4858 -2.84596
-18.3298 -11.4849 -2.90423
-19.0554 -11.5422 -2.58808
-16.0258 -11.779 -2.21652
-18.3473 -11.3704 -1.81141
-15.2396 -12.9411 -2.97328
-18.4073 -11.6697 -3.10424
-17.7866 -11.4432 -3.42958
-18.0177 -11.6704 -2.68392
-15.1636 -12.7759 -3.17232
-14.8073 -12.8107 -3.04255
-17.5492 -10.7996 2.02079
-17.463 -10.5137 1.81879
-19.4079 -11.1974 0.970437
-16.9241 -10.5455 1.38347
-19.3846 -11.8719 1.18101
-17.7536 -10.1153 1.22582
-16.3811 -10.3998 1.75749
-17.0994 -10.1818 1.45625
-19.6049 -11.6498 0.519127
-20.4851 -11.4071 0.855206
-20.632 -11.6324 0.590695
-19.0988 -11.6322 0.843711
-20.1997 -11.8269 0.715338
-20.2629 -11.9597 0.742652
-19.6354 -12.0412 0.117588
-19.4728 -12.0122 0.298314
-20.9133 -11.6274 0.113036
-20.5735 -11.6865 0.431791
-18.4796 -11.7859 0.263075
-19.802 -11.7908 -0.0565141
-19.8332 -11.9487 -0.429744
-20.2734 -12.1431 0.182131
-16.7456 -12.2081 0.671677
-17.5548 -11.6835 0.730844
-17.735 -11.9533 0.530882
-20.3925 -11.1372 -0.05865
-17.4992 -12.429 0.422593
-20.136 -11.6185 -0.399312
-17.3718 -11.9609 -0.117219
-20.6858 -11.0123 -0.343612
-20.5531 -11.1622 -0.369206
-19.7394 -11.9798 0.348794
-20.3361 -11.4368 -0.305542
-20.393 -10.9289 -0.0648638
-19.9616 -11.4722 -0.308127
-19.0388 -11.4159 0.135695
-17.2351 -11.5855 -0.0383585
-17.2214 -12.0156 -0.397203
-19.777 -12.0224 -0.346589
-17.4636 -11.9 0.0180817
-17.2564 -11.9359 -0.257822
-17.2023 -12.1175 -0.322277
-16.3437 -12.4253 -0.312578
-15.9679 -12.4497 -0.727995
-17.8336 -11.5987 -0.969202
-16.5221 -11.733 -0.669791
-20.0408 -11.0813 -1.15633
-17.0097 -12.1092 -0.675825
-18.1066 -11.9535 -0.695932
-19.1029 -11.8042 -1.37061
-17.3121 -11.7314 -1.08053
-18.1254 -11.5754 -0.482483
-17.5659 -11.8204 -0.776816
-19.4269 -11.5132 -1.03149
-16.2991 -12.307 -0.554715
-20.6522 -11.4067 -1.69182
-19.6583 -11.4395 -1.69032
-20.0458 -11.5542 -1.5379
-21.0012 -10.683 -1.52743
-19.1231 -11.3893 -1.57002
-18.0939 -12.3546 -0.668604
-20.5997 -11.1838 -2.09633
-16.4199 -11.9272 -1.24749
-18.8208 -11.1292 -1.6084
-18.904 -11.721 -1.4449
-16.0726 -12.2004 -1.28185
-18.9327 -11.7692 -1.91793
-18.7017 -11.7644 -1.58157
-20.3514 -10.738 -1.78517
-18.5394 -11.7542 -1.54398
-19.2701 -11.3567 -2.24062
-19.9062 -11.3535 -2.15233
-15.1629 -12.3853 -1.63332
-19.7917 -11.2345 -2.16986
-17.628 -11.6003 -2.25168
-17.7021 -11.5419 -2.34615
-17.1162 -11.6097 -1.75818
-15.5286 -12.2454 -1.97279
-20.2624 -10.7056 -2.18903
-18.4009 -11.7906 -2.3098
-16.8257 -11.7378 -1.58854
-18.8957 -11.2433 -1.79128
-19.2483 -11.4387 -2.80842
-19.6472 -10.5152 -2.57136
-17.184 -11.1365 -2.30816
-19.0358 -11.5974 -2.2265
-16.7433 -11.6967 -1.73196
-18.8446 -11.1664 -2.96197
-20.5507 -10.7332 -2.8444
-18.5135 -11.5986 -2.84268
-16.8621 -11.8041 -2.46424
-19.9022 -11.1544 -3.10484
-17.0576 -11.64 -2.39301
-15.5571 -11.8221 -1.87493
-19.4878 -10.8944 -2.75485
-17.6875 -11.2359 -2.9732
-17.8665 -11.5612 -2.94389
-16.2163 -10.8023 1.94344
-18.9025 -10.905 1.15201
-19.2936 -11.5922 1.41375
-16.1849 -10.7389 1.8222
-19.2825 -11.6414 1.38018
-19.4069 -11.9409 1.40969
-16.9425 -10.4418 1.24449
-16.8165 -10.0381 1.15298
-18.7136 -11.5917 1.08998
-18.8493 -11.4628 1.33665
-20.2232 -11.6886 0.824371
-16.4671 -10.4099 1.73813
-19.4909 -11.9054 0.54051
-19.8804 -12.0269 0.347832
-20.2041 -11.6037 0.100577
-20.2105 -11.1665 0.11518
-17.9172 -11.9899 0.371784
-17.2084 -11.6888 0.36319
-17.1273 -11.6822 0.284522
-19.925 -11.7724 0.111886
-19.796 -11.7192 -0.298497
-20.993 -11.2242 -0.708211
-19.173 -11.8898 -0.516486
-16.5913 -12.4205 -0.0435978
-16.1298 -12.0993 0.0176526
-16.9311 -12.4452 -0.568658
-17.2541 -12.0921 -0.576531
-18.0373 -11.5106 -0.928823
-18.0492 -11.6985 -0.511561
-15.9339 -11.944 -0.795953
-16.6576 -11.7942 -0.893481
-17.7892 -11.6889 -1.02611
-19.4281 -11.5225 -1.30493
-20.206 -10.7639 -1.37805
-20.5102 -10.9715 -1.64572
-19.7447 -11.1713 -1.89522
-18.0311 -11.8271 -1.11686
-19.1672 -11.7084 -1.38092
-20.0965 -11.4698 -1.78365
-15.6653 -12.1415 -1.14223
-17.5373 -12.045 -1.77399
-17.6416 -11.8761 -1.80085
-16.1134 -12.0909 -1.37441
-19.3836 -11.1158 -2.04731
-18.1866 -11.1327 -2.25677
-17.2901 -11.3356 -2.23895
-16.4651 -12.2123 -2.42285
-19.3379 -11.7728 -2.97127
-18.565 -11.4494 -2.32339
-16.1652 -11.9303 -2.40052
-16.7426 -11.7003 -2.25131
-19.52 -11.3921 -2.82765
-19.834 -11.4183 -2.40398
-17.0881 -11.2558 -2.03701
-20.2086 -11.0748 -2.86025
-18.3428 -11.2956 -2.59244
-16.6812 -11.6206 -2.53496
-15.0909 -12.8962 -3.66846
-18.9552 -10.956 1.58439
-18.1469 -10.6403 0.939462
-18.9362 -12.2096 1.17281
-17.9041 -10.2838 1.27386
-18.8516 -11.3298 0.12436
-19.2028 -11.3459 0.92289
-20.3548 -11.1668 0.145736
-21.1191 -11.856 0.329606
-20.098 -11.5753 0.436975
-18.9319 -11.0806 0.567237
-19.974 -11.4139 0.196297
-18.5144 -11.2674 -0.131947
-18.3758 -11.0368 0.0922328
-19.2461 -11.7737 -0.31884
-20.1963 -12.2973 -0.340483
-17.5808 -12.4223 -0.277392
-20.1741 -11.322 -0.872295
-19.729 -11.9061 -0.882212
-16.3955 -12.2282 -0.31431
-20.3273 -11.449 -0.839873
-18.9799 -11.5255 -1.23907
-19.4224 -11.7037 -0.666667
-19.6501 -11.2976 -1.51369
-18.9747 -11.6848 -1.46336
-16.6695 -12.4639 -1.69525
-16.0339 -12.1016 -0.911357
-18.01 -11.8858 -1.42888
-15.4971 -12.3355 -1.5858
-16.1266 -11.9373 -1.22038
-19.4194 -11.5682 -2.00358
-18.3809 -11.2772 -1.68651
-16.2329 -12.0973 -2.2608
-20.2647 -11.1418 -2.92587
-20.0621 -10.9306 -2.82401
-14.8315 -13.0574 -2.96265
-19.646 -10.9032 1.69414
-16.1207 -11.9865 0.65492
-19.9913 -11.5753 -0.944919
-18.4973 -11.1624 -0.845672
-17.2316 -11.7416 -0.216047
-17.0235 -12.3223 -0.0622651
-19.2866 -11.5261 -0.836065
-19.6926 -11.695 -1.31611
-17.8372 -11.666 -0.773512
-19.3684 -11.423 -1.25881
-16.44 -12.1157 -1.68337
-16.0725 -11.7987 -1.39776
-15.2749 -12.448 -2.05119
-15.9012 -11.8966 -2.07625
-18.9797 -11.5039 -3.28424
-19.9111 -10.7376 -2.41955
-17.2294 -11.2783 -2.42285
-18.576 -11.7707 0.480998
-20.2096 -11.8781 0.505233
-17.6212 -11.5511 -0.218281
-17.4891 -12.0898 -0.468303
-16.6944 -12.2385 -0.442127
-16.8825 -11.8458 -0.672993
-17.0798 -12.1637 -0.827339
-20.5997 -10.9877 -1.76812
-16.6485 -12.053 -1.79457
-15.4808 -12.4623 -1.99701
-17.0288 -11.7986 -1.4843
-16.034 -11.906 -1.54629
-17.0208 -12.071 -1.88463
-17.6555 -11.1796 -1.84552
-18.6302 -11.4557 -2.18806
-17.5922 -11.6551 -1.77396
-16.0649 -11.9595 -2.45604
-15.3741 -12.0699 -2.2456
-14.3611 -13.2321 -2.6732
-20.4553 -12.0441 0.205484
-16.8127 -12.4107 -0.0292707
-19.1613 -11.4197 -0.26589
-17.1331 -11.5855 -0.679426
-19.5564 -11.6544 -1.04665
-16.5422 -12.2655 -0.877194
-18.8451 -11.625 -1.8557
-17.8204 -11.1832 -2.05488
-17.5476 -11.3537 -2.12494
-19.3275 -11.3051 -2.8353
-15.5594 -11.6915 -2.41719
-17.7295 -12.4684 -0.363605
-17.7767 -12.4877 -0.485949
-19.4811 -11.4117 -0.729535
-19.755 -11.4984 -0.323463
-17.5403 -11.8955 -2.00849
-20.1074 -10.9598 -2.38483
-17.4177 -11.4612 -2.59347
-15.679 -11.7 -3.01269
-19.0474 -11.3375 -0.335155
-17.316 -11.9503 -0.0907549
-17.0196 -12.2312 -1.07272
-17.8117 -11.8289 -0.953561
-17.7308 -10.7902 1.55602
-17.4708 -11.9686 0.133264
-16.4565 -11.7319 -1.19521
-16.5947 -11.2657 -2.14894
-17.3388 -12.3949 -0.546294
-16.5752 -11.8238 -2.41164
-18.5921 -11.228 -3.26962
-19.3265 -11.5921 -2.63482
-19.3693 -11.1222 -3.25832
-19.8444 -11.0008 -3.13242
-17.1557 -11.2252 -2.19313
-20.1537 -10.8728 -3.10567
-20.3152 -11.0297 -2.97937
-19.3012 -11.4434 -2.4399
-19.4073 -11.1736 -2.68378
-18.64 -11.7585 -2.59999
-19.2369 -11.5436 -3.0723
-18.521 -11.54 -2.21725
-20.0544 -11.0045 -2.41232
-18.5391 -11.7776 -2.5936
-19.413 -10.7545 -2.10487
-16.6202 -12.2704 -1.81005
-16.3945 -11.8866 -1.9425
-16.6584 -12.2027 -1.81289
-18.3327 -11.4001 -2.14483
-18.6365 -11.4075 -2.17353
-16.2446 -11.915 -1.32451
-19.4942 -11.9997 -1.49046
-18.4279 -11.4842 -1.65672
-20.3269 -11.011 -1.60942
-19.6009 -11.4181 -1.26327
-20.3964 -11.1018 -0.888147
-19.85 -11.1884 -1.56551
-17.3704 -12.2367 -1.07119
-19.2859 -11.7641 -0.830581
-16.8946 -11.7678 0.216517
-18.1517 -11.7946 -1.06498
-17.9016 -12.218 -0.377154
-19.4619 -11.4643 -0.234475
-20.1548 -11.4224 -0.788996
-19.9019 -11.7732 -0.989426
-19.0112 -11.5041 -0.0229841
-19.845 -11.5945 -0.614249
-17.6321 -11.9842 -0.5893
-19.9485 -11.3833 -0.19914
-20.1134 -11.5388 -0.341083
-19.9199 -11.9092 -0.353662
-20.3903 -11.7505 -0.180995
-20.321 -11.2622 -0.257977
-18.8768 -11.4076 0.189199
-18.4173 -11.6762 -0.220588
-20.2495 -11.8223 -0.23178
-20.5612 -11.4744 0.577714
-20.522 -11.436 -0.22136
-17.0469 -12.1294 0.878102
-17.7216 -11.4162 0.878357
-18.215 -11.8277 0.515421
-17.3898 -12.1815 0.435724
-16.431 -12.3507 0.689159
-17.8069 -11.4716 0.305116
-18.6438 -10.9584 0.760577
-19.8866 -11.6164 -0.177406
-20.9168 -11.2506 0.105573
-20.6068 -11.3287 0.139087
-20.1407 -11.6933 0.0452109
-20.3573 -11.8553 0.804962
-20.6677 -11.272 0.460629
-20.9011 -11.8405 0.566547
-16.2768 -10.6547 1.23459
-16.4269 -11.1006 1.50691
-16.095 -10.5853 1.64929
-18.8201 -11.9523 1.39331
-17.3056 -11.4963 -2.67713
-19.7095 -11.9687 -2.69079
-20.1629 -10.7953 -2.32224
-17.034 -11.5091 -1.8742
-17.058 -12.3187 -1.49417
-16.3009 -12.2964 -2.23942
-17.103 -12.281 -1.1241
-16.3153 -12.0788 -1.4508
-18.9374 -11.4491 -1.6339
-15.7984 -12.8309 -0.856766
-19.3659 -11.307 -1.19281
-18.0625 -11.95 -1.04399
-16.7049 -12.4274 -1.09256
-19.8862 -11.6281 -1.12929
-19.7805 -11.1636 -0.718519
-19.3844 -11.9892 -0.993865
-19.711 -11.1444 -0.775028
-20.2364 -11.5739 -0.923951
-17.2426 -12.4609 0.0384804
-17.6318 -11.9859 -0.321715
-16.8986 -12.2228 -0.222093
-19.0423 -11.2478 -0.263563
-20.553 -11.705 -0.422976
-19.6068 -11.6914 -0.267006
-19.873 -11.7186 -0.585649
-19.0667 -11.6632 0.253879
-18.2515 -11.8254 0.0726193
-15.8216 -12.205 -0.241939
-19.7013 -11.5954 -0.0894428
-18.093 -11.7483 0.0168957
-18.0705 -11.599 0.659435
-16.9381 -11.6945 0.159701
-16.5328 -12.0594 0.515747
-20.1239 -11.9026 0.374462
-19.9852 -11.6512 0.103257
-20.4153 -12.4464 0.358838
-18.9565 -11.7911 0.620624
-20.2894 -11.8464 0.736818
-20.4596 -12.0892 0.465618
-19.2288 -11.2855 0.92848
-19.1819 -11.5857 1.52392
-16.7808 -10.5564 1.38736
