-19.8367 -11.936 -1.13973
-19.8814 -11.1269 -2.04758
-20.1341 -10.8264 -1.91123
-19.5985 -10.7864 -2.72999
-19.6463 -11.2815 -1.18082
-19.471 -11.3783 -0.979372
-19.4509 -11.6619 -1.50343
-19.4303 -11.7265 -0.284508
-19.6067 -11.8067 -1.74074
-18.7457 -11.0683 -1.18538
-18.94 -10.9052 0.705122
-19.0308 -10.9383 -1.99074
-19.0741 -11.3612 0.600992
-19.0994 -11.1608 -2.17123
-18.1847 -11.2653 0.138524
-18.0213 -11.3561 1.45545
-18.6312 -11.586 -1.5045
-18.5722 -11.3176 -1.7642
-18.7784 -11.7547 -1.29685
-18.2824 -11.9436 -0.77302
-18.5864 -11.9733 -2.0425
-17.5056 -12.1976 -0.614975
-18.0969 -11.0144 -2.62208
-18.5565 -11.457 -2.13319
-17.7 -10.1522 2.06373
-17.8118 -11.759 -0.950432
-18.0275 -12.0523 -0.480576
-17.6379 -11.2603 -1.06761
-17.5425 -11.8945 -0.876738
-17.6045 -11.7262 -1.38227
-17.3785 -11.7473 -1.16546
-17.4276 -12.1604 -0.500319
-17.0974 -11.72 0.574534
-16.8513 -11.8507 -0.644293
-17.1754 -11.145 -2.14096
-16.8792 -11.5799 -1.92606
-16.8965 -12.1004 -0.488512
-17.2054 -11.7175 -0.294564
-17.2762 -11.6269 0.215087
-16.7814 -11.325 -2.90314
-16.3398 -12.5524 -0.551966
-16.5712 -12.0824 -2.1468
-16.4923 -12.1755 -1.01451
-16.8253 -11.6278 -1.96318
-15.8778 -11.7199 -2.31199
-15.851 -12.3226 -0.875019
-21.1683 -11.7023 -0.122125
-20.3976 -10.8075 -0.51206
-20.699 -10.6534 -2.20177
-20.1734 -10.5744 -2.38863
-19.8391 -10.7889 -2.14208
-20.4674 -11.2292 -1.63861
-19.5623 -10.8732 -1.38323
-19.1565 -11.3526 1.25074
-18.582 -11.7841 0.720338
-19.134 -11.6539 0.716354
-18.3407 -11.2714 0.885914
-18.8158 -11.0856 -1.45446
-18.5792 -11.7773 -1.45734
-17.6411 -10.3758 1.6196
-18.3046 -11.2176 -1.97542
-17.4485 -11.5178 -1.46332
-16.8338 -11.8711 -0.910368
-17.7834 -11.8589 0.485637
-17.4446 -11.7199 -1.0286
-17.7343 -11.3459 -1.12627
-16.8078 -11.4551 -1.71182
-16.5942 -12.0158 0.0915692
-16.9483 -11.8609 -0.928685
-16.4685 -12.1984 -0.216578
-16.4323 -12.1321 -0.748037
-16.0204 -12.5374 -1.26086
-16.0071 -12.5811 -0.666579
-16.1755 -12.5227 -1.20143
-15.9141 -12.0975 -0.58241
-16.0737 -12.4336 -0.487541
-16.1321 -12.5466 -1.29449
-16.1124 -12.0443 -1.01134
-16.1778 -12.4204 -0.855415
-15.2668 -12.6683 -1.15461
-20.3275 -10.8325 -1.0375
-20.4055 -11.3701 -0.796601
-20.1723 -11.8068 -0.478102
-19.148 -11.8042 -0.502852
-19.6346 -11.4814 -1.81099
-18.7543 -10.9046 -0.823823
-18.7782 -11.3195 -2.4958
-17.8195 -10.2727 1.39483
-17.4684 -12.1877 0.321638
-17.1215 -11.9748 -0.974661
-17.506 -12.2675 -0.565329
-17.2954 -12.4205 -0.507889
-16.5962 -12.1437 0.246486
-15.9285 -12.4759 -1.75697
-15.281 -12.1498 -1.73284
-15.4373 -12.0963 -1.87732
-20.3623 -10.6871 -0.854453
-17.6037 -11.5212 0.0247878
-16.9752 -11.9707 -1.79469
-16.8177 -11.7247 -2.22068
-15.8285 -12.3749 -0.577879
-15.7255 -11.836 -1.37958
-19.5791 -11.8505 -1.30669
-19.1227 -11.3187 -0.706491
-17.5678 -11.8934 -0.759997
-17.7653 -11.7648 -0.753418
-17.0055 -11.9886 0.321119
-16.4283 -12.1976 0.40742
-16.9827 -11.7731 0.237503
-16.844 -11.6159 -0.976658
-17.0123 -11.6582 -1.80652
-16.8901 -11.5527 -1.69339
-16.1984 -11.435 -2.20818
-17.7605 -11.4418 -1.55899
-17.3519 -11.7402 -2.2302
-15.8291 -12.9462 -1.18432
-19.6371 -11.1272 1.14719
-18.7209 -11.6898 1.40412
-18.5456 -11.031 0.426847
-17.519 -11.7961 -1.35505
-17.0471 -10.9689 -2.41866
-18.1091 -11.8126 -2.05488
-16.9613 -10.3214 1.71374
-17.2801 -10.2108 1.66832
-20.7711 -11.4784 0.871834
-19.908 -11.6657 0.947853
-20.628 -11.6224 0.108526
-18.9208 -11.8233 1.58929
-20.8728 -11.5525 0.25661
-20.3823 -11.4913 0.580647
-20.9923 -10.9857 0.0709333
-21.1114 -11.1447 -0.148324
-20.6885 -11.4722 -0.131373
-20.5031 -10.752 -0.210478
-18.6852 -11.586 1.28815
-21.0579 -11.3029 -0.498689
-20.9358 -11.57 -0.401364
-20.7289 -11.7833 -0.519646
-20.2448 -10.6814 -0.759314
-19.9557 -11.4846 0.154389
-20.3244 -11.3576 -0.410859
-19.174 -11.5946 0.041984
-19.9819 -11.0944 -0.726458
-19.8905 -11.4565 -0.494235
-19.8884 -11.5555 -0.238096
-20.1454 -11.7254 -0.216577
-19.9124 -11.4393 -0.603085
-19.6357 -11.6341 -0.592945
-20.2434 -11.0505 -0.464142
-20.129 -10.8621 -0.68603
-18.6594 -11.0633 0.39339
-20.0082 -11.2375 -0.268726
-20.1277 -11.7648 -1.22962
-20.5834 -10.6678 -1.65506
-20.5001 -10.6918 -1.66507
-19.853 -11.2843 -1.15615
-19.9805 -11.0293 -1.27243
-20.5992 -10.8592 -1.75995
-19.1359 -11.3771 -1.39766
-17.349 -11.661 0.445992
-17.3926 -11.7744 0.112208
-19.4813 -11.8982 -1.51164
-20.12 -11.2599 -1.26023
-17.7243 -11.9706 -0.488859
-19.7855 -11.2361 -1.33178
-19.8375 -11.3782 -2.10452
-20.4252 -10.7351 -1.17792
-20.5583 -11.2651 -1.55926
-17.3438 -11.7877 -0.0629917
-20.4286 -10.6804 -1.85363
-20.5903 -10.7008 -1.96932
-19.9483 -10.9712 -1.44257
-19.2388 -11.5463 -1.18384
-19.0245 -12.232 -1.22572
-19.6778 -10.8566 -1.59597
-18.9495 -11.5706 -1.50295
-19.2391 -12.0302 -1.0404
-19.4812 -11.163 -1.29146
-16.9824 -12.0806 0.236855
-20.6058 -10.8256 -2.32907
-20.5619 -11.3495 -2.38471
-19.9036 -10.3918 -2.08658
-17.7733 -11.7096 -0.269031
-18.0477 -12.0526 -1.28949
-16.25 -12.0967 0.286697
-18.1321 -11.8321 -0.887942
-18.3174 -11.1847 -1.14454
-17.9999 -11.843 -1.15587
-19.2622 -11.6811 -2.14465
-19.8205 -11.1656 -1.64759
-19.5789 -11.4689 -1.99287
-19.1239 -11.3432 -1.36328
-19.5006 -11.21 -1.79217
-17.8326 -12.2275 -0.175317
-17.0754 -12.1948 -0.154918
-16.9485 -11.6868 -0.114832
-19.7327 -10.9965 -2.50464
-19.7005 -11.1483 -1.99541
-19.2169 -11.6564 -1.78818
-19.7506 -11.9014 -1.99236
-19.576 -11.0518 -2.46673
-20.1179 -11.1294 -2.28922
-19.3233 -11.8302 -1.85254
-19.1224 -11.5188 -1.23787
-18.51 -11.664 -1.26281
-19.7139 -11.367 -2.33388
-16.7618 -11.9486 -0.308504
-19.7253 -10.6786 -2.36179
-16.7888 -11.6679 -0.537649
-18.6701 -11.8188 -1.70951
-19.4693 -10.9681 -2.5137
-18.033 -11.9138 -1.27518
-19.2622 -11.6472 -2.43209
-18.3325 -11.7559 -1.90662
-18.8214 -10.9794 -2.13413
-18.8259 -11.5413 -2.19563
-17.0645 -12.0625 -0.695047
-18.6658 -11.083 -2.45961
-18.7801 -11.3345 -2.72772
-16.7022 -11.6248 -0.640052
-19.7364 -10.8341 -2.66425
-19.0096 -10.9479 -2.1609
-17.0898 -12.0074 -0.900359
-19.2764 -11.5716 -2.72599
-18.7293 -11.1967 -2.2751
-19.0054 -11.1652 -2.51108
-17.7454 -11.4059 -2.23343
-17.2375 -12.0766 -1.92638
-18.8322 -11.3224 -2.91165
-18.5335 -11.1746 -2.13585
-19.3923 -11.2358 -3.09361
-19.1336 -11.138 -3.06086
-18.9104 -11.7239 -2.74669
-16.2296 -11.9132 -0.994438
-15.5327 -12.5576 -0.378924
-16.6375 -11.794 -1.56539
-18.8841 -10.9753 -2.66339
-18.8726 -10.9716 -2.8287
-18.6073 -11.3945 -2.61842
-18.7468 -11.8432 -2.8238
-18.4736 -11.7784 -2.52601
-17.8497 -11.5301 -2.91355
-18.6395 -11.2651 -2.55753
-18.125 -11.5291 -2.87779
-15.4695 -12.3989 -1.08071
-15.7431 -12.4906 -1.89938
-16.5191 -11.9806 -1.93717
-15.7789 -12.0003 -1.6777
-16.4368 -11.474 -2.48766
-15.5754 -11.4025 -2.05309
-20.513 -11.4862 0.774969
-19.4054 -12.1437 1.17956
-20.3414 -11.2101 0.588982
-21.0678 -11.4345 0.165368
-20.3005 -10.9971 0.507848
-20.9635 -11.3966 -0.0611521
-20.6026 -11.5512 -0.0950888
-20.5126 -11.1246 0.030937
-20.9579 -11.5129 -0.381459
-20.2198 -12.0348 -0.111132
-20.5659 -11.6797 -0.351804
-17.9532 -10.3619 1.15985
-20.3178 -11.4834 -0.647245
-20.6847 -11.435 -0.432242
-17.3929 -10.4181 1.23895
-19.4888 -11.693 -0.236866
-19.7532 -11.3303 0.00822148
-18.858 -11.5104 0.373541
-19.4234 -11.5847 -0.150791
-19.1681 -11.9314 0.268035
-18.6036 -11.1287 0.186612
-18.8013 -11.5163 0.249445
-19.5672 -11.8251 -0.440021
-18.8528 -11.435 0.242105
-19.5056 -12.094 -0.131435
-20.0713 -11.5819 -0.493613
-18.3135 -11.4609 -0.0948844
-18.6643 -11.388 0.173834
-19.1291 -11.7479 -1.09632
-18.3592 -11.236 0.262542
-20.3977 -11.693 -1.17796
-20.3116 -11.1215 -0.982239
-20.4951 -11.4953 -1.5027
-17.3248 -11.3375 0.821868
-19.6256 -11.4317 -1.6078
-20.7514 -10.8978 -2.21644
-19.4053 -11.825 -0.885343
-17.4267 -11.6881 0.266753
-19.7695 -11.0563 -1.13613
-19.5476 -11.6345 -1.48289
-17.4322 -11.7711 0.321246
-19.2815 -11.63 -0.933004
-19.5143 -11.324 -2.09284
-17.4533 -12.1007 -0.13335
-19.4512 -11.3553 -1.5544
-19.257 -11.9734 -1.34575
-19.3542 -12.1933 -1.29138
-19.2177 -11.8767 -1.22037
-19.4325 -11.6595 -1.54739
-19.1813 -11.2874 -1.56055
-19.6489 -11.3917 -0.777394
-16.8703 -11.652 0.35924
-17.694 -11.7347 -0.624919
-20.11 -11.0687 -2.39278
-19.0885 -11.617 -1.76967
-17.2202 -11.9519 -0.253944
-19.7866 -11.2858 -2.1027
-19.0345 -11.6966 -1.76154
-20.6191 -10.5682 -2.38539
-19.4293 -11.4959 -1.79273
-18.602 -11.7854 -1.58409
-19.0652 -11.9485 -1.79464
-16.9382 -12.128 -0.620938
-17.1222 -11.8274 -0.465013
-18.7811 -11.9679 -1.89226
-19.522 -11.4867 -1.78826
-17.4558 -12.0623 -0.00338882
-16.3278 -12.1712 0.0265044
-17.7041 -11.3992 -1.04762
-18.1469 -11.1894 -1.33514
-20.1586 -10.7153 -2.68759
-19.4416 -10.8891 -2.3565
-19.7171 -11.0146 -2.81589
-19.7002 -10.4594 -2.07523
-18.5622 -11.6029 -1.7211
-16.8527 -12.5305 0.208606
-17.0249 -11.6522 -0.833268
-19.6526 -11.336 -2.65918
-19.8752 -10.8839 -2.62719
-16.9689 -12.2886 -0.60666
-20.3452 -11.2926 -2.34048
-19.5812 -10.8092 -2.47175
-19.0371 -11.3454 -2.35272
-19.1435 -11.0368 -2.19018
-19.1586 -11.725 -2.57099
-19.4009 -11.1514 -2.38564
-17.1874 -12.3969 -0.564751
-18.4909 -11.4039 -2.07137
-18.6379 -11.46 -1.98867
-19.4593 -11.2769 -2.58717
-17.5053 -11.42 -1.74481
-18.833 -10.9976 -2.65649
-15.5892 -12.1213 -0.621423
-18.3893 -11.5582 -2.7576
-16.2355 -12.3135 -0.841115
-16.3972 -11.5206 -1.40555
-18.1778 -11.7314 -2.57914
-18.0853 -11.5854 -1.8321
-16.497 -11.8677 -1.50194
-18.7414 -11.3235 -2.32742
-18.4712 -11.469 -2.28346
-15.8437 -12.5626 -1.01243
-18.6733 -11.4352 -2.91483
-18.7005 -11.8541 -3.21406
-16.1576 -11.596 -1.81923
-16.6349 -11.7941 -1.26469
-15.8806 -12.7096 -1.36464
-16.6978 -12.0282 -2.46866
-15.1587 -12.5687 -2.48728
-20.7283 -11.2565 0.898034
-19.5661 -11.145 0.732285
-20.165 -11.5083 0.32175
-21.0843 -11.1901 0.916649
-20.0821 -11.7249 0.498096
-20.6406 -11.3343 0.0708748
-19.9005 -11.3312 0.00573516
-20.3761 -11.3668 -0.077034
-19.8075 -11.3418 0.257048
-20.0083 -11.2872 -0.178855
-19.685 -11.482 -0.0914489
-16.8409 -10.4904 1.9508
-16.6346 -10.0684 1.21985
-19.9219 -11.4423 -0.345722
-20.3863 -11.499 -1.00808
-18.6733 -11.4335 0.348277
-19.3566 -11.6922 -0.78067
-16.7962 -9.79778 1.75259
-16.6953 -10.5052 1.45778
-19.6412 -11.2467 -0.365846
-20.0572 -11.6267 -1.1338
-20.0303 -11.3927 -0.982003
-20.0095 -11.851 -1.25409
-16.6787 -10.3395 1.70121
-19.9294 -11.1819 -0.969516
-20.4034 -11.5336 -1.65357
-20.0805 -11.0286 -1.75625
-18.9097 -11.5585 -1.13383
-19.9384 -11.8723 -0.934078
-19.8134 -11.3214 -1.16481
-18.1992 -11.6675 -0.576581
-19.4147 -11.5579 -0.760354
-18.0743 -12.1803 -0.732974
-20.6456 -10.9875 -1.99968
-19.2662 -11.6534 -1.24878
-17.5686 -11.601 -0.438494
-18.1135 -12.2625 -0.747583
-19.3756 -11.361 -1.28213
-19.3883 -11.4223 -1.57364
-17.9809 -11.859 -0.699468
-17.2395 -12.0912 -0.166146
-16.3156 -12.2489 0.17937
-19.0661 -11.6354 -1.00399
-20.491 -11.0136 -2.28707
-19.2807 -11.5759 -1.86975
-19.3602 -11.0862 -2.05532
-20.0309 -10.9073 -2.39083
-16.9731 -11.7596 -0.497359
-16.8451 -11.9346 0.361966
-19.6424 -11.2478 -2.03234
-19.7268 -10.9752 -2.57769
-16.6792 -12.2266 -0.566606
-17.3436 -12.0881 -0.337643
-18.5851 -11.3552 -1.46415
-17.3811 -11.4995 -0.51465
-19.3646 -11.4099 -2.03784
-17.2238 -11.7544 -0.285199
-19.2277 -11.2397 -2.52428
-16.4357 -12.2487 -0.523405
-19.4656 -10.8959 -2.17084
-19.8598 -11.1667 -2.29543
-20.0279 -10.6668 -2.52627
-16.3256 -12.6052 -0.124296
-16.9362 -12.0059 -0.72489
-16.9087 -11.9159 -0.904023
-18.2234 -11.7653 -1.58036
-19.2483 -11.1876 -2.26975
-17.353 -12.0825 -0.86829
-17.8557 -11.3679 -1.56966
-18.9167 -11.1571 -2.18196
-18.9005 -10.8398 -2.65443
-18.4136 -11.3692 -2.4424
-15.4369 -12.4958 -0.957152
-16.7538 -12.4326 -1.06118
-18.9287 -11.0065 -3.089
-16.62 -12.8637 -0.902723
-18.8284 -10.8652 -2.4934
-18.2412 -11.2578 -2.53061
-19.5056 -11.3008 -3.13025
-19.2842 -10.9884 -3.04108
-18.438 -11.6312 -2.44937
-18.3087 -11.5435 -2.78833
-16.2166 -12.2878 -1.77345
-18.8302 -11.695 -3.01979
-16.2889 -12.5093 -1.51897
-17.8802 -11.5929 -1.94645
-17.9707 -11.6001 -3.05683
-18.9573 -11.4285 -2.92453
-18.2481 -11.5801 -2.92858
-16.9873 -11.5806 -2.05817
-18.3306 -11.3979 -3.22459
-17.197 -11.3265 -1.82057
-15.7934 -12.0154 -2.19668
-16.2833 -12.1125 -2.25278
-20.527 -11.4476 0.180899
-19.7109 -11.986 0.572993
-20.7244 -11.0722 0.0719769
-17.3044 -10.1311 1.73771
-19.5302 -11.7275 1.1679
-19.6822 -11.895 0.596264
-20.977 -11.1084 -0.629247
-16.5947 -10.0657 1.73526
-19.8386 -12.0436 -0.079232
-20.5262 -11.0471 -0.195151
-19.3458 -11.7001 0.253981
-20.0528 -10.8024 -0.554667
-20.1259 -12.1322 -0.239897
-20.6334 -11.6905 -0.847356
-18.3301 -11.9389 0.157468
-19.9071 -10.8135 -1.61482
-20.0379 -11.0789 -0.562791
-20.3146 -11.2656 -1.49936
-20.5209 -11.1428 -1.55568
-18.6823 -11.0914 -0.262221
-19.49 -11.2137 -1.61564
-19.1188 -11.2686 -0.487052
-19.9117 -11.5667 -1.89388
-19.3318 -11.6103 -1.36552
-19.2817 -11.2761 -1.18461
-20.3236 -10.9695 -2.10979
-19.3087 -11.8003 -1.79312
-19.8969 -11.1994 -2.44721
-19.561 -11.2217 -2.04983
-17.5713 -12.0356 -0.525548
-19.2557 -11.2712 -1.87182
-20.2615 -10.7723 -2.56325
-17.5506 -11.3682 -0.297301
-17.0551 -11.7978 -0.574051
-18.7992 -11.7102 -1.62231
-20.225 -10.6832 -2.36634
-16.812 -11.5822 0.164075
-16.4883 -11.5716 -0.879972
-18.1813 -11.6134 -1.06256
-19.873 -11.0285 -1.9426
-18.7514 -11.5198 -1.73423
-19.4302 -11.3708 -2.38713
-19.9449 -10.8812 -2.83739
-16.5731 -11.9285 -0.868049
-17.2091 -11.723 -1.25851
-16.0826 -12.184 -0.939824
-16.6495 -12.2742 -0.914417
-16.5888 -12.2332 -0.800962
-16.5145 -11.7563 -0.482751
-16.8041 -12.1134 -1.43479
-18.4448 -11.3653 -2.64111
-16.9482 -11.3 -1.70045
-16.3143 -11.9534 -1.58827
-17.8835 -11.5625 -2.7026
-16.5114 -11.267 -2.18154
-20.0049 -11.7682 1.1697
-20.7393 -11.3015 0.193197
-19.6662 -11.7378 0.815927
-20.352 -11.4795 -0.154408
-20.1223 -11.7092 0.242801
-19.2266 -11.5557 0.649466
-19.585 -11.9499 0.652477
-20.1454 -11.7796 0.23949
-20.195 -11.4864 -0.0603061
-18.2864 -11.77 1.48189
-20.1284 -11.4655 -0.394664
-19.9481 -11.2719 -0.195101
-20.2007 -11.2983 -0.792388
-20.1907 -11.4735 -0.427956
-19.9401 -11.4561 -0.465839
-19.4204 -11.1634 -0.619236
-19.7526 -11.3104 -0.72736
-19.8591 -11.2131 -1.1481
-18.5264 -11.5328 0.39083
-20.4711 -11.3725 -0.892713
-19.6794 -11.542 -0.907312
-18.9123 -11.2266 0.00474889
-18.8646 -11.1866 -0.143661
-20.224 -11.0073 -1.4085
-19.7926 -11.0786 -1.60355
-18.4333 -11.8461 -0.420752
-18.5361 -12.315 0.0385217
-17.9852 -11.9729 0.0668594
-19.6031 -10.873 -1.51738
-19.6327 -11.1585 -2.16835
-20.0725 -10.6634 -1.51809
-19.52 -11.3468 -1.20323
-19.605 -11.3652 -1.89549
-18.3279 -11.8726 -0.780766
-19.5522 -10.5859 -2.00599
-19.7942 -11.3831 -1.97329
-20.2723 -11.1126 -2.64772
-17.5033 -12.1199 -0.45562
-20.577 -10.7403 -2.72842
-20.562 -10.8452 -2.12979
-17.3957 -11.7261 -0.594344
-20.33 -10.5649 -1.88389
-17.0049 -12.2765 -0.601048
-19.6742 -11.441 -2.23415
-16.7062 -12.0452 -0.0519162
-16.579 -12.3281 -0.110054
-16.4661 -12.3145 -0.729924
-18.56 -11.9078 -1.92513
-17.8831 -12.1683 -1.2368
-17.0451 -11.926 -0.762691
-17.1776 -11.7661 -1.33358
-17.2666 -12.0648 -1.43844
-16.7244 -12.4429 -0.153625
-18.935 -11.2958 -2.5363
-18.9868 -11.3291 -2.30588
-18.7983 -11.4189 -2.05713
-18.494 -11.5592 -2.28763
-19.1535 -10.9651 -2.68919
-16.0661 -12.1117 -1.10614
-18.9301 -11.2434 -2.90864
-15.7845 -12.5224 -1.11158
-18.0461 -11.3229 -2.13538
-15.8158 -11.6806 -1.20175
-16.2041 -11.9137 -1.65605
-16.6066 -11.9593 -2.12768
-17.3114 -11.3566 -2.24011
-17.158 -11.502 -2.37637
-17.8202 -11.3668 -2.79418
-19.8625 -12.2178 0.573453
-20.2975 -11.5143 0.0786382
-20.4452 -10.8362 0.224589
-19.7452 -11.2422 0.000197602
-19.8974 -11.506 -0.0376719
-18.1561 -11.0294 0.381514
-20.7314 -11.1421 -1.6955
-20.4657 -11.3282 -1.81957
-19.3693 -11.4391 -1.50055
-17.2733 -11.6038 0.135771
-18.0711 -11.9532 -1.17999
-17.2189 -12.2033 0.0718676
-20.3814 -11.1002 -1.97238
-18.3571 -11.4467 -1.22207
-16.9776 -11.6693 -0.400185
-16.9444 -11.674 -0.864779
-18.684 -11.7006 -1.55714
-18.285 -11.7242 -0.83342
-17.1214 -11.8781 -1.01863
-17.0225 -12.1673 -1.38284
-17.2732 -11.7267 -1.11476
-18.1901 -11.7413 -2.20584
-17.1646 -11.7187 -1.57715
-16.205 -12.1429 -0.607694
-18.7933 -11.7302 -2.92862
-15.9808 -12.561 -0.129253
-19.2186 -11.2271 -2.75118
-19.267 -11.3854 -2.91088
-15.3019 -12.8268 -0.779824
-15.9751 -12.1557 -1.29175
-16.0391 -12.2774 -1.48269
-16.5768 -12.4244 -1.41716
-18.4215 -11.7928 -2.42672
-18.3487 -11.2916 -2.7131
-17.5339 -11.3889 -2.31383
-17.7514 -11.1143 -2.51611
-17.3474 -11.3216 -2.19765
-16.5371 -11.8325 -2.12419
-16.1283 -11.414 -2.12989
-15.4197 -12.0671 -2.59479
-20.6359 -11.1207 1.00821
-19.1307 -11.7139 0.603594
-20.0492 -11.2718 -0.265294
-19.5767 -12.1452 0.340811
-20.5177 -10.9207 -0.149074
-18.4072 -10.9304 0.684109
-17.5986 -10.4081 1.52753
-19.8018 -11.7303 -0.243169
-20.311 -10.6916 -1.66195
-19.6468 -11.1234 -0.753279
-18.9648 -11.8128 -0.714724
-17.812 -12.176 -0.0658395
-19.4623 -11.1027 -1.25687
-17.0531 -12.0781 0.406699
-18.9526 -11.4364 -1.17542
-16.7013 -11.7662 0.300025
-18.7871 -11.4774 -1.53188
-17.202 -12.1752 0.00794079
-18.1081 -11.7382 -1.66804
-17.6169 -11.3274 -2.69458
-14.7118 -12.5855 -3.04686
-19.1523 -11.3864 0.778078
-18.7185 -11.4449 0.701236
-18.6853 -11.5075 0.383819
-18.7733 -11.1864 0.99731
-18.8503 -11.0386 -0.307647
-18.8557 -10.8837 0.197732
-19.3026 -11.5952 -1.05858
-16.9161 -11.9543 0.529309
-17.252 -11.5433 -0.896485
-16.6981 -11.5892 -0.529341
-16.2503 -12.0102 -0.640384
-19.1556 -10.9715 -2.37826
-15.9266 -12.3989 -1.34853
-16.8502 -11.6974 -1.81926
-19.2736 -11.2142 0.889575
-19.7789 -11.1326 -1.18418
-19.1822 -11.6339 -0.535901
-20.2961 -11.3555 -1.6447
-18.8788 -11.2691 -1.00258
-18.5623 -11.216 -2.69639
-17.4134 -9.839 1.30229
-18.8068 -11.5953 -0.840732
-17.4383 -11.9279 -0.534596
-18.767 -11.2488 1.35445
-20.2413 -11.494 -0.378891
-16.9251 -11.1142 -2.17148
-16.8805 -11.2216 -2.70445
-17.2042 -10.9422 -2.4148
-17.4686 -12.1207 -0.368223
-18.7903 -11.5909 -0.139607
-19.6015 -11.8627 -1.1846
-17.1496 -11.7806 -1.54619
-17.8237 -11.3527 -2.24318
-16.1264 -11.6446 -2.00056
-17.502 -11.4352 -1.26152
-17.1354 -10.3709 1.64102
-16.9078 -12.4315 0.526145
-15.6923 -12.1131 -2.58657
-18.252 -11.3599 -2.94532
-14.7198 -13.0339 -3.01754
-14.8555 -13.2356 -2.16677
-18.2514 -11.8129 -2.92978
-18.4789 -11.1915 -2.72794
-19.5177 -10.852 -3.06799
-18.1345 -12.1653 -2.77744
-19.8287 -10.9156 -2.68154
-19.5768 -10.8292 -2.47504
-18.2017 -11.4099 -2.56227
-18.5883 -11.6957 -2.06709
-19.5749 -11.5078 -2.78969
-18.8316 -11.4038 -2.54541
-18.3086 -11.1278 -2.15196
-19.7163 -11.3567 -2.1021
-19.1406 -11.0683 -2.06022
-18.9672 -11.3794 -2.71255
-17.7908 -11.4881 -2.12684
-19.5563 -10.7646 -2.57227
-19.0938 -11.0875 -1.81615
-19.1482 -11.3632 -1.79825
-19.384 -11.1528 -1.66354
-18.8865 -11.7386 -1.91362
-18.6023 -11.6704 -2.33737
-19.0587 -11.5044 -2.12899
-19.2504 -11.3163 -1.86062
-20.1459 -11.5494 -1.96971
-19.6181 -11.2249 -1.85808
-19.2992 -11.6145 -1.67981
-18.7552 -11.7907 -1.42773
-20.3003 -10.7775 -1.46783
-20.689 -10.9942 -1.6677
-20.4827 -10.8204 -1.57287
-20.4875 -10.8123 -1.61939
-19.6937 -11.1744 -1.75036
-19.6714 -11.4046 -0.844324
-19.7558 -11.1848 -1.22399
-20.0453 -11.1892 -1.29117
-20.3556 -11.2083 -1.94364
-20.0466 -10.8515 -1.66652
-20.1702 -11.1289 -1.69878
-19.2044 -11.9764 -1.9328
-19.0288 -11.5132 -1.24084
-19.3574 -11.46 -1.02231
-18.9215 -11.3019 -1.4743
-19.4334 -11.1759 -1.31255
-19.5442 -11.4511 -1.20084
-19.9678 -10.9169 -1.54758
-20.4399 -11.3163 -1.02737
-16.5448 -12.4466 -0.592524
-18.3404 -11.8369 -1.06745
-20.4156 -11.3827 -0.826948
-19.7616 -11.335 -0.896613
-18.7599 -11.5399 -0.941386
-20.4628 -11.4681 -0.783548
-20.0375 -11.3954 -0.95115
-17.358 -12.0094 -0.977206
-16.7753 -11.8822 -0.0806929
-17.8623 -11.7093 -0.178943
-20.2487 -11.3682 -0.643051
-19.9089 -11.6138 -0.832034
-20.3353 -11.6228 -0.102672
-20.373 -11.8295 -0.282536
-20.7967 -10.7361 -0.253208
-20.9645 -11.4895 -0.0941241
-17.0082 -11.4537 0.636453
-17.2291 -11.4866 0.139533
-19.007 -11.3807 0.609226
-18.6416 -11.5053 -0.0160621
-20.7388 -11.1097 0.133933
-20.2829 -11.5467 -0.204094
-20.876 -11.3363 0.0884569
-20.7913 -11.4229 0.129515
-20.2069 -11.9803 0.07211
-20.678 -11.622 0.468297
-20.8523 -11.5592 0.625621
-19.3502 -11.1649 1.21761
-20.4798 -11.7595 1.12332
-17.6595 -10.1728 1.08005
-17.3623 -10.5505 1.21321
-20.3487 -11.6009 1.07718
-20.5776 -11.6802 0.663082
-18.6177 -11.2832 -2.82969
-18.621 -10.77 -3.0264
-14.7384 -12.4775 -2.59987
-14.4727 -12.904 -2.83421
-17.3084 -11.1114 -2.25514
-17.8537 -11.7096 -2.65612
-20.3888 -10.7597 -2.35791
-18.7713 -11.0276 -2.52552
-19.2332 -11.347 -2.47614
-18.4674 -11.6181 -2.23206
-18.3434 -11.7253 -2.13707
-18.6347 -11.6866 -2.18181
-19.4055 -11.2616 -1.61252
-16.6756 -11.928 -1.64766
-19.1086 -11.8862 -1.59859
-20.7238 -10.7798 -1.65092
-20.6033 -11.0507 -1.6804
-16.1292 -11.924 -1.2808
-16.2376 -12.2326 -1.38763
-15.7943 -12.1375 -0.834755
-19.753 -11.0355 -1.0693
-19.4633 -11.0768 -1.31953
-19.9049 -11.5428 -1.38682
-20.2576 -11.2677 -0.939904
-19.1222 -11.444 -1.21086
-20.3048 -10.9306 -0.68419
-19.6054 -11.5966 -1.12176
-20.0859 -11.3896 -1.11586
-20.5145 -11.2523 -1.21858
-19.1024 -11.4828 -0.6997
-19.2383 -11.7198 -1.18117
-18.1412 -11.6402 -0.729004
-20.0825 -11.0888 -0.650616
-20.0889 -11.2013 -0.694852
-17.4526 -11.9418 -0.582876
-19.1971 -11.5447 -0.414647
-20.0443 -11.578 0.217891
-20.207 -11.1664 0.132089
-20.5269 -11.4261 -0.296527
-19.0979 -11.8972 -0.0236093
-16.1763 -11.806 0.0541916
-19.7891 -11.5332 -0.0375508
-18.3983 -11.0831 -0.163369
-19.559 -11.3843 0.0856368
-19.6786 -11.7003 0.0403154
-18.4717 -11.0297 0.427695
-18.4574 -11.3737 0.0908268
-18.5415 -11.48 0.5743
-19.1998 -11.3678 0.520814
-20.5232 -11.6579 0.378577
-20.0072 -11.7759 0.580646
-20.8498 -12.3143 0.339374
-20.3205 -11.7498 0.48527
-20.3925 -12.0142 0.57813
-17.0433 -10.4861 1.11187
-20.5837 -11.4228 0.696674
-20.7684 -11.6259 0.458055
-20.1048 -11.8086 1.08887
-18.8433 -11.4685 1.11413
-16.6021 -10.2132 1.45006
-16.7921 -11.33 -2.94554
-17.5107 -11.8123 -2.59959
-16.4824 -11.2709 -2.16258
-19.9968 -10.7094 -2.53673
-18.9638 -11.6138 -2.67812
-19.0297 -11.5537 -1.89127
-18.8407 -11.635 -2.31796
-18.9893 -11.4268 -2.49972
-19.0499 -11.0946 -2.11605
-19.4857 -11.1788 -2.43631
-20.7062 -10.5229 -2.57492
-16.4277 -11.8812 -1.9829
-19.2358 -11.2247 -2.1373
-20.4177 -10.4848 -2.09425
-17.7561 -11.9365 -1.3245
-18.8965 -11.2275 -1.19135
-17.0638 -12.1679 -0.965547
-18.5638 -11.9075 -1.49832
-19.7513 -11.291 -1.72244
-17.8826 -11.8428 -0.858566
-15.9263 -11.9045 -1.0093
-16.0877 -12.5599 -0.767142
-19.4673 -11.6607 -1.0903
-20.2604 -11.4544 -0.696001
-20.8182 -11.1864 -0.919265
-16.5422 -12.4685 -0.516524
-19.9632 -11.7099 -1.12626
-19.8933 -11.2878 -1.24198
-19.1283 -11.6733 -0.92682
-18.986 -11.9093 -0.809109
-20.0038 -11.0579 -0.502835
-20.9235 -11.0945 -0.861293
-16.8568 -11.5606 0.114399
-19.7944 -11.5437 -0.6617
-19.6858 -11.5434 -0.491302
-18.7623 -11.3246 -0.52323
-20.1428 -11.1164 -0.436864
-19.6129 -11.6075 -0.542929
-20.4712 -11.6833 -0.273161
-20.4025 -11.6017 -0.0627427
-19.2703 -11.9383 -0.381194
-16.304 -11.9495 0.452594
-19.5496 -11.6455 -0.151132
-17.5367 -11.6312 0.233261
-19.1211 -11.3922 0.211582
-17.2932 -11.5326 -0.108489
-18.1708 -11.3926 0.976862
-19.7311 -11.6287 0.615736
-20.3594 -11.3978 0.253768
-20.4684 -11.6246 0.471272
-20.144 -11.7133 0.593173
-20.6914 -11.5301 0.684575
-19.8777 -12.0679 0.605906
-16.0206 -10.5387 1.15955
-19.67 -12.0091 0.863338
-16.5094 -9.96978 1.85152
-16.2482 -11.6795 -2.52207
-17.8477 -11.7946 -2.70964
-18.3523 -11.7784 -2.87557
-18.969 -12.0238 -2.33643
-18.6949 -11.5118 -2.08003
-16.1059 -12.1885 -1.80759
-17.8632 -11.3199 -2.43762
-16.0808 -11.7783 -1.82297
-18.0948 -11.0323 -2.1497
-19.9835 -11.1439 -2.56587
-19.6665 -11.4954 -2.03874
-18.8333 -11.7853 -1.05472
-18.7066 -11.1788 -1.66145
-16.9785 -11.1018 -1.12554
-15.5027 -12.0359 -1.58818
-19.1076 -11.9932 -1.49505
-20.2212 -11.1043 -1.71006
-16.4736 -11.9546 -0.52497
-18.4028 -11.3164 -0.86069
-20.0042 -11.3738 -0.801518
-17.2166 -11.8802 -0.172486
-17.3527 -11.3821 -0.426065
-18.2524 -10.955 -0.526669
-19.7232 -11.6721 -0.222689
-19.6538 -11.9179 -0.883625
-20.621 -11.1502 0.0812367
-19.9886 -11.4853 0.156912
-20.3369 -11.0092 -0.0585688
-20.0801 -11.4358 0.428558
-20.0418 -11.3633 0.413344
-18.5615 -11.4938 0.422058
-18.1905 -10.4871 1.1137
-18.7533 -11.5777 1.05342
-16.873 -10.1999 1.50433
-16.4307 -10.8696 1.67317
-18.9751 -11.4531 1.15509
-18.2268 -11.6476 1.4283
-16.9479 -10.3218 1.78236
-17.8524 -10.963 1.36153
-18.6812 -11.4752 1.41774
-15.846 -11.6945 -3.19533
-16.7832 -11.4578 -2.08306
-16.1642 -11.9629 -2.37697
-18.5504 -11.3686 -2.42267
-18.8443 -11.5382 -2.26405
-16.9848 -11.865 -1.99102
-17.5883 -11.1963 -2.029
-19.3326 -11.5479 -2.02607
-16.0204 -11.8691 -1.97566
-17.6999 -11.2649 -1.43538
-15.9665 -12.0695 -1.27918
-18.3694 -10.9139 -1.05701
-19.3689 -11.7493 -1.48375
-17.7111 -11.8457 -0.971259
-17.7252 -12.1585 -0.401886
-19.6771 -11.6966 -0.806547
-19.5369 -11.8265 -0.875914
-20.5535 -11.5844 -0.0397174
-19.5377 -11.5824 -0.118649
-16.897 -11.8611 0.423325
-18.5032 -11.684 0.342722
-16.6518 -12.3194 0.534711
-18.0242 -11.3779 0.413943
-19.304 -11.1389 0.402711
-16.6436 -10.0733 1.3763
-19.091 -11.1579 1.0249
-20.0457 -11.0706 0.74133
-17.1212 -10.4766 1.6508
-16.9296 -11.1676 -2.60147
-17.326 -10.6505 -2.03477
-17.5052 -11.0229 -2.54177
-16.0562 -11.6872 -2.15712
-16.6805 -11.7446 -2.59595
-16.5501 -11.426 -1.60081
-20.3202 -10.7597 -1.89376
-17.7168 -11.6567 -1.84891
-20.1347 -11.3757 -1.0994
-19.6649 -11.9957 -1.26199
-16.6568 -12.2624 -0.131873
-19.9175 -11.388 -0.387442
-17.4146 -11.8468 0.169238
-19.1167 -11.8791 0.137355
-16.8355 -12.3193 0.737178
-19.849 -11.7791 1.19611
-20.0366 -11.6665 0.57132
-16.4081 -9.95316 1.62986
-16.8871 -11.5544 -1.90699
-20.2432 -11.5403 -1.63134
-19.6546 -11.2855 -1.44807
-17.2112 -11.4956 -0.396452
-16.5739 -12.3832 -0.821696
-17.8527 -11.7306 -0.703406
-20.4712 -11.2505 -0.727586
-20.8445 -11.7102 -0.566772
-19.8682 -11.9784 -0.0265203
-19.0879 -10.9951 -0.164215
-19.3032 -11.4121 0.761535
-19.7619 -11.7731 0.605134
-16.9563 -11.9629 -1.76363
-17.8288 -11.1997 -1.90256
-20.1258 -11.8269 -0.999939
-19.8917 -11.5342 -1.05764
-16.4116 -12.3224 -0.994335
-17.9992 -11.7059 -0.951826
-17.5011 -11.924 -0.511204
-19.5656 -11.8029 -0.147664
-18.6961 -11.489 0.992854
-17.5071 -10.2524 1.60569
-17.5333 -11.3771 -2.6266
-19.6222 -10.9546 -1.72153
-17.3281 -11.9952 -0.512676
-16.975 -10.1431 1.59302
-19.7408 -11.7882 -0.98137
-17.6815 -11.9064 -0.171343
-18.656 -11.2836 -0.429233
-17.6577 -11.6765 -1.51483
-19.6949 -11.5158 -0.401241
-19.6875 -11.4611 0.349413
-16.3791 -11.84 -1.07663
-17.3377 -11.671 -1.46407
-20.4896 -10.6925 -1.44989
-19.2849 -11.4122 -2.03286
-18.7468 -11.4055 -2.56273
-18.9184 -11.1569 -2.36246
-17.9434 -11.3481 -3.28696
-18.6892 -10.7225 -2.34368
-19.0225 -10.927 -2.29293
-18.0107 -11.438 -2.46063
-18.077 -11.5848 -2.57419
-20.8861 -11.4137 -0.75047
-20.2995 -11.3472 -0.124956
-20.2974 -11.224 -1.35367
-20.0764 -11.3822 -0.673303
-21.0943 -10.824 -0.371074
-20.4299 -11.3339 -0.619361
-17.2534 -11.4057 -2.38678
-19.7831 -11.3723 -0.539174
-19.7305 -11.8581 -0.922995
-20.107 -11.3727 -0.719371
-19.7791 -11.6834 -0.713889
-18.4933 -10.8994 -1.81686
-19.6772 -11.3927 -1.06923
-19.603 -11.3496 -0.654895
-18.3605 -11.4095 -1.04057
-19.6296 -12.0245 -0.913809
-20.723 -11.6082 0.160668
-20.4564 -11.2934 0.368473
-18.1735 -12.0671 -1.04831
-18.1181 -11.1826 -0.836461
-21.0175 -11.4513 0.483598
-20.3871 -11.4919 -0.0327615
-15.8852 -11.9104 -1.98494
-17.9112 -11.6367 -1.67775
-19.7673 -11.7165 -0.222101
-19.5892 -11.5093 -0.486664
-20.7957 -11.4022 0.719906
-17.0687 -11.6756 -1.16015
-19.3767 -11.4076 0.225479
-18.9743 -11.2823 0.275871
-20.4752 -11.8396 0.51129
-16.795 -12.0368 -1.117
-16.575 -12.0333 -0.657888
-16.4973 -12.2605 -1.12637
-18.0807 -11.5392 0.076545
-17.3303 -11.8965 -0.170712
-18.8622 -11.159 1.04983
-18.8819 -10.2632 1.6934
-17.5157 -10.9829 1.27178
-15.8042 -10.3797 1.49991
-20.7218 -11.3632 -1.43072
-19.696 -11.1296 -1.9201
-18.9458 -11.5987 -2.60536
-18.8198 -11.913 -1.84208
-18.3879 -11.4242 -3.05512
-19.0226 -11.1463 -2.67414
-19.5177 -11.091 -1.47737
-20.073 -11.2968 -1.12355
-20.0491 -11.0436 -0.628731
-17.4519 -11.2774 -2.44616
-18.4618 -11.3742 -1.88492
-19.4547 -11.6232 -1.34587
-19.1369 -11.8616 -1.08424
-19.358 -11.8752 -1.2984
-19.342 -11.4412 -1.08777
-19.2985 -11.2654 -1.11253
-19.4688 -11.4691 -0.749835
-19.8545 -11.6006 -1.01024
-20.0276 -11.7148 -0.441293
-16.6678 -12.0881 -2.47393
-20.0335 -11.1467 -0.198137
-17.6995 -11.7942 -1.32819
-20.4581 -11.6422 0.465525
-20.2895 -11.488 -0.0315277
-20.4139 -11.9012 0.62913
-20.1958 -11.5591 0.573785
-19.702 -12.1976 -0.223749
-20.9594 -11.6978 0.764706
-19.701 -11.7387 -0.0873828
-19.9455 -11.6187 -0.16648
-20.293 -12.0428 0.134445
-20.7109 -11.7839 0.542144
-18.1909 -11.8326 -0.985369
-19.7941 -12.4152 0.359738
-19.5244 -12.0815 0.282349
-17.2172 -11.6703 -0.922354
-19.6911 -11.3126 0.388294
-17.702 -11.8769 -0.577288
-16.7357 -11.7521 -0.796226
-16.671 -11.8189 -0.582672
-20.0355 -11.7692 1.11375
-16.703 -11.814 -0.416594
-16.7393 -12.1378 -0.534327
-16.8971 -11.8095 -0.588231
-17.1279 -11.6592 -0.374828
-17.6068 -11.7975 -0.153474
-16.9941 -11.7805 -0.492555
-16.3805 -11.9154 -0.674786
-16.1118 -11.9021 -1.00679
-15.9408 -12.245 -0.962584
-17.5987 -11.9585 0.0981746
-16.0821 -12.251 -0.925948
-16.7967 -10.29 0.635644
-17.2198 -10.2648 1.9066
-16.5369 -10.9904 1.07803
-18.9114 -11.035 -2.66604
-20.0311 -11.1589 -1.96215
-20.4749 -11.0407 -1.50906
-19.966 -10.8903 -2.04098
-20.0285 -10.8788 -1.65535
-18.7138 -11.4266 -2.66205
-18.1222 -11.5384 -3.05996
-18.4004 -11.756 -2.2063
-19.115 -11.5543 -1.33067
-19.9309 -11.8306 -1.20909
-19.3705 -11.8012 -1.18329
-17.1046 -11.1723 -2.4951
-20.2327 -11.425 0.429915
-19.5048 -11.8019 -0.331451
-19.8533 -12.0986 -0.981571
-19.1576 -11.8043 -0.688194
-20.3577 -12.3688 -0.271302
-20.8121 -11.333 0.590852
-18.1123 -11.8304 -0.52534
-17.0418 -11.613 -0.967961
-19.4072 -11.3982 0.451811
-17.6006 -11.9765 -1.24508
-19.3433 -11.1382 0.0777564
-17.7114 -12.2878 -0.15432
-19.6134 -11.8999 0.978271
-16.9767 -11.9395 -0.341897
-16.3977 -12.0023 -1.08583
-16.8346 -11.6272 -0.169177
-17.372 -12.0673 -0.375075
-16.6214 -12.3147 -0.787533
-16.0471 -13.0587 -0.970462
-17.8427 -9.94283 0.969709
-17.5967 -10.472 1.29683
-16.1875 -10.5126 1.54091
-16.4962 -10.4446 1.674
-19.5692 -10.9333 -1.80346
-20.4664 -10.9816 -1.5238
-20.7765 -10.4524 -1.96279
-20.3942 -10.9729 -1.9838
-19.5084 -11.1583 -2.42009
-19.2549 -11.0338 -2.08151
-21.0045 -11.4012 -0.727829
-19.037 -11.461 -1.54629
-16.3906 -10.859 -2.42405
-17.2357 -11.2767 -1.78643
-17.5268 -11.732 -1.95686
-16.9658 -11.3738 -2.46053
-17.2839 -11.5276 -2.34365
-19.2911 -11.0653 -1.63812
-20.2115 -11.5197 -0.294159
-20.7926 -11.8033 -0.156157
-15.1322 -11.8887 -2.67672
-19.4437 -11.5188 -0.406983
-20.8867 -11.4176 -0.0247232
-16.7176 -12.3884 -1.58392
-19.8963 -11.7382 1.14511
-17.1955 -11.432 -0.516766
-17.2961 -11.4646 -0.230458
-17.2855 -11.9845 -0.67613
-17.433 -12.1547 -0.554471
-16.7304 -11.3589 0.0432693
-15.9989 -12.3296 -0.633165
-17.0104 -12.3734 -0.197659
-15.6203 -12.0514 -1.33187
-15.857 -12.3525 -0.882416
-19.1423 -10.8939 1.24321
-15.8644 -12.6675 -0.258045
-16.6542 -10.2099 1.37948
-17.1104 -11.2129 -2.07594
-18.9464 -11.6142 -1.68385
-18.2235 -11.2432 -2.12632
-20.2317 -11.3235 -0.803475
-17.5872 -11.4572 -1.32995
-20.2254 -11.2523 -0.0733998
-20.9096 -11.377 0.519724
-19.2632 -11.4723 -0.334694
-19.7436 -11.8138 -0.157814
-15.2917 -12.0446 -2.35579
-17.5834 -12.193 -0.613835
-15.2671 -11.5708 -1.9263
-19.5448 -11.8952 0.41993
-20.3022 -11.9182 0.796708
-20.0974 -11.932 0.674667
-16.9034 -12.187 -0.715272
-17.2485 -11.9075 -0.444416
-19.7148 -12.2104 0.834553
-17.1504 -11.657 0.0665055
-16.0127 -12.4302 -0.852273
-16.9956 -12.2536 -0.332572
-15.9505 -11.9388 -0.407307
-17.3093 -11.6072 0.243945
-15.8814 -12.3484 -0.57865
-17.4727 -9.65069 1.41939
-19.7289 -11.4692 -2.14884
-19.1566 -11.714 -2.93176
-20.3788 -11.6761 -1.46132
-20.6677 -11.2643 -0.756186
-20.6048 -11.2245 0.102904
-19.4917 -11.2603 -1.34261
-19.5347 -11.812 -0.757524
-17.5746 -11.7519 -1.54394
-15.2319 -12.3687 -2.27653
-17.5003 -12.0066 -0.403051
-17.1149 -11.9192 -0.93955
-19.5111 -11.1132 0.391671
-19.3912 -11.2752 0.919034
-17.6806 -11.807 -0.144147
-16.2339 -12.056 -0.562131
-18.5933 -11.0997 -1.59257
-20.2774 -11.0566 -0.20351
-17.9341 -11.6676 -1.92534
-19.7323 -12.1607 -0.8095
-16.1728 -11.8801 -1.90368
-16.9057 -11.6672 -1.38132
-17.7767 -11.1606 0.133408
-15.6007 -13.1056 -1.03991
-16.5198 -12.175 0.692161
-16.9208 -9.88986 1.81702
-18.9267 -11.5518 -2.68228
-16.6521 -12.1708 -0.467828
-19.2443 -11.8018 1.24192
-17.5217 -11.9134 0.404026
-17.3356 -12.0261 -0.194507
-18.9699 -10.916 1.34868
-17.1066 -10.1829 1.82984
-18.9077 -11.5334 -0.0971819
-17.3188 -11.9626 -1.51134
-17.855 -12.1989 -0.521793
-16.0944 -12.2481 -1.94849
-15.7315 -12.339 -1.80911
-16.1188 -12.3389 0.504155
-20.6888 -11.5235 -1.57514
-20.7407 -11.3705 0.182013
-19.9532 -11.1794 -1.33513
-20.1468 -11.0691 -1.34595
-19.3461 -11.2897 -2.2766
-20.5676 -11.3472 -0.165771
-19.1099 -10.7451 -2.44662
-20.1573 -11.6342 -0.643369
-19.3107 -11.2273 -2.37007
-19.2226 -11.4361 -2.16069
-19.3453 -11.4172 -2.68805
-19.6804 -11.7442 -0.883919
-19.0675 -11.5961 -2.64784
-18.7094 -11.4621 -2.99694
-18.593 -11.3623 -2.42947
-18.7035 -11.6298 -2.23006
-20.0314 -11.6961 0.488208
-19.0867 -10.8089 -2.30542
-18.4417 -11.3847 -2.64677
-19.4454 -11.2686 -0.994192
-19.1919 -11.9453 -1.1727
-19.9174 -11.6867 0.228673
-18.3968 -11.436 -2.15803
-18.335 -11.6586 -1.97706
-19.1277 -10.9198 -0.35974
-19.0676 -11.1581 0.0993329
-19.0925 -11.2391 -0.791761
-17.8502 -11.4444 -2.75489
-18.8623 -10.7781 0.00947788
-18.1684 -11.254 -1.55785
-18.4922 -11.5674 -1.27394
-18.1199 -11.8902 -1.08071
-18.0402 -11.687 -1.19149
-17.9588 -11.3345 -1.78063
-17.6712 -11.6884 -1.89649
-17.9677 -11.3836 -1.08207
-18.0466 -11.7609 -2.01304
-18.355 -11.8769 -1.44029
-18.6239 -10.8748 0.121571
-18.2938 -11.8463 0.572704
-16.8569 -12.2214 -0.638823
-17.6488 -11.3111 0.201835
-16.4317 -11.608 -1.69845
-16.4734 -11.5139 -2.30024
-17.0177 -11.6646 -0.121671
-17.012 -11.9869 -0.41387
-17.4696 -12.1042 -0.397035
-16.5131 -12.6224 -0.568928
-15.5781 -12.2335 -3.06632
-15.4463 -12.2156 -1.76678
-15.6642 -11.9421 -1.6398
-15.6114 -12.9058 -0.993268
-15.7791 -12.6217 -0.988582
-20.6802 -10.912 -1.2157
-20.2516 -10.7665 -2.02597
-20.5946 -11.4279 -0.201886
-20.6605 -11.7052 -0.599357
-20.2561 -10.8308 -2.0262
-20.2072 -11.7627 -0.441774
-19.8484 -11.3827 -2.07012
-19.9097 -11.5524 -0.566919
-18.8611 -11.0232 -3.37887
-18.6864 -11.4183 -2.19562
-18.6863 -11.7731 -2.61806
-19.9569 -11.6213 0.159309
-18.833 -10.6814 -1.85365
-19.8315 -11.4848 -0.446379
-19.5215 -11.6795 -1.11364
-19.4668 -11.0358 -0.14318
-19.3415 -11.3152 -0.236018
-19.578 -11.8674 0.227053
-17.779 -11.429 -2.82198
-19.1911 -10.9341 0.0274665
-19.0354 -11.8027 1.42507
-18.1354 -11.4455 -0.859634
-19.0504 -11.5163 1.07936
-18.1369 -10.8807 -0.244725
-17.5242 -11.4371 -2.60578
-17.0026 -10.9984 -2.84144
-18.1825 -11.5613 -1.18237
-18.1713 -11.3404 -1.29134
-18.8893 -11.3748 -0.100402
-17.7697 -11.6221 -1.45052
-16.9903 -11.2919 -2.09608
-17.4862 -11.8831 -1.79885
-17.0316 -11.6053 -2.01226
-17.7039 -11.7852 0.175017
-18.041 -12.1094 -0.21629
-17.7371 -11.5232 0.00363625
-17.6511 -12.0272 0.341471
-17.9022 -10.0889 1.25648
-17.4736 -10.0186 1.12113
-17.2498 -11.8046 -0.519845
-17.2871 -12.0184 -0.402091
-16.7038 -12.1593 -0.612311
-15.7821 -11.6514 -2.1413
-16.4853 -11.7677 -1.10846
-16.7468 -10.6281 1.40007
-14.9443 -12.5144 -3.1668
-15.7487 -12.6357 -0.874524
-14.3546 -12.913 -2.73161
-16.3948 -10.2696 1.09886
-15.8805 -12.841 -0.740532
-20.1886 -10.8641 -2.28557
-20.1515 -11.0694 -2.76044
-20.0561 -11.3235 -1.33802
-20.3306 -11.1237 -1.83338
-20.3582 -10.8538 -1.46119
-20.5366 -11.2685 0.0624184
-19.8427 -11.2838 -1.49351
-20.4797 -11.3168 -0.387262
-20.4274 -10.7095 0.167214
-19.8435 -11.2932 -0.69746
-19.0183 -11.409 -1.86493
-19.0932 -11.6358 -1.90526
-19.3371 -11.5875 -0.997869
-19.5955 -12.0334 -1.39528
-18.6576 -11.3556 -2.38094
-19.2607 -11.5527 -1.95398
-19.5063 -11.8613 0.450059
-18.1263 -11.6982 -2.51035
-19.5523 -11.8631 1.28398
-18.8817 -11.5328 -1.94183
-18.6726 -11.716 -0.774093
-18.163 -11.9289 -0.886293
-17.9222 -11.5025 -1.84068
-17.1389 -11.3853 -2.51628
-18.6475 -11.3939 0.962466
-18.0427 -12.538 -0.92524
-18.1455 -11.4358 -1.19174
-15.9822 -11.9287 -1.86773
-16.1199 -11.7658 -1.91817
-16.4893 -12.1051 0.268723
-16.0982 -12.3732 -1.21208
-16.7702 -10.0976 1.49154
-16.1362 -12.8745 -1.0303
-15.2647 -12.6188 -3.08291
-20.6923 -11.1043 -1.51532
-20.2053 -10.9858 -2.2269
-20.3229 -11.1082 -0.7754
-20.3611 -11.0719 -1.73927
-20.2869 -11.1388 -0.750309
-20.049 -11.2808 -0.836594
-20.515 -11.9625 -0.255494
-20.3408 -11.3228 -0.726554
-19.7157 -11.513 -0.793152
-19.7395 -11.6713 -1.04339
-19.7603 -12.2816 0.470433
-18.363 -11.3493 -2.59801
-18.5012 -11.1378 -0.913588
-18.5613 -11.3117 -1.18442
-19.0036 -11.2854 -1.17904
-19.798 -11.7486 1.00159
-17.4443 -11.6419 -3.19285
-18.8518 -10.9056 0.605749
-18.5181 -12.0478 0.940702
-17.0693 -12.1577 -0.615181
-18.2589 -10.4777 1.40561
-17.2912 -11.4846 -1.8686
-17.8236 -11.9813 -0.0337681
-17.5352 -11.6847 0.033848
-16.9714 -11.9997 0.046896
-16.8824 -12.1482 -0.479525
-17.2763 -11.7907 -0.49456
-16.2707 -11.8159 -1.29841
-16.4248 -12.5011 -0.818388
-13.891 -12.4728 -2.2566
-20.92 -11.0198 -1.94184
-20.8543 -11.335 0.106553
-19.9723 -11.3794 -0.880194
-18.8356 -11.6565 -2.71387
-19.1867 -11.4696 -0.956712
-19.7998 -11.5901 0.754691
-18.9419 -11.7275 -2.10283
-17.9623 -11.5495 -2.12487
-19.0014 -11.1002 0.440163
-17.5454 -11.2053 0.0615711
-17.3024 -12.0204 -1.03985
-17.718 -12.18 -0.77768
-16.9361 -12.0661 -1.79612
-17.3886 -11.8132 -0.371676
-17.0915 -12.1066 -0.353452
-16.9257 -12.156 0.200955
-17.7067 -12.8567 -0.26871
-16.8171 -12.0276 -0.894324
-16.5236 -12.017 -1.34051
-16.4589 -12.5095 -1.02165
-16.5466 -12.12 -0.488036
-16.1518 -12.5832 -0.865706
-16.2259 -12.2916 -0.482701
-16.4295 -12.0744 -0.524891
-15.8738 -12.4532 -0.709937
-19.9965 -11.258 -0.748352
-19.6191 -11.0795 1.1663
-19.2401 -11.3715 0.828644
-17.0697 -11.5517 -1.23549
-17.5876 -11.7289 -1.14505
-17.1404 -11.696 -1.37826
-17.1219 -12.1617 -0.606238
-16.7583 -11.7134 -1.32669
-16.1735 -12.0201 -0.903856
-16.5436 -12.3427 0.743751
-16.0785 -12.12 -0.648664
-20.3801 -11.5255 -1.00066
-20.5071 -11.7201 0.177333
-18.684 -11.0289 -2.23886
-19.9737 -12.0339 -0.0938932
-16.7165 -11.6662 -1.76462
-19.9246 -11.5038 -0.0813014
-19.4259 -11.3346 0.872568
-16.5955 -11.8618 -2.2517
-16.9275 -11.9439 -1.22598
-16.9502 -11.7911 -1.06574
-18.4709 -11.47 0.816991
-16.5924 -11.7742 -2.53538
-16.6321 -11.8834 -1.9849
-16.617 -11.9523 -0.780638
-17.7985 -11.7844 -2.02471
-17.5837 -11.4236 -2.32672
-19.2436 -11.4894 -1.03449
-19.9 -11.7158 -0.215675
-20.0943 -11.9045 0.405556
-20.2549 -10.6853 -1.98904
-20.1907 -10.8755 -2.31607
-19.55 -11.8702 -0.58334
-19.6 -10.9045 -2.77864
-19.1497 -11.6011 0.245473
-19.0094 -11.5886 -0.600943
-18.9277 -11.5189 -2.37046
-18.762 -10.9124 -3.32815
-19.1556 -11.6903 -2.4771
-18.948 -11.4629 -2.19878
-17.5099 -11.7764 -0.472855
-18.5561 -11.4054 -3.22431
-17.9281 -11.7856 -0.04646
-17.8828 -11.9406 -1.06745
-17.3199 -11.432 -0.739662
-16.6163 -10.5789 1.52207
-17.7379 -12.1521 0.353475
-17.6217 -11.6578 -2.83327
-16.313 -10.0642 1.09664
-17.122 -12.2779 -0.241837
-16.8902 -12.2506 -1.43732
-16.8229 -11.5054 -1.4154
-16.2255 -12.1577 -1.14544
-15.8669 -12.5513 -0.806279
-15.6783 -12.2232 -1.5392
-20.3857 -11.4151 0.310169
-20.5097 -11.7294 0.359913
-20.7066 -10.7865 -1.51101
-20.3094 -11.1722 -0.0166335
-20.6126 -11.5151 0.389732
-20.0717 -11.8691 -0.0467413
-20.5827 -10.9453 -0.431123
-20.4716 -11.3566 -1.82744
-20.6623 -11.8699 -0.652914
-19.8409 -11.1096 -1.73832
-20.2178 -11.2199 -2.13772
-20.3063 -11.3698 -1.36454
-20.2214 -10.7711 -2.55708
-19.4573 -11.6318 -0.965276
-19.7892 -11.8221 -0.513824
-19.9824 -12.2029 0.258535
-19.5862 -11.0925 -0.55818
-19.0934 -10.9982 0.574438
-19.3771 -10.9256 -2.1874
-19.8238 -11.3215 -1.248
-18.5751 -11.5279 1.52109
-19.1914 -11.2143 -2.62758
-20.0637 -10.8418 -2.87602
-19.8961 -10.4325 -2.22147
-18.831 -11.4113 1.34101
-18.4545 -11.6462 1.03454
-18.7866 -11.4077 -1.58417
-18.924 -11.4512 -2.07525
-18.9035 -11.0663 0.172069
-19.2704 -11.2017 -2.21349
-18.5318 -11.2564 0.201617
-18.7654 -11.206 -0.260738
-18.1601 -11.7032 0.643263
-18.6795 -10.9148 -1.37288
-19.1377 -11.1316 -2.99287
-19.4141 -11.2353 -1.9666
-18.3796 -11.3062 -0.628536
-18.7525 -11.4186 -2.6859
-18.6156 -11.4833 -0.244044
-18.3898 -11.9303 0.194013
-18.2577 -11.5809 -2.82114
-17.9751 -10.7608 -1.11958
-18.3511 -11.5017 -2.48297
-18.0687 -11.96 -0.565822
-17.0559 -11.4413 -0.191755
-17.7084 -12.3585 0.309758
-17.3821 -12.0028 0.395822
-17.2267 -11.1477 -2.74235
-16.9265 -12.0755 -1.30338
-17.334 -11.8576 -0.623025
-17.0016 -11.6512 -0.463116
-17.1743 -11.7907 0.106709
-16.509 -10.6467 2.40579
-16.9556 -11.7111 -1.12362
-16.486 -11.7089 -0.219263
-16.218 -12.3191 -0.728202
-15.8083 -12.0663 -0.633754
-15.6099 -12.3795 -1.49976
-14.8926 -12.2102 -2.96395
-20.5128 -11.1544 -0.473881
-20.3487 -11.5605 -0.259243
-20.4273 -10.8522 -2.31285
-20.3927 -10.8508 -2.58367
-20.1212 -12.0066 0.793127
-20.0863 -11.2883 -0.874203
-20.248 -11.3381 -1.84185
-20.2491 -11.1254 -2.4179
-20.2473 -11.1115 -2.28169
-19.7075 -11.6416 0.353278
-19.7103 -10.5682 -2.04296
-19.686 -11.218 -2.5392
-19.7191 -11.3005 -1.97211
-19.0951 -11.6309 -0.966575
-19.1819 -11.5209 -2.98245
-19.3677 -11.1593 -2.21843
-19.4647 -11.3912 -0.730726
-19.7811 -11.0852 -1.33047
-19.3263 -11.3584 -1.49731
-19.1904 -11.4921 -1.07581
-19.3587 -11.4647 -1.98038
-19.0441 -11.4542 -2.06784
-18.7748 -11.7713 -2.38147
-18.4633 -11.072 -2.16536
-18.652 -11.7883 -1.61892
-18.2142 -11.9002 -0.854272
-18.275 -12.1342 -0.655995
-18.7978 -11.5013 -2.12442
-18.0043 -11.4342 -0.884642
-17.9023 -11.6612 -0.624721
-17.9663 -11.7312 -1.29799
-18.3718 -11.5865 -3.0049
-16.7926 -10.5836 1.53163
-17.6613 -11.6087 -0.594811
-17.6052 -12.0932 -1.18216
-17.5575 -11.6299 -1.54759
-16.9936 -12.089 -0.254647
-16.8118 -11.4712 -0.516969
-17.2241 -11.4593 -2.11095
-16.9832 -11.7257 0.214079
-17.2553 -11.3766 -2.65033
-16.3335 -12.5533 -0.179672
-16.3648 -10.9213 -2.33138
-16.3738 -12.2368 -1.42437
-16.2899 -12.2292 -0.964034
-15.958 -11.7975 -2.25257
-15.3608 -12.6103 -0.933763
-15.5944 -12.3644 -2.69302
-20.6881 -11.137 1.01604
-20.5364 -11.7265 0.899614
-20.5336 -11.2742 -1.55377
-20.4785 -11.3473 -0.93605
-20.089 -10.7407 -1.54119
-20.0444 -10.7367 -1.29273
-19.931 -11.2225 -1.1387
-19.3277 -11.3558 -0.6685
-19.5282 -12.2748 0.0863998
-19.8515 -10.9827 -2.54742
-19.5051 -11.7932 0.00955363
-19.3531 -11.3539 0.253125
-19.4361 -11.1504 -1.37933
-18.9419 -11.1952 -1.65338
-19.1164 -10.9039 -2.73625
-18.9417 -11.635 -1.42779
-18.9542 -11.7462 -1.83886
-18.5295 -11.5181 -1.71714
-17.2224 -9.82666 0.743743
-17.0133 -11.6835 -1.07933
-17.6323 -12.0185 -1.16562
-16.4873 -11.3649 -2.29788
-16.5808 -11.8975 -1.8981
-16.0289 -12.1311 -0.388019
-16.3193 -12.0803 -0.260192
-16.4182 -10.9298 -2.16736
-16.4844 -12.3274 -0.637763
-16.0853 -12.203 -1.33855
-16.2297 -11.9055 -1.22202
-16.386 -11.2673 -2.68592
-15.9612 -12.0995 -2.14844
-20.3541 -11.3654 0.313978
-20.2374 -11.8236 0.324515
-20.001 -11.3843 -0.654375
-19.146 -11.2658 1.16773
-19.9006 -11.4776 -1.20156
-19.6114 -11.3159 -0.160424
-18.7678 -11.1842 0.596213
-19.0321 -11.262 0.325973
-19.1534 -11.1609 -1.16612
-18.9557 -11.3894 0.646912
-18.7507 -11.1881 1.38375
-18.4988 -11.0789 -0.771747
-18.6695 -11.4278 -2.29023
-17.7778 -11.6906 0.862414
-17.882 -12.1679 -0.223006
-17.117 -11.5696 -0.609194
-17.4409 -12.0062 -0.346968
-17.0717 -11.9483 -0.20273
-17.7021 -11.863 -0.993508
-17.4903 -11.4686 -1.09742
-17.299 -11.5574 -1.2692
-17.568 -11.7193 -1.96523
-16.553 -11.8314 -1.49292
-16.5217 -12.1923 -0.792112
-16.2673 -12.3982 -0.265746
-16.1788 -12.2518 -0.70376
-16.1209 -11.5144 -1.84921
-16.2005 -11.9602 -0.821569
-20.3257 -11.5451 -0.319443
-20.6326 -11.7092 -0.66461
-19.5917 -11.0834 0.294154
-18.8802 -11.7805 0.676306
-18.5212 -11.2671 -2.4783
-18.9662 -11.4888 -2.94645
-17.8132 -12.0416 -0.326299
-17.2211 -11.4947 -0.941065
-17.0471 -12.1158 -0.949746
-16.1939 -12.2042 -0.536278
-16.0295 -11.8456 0.408021
-16.7448 -11.7872 -2.28166
-16.5245 -12.7071 -0.881706
-16.1102 -12.3419 0.165475
-15.8636 -12.2183 -1.24995
-16.4537 -12.3904 -1.20615
-16.3973 -11.7649 -2.50035
-15.7362 -12.7014 -1.17051
-16.0569 -11.3755 -2.71269
-19.1011 -11.0969 0.652976
-18.8853 -10.9753 -0.782933
-18.6424 -11.1692 0.572983
-19.0704 -11.2154 -2.30591
-18.6262 -11.4608 -3.19777
-17.624 -11.3949 -0.805684
-17.1984 -11.552 -0.791502
-16.4181 -12.2649 0.961978
-20.3638 -10.8782 -1.70552
-19.8727 -11.765 -0.239172
-17.9238 -11.3989 0.864565
-19.823 -11.6238 0.173715
-17.3504 -11.3865 -0.0104998
-17.6267 -11.8573 -1.04635
-16.8077 -12.2838 0.374019
-16.9991 -11.762 0.515395
-16.833 -11.686 -1.19284
-18.59 -11.4267 0.806124
-17.6136 -10.3845 1.33237
-17.31 -12.5262 -0.674009
-17.6641 -12.0082 -0.301345
-16.7566 -11.9209 -1.80079
-20.1087 -11.5786 -0.66693
-20.9036 -11.2031 -0.397737
-20.5276 -11.1598 -0.71859
-19.8914 -11.7263 -1.14376
-20.5591 -11.1844 -0.704793
-20.2763 -11.1052 -1.83835
-19.8807 -11.2014 -1.07986
-19.891 -11.3625 -1.3571
-20.1843 -11.5778 -1.36984
-20.6456 -11.1946 -1.79194
-17.0083 -10.4058 1.50339
-18.4733 -11.4817 -0.0792537
-19.7516 -11.5513 -0.917643
-20.3261 -10.7531 -1.50973
-18.4286 -11.6306 -0.151925
-18.8898 -11.2568 -0.619175
-20.2058 -11.4654 -1.7294
-20.0162 -10.8296 -1.08683
-20.5595 -11.2668 -1.28086
-20.2127 -10.8918 -2.31608
-18.8932 -11.5858 -1.26612
-20.5562 -11.3524 -1.94862
-20.0509 -11.0877 -1.76266
-19.3102 -11.6754 -1.01018
-18.8538 -11.9645 -0.537454
-18.7504 -11.3206 -0.537232
-19.2278 -11.3107 -0.778155
-19.35 -11.52 -1.06627
-17.7176 -11.6334 0.0596515
-18.1716 -11.7176 -0.745617
-18.1935 -11.4008 -1.61459
-19.0415 -10.9345 -1.97191
-17.0681 -11.5615 0.577227
-20.1314 -10.9017 -2.5723
-17.3978 -11.9901 -0.35646
-20.2937 -10.652 -2.1879
-19.7275 -11.4028 -1.91851
-19.7951 -11.2896 -2.20732
-17.9961 -11.5334 -0.979414
-19.9915 -11.3967 -2.31409
-18.0193 -11.6616 -0.764418
-19.9748 -11.4866 -2.22327
-19.0659 -11.3357 -1.19553
-20.428 -10.8754 -2.15676
-17.592 -11.8528 -0.613915
-18.9574 -11.5946 -1.58186
-19.205 -10.8984 -2.59702
-16.9986 -12.0198 0.408782
-19.7256 -10.9909 -2.82635
-19.7439 -10.8266 -2.80961
-18.5977 -11.8007 -2.11062
-19.3187 -11.0656 -2.28581
-18.5971 -11.4601 -1.99091
-19.819 -10.91 -2.61876
-17.9762 -11.8173 -0.827815
-18.2879 -11.3631 -1.16346
-18.9282 -11.3963 -2.64493
-18.9759 -11.3744 -2.12035
-19.4406 -11.1859 -2.51812
-18.7489 -11.6205 -2.77574
-18.8535 -11.3594 -2.5033
-18.9097 -11.9807 -2.32614
-18.7234 -11.1919 -2.26108
-18.751 -11.1637 -2.31456
-19.2025 -11.2096 -1.82149
-18.9041 -12.1035 -2.14211
-18.7423 -11.5655 -1.83413
-18.6793 -11.3751 -2.50253
-19.419 -11.0898 -2.74494
-18.5537 -11.2551 -2.49302
-18.3492 -11.2697 -2.04788
-18.8201 -11.0069 -2.91016
-19.1513 -11.2087 -2.11905
-18.5764 -11.489 -2.2915
-16.7633 -11.2674 -0.649783
-18.8194 -11.3897 -2.54915
-19.0577 -11.1752 -2.56605
-18.5305 -11.7987 -2.32017
-18.3218 -11.575 -2.5056
-18.5551 -11.3201 -2.78762
-18.5845 -11.5417 -2.73718
-18.3285 -11.4848 -2.9367
-16.7853 -11.9534 -0.582563
-16.2071 -11.8714 -1.6774
-18.4181 -11.3288 -2.7832
-18.1756 -11.2993 -2.94773
-15.7191 -12.9087 -0.709581
-17.856 -11.7065 -3.36698
-15.991 -12.6837 -1.81229
-16.2622 -12.3236 -1.55217
-20.4766 -11.4139 0.826856
-20.2524 -11.3167 0.143638
-19.1707 -11.2993 1.44119
-20.587 -11.3257 -0.268448
-20.7475 -11.8957 0.742526
-20.4433 -11.4303 -0.397456
-20.0671 -11.5534 -0.27814
-20.2818 -11.5003 0.0625655
-20.0292 -11.7315 0.51727
