-17.4703 -11.9132 -2.17145
-17.0439 -11.3494 -2.36179
-16.9957 -11.9417 -0.396264
-17.6622 -11.3043 -4.58893
-16.4459 -11.9774 -0.749104
-16.6116 -11.3129 -3.59557
-15.718 -12.5237 -0.4572
-15.8852 -11.4752 -3.77341
-16.1412 -11.427 -2.89296
-16.2431 -11.9216 -4.00838
-15.0711 -12.5231 -2.60908
-21.7063 -10.9762 0.379328
-17.0176 -10.4868 1.76272
-18.426 -11.3582 -0.148897
-17.8884 -11.5768 -1.21177
-17.5201 -11.454 -2.15138
-17.6803 -11.2442 -2.44082
-16.5929 -11.7449 -0.752785
-16.5726 -12.0558 -1.69135
-16.1563 -12.3029 -0.930804
-15.2888 -12.2868 -3.01142
-20.408 -11.0671 -0.15888
-19.7921 -11.3678 -0.75003
-19.7228 -11.3741 -1.2987
-18.8075 -10.8213 -0.872466
-19.1434 -10.7883 -0.517778
-18.2872 -10.8504 -1.22991
-17.6785 -11.6135 -0.59524
-17.0447 -12.1359 -1.29153
-16.9769 -11.8008 -1.53263
-17.1329 -11.7455 -1.42187
-17.0919 -12.0843 -1.33714
-16.1129 -11.7692 -2.44601
-15.7737 -11.5105 -3.37478
-15.4174 -11.8014 -3.99706
-15.5394 -12.1864 -2.81545
-15.5885 -13.1134 -1.54155
-14.8154 -12.5584 -2.73018
-14.1562 -12.6889 -3.6519
-20.051 -10.7594 -2.41151
-18.4978 -11.405 -1.2881
-17.5868 -11.3637 -1.98485
-20.0815 -11.1004 -2.14481
-16.4811 -11.9609 -1.97048
-16.8571 -11.3153 -3.08893
-15.8283 -11.8406 -0.790811
-15.5122 -12.1811 -1.86559
-16.8629 -11.41 -2.22897
-15.9617 -12.3898 -0.805579
-17.176 -11.7979 -1.56963
-17.1114 -11.5584 -1.96461
-16.8951 -12.5729 -0.763975
-15.5536 -12.3341 -2.14419
-15.4904 -12.2223 -2.06346
-15.3206 -12.2573 -2.34017
-15.3584 -11.7976 -1.99452
-15.6152 -11.6731 -2.39684
-16.7963 -11.7454 -0.793251
-15.4132 -12.2382 -2.03959
-17.2535 -10.7179 1.39886
-19.7796 -10.1047 1.64109
-21.5826 -11.1944 1.55454
-22.2481 -10.8343 0.482258
-21.6384 -11.124 0.378663
-16.0846 -10.3179 1.55893
-16.679 -10.4531 1.07213
-21.6685 -10.9222 -0.336928
-20.4737 -11.6388 -0.573424
-18.5231 -11.3947 0.407607
-20.9691 -11.3338 -0.274025
-18.7606 -11.4241 0.358149
-20.3089 -11.6377 -0.524107
-19.0853 -11.4802 0.13189
-20.6746 -11.2218 -0.437762
-20.4752 -11.398 -0.493611
-21.0292 -11.0801 -0.692599
-21.9197 -10.877 -1.24283
-20.4333 -11.5555 -0.277492
-18.7604 -11.7617 -0.525382
-17.0862 -12.5504 0.341957
-16.2897 -12.2129 0.542083
-16.6733 -12.4469 0.297964
-20.4046 -10.8996 -1.77275
-20.6795 -10.8398 -1.69743
-16.4952 -12.1682 -0.142184
-20.6734 -10.7338 -1.54212
-16.5505 -11.8573 -0.329462
-17.2739 -11.3808 -0.318953
-21.595 -10.3544 -2.41277
-16.885 -11.8286 -0.23185
-19.6154 -11.4409 -1.77793
-17.4782 -11.7171 -0.924538
-18.3477 -11.1063 -0.888169
-17.9485 -11.3089 -0.920064
-17.8667 -11.7596 -0.552945
-19.6545 -11.1586 -1.53751
-16.3557 -12.3425 -0.428899
-16.5917 -12.0829 -0.00436004
-18.0661 -11.5707 -1.11617
-16.6907 -12.3483 -0.609103
-17.0529 -12.243 -1.11107
-19.6502 -11.1161 -2.20005
-19.56 -11.2797 -2.14379
-16.5785 -11.8371 -0.269048
-16.1982 -12.2013 -0.360563
-16.9677 -12.1023 -0.943393
-21.3904 -10.1609 -3.64681
-21.4067 -10.1103 -3.57132
-16.262 -12.1244 -0.605145
-16.9047 -12.0067 -0.739201
-16.2817 -11.8452 -0.786441
-17.1237 -11.8732 -1.15655
-18.3016 -11.2565 -2.11897
-16.6173 -11.6716 -0.737977
-19.2785 -11.2027 -2.51977
-19.7612 -11.0254 -3.36446
-17.0999 -11.7994 -0.555594
-16.8129 -12.4966 -1.38355
-19.6988 -11.0519 -2.93234
-16.7016 -11.9733 -1.44793
-19.6208 -11.206 -3.03952
-19.1109 -11.3304 -2.69719
-19.9347 -10.8524 -3.62144
-21.3829 -9.70928 -4.36419
-17.4926 -11.3781 -1.81218
-17.1033 -11.4838 -2.10587
-17.6478 -11.2335 -2.23568
-17.587 -10.9193 -1.7225
-16.6029 -11.5389 -3.02482
-18.2337 -11.4934 -3.52279
-18.5191 -11.5127 -3.33673
-15.5725 -12.4329 -1.64039
-15.8664 -12.2612 -1.3123
-19.8054 -10.7914 -3.92384
-19.3484 -10.657 -3.57975
-19.2052 -10.4639 -3.88926
-19.0691 -11.0262 -4.33083
-19.2396 -10.9212 -3.95854
-20.0755 -10.389 -4.52612
-20.0884 -10.3345 -4.71881
-19.4697 -11.0325 -4.61881
-16.1801 -11.861 -2.04529
-16.1921 -11.6533 -2.06555
-18.9399 -10.5632 -4.3424
-18.9792 -10.8838 -3.77224
-19.0685 -10.7868 -4.53548
-19.1048 -10.7892 -5.00577
-19.1008 -11.159 -4.49107
-15.313 -13.0101 -1.73595
-18.5555 -11.0944 -4.52248
-17.9526 -11.3345 -4.00835
-14.7434 -13.0068 -1.95659
-15.2171 -12.1034 -2.18459
-17.8718 -10.9016 -4.65798
-17.5759 -11.1838 -4.1393
-15.0998 -13.0876 -1.95229
-15.7603 -11.8166 -2.98732
-15.0036 -12.3994 -2.28606
-17.4702 -11.6133 -4.00791
-17.9454 -11.1965 -3.94337
-16.3387 -11.4592 -3.4116
-15.3099 -12.7334 -2.91279
-15.488 -12.5443 -2.63965
-15.2486 -12.7607 -2.6009
-14.9643 -12.7095 -2.96008
-15.1551 -12.7634 -3.07794
-15.5464 -12.3354 -3.71233
-16.3332 -12.1724 -4.45313
-15.408 -12.6131 -2.73115
-15.2216 -12.2249 -3.45395
-16.2831 -11.9392 -4.26805
-15.1422 -12.4664 -2.51555
-15.0481 -12.0232 -3.17606
-15.0557 -12.4477 -3.02749
-15.2971 -12.1862 -3.25341
-15.0789 -12.6331 -3.63931
-15.7342 -12.7276 -3.59178
-15.1031 -12.2414 -3.36544
-15.9367 -11.9968 -3.87729
-15.5089 -11.9863 -3.93015
-15.6409 -12.0703 -3.90468
-14.9517 -12.3986 -3.53694
-14.489 -12.525 -3.7044
-14.703 -12.6578 -3.81139
-14.8206 -12.1191 -4.327
-14.5826 -12.6686 -3.72741
-14.4641 -12.6453 -3.38291
-13.9919 -12.8153 -3.75828
-20.2232 -10.7364 1.44699
-21.7949 -11.1179 1.16822
-17.3425 -10.1089 1.2413
-21.181 -10.9575 0.602319
-21.6141 -11.2363 1.01466
-17.4718 -10.0412 1.36148
-16.9931 -10.5199 1.33679
-16.3536 -9.79152 1.52508
-22.294 -10.333 -0.435887
-18.867 -11.3689 -0.209329
-20.6274 -10.8694 -0.285373
-18.7201 -11.6974 0.330112
-18.098 -11.7297 0.00310581
-19.9885 -11.5049 0.0237173
-17.8241 -11.4519 0.311199
-20.5386 -11.0653 -0.702498
-16.765 -11.9451 0.378371
-16.7735 -12.3935 0.515371
-16.1684 -11.5405 0.812457
-18.1402 -11.6566 -0.526749
-18.2505 -11.266 -0.566685
-16.4283 -12.0445 -0.212449
-17.6758 -12.4434 -0.336967
-17.6315 -11.7875 -0.379211
-17.5519 -11.6743 -0.947732
-16.8133 -11.6621 -0.757075
-16.7231 -11.6911 -0.810261
-16.6657 -12.3242 -0.56863
-16.1581 -12.0278 -0.109545
-16.2027 -12.0922 -0.374924
-16.4357 -12.4255 -0.243354
-16.1089 -12.1734 -0.583229
-17.7064 -11.496 -0.219821
-17.3369 -11.59 -0.938699
-16.5429 -12.4115 -0.717243
-16.5551 -11.6428 -0.272604
-18.1417 -11.6641 -1.61801
-16.5566 -12.4246 -0.149959
-17.7423 -12.2 -1.75096
-16.3434 -12.4139 -0.343789
-17.3243 -11.0393 -0.682205
-17.2748 -12.167 -0.652419
-17.236 -11.5557 -1.03235
-17.1211 -11.9594 -1.54055
-18.5542 -10.8067 -1.75482
-20.0099 -11.0861 -2.8461
-20.6114 -10.5661 -2.81138
-15.665 -12.5707 -0.719887
-16.7016 -11.7031 -1.00748
-17.9596 -11.4885 -1.72329
-20.1919 -10.4779 -3.0017
-16.2526 -12.3468 -1.09097
-16.3676 -12.2662 -0.393053
-21.3048 -9.96934 -3.8711
-18.8129 -11.9765 -2.44422
-19.9786 -10.7903 -3.26615
-17.6461 -11.3286 -1.64271
-16.2082 -11.6719 -0.808583
-20.5896 -11.2015 -2.62038
-16.6021 -11.9629 -0.916958
-15.9604 -11.8724 -0.716159
-15.9678 -11.968 -1.3161
-20.0745 -10.9501 -3.26672
-18.5924 -11.1953 -2.86537
-19.4083 -10.8486 -3.79234
-19.9899 -11.0928 -3.26
-17.0813 -11.1646 -2.32967
-17.2472 -11.8855 -2.22126
-16.6398 -10.8013 -2.34234
-16.7604 -11.5312 -2.53994
-17.1629 -11.2979 -2.33874
-15.8012 -12.3054 -1.42838
-16.8894 -11.548 -2.24981
-18.7756 -10.8452 -3.45575
-18.0663 -11.2423 -3.22083
-19.5022 -10.2669 -4.26378
-19.671 -10.6506 -4.29777
-16.2103 -11.3694 -1.563
-15.8438 -12.1512 -1.82499
-20.2377 -10.6043 -4.53781
-19.9704 -10.7481 -5.06976
-16.3374 -11.6618 -2.06919
-19.5936 -10.408 -4.62553
-20.3902 -10.6501 -4.67039
-16.9904 -11.6648 -2.72804
-16.4507 -11.5452 -1.9435
-18.6155 -10.61 -3.52486
-15.8497 -11.7608 -1.79347
-16.5118 -11.4215 -2.55002
-15.799 -11.563 -1.93136
-16.3733 -11.2185 -2.63873
-16.0759 -11.7058 -1.86672
-18.3651 -11.1296 -4.20421
-16.4071 -11.5949 -2.23702
-19.2115 -10.3269 -4.51785
-16.9018 -11.5396 -2.48234
-15.7351 -11.4876 -2.59373
-18.8402 -10.9655 -5.30634
-15.2914 -12.7049 -1.64558
-16.3507 -11.532 -3.27687
-17.9778 -11.4145 -3.38756
-18.3388 -11.0395 -5.11403
-17.6396 -11.268 -3.9547
-16.8841 -11.181 -4.16228
-17.5882 -11.732 -3.86774
-17.6347 -11.3908 -4.37979
-17.2372 -11.5291 -4.10939
-16.8675 -11.2536 -4.06751
-16.5705 -11.7565 -4.28936
-15.4922 -12.2491 -2.99539
-16.0151 -11.7665 -3.87298
-15.8197 -11.8493 -3.8108
-15.6082 -12.1948 -3.56465
-15.1547 -12.7677 -3.48988
-14.9205 -12.7992 -3.01197
-15.0128 -12.6421 -2.85472
-15.1698 -12.7669 -3.29618
-14.7735 -12.5063 -3.3107
-15.2243 -12.3365 -3.75875
-14.8487 -12.687 -3.28759
-15.0889 -12.4562 -3.49732
-15.2711 -11.9715 -3.73299
-14.6683 -12.544 -2.8665
-14.3287 -12.2829 -3.49331
-14.7784 -12.776 -3.87641
-14.2274 -12.7752 -3.63264
-14.6848 -12.5435 -3.64373
-14.5005 -12.5878 -3.36698
-14.6996 -12.6746 -3.45395
-16.4154 -9.97164 2.49978
-21.4126 -10.2138 1.00382
-21.0021 -11.4862 0.164264
-20.8775 -11.6309 -0.290044
-18.9706 -11.0399 0.774967
-20.6246 -11.853 0.0131511
-19.0911 -11.6375 -0.2137
-16.9914 -12.2555 0.487597
-15.8786 -12.5132 0.373952
-16.5948 -11.8833 0.69669
-16.228 -12.5759 0.00844577
-16.4435 -12.0739 0.120628
-20.4608 -11.019 -1.58037
-20.3689 -10.9377 -1.1137
-18.7197 -11.2046 -0.976977
-18.9331 -10.8865 -0.997295
-17.3295 -12.0328 -0.0438647
-17.8016 -11.6824 -0.531903
-17.8698 -11.7986 -0.920502
-16.845 -11.9865 -0.20924
-17.6077 -12.093 -0.473473
-16.3072 -12.1459 -0.30192
-17.2465 -11.4878 -0.625586
-20.1982 -10.7706 -2.18422
-18.2201 -12.0179 -1.27859
-19.7038 -11.1962 -2.39704
-16.4011 -12.2462 -0.317442
-16.255 -11.5449 -0.210585
-17.7804 -11.4215 -1.35617
-16.296 -11.9777 -0.931753
-21.0959 -10.3529 -3.10472
-16.3586 -11.7397 -0.805777
-20.6976 -10.6692 -2.7719
-16.4084 -11.8323 -0.87447
-15.9528 -12.5075 -0.5413
-17.5396 -11.7968 -1.65002
-15.9006 -12.5378 -0.667742
-16.2514 -11.8645 -1.14491
-19.4156 -11.3152 -3.00597
-15.5637 -12.4051 -0.804705
-16.5713 -11.8939 -0.781316
-19.5241 -11.1797 -2.14276
-19.12 -11.408 -2.43626
-18.5701 -11.7157 -2.66334
-17.6241 -11.1769 -2.48234
-19.8407 -11.0215 -3.47535
-16.4134 -12.2228 -1.59126
-19.2992 -10.9799 -3.67612
-16.4774 -11.7973 -1.95708
-16.6414 -12.1201 -1.9756
-17.1933 -11.3114 -2.25725
-20.5698 -10.5604 -4.08615
-19.2488 -10.868 -3.6736
-15.8646 -11.6437 -2.11235
-16.278 -11.9432 -2.26127
-19.5818 -10.9967 -4.45663
-15.8521 -11.5202 -2.12065
-16.2445 -11.4119 -2.46532
-18.7791 -10.8793 -4.08337
-19.4013 -10.7384 -5.24039
-15.6216 -10.8452 -2.78378
-15.0478 -12.7662 -2.07192
-18.8945 -10.7969 -4.85715
-17.8365 -11.7627 -4.39453
-16.7965 -10.8571 -3.39811
-18.367 -11.3367 -4.71292
-15.9612 -11.242 -2.70333
-17.5843 -11.3673 -4.4671
-17.4361 -11.61 -4.29004
-15.0496 -12.4556 -2.76091
-15.9148 -12.0559 -3.36863
-15.2462 -12.5064 -3.01281
-15.3324 -12.3547 -4.09691
-14.546 -12.3637 -3.06453
-15.2148 -12.6112 -3.42887
-14.9312 -12.3635 -3.62179
-14.6711 -12.1902 -3.45868
-14.2499 -12.4666 -3.56256
-14.5548 -12.4423 -3.56016
-14.257 -13.1092 -3.46715
-21.3492 -10.8654 1.21438
-21.4037 -11.3748 1.019
-20.5647 -11.3779 0.301476
-19.1684 -11.2533 0.50807
-18.4424 -10.7815 0.189442
-20.4865 -11.8 -0.725787
-17.3826 -12.3692 0.597172
-17.9483 -11.7432 0.186739
-17.7369 -11.3635 0.48824
-20.5257 -11.2982 -1.56979
-20.7189 -11.359 -1.31563
-15.9704 -11.9973 0.724966
-19.8728 -11.2291 -1.23025
-17.0035 -11.5276 -0.373115
-18.2567 -12.0325 -0.86725
-16.4602 -12.7831 -0.509905
-18.3931 -11.8874 -0.840848
-16.7708 -12.2043 -0.428355
-18.2165 -12.0885 -1.21684
-16.9942 -12.142 -0.831915
-17.2566 -11.1666 -1.26721
-17.3757 -12.0079 -1.20768
-17.632 -11.831 -1.41039
-17.1642 -11.5962 -1.02887
-19.7526 -10.9482 -2.64609
-16.2849 -12.5238 -1.64114
-16.268 -12.3012 -0.965503
-16.0866 -11.7935 -1.29596
-15.9514 -12.0234 -1.32519
-17.4424 -11.6778 -1.464
-17.0955 -11.4349 -1.98994
-16.691 -11.6655 -1.90971
-17.0799 -11.6886 -1.84094
-16.8299 -12.0678 -1.84527
-16.0239 -11.7763 -1.72324
-15.6672 -12.1124 -2.21614
-16.4215 -11.2898 -2.27837
-15.9765 -11.5175 -2.24355
-16.0101 -11.9107 -1.80743
-18.0466 -10.7032 -3.77808
-18.6802 -11.1214 -4.50913
-15.8467 -11.7286 -2.03065
-15.7381 -11.4455 -2.30173
-15.3074 -12.4624 -1.77693
-16.2466 -11.1507 -2.82381
-18.5464 -11.1891 -3.82511
-16.941 -10.5967 -3.42022
-17.8426 -10.7532 -4.50378
-17.4457 -10.8657 -4.1869
-14.9789 -12.6442 -2.69387
-15.8382 -11.5737 -3.95104
-14.7571 -12.8153 -2.89114
-15.892 -11.88 -4.37318
-15.0327 -12.6166 -3.53
-14.7676 -12.5877 -3.52316
-14.8371 -12.3642 -4.10458
-13.9686 -12.965 -3.35458
-22.2376 -10.4286 0.551288
-17.5149 -11.9778 0.205725
-19.8421 -11.5703 -1.29662
-16.8672 -12.1169 0.00973315
-16.1499 -12.2962 0.199838
-16.2694 -12.3766 -0.300393
-16.1731 -12.4459 -0.480751
-17.2215 -11.3672 -1.46259
-16.0993 -11.8158 -1.46589
-15.8366 -12.2499 -1.38432
-15.927 -12.2727 -1.1167
-16.155 -12.271 -1.14683
-15.4074 -12.294 -0.903923
-16.974 -11.633 -1.47774
-16.322 -11.9716 -1.06406
-16.0644 -12.7276 -1.06501
-16.5822 -11.4251 -1.9876
-16.5752 -10.8295 -2.8647
-16.2697 -11.3113 -2.15725
-15.5319 -12.5992 -1.90987
-19.045 -10.9513 -4.56196
-15.4315 -12.0035 -2.26553
-17.7638 -11.3347 -4.21921
-18.0711 -11.4173 -4.51882
-18.096 -11.3244 -4.3293
-16.2014 -10.9152 -2.64576
-17.7715 -10.9496 -4.17377
-15.6496 -11.5453 -2.93869
-15.3022 -12.7543 -2.37152
-15.2042 -11.8073 -2.83033
-17.5934 -11.6845 -4.80349
-15.8334 -11.4486 -3.49203
-15.7761 -11.4271 -3.54687
-15.3631 -11.7425 -3.59886
-16.1814 -12.0605 -4.15818
-15.7122 -12.1267 -3.68585
-21.5085 -11.5649 0.991848
-20.3712 -11.5461 -0.210882
-18.9698 -11.1008 -0.91343
-19.7291 -11.2245 -0.739308
-20.214 -11.014 -0.790999
-16.4204 -11.9459 0.351856
-17.4602 -12.1938 -0.334127
-17.2023 -11.7247 -0.575103
-17.1453 -11.989 -0.240181
-17.8226 -11.1848 -1.47126
-20.261 -10.3205 -3.04952
-16.8782 -11.8372 -1.53327
-15.819 -12.395 -1.93332
-16.2298 -11.9871 -1.6992
-16.2565 -11.6111 -2.23223
-15.6068 -12.0491 -2.48508
-16.6984 -11.1497 -2.96377
-16.289 -11.1096 -3.35253
-16.1792 -11.2347 -2.87661
-16.7547 -11.4119 -2.95204
-15.655 -11.7609 -2.74228
-16.7612 -11.8904 -4.4601
-15.7255 -12.3255 -4.13496
-15.1569 -12.6549 -3.4205
-22.4378 -10.6369 1.18405
-20.7535 -11.7363 -0.642208
-18.9841 -11.0816 -0.18822
-20.0508 -11.2822 -0.891802
-18.7506 -11.5491 -0.606421
-19.3044 -11.3476 -1.13363
-17.7756 -11.0705 -0.298653
-16.4845 -11.481 -0.490148
-17.9626 -11.2848 -1.72195
-17.0244 -11.5558 -1.41098
-16.5615 -12.1285 -1.39295
-16.0769 -12.4751 -1.23694
-16.27 -11.9289 -2.10733
-15.9285 -11.0744 -2.82792
-17.1797 -10.7659 -3.39487
-15.7897 -11.9881 -2.13261
-15.7613 -11.7635 -2.75718
-16.0434 -11.3015 -3.67181
-14.6228 -12.2356 -2.69419
-16.8181 -11.7631 -1.64083
-16.7398 -11.6463 -1.72573
-16.9889 -11.8109 -1.9079
-16.9668 -11.67 -2.21115
-14.1831 -12.7883 -3.09573
-20.1444 -11.4795 -0.583953
-17.3004 -12.2423 -1.91652
-16.0451 -11.7563 -1.84879
-16.9885 -11.4013 -1.85528
-16.5514 -11.7298 -1.93833
-16.4872 -12.1513 -1.64493
-15.8434 -12.1441 -1.98503
-17.906 -11.5232 -1.61835
-16.311 -12.1649 -1.25095
-15.5857 -12.1891 -0.896977
-16.4625 -11.3751 -2.30433
-15.6236 -12.2972 -2.14912
-22.2879 -11.0029 0.510769
-16.2907 -12.2464 0.228503
-15.8286 -12.0908 -2.6463
-14.7081 -12.6224 -3.53878
-14.1357 -12.3976 -3.10588
-14.1766 -13.1782 -3.81911
-17.1133 -11.946 -4.47897
-16.8302 -11.3626 -4.31227
-17.2805 -11.4071 -4.25199
-15.2654 -12.5047 -3.60018
-14.2916 -12.6649 -3.30773
-17.391 -11.2157 -4.38807
-17.9194 -10.9634 -3.99959
-15.0621 -12.1282 -3.27943
-19.9226 -9.87865 -4.6747
-15.4519 -12.633 -3.42197
-15.0498 -12.5703 -2.92484
-19.9345 -10.2229 -4.84171
-19.4276 -10.2451 -4.56119
-18.9032 -11.1901 -4.28339
-15.6751 -12.2722 -3.44508
-18.4113 -11.0716 -3.99325
-20.4953 -10.4815 -4.7776
-15.5449 -12.3387 -3.01134
-15.2136 -12.6282 -2.79772
-19.6962 -10.3585 -4.33636
-15.8264 -12.6915 -2.5983
-20.0948 -10.5604 -4.22534
-19.8521 -10.6735 -4.32091
-15.4176 -12.4495 -2.55654
-16.5535 -11.5831 -2.92907
-19.5124 -11.3281 -3.65621
-19.4671 -11.0224 -3.77681
-18.5965 -11.5156 -3.5547
-21.0262 -10.3601 -3.85655
-18.8503 -11.4394 -3.82199
-19.0105 -11.149 -3.6038
-16.2034 -11.536 -2.50279
-16.797 -11.7032 -2.17764
-18.5421 -11.6629 -2.70077
-20.3968 -10.6391 -3.01172
-19.9927 -11.0613 -3.24668
-19.0414 -11.5763 -3.23648
-20.1609 -10.9825 -3.08662
-20.3042 -11.0922 -3.2121
-20.1879 -10.6828 -2.96301
-19.8107 -10.3482 -2.80357
-19.1954 -10.9009 -2.58973
-19.07 -11.0716 -2.76031
-19.3369 -10.8793 -2.21799
-20.4331 -11.2063 -2.04159
-21.0297 -10.7325 -2.1634
-19.0239 -11.5429 -2.31343
-18.9175 -11.8723 -1.88023
-20.2301 -10.558 -1.93544
-19.5359 -10.859 -1.44901
-20.3319 -10.6101 -1.65422
-16.6614 -12.0922 -0.93184
-18.1116 -11.6797 -1.70118
-18.3291 -11.3372 -1.17936
-16.581 -12.0204 -0.859709
-18.6044 -11.4289 -1.32239
-16.8023 -11.793 -1.05958
-16.4588 -12.198 -0.886555
-15.6419 -11.8733 -1.0843
-20.1079 -11.2291 -1.39558
-17.6391 -11.8843 -0.708858
-19.135 -11.2158 -1.00271
-16.0772 -12.5806 -0.97816
-17.0663 -11.9599 -0.231072
-16.7475 -12.5363 -0.0501441
-16.5933 -12.2946 -0.412969
-17.0385 -11.8203 -0.138033
-17.2899 -11.8611 -0.234608
-17.389 -11.7071 0.259952
-16.2905 -11.9703 -0.469019
-17.2129 -11.7537 -0.399519
-21.3988 -10.5693 -0.209518
-20.1566 -11.2516 -0.332917
-19.8053 -11.7091 0.124571
-21.8421 -11.0486 -0.428386
-20.7024 -11.5358 -0.157134
-16.9079 -11.7209 0.00832274
-17.4451 -10.7217 1.44086
-21.3663 -11.0197 0.823998
-21.2477 -11.3918 0.802214
-14.101 -12.5493 -2.91974
-15.5965 -11.9045 -3.37139
-18.5052 -11.0008 -4.6665
-16.9509 -11.9946 -3.97017
-14.437 -12.6633 -2.9243
-18.2737 -11.3559 -4.29281
-19.7747 -10.7069 -4.99504
-14.5694 -12.9213 -3.21937
-15.1275 -12.5296 -3.47968
-19.4363 -10.3157 -4.15324
-19.054 -10.7278 -3.88578
-15.5678 -12.7885 -2.6512
-18.353 -11.6067 -3.83206
-14.4252 -12.7843 -2.92688
-14.8477 -12.7586 -2.7266
-19.6715 -10.9424 -3.65807
-18.4372 -12.0114 -3.27243
-15.8945 -11.5877 -2.47515
-15.7822 -11.8707 -2.43086
-16.0414 -11.8471 -2.4753
-19.3374 -10.837 -3.52685
-15.3484 -12.588 -1.86254
-19.669 -11.1047 -2.96062
-19.0702 -11.2693 -2.91172
-20.024 -10.9755 -2.91276
-15.7304 -12.1125 -1.85008
-16.5143 -11.4834 -2.27766
-15.6792 -12.8969 -1.6741
-16.3656 -11.3133 -1.8922
-16.6251 -11.2305 -2.10786
-16.2052 -12.0551 -1.70921
-15.6563 -12.5489 -1.25445
-20.5294 -10.6767 -2.06912
-15.9624 -11.8759 -0.973425
-15.8928 -12.8562 -1.05376
-17.7149 -11.5581 -1.09799
-15.5438 -12.5794 -0.86656
-18.3777 -11.6015 -1.02787
-16.1729 -12.278 -0.509403
-16.3122 -12.709 -1.33438
-18.1609 -11.7285 -0.524255
-20.3778 -11.1274 -1.29514
-17.511 -11.2925 -0.896516
-16.9254 -11.5976 -0.341565
-16.4572 -11.9737 -0.0875444
-16.6454 -11.4981 -0.147727
-16.9124 -11.3975 -0.523321
-16.5036 -11.8906 -0.543778
-20.1934 -11.2112 -0.649791
-16.6361 -12.4439 -0.235876
-20.5198 -11.2796 -1.17882
-18.5669 -11.5785 -0.327727
-20.6132 -11.1647 -0.643776
-19.0388 -11.6187 -0.0616595
-16.5223 -12.2984 0.717135
-17.9827 -11.5081 0.396828
-18.0716 -11.544 0.0086497
-17.5148 -11.8415 0.57845
-17.9147 -11.9497 0.299235
-16.9125 -11.7714 0.815082
-17.1068 -10.4234 1.69649
-16.8171 -10.5169 1.25995
-19.8152 -10.8479 1.47796
-16.5644 -10.5478 2.20228
-17.6067 -10.6545 -4.67002
-18.3324 -11.2038 -4.05594
-15.0679 -12.7405 -2.98741
-18.4809 -10.7185 -4.49853
-19.9169 -10.6773 -4.37255
-15.8047 -12.5575 -2.87877
-14.61 -12.288 -2.82352
-15.1917 -12.9608 -1.96144
-19.0849 -10.6738 -3.5709
-15.3412 -12.773 -2.24641
-18.8398 -10.931 -3.22565
-14.7878 -12.3603 -2.10856
-16.3502 -11.1899 -1.8045
-18.9893 -11.0228 -3.13878
-19.8923 -11.0778 -3.21407
-17.3323 -11.6481 -1.59369
-15.5482 -12.6965 -1.51669
-20.7263 -10.9584 -2.75419
-16.0372 -12.3436 -1.51384
-19.8544 -10.3773 -2.43462
-15.9416 -12.3743 -0.877112
-16.7433 -11.7129 -0.622787
-16.7212 -11.9539 -0.495681
-20.895 -11.5903 -0.868659
-16.7445 -11.7997 -0.109997
-18.1923 -11.44 0.502295
-20.4356 -11.1347 0.0212694
-21.0554 -10.8149 -0.0482784
-21.167 -11.4362 -0.162621
-14.0895 -12.7241 -3.34176
-15.2428 -12.2007 -3.88592
-15.404 -12.3634 -3.68067
-14.4058 -12.5491 -3.67416
-15.2557 -12.2906 -3.74793
-14.9522 -12.9651 -3.31339
-17.4153 -11.299 -4.13253
-18.4755 -10.9615 -4.34593
-16.0024 -11.4904 -3.12085
-15.5249 -12.6883 -3.25507
-17.3426 -10.8505 -2.73006
-19.1952 -10.7455 -3.60814
-19.809 -10.7515 -3.63115
-15.4758 -13.1521 -2.14582
-15.4059 -11.6395 -1.97118
-16.8483 -11.3294 -1.7142
-16.9554 -11.3245 -0.979759
-16.1274 -12.5292 -1.0067
-16.8554 -11.8042 -0.708433
-16.4838 -11.5236 -0.722666
-20.2921 -11.1412 -0.192602
-17.9685 -11.6201 0.207504
-16.8742 -11.5862 -3.66403
-15.3046 -12.6201 -4.13193
-16.2956 -11.3002 -4.4823
-15.0875 -12.8937 -3.62737
-15.9731 -11.4219 -3.62152
-17.0535 -11.2206 -3.66685
-18.3436 -11.4667 -4.74367
-14.9549 -12.6691 -2.62762
-16.963 -11.0238 -2.35544
-16.2088 -11.9531 -2.21975
-19.5496 -11.0521 -3.47387
-16.994 -12.1694 -1.48226
-16.7178 -11.8487 -1.59053
-16.4722 -12.228 -0.923146
-17.1851 -12.2774 -1.30378
-16.3516 -12.3451 -0.727124
-17.5953 -11.716 -0.415522
-16.5175 -11.6828 -0.651358
-16.8741 -12.128 0.0573019
-16.6448 -12.101 -0.196348
-16.2202 -11.7431 -0.188795
-16.8127 -12.0976 0.325908
-18.7366 -10.9686 0.0931515
-16.3374 -10.4613 2.10138
-15.4168 -11.8162 -3.32639
-15.7257 -11.8728 -1.96414
-16.3539 -11.7801 -1.85546
-17.0643 -11.9889 -1.4753
-16.5534 -12.2244 -1.28243
-17.2119 -11.7079 -1.0586
-15.8757 -12.5959 -1.5262
-16.9121 -11.9084 -1.20387
-17.0318 -11.9105 -0.835999
-16.9292 -11.4159 -0.0653723
-15.0605 -12.1033 -2.85624
-17.0467 -11.6758 -1.60258
-17.0751 -11.612 -2.37397
-18.6524 -10.8872 -0.155975
-15.7484 -12.4722 0.394785
-16.4989 -11.0108 -3.39898
-15.2645 -12.0995 -1.61429
-18.5139 -11.1722 -0.796229
-16.2155 -12.4724 -0.567783
-18.3991 -12.3796 -0.564952
-16.6183 -12.0634 -1.01612
-16.9775 -11.7137 -0.372963
-17.1572 -11.6953 -0.378726
-19.5758 -10.1774 -5.15165
-20.1402 -10.1549 -4.82134
-19.9034 -10.305 -5.06658
-19.4197 -10.506 -4.81398
-18.4778 -10.8825 -4.30653
-18.6547 -10.5403 -4.88522
-19.8101 -10.6444 -4.29166
-18.2345 -10.7548 -4.5268
-19.9254 -10.8378 -3.90317
-19.4761 -10.8352 -3.88953
-18.2804 -11.5192 -4.57162
-18.7289 -11.1202 -3.96376
-18.6364 -11.541 -4.1267
-19.1088 -10.8734 -4.30373
-17.1538 -11.426 -4.21629
-20.5953 -10.7017 -3.57624
-17.2335 -11.3998 -4.04066
-19.5594 -10.7425 -3.74259
-19.412 -10.7737 -3.36093
-19.6371 -11.1162 -3.20365
-19.5668 -10.9838 -3.64279
-19.1992 -10.6356 -3.60634
-19.3647 -11.125 -3.02406
-20.2248 -10.9832 -2.92084
-18.5296 -11.478 -3.64729
-16.0906 -12.343 -3.63157
-19.9633 -11.0548 -2.72921
-16.1769 -11.4072 -3.14872
-20.2152 -10.7954 -2.57447
-15.8011 -11.5449 -3.14646
-16.523 -11.7461 -2.86579
-17.2006 -10.7385 -2.77462
-17.0314 -11.4003 -2.28583
-15.0256 -12.5298 -3.98007
-15.1075 -12.6821 -3.24822
-15.1782 -12.2502 -3.33765
-17.1407 -11.4802 -2.48171
-15.0288 -12.4673 -3.34766
-17.0521 -11.5268 -2.30425
-14.7392 -12.4006 -3.44708
-20.6348 -10.8312 -1.62095
-14.9965 -12.5606 -3.91683
-15.4844 -12.3389 -2.61179
-21.2906 -11.1389 -2.04847
-21.0236 -11.471 -1.40843
-14.7542 -12.7813 -3.19104
-14.3252 -12.4169 -3.19931
-15.329 -12.37 -3.27133
-15.228 -12.7668 -3.26051
-17.1602 -11.4485 -1.68294
-16.4147 -11.5263 -2.60495
-16.238 -11.4282 -2.25962
-14.7039 -12.5737 -2.74673
-17.8859 -11.7111 -2.2577
-17.1232 -11.5522 -1.96639
-15.4785 -12.3487 -3.52461
-16.6094 -11.7745 -2.12181
-14.9273 -12.4336 -2.7949
-20.2601 -11.0684 -1.41127
-21.3948 -11.496 -0.302017
-20.6511 -11.1921 -0.847521
-18.58 -11.5341 -1.22796
-16.7502 -11.6852 -1.73788
-20.733 -11.7233 -0.80737
-15.0102 -12.4523 -2.73941
-17.9161 -11.4541 -0.850736
-14.8395 -13.4002 -2.5381
-17.4679 -11.7898 -0.748581
-18.2958 -11.5519 -0.766752
-16.9824 -11.6129 -0.855625
-14.5219 -12.9196 -1.69957
-14.8034 -12.7099 -2.37755
-15.718 -12.109 -1.75503
-15.4935 -12.6663 -2.04605
-20.3508 -11.3588 -0.168681
-20.6671 -12.0081 0.0303932
-19.0904 -11.1271 -0.247857
-18.5273 -11.4864 0.199586
-18.3464 -11.3609 0.320662
-15.7106 -12.2606 -1.26424
-18.1132 -12.2561 -0.757293
-18.2862 -11.7334 -0.69577
-15.1907 -12.9123 -1.9184
-21.643 -11.2227 0.974085
-17.2423 -10.5038 1.16232
-16.6596 -11.8097 -0.607714
-17.1409 -10.2001 1.44186
-16.1173 -12.1842 -0.942617
-17.7678 -9.89529 0.865008
-18.2731 -11.7496 -0.0174623
-17.7689 -11.5478 -0.11734
-16.4331 -10.5249 1.19004
-18.0537 -11.4202 -0.175201
-16.8048 -10.551 1.46071
-15.9677 -12.3504 -1.23095
-16.6387 -10.4662 1.59907
-17.1296 -10.2927 1.15086
-16.5044 -12.1869 0.0957247
-17.1458 -10.2943 2.10785
-17.0162 -11.8154 -0.317011
-16.311 -12.0156 -0.452315
-16.5025 -12.2363 -0.521754
-16.4217 -10.7533 1.5199
-17.0291 -12.1067 0.751364
-16.4933 -12.2523 0.505836
-19.5103 -10.2478 -5.44683
-19.2722 -10.713 -4.94671
-19.7956 -10.14 -5.08085
-19.7902 -10.4695 -4.24837
-20.1396 -10.2881 -5.06907
-19.8862 -10.3782 -4.74426
-19.6639 -10.864 -4.69245
-19.842 -10.3139 -4.35476
-17.9833 -11.2627 -4.51047
-19.0379 -11.0217 -4.34329
-18.7227 -11.2441 -4.39029
-18.6754 -10.7466 -4.29075
-18.1882 -11.3746 -4.01046
-19.4985 -10.8117 -4.41723
-18.5951 -10.9815 -4.11584
-17.2406 -11.5789 -4.27499
-18.5045 -11.0215 -4.53472
-17.6709 -11.7045 -4.2974
-19.9043 -10.4396 -3.77982
-18.7445 -10.961 -3.51025
-16.3945 -11.7061 -3.94657
-20.6009 -10.0658 -3.15598
-18.3363 -11.472 -4.08555
-19.8258 -10.4282 -3.71047
-20.1484 -10.6288 -3.1723
-16.3191 -11.3934 -3.17826
-18.5507 -10.8563 -2.95105
-19.2195 -11.2234 -3.68667
-19.7308 -11.1519 -2.87633
-19.7023 -10.9757 -2.32589
-16.093 -11.0715 -3.07207
-16.3283 -11.1648 -3.02094
-18.4533 -11.2864 -3.16525
-19.0875 -11.2629 -2.77537
-15.985 -12.0532 -3.65929
-15.5583 -12.4005 -3.47223
-15.8175 -12.6119 -3.27931
-15.8266 -12.3634 -3.24289
-15.8812 -12.2543 -3.44341
-19.6808 -11.0678 -2.19087
-15.4241 -12.1686 -3.38241
-15.2832 -12.4759 -3.13693
-16.947 -11.4145 -2.26283
-19.7807 -11.2961 -2.02299
-20.6416 -10.7026 -1.01147
-21.1943 -10.5236 -1.7616
-15.1056 -11.9324 -3.0482
-15.5053 -11.7378 -2.31854
-16.2938 -11.8547 -1.72704
-19.2804 -11.2855 -1.43238
-19.859 -11.3668 -1.53516
-15.0192 -12.4267 -2.84216
-17.5737 -11.3465 -2.35594
-15.6488 -11.8836 -2.13774
-16.1234 -11.8791 -2.68853
-14.3626 -12.9039 -2.84952
-15.3324 -12.6351 -2.40633
-15.0711 -12.3503 -3.30166
-15.2241 -12.5482 -3.06913
-16.6752 -11.3621 -1.64621
-16.6012 -11.8052 -1.79797
-16.8947 -11.8528 -1.53849
-15.4238 -12.8074 -2.33159
-18.0909 -11.5365 -1.16136
-20.574 -11.2935 0.113532
-15.0868 -13.2153 -3.17404
-14.6827 -12.5421 -2.07153
-18.6086 -11.342 -0.558218
-20.9238 -11.1105 -0.0484629
-20.4792 -11.374 0.370138
-17.9211 -11.9347 -0.573759
-16.429 -12.0177 -1.21838
-18.4042 -12.0135 -1.29247
-16.282 -11.8788 -1.36772
-17.0287 -12.0671 -0.309357
-18.5939 -11.0756 0.145648
-16.1812 -11.9806 -0.0965589
-18.931 -11.5552 0.713484
-18.0564 -11.7761 0.221733
-17.7656 -11.6906 -0.558687
-17.2186 -12.1581 -0.412435
-16.2595 -12.3793 -1.0089
-16.8856 -12.2417 -0.181138
-17.4915 -9.82706 1.48649
-16.5999 -12.0535 -0.00568587
-16.5306 -10.1634 1.80395
-15.7966 -12.6711 -0.851779
-15.9426 -12.2208 -0.114256
-16.0335 -12.5055 -1.2771
-18.0703 -11.651 0.366129
-17.3434 -11.9376 0.536686
-16.217 -12.2514 -1.08881
-15.871 -12.4089 -0.871526
-16.5186 -12.3851 -0.432859
-16.3302 -12.2934 -0.233027
-16.6925 -12.2266 -0.444267
-16.2126 -12.5466 -0.553668
-16.7819 -12.3817 0.723165
-19.2732 -10.3636 -4.17142
-20.4339 -10.0849 -4.32012
-18.5167 -11.0227 -4.47364
-18.2859 -10.9587 -4.58253
-18.17 -11.1826 -4.68865
-17.7806 -10.8681 -4.58509
-17.8034 -11.2964 -4.46345
-18.3316 -11.0708 -4.40366
-16.7055 -11.496 -4.36342
-18.2975 -11.2795 -4.14158
-16.6212 -11.6679 -4.25947
-18.3937 -11.3488 -3.50215
-18.9993 -11.0703 -3.48537
-19.9517 -10.9081 -3.5211
-16.1013 -11.9962 -4.52005
-19.7289 -10.3717 -3.38657
-20.2923 -11.2042 -3.25134
-19.4924 -10.9413 -3.46161
-20.0668 -10.7541 -3.00427
-16.3822 -11.545 -2.97882
-20.2543 -11.2544 -3.0408
-18.7593 -11.4785 -2.69239
-15.8715 -11.5896 -3.08743
-15.5374 -11.155 -3.15664
-16.5865 -11.5572 -2.15614
-15.2096 -11.8807 -3.38846
-14.8761 -12.065 -3.65624
-16.9331 -11.6556 -1.75077
-16.4786 -11.8132 -2.31802
-20.6632 -10.8171 -1.70322
-16.8147 -11.5606 -1.77363
-14.3746 -13.1898 -3.60102
-15.8582 -11.4414 -2.3111
-16.5509 -11.4116 -2.15919
-15.4362 -12.5123 -2.80372
-15.9621 -11.9126 -2.1128
-18.8296 -11.0506 -1.81862
-15.5225 -11.921 -2.15054
-17.6376 -11.7001 -1.43534
-17.6143 -11.7647 -1.25008
-17.311 -11.7245 -1.36453
-20.5794 -11.1098 -0.2605
-17.475 -11.6189 -1.0045
-15.99 -11.9901 -1.50864
-14.9555 -12.5764 -2.88907
-21.3403 -10.8641 -0.461822
-15.1457 -12.7955 -2.18198
-17.7609 -12.1601 -0.81214
-18.8448 -11.1485 0.326927
-17.3465 -11.8092 -0.565189
-16.393 -11.6551 -1.11622
-16.7117 -12.3448 -0.80149
-18.9721 -11.3938 -0.0673592
-16.1279 -12.3973 -1.44438
-18.4534 -11.2849 0.10741
-17.0638 -11.4731 -0.306427
-18.2333 -10.9493 -0.212972
-16.1727 -12.7052 -0.656104
-16.3505 -12.0924 -0.62417
-16.4468 -12.2307 0.118689
-16.8162 -12.1566 -0.0678533
-16.3239 -12.5959 0.329782
-19.922 -10.5941 -4.22549
-20.5699 -10.3757 -4.18073
-17.7902 -11.5877 -4.00504
-17.6521 -11.4946 -4.45964
-19.8872 -10.271 -3.64993
-17.4488 -12.0363 -3.90463
-17.1427 -11.029 -3.16587
-16.7205 -11.6526 -3.1149
-16.1254 -12.3416 -3.54306
-15.9797 -11.4209 -2.61646
-19.4065 -10.926 -2.65827
-15.8025 -11.9695 -3.8439
-15.7297 -11.6106 -2.777
-15.287 -11.69 -3.43065
-14.6175 -12.2324 -3.37022
-16.6481 -11.4216 -2.57666
-15.0359 -12.7831 -3.5822
-14.6673 -12.3208 -3.24596
-14.8839 -12.5027 -3.46415
-14.4352 -12.2363 -3.51173
-20.0842 -11.3698 -2.17114
-15.5218 -12.3116 -3.62562
-14.6132 -12.8436 -3.1262
-14.7305 -12.7608 -3.97159
-16.517 -11.9625 -2.03467
-17.1207 -11.4456 -1.85171
-16.7115 -11.9888 -1.47781
-15.7735 -11.6234 -1.94977
-21.0161 -11.4576 -0.109839
-20.6497 -11.3944 0.02911
-16.6511 -11.9219 -1.10262
-16.8585 -11.9006 -1.14176
-17.7067 -11.6425 -0.487246
-15.8096 -11.8752 -0.997979
-15.9878 -11.9064 -0.516058
-17.7155 -11.7972 -0.530435
-17.1671 -11.7697 -0.52741
-18.3898 -11.3792 0.486005
-16.0064 -12.5635 -0.698976
-16.4096 -12.4294 -0.678114
-17.9759 -11.9995 0.170254
-16.3853 -11.853 -0.266311
-16.5731 -11.924 0.471145
-20.2526 -10.4118 -4.7174
-18.2837 -11.3185 -4.56342
-18.1407 -11.1358 -3.9452
-17.8284 -11.8174 -4.33172
-20.5099 -10.7572 -3.34893
-16.7451 -10.7679 -3.18702
-16.3304 -11.8389 -4.05747
-16.6953 -11.201 -2.90505
-16.7881 -11.2131 -2.69902
-16.5449 -11.8239 -2.79462
-15.3461 -12.3553 -3.3334
-15.4413 -11.9213 -3.84658
-16.176 -11.6764 -2.83484
-15.0047 -12.4795 -3.31699
-14.2832 -12.7485 -3.80281
-15.9957 -11.6247 -2.42256
-18.1962 -11.5499 -1.26051
-19.9879 -11.5963 -1.18065
-14.7945 -12.6543 -2.37751
-18.0942 -11.4692 -0.969332
-14.2341 -12.6482 -2.34828
-20.1515 -11.4586 -0.151631
-18.0203 -11.9293 -0.799002
-15.9259 -12.0778 -1.90755
-18.5541 -11.522 -0.494531
-17.5385 -11.7951 -0.457801
-16.3194 -11.835 -0.590728
-16.7923 -11.7515 -0.726169
-18.2147 -11.751 0.223616
-16.0604 -12.1802 -0.680995
-16.5556 -12.0512 -0.734363
-17.7507 -11.284 -0.0872087
-16.8797 -11.8664 0.379173
-18.4544 -11.4868 -4.17235
-15.8053 -10.9631 -3.09798
-16.2879 -11.4132 -2.51832
-15.4613 -11.6808 -2.83314
-14.5592 -12.7127 -3.39041
-19.7729 -11.49 -1.27168
-18.3238 -11.3597 -1.37404
-17.3897 -11.6691 -1.45569
-16.229 -12.2196 -0.771313
-16.7597 -11.9788 -0.154958
-16.5977 -12.4258 0.0146256
-16.9256 -11.2427 -2.55202
-15.7731 -12.2564 -2.65697
-18.6457 -11.5057 -0.310855
-15.9164 -12.4075 -0.922753
-16.599 -11.7215 -0.990396
-16.4405 -12.33 -0.767204
-16.9217 -11.8102 -0.956913
-17.5533 -12.1374 -0.541799
-19.1538 -11.2308 -0.602695
-17.2244 -11.918 -1.47424
-17.1136 -11.5386 -3.60481
-17.0734 -11.2631 -1.83187
-17.4737 -11.6052 -1.80827
-15.6412 -12.215 -1.09777
-17.0437 -11.197 -2.09768
-16.9301 -11.4766 -1.65407
-17.7118 -11.8424 -1.15266
-15.342 -12.7438 -2.27934
-17.1532 -11.8911 -1.05743
-15.8718 -12.1147 -1.20872
-18.3265 -11.5484 -0.59847
-19.6348 -10.5673 -4.64553
-20.2531 -10.201 -5.29451
-20.1551 -10.0569 -4.35089
-20.0716 -10.7385 -4.02956
-21.8358 -10.426 -0.59172
-19.4646 -10.9075 -4.12457
-20.9093 -11.0126 -2.56604
-20.375 -10.7874 -3.16065
-19.2417 -10.9778 -4.63338
-20.2363 -11.1325 -3.49116
-18.8626 -10.9433 -4.05967
-22.0721 -11.0001 0.252753
-19.7188 -10.8407 -3.7063
-19.5533 -11.0232 -3.54333
-20.867 -10.9567 -1.60053
-21.8111 -10.9951 1.1651
-21.4035 -11.0117 1.10498
-19.785 -11.4144 -1.65631
-18.0891 -11.3631 -4.6838
-17.7588 -10.4061 1.37071
-20.6986 -11.1542 -0.0398496
-17.3255 -10.7471 -2.97355
-17.54 -10.6895 -3.56127
-17.1571 -10.0844 1.43139
-20.2723 -11.6832 -0.332696
-18.1633 -11.0899 -3.13434
-17.6264 -11.0405 -4.46894
-17.932 -11.4833 -2.0385
-17.3583 -10.8405 -2.10581
-16.3573 -10.294 1.54415
-16.925 -11.5103 -4.11695
-17.322 -11.3239 -4.52674
-18.1659 -11.7829 -2.03481
-16.9987 -11.2813 -2.73287
-18.1019 -11.8854 -1.62678
-18.3818 -11.2797 -0.587449
-17.7459 -11.5247 -0.549988
-16.5007 -11.9086 -4.03698
-17.2054 -11.582 -0.258504
-16.1446 -11.545 -2.53152
-16.8206 -11.8882 -2.19854
-16.5431 -11.4836 -1.77169
-17.2431 -11.4501 -1.80119
-17.5754 -11.8248 -0.243044
-16.4247 -11.7928 -2.08299
-17.5147 -11.6679 -0.567209
-15.921 -11.8865 -1.85212
-16.591 -12.0015 -1.03655
-16.1317 -11.9995 -3.57921
-16.7379 -11.7357 -1.27987
-15.7791 -12.0329 -1.93421
-15.578 -11.9864 -2.15016
-16.8414 -11.979 -0.354008
-16.1392 -11.8104 -1.21336
-16.5931 -12.4146 0.0521405
-15.8173 -11.999 -3.47356
-16.7384 -11.9481 -0.587188
-16.5167 -12.0791 -0.922115
-16.8971 -12.3498 -0.0953798
-16.9388 -12.0369 0.354234
-15.8322 -11.6777 -2.00163
-16.4291 -11.803 0.446213
-15.9545 -12.189 -0.795306
-14.8654 -12.1128 -3.43188
-15.1331 -12.7034 -3.3687
-15.1763 -12.6099 -3.03838
-14.932 -12.6769 -4.05081
-15.2257 -12.2953 -3.94915
-14.7344 -11.8646 -3.99951
-14.7628 -12.3115 -4.02927
-15.1259 -12.465 -2.89934
-15.6279 -12.3515 -3.12938
-14.7994 -12.4818 -3.26256
-15.9205 -12.2676 -0.949488
-14.6562 -12.3419 -2.60874
-14.3406 -12.9238 -3.95646
-19.249 -10.5491 -4.58757
-19.6929 -10.5105 -4.00948
-21.8708 -11.042 -1.04767
-19.2588 -10.7497 -4.60071
-22.084 -10.7778 -0.198487
-21.2597 -10.3473 0.837956
-18.886 -10.7898 -4.55519
-20.2571 -11.5189 -0.957566
-17.7055 -11.777 -4.39816
-17.8581 -11.0166 -4.31095
-18.6888 -11.1573 0.561587
-18.3679 -10.7853 0.551712
-18.1916 -11.8082 -1.14354
-16.8987 -11.3086 -1.22354
-16.2441 -11.0777 -2.79037
-18.0625 -11.3942 -1.51839
-17.7776 -11.239 -1.45201
-17.7878 -11.531 -1.25742
-15.6879 -11.6705 -3.02338
-17.9637 -11.7842 -0.954695
-15.7839 -11.6665 -3.0566
-17.7501 -11.8235 -0.356069
-17.3595 -12.2518 0.14359
-15.617 -11.6373 -3.07357
-16.1474 -11.5958 -2.35989
-16.114 -11.5168 -1.86247
-15.8235 -11.7706 -2.02666
-16.871 -11.8769 -0.151149
-16.7453 -11.61 -1.57692
-16.932 -12.0154 -0.856409
-15.9454 -12.036 -3.31727
-16.0959 -11.7133 -0.314053
-15.3247 -12.1647 -3.7872
-16.8026 -12.1108 0.520089
-15.5648 -12.3554 -1.36625
-16.3597 -12.3112 -0.270519
-16.2581 -11.9775 -0.551104
-15.0122 -12.2634 -2.93911
-21.6397 -10.6503 -0.570446
-19.8214 -10.8201 -3.73415
-19.0723 -10.9985 -4.69144
-19.1514 -11.278 -2.84646
-20.134 -11.4542 -2.00794
-19.7022 -11.1591 -0.751587
-17.74 -11.02 -2.23951
-16.6569 -11.1482 -2.07317
-18.6953 -11.6164 0.142526
-16.1001 -11.6475 -3.22738
-17.7374 -11.5915 -0.212084
-17.2058 -11.9389 -1.44725
-17.8072 -11.7324 -0.327482
-15.9555 -12.4928 -4.17507
-17.6716 -12.2664 -0.258043
-15.9922 -11.5943 -2.29872
-16.7958 -12.2152 -2.02866
-17.3797 -11.9793 -0.145794
-16.8401 -12.357 -0.485682
-17.1764 -12.0645 0.337895
-15.8765 -12.1963 -2.22428
-16.3996 -11.6718 0.259827
-16.1392 -12.5457 -1.05692
-16.2846 -12.2947 -1.0901
-16.6634 -11.9725 -0.823973
-16.7892 -12.1372 0.0681753
-16.6136 -12.0801 -0.378873
-16.175 -12.4083 -0.597817
-16.5011 -11.9065 -0.576822
-16.2172 -12.2599 -0.32197
-19.0207 -11.3658 -3.63922
-18.4507 -11.5253 -0.127418
-17.3409 -11.3006 -1.8098
-17.8525 -11.7534 0.261364
-16.9835 -11.7756 -0.662626
-17.1089 -12.2211 -0.830762
-16.399 -11.3411 -1.96925
-16.8345 -11.6493 -1.67699
-17.5712 -11.6558 -0.737077
-15.6217 -11.6673 -1.87114
-17.1175 -12.0358 -0.471477
-16.4708 -11.7437 -0.505239
-16.043 -12.2699 -0.289996
-14.9934 -12.4589 -2.74518
-16.8761 -12.5655 -0.52626
-15.7528 -12.7524 -3.57683
-15.6619 -12.4788 -1.47282
-15.0068 -12.5573 -3.24574
-14.6319 -12.3716 -3.91007
-15.0797 -12.3412 -2.4785
-14.5921 -13.0196 -3.61419
-15.1769 -12.4523 -2.79419
-13.9325 -12.9793 -3.81255
-20.1411 -11.0188 -1.35797
-20.0467 -11.3143 -0.0974553
-17.5868 -11.0004 -2.11928
-16.031 -11.4269 -3.22564
-18.042 -11.4578 0.232254
-17.4251 -11.4172 -1.18489
-17.6503 -11.575 -0.376246
-15.3658 -11.9475 -3.1531
-16.966 -11.836 -1.27469
-15.7279 -11.8992 -2.05395
-16.3948 -12.1142 -1.96109
-16.406 -12.1737 -0.814714
-16.3291 -12.3072 -0.364655
-15.6743 -12.3746 0.349079
-15.9188 -12.0457 -0.101811
-19.7791 -11.3862 -1.10607
-18.7224 -11.391 -1.27108
-19.4014 -11.6796 0.283022
-17.8175 -11.4724 -2.27949
-17.6013 -11.3041 -1.72403
-16.7851 -11.3423 -2.1878
-17.7982 -11.6448 -1.53572
-17.46 -11.885 -1.04405
-16.1468 -11.4887 -2.00645
-16.9308 -11.8235 -0.0718876
-17.8853 -11.2392 -2.89009
-18.2778 -11.7545 -1.6974
-16.1041 -11.6917 -1.92595
-16.8175 -12.4959 -1.06963
-14.7282 -12.9412 -3.7359
-18.7903 -11.4135 -1.21326
-17.2962 -11.2564 -3.58038
-17.8764 -11.7124 -2.38016
-17.0703 -11.2769 -0.476893
-16.3437 -12.1194 -1.47567
-15.4773 -12.3178 -1.49386
-17.0542 -11.2425 -2.15079
-15.6911 -12.3797 -1.89591
-16.5645 -11.8126 -0.803291
-22.0463 -10.708 1.05649
-17.8791 -11.6633 -2.40842
-17.7205 -10.9535 -2.26779
-18.555 -11.8004 -1.26918
-15.3305 -12.5222 -2.09908
-22.0368 -10.683 1.10509
-21.4226 -10.855 0.896493
-21.3555 -10.8131 0.970401
-17.1006 -10.2568 1.15862
-22.2872 -10.9173 -0.177459
-17.2331 -10.0922 1.86306
-21.8472 -10.4609 -2.54546
-20.1873 -11.3932 -0.07341
-21.2707 -10.0714 -3.5095
-18.7235 -11.0597 0.207672
-21.2539 -9.88068 -4.26335
-20.7367 -10.6385 -3.57545
-18.4212 -11.3781 -0.863044
-19.8933 -11.5677 -1.87634
-19.7325 -10.4027 -3.30669
-18.0112 -11.7126 -1.12847
-19.1768 -11.1825 -2.97018
-17.7387 -11.9141 -0.474969
-16.8919 -11.7486 -0.26077
-16.6814 -11.5076 -2.22752
-17.8796 -11.5689 -4.65051
-16.2257 -12.177 -1.73129
-16.3536 -11.846 -0.92963
-16.6127 -11.7777 -1.78493
-16.2001 -11.2326 -3.19932
-17.4226 -11.3416 -4.21232
-15.8492 -11.568 -2.06334
-16.0528 -11.2952 -3.29464
-15.8069 -12.2525 -0.705275
-16.6948 -11.8912 -4.10172
-15.5098 -12.1765 -3.95516
-15.6438 -11.6588 -3.91904
-15.6023 -12.1841 -3.25214
-16.0985 -11.9687 -3.86481
-15.1047 -12.7647 -2.07737
-14.6918 -12.9141 -3.03953
-14.7836 -12.3883 -3.47926
-14.8953 -12.8078 -3.96771
-14.3746 -12.5454 -3.64836
-14.1365 -12.5597 -3.6381
-21.9462 -10.6984 -0.136557
-21.8331 -10.7667 -0.311913
-21.8073 -11.1534 -0.706854
-22.0609 -10.1688 -0.475883
-21.6353 -10.7081 -1.32862
-20.7246 -11.1691 -0.622356
-18.2233 -11.1295 -0.198642
-19.87 -11.5309 -1.85189
-19.9435 -10.7683 -2.04501
-19.802 -11.2572 -2.08152
-19.1906 -10.9881 -3.47456
-17.4283 -11.5367 -1.03813
-18.2605 -11.7768 -0.674009
-17.6452 -11.0134 -0.517457
-18.0224 -11.6853 -1.24807
-17.05 -11.4044 -0.203
-17.0689 -11.9216 0.25721
-16.5567 -12.1093 0.492127
-19.0279 -10.7214 -4.75558
-16.3452 -11.5912 -1.00844
-16.762 -11.6513 -2.01574
-17.0128 -11.8185 -1.66179
-16.5493 -11.9085 -1.14591
-16.2527 -12.196 -0.335844
-16.8894 -11.326 -2.14036
-16.4029 -12.3666 -0.221295
-16.447 -12.5408 -0.728761
-16.9925 -11.0745 -4.02476
-16.4188 -12.6196 -0.533021
-16.5924 -11.826 -0.717699
-16.0348 -12.2399 -1.1025
-16.0051 -11.6581 -2.0961
-15.8117 -11.7847 -1.95593
-15.7725 -12.7736 -1.10417
-15.5594 -12.4234 -3.51825
-14.766 -12.9401 -1.94479
-15.2295 -12.5321 -2.45695
-14.7684 -12.679 -3.31016
-21.7381 -10.3592 -2.22127
-18.5528 -11.3908 0.442519
-18.3854 -11.6056 0.382925
-18.8699 -11.5151 -2.81903
-18.3195 -11.3098 -3.12292
-17.4123 -12.0551 -0.210148
-17.4229 -11.7892 -0.185593
-16.9708 -11.9328 -0.533141
-16.5799 -12.0999 0.38861
-16.7913 -12.1434 0.92622
-18.9542 -10.661 -3.58287
-18.4538 -11.7713 -3.41785
-16.3718 -12.0687 0.547146
-16.8476 -12.1058 0.00453444
-16.9176 -11.8246 -1.82142
-16.4365 -11.6881 -0.816966
-16.6894 -11.8928 -1.65733
-16.4546 -11.4595 -2.00473
-14.6181 -12.6905 -2.90155
-21.3332 -11.0579 0.773789
-21.6694 -10.9376 0.0300472
-20.1587 -11.1943 -0.122739
-18.5714 -11.3511 -1.12325
-17.1492 -12.2415 -0.693607
-16.8213 -11.7583 0.444279
-16.1074 -12.3075 -0.029346
-16.8095 -12.0067 -0.989158
-16.1256 -12.5424 -0.365526
-16.0524 -12.4078 -0.51218
-16.0925 -12.5645 -0.978065
-15.5834 -12.667 -0.851012
-16.1956 -11.4712 -3.36716
-16.3818 -11.9944 -4.16305
-13.6285 -12.4754 -3.73836
-17.3529 -12.0218 -1.00494
-17.0216 -12.4495 -0.287454
-16.9634 -11.4331 -1.70465
-16.3808 -12.3852 -0.352341
-17.6664 -11.3172 -3.73159
-15.1928 -12.6499 -1.38522
-15.6812 -13.087 -1.56131
-14.8399 -12.5392 -3.08532
-15.4388 -11.9013 -3.64509
-20.2441 -11.4332 -0.392117
-18.3726 -11.3044 0.40665
-17.9084 -11.9347 0.0868692
-17.0721 -11.8566 -0.564545
-17.018 -12.1113 -1.63666
-16.1556 -11.426 -3.50963
-15.6684 -11.0646 -3.27569
-16.45 -11.3985 -4.12042
-15.6529 -12.0757 -3.55736
-17.6615 -11.8688 -1.6449
-16.7439 -11.7506 -0.761334
-16.7167 -12.0541 -1.51511
-17.0809 -11.524 -1.84476
-16.2176 -12.2568 0.328794
-17.0653 -11.2549 -1.94589
-16.6245 -11.9161 -0.265587
-17.2747 -12.0666 -0.756015
-16.6367 -11.7659 -1.16729
-15.6194 -12.0352 -1.7053
-15.6918 -12.3456 -1.87097
-18.284 -11.4913 -1.95546
-15.4768 -11.8276 -2.18758
-16.5971 -9.89164 1.30176
-16.9146 -10.2825 1.42771
-21.8255 -10.6057 -0.420444
-21.7162 -10.0522 -1.21968
-18.3099 -11.5765 0.376455
-18.5269 -11.2074 0.0274256
-18.3626 -11.3267 0.50218
-18.5466 -11.7892 0.179705
-17.748 -11.6398 0.348487
-20.7221 -10.6378 -1.42389
-16.9484 -11.4081 0.248141
-21.5528 -10.4987 -1.96916
-21.569 -10.4402 -2.59197
-19.8993 -11.231 -1.50317
-16.4743 -11.9498 0.519343
-20.5596 -10.5525 -1.48286
-20.8216 -10.9171 -1.8384
-16.7514 -11.566 -0.0708988
-17.704 -11.8649 -0.367671
-20.5545 -10.6821 -1.97183
-17.671 -11.845 -0.227343
-15.893 -12.088 0.335846
-17.2725 -11.2408 -0.288118
-19.8794 -11.1587 -1.99025
-19.8758 -10.9133 -2.19802
-16.7399 -11.4786 -0.148836
-18.9885 -11.3674 -1.84925
-18.0445 -11.3668 -1.06375
-16.8758 -12.0157 -0.147138
-17.0745 -11.7741 -1.10214
-21.0265 -10.9616 -2.90247
-17.048 -11.9847 -0.390561
-16.5019 -12.4111 -0.698021
-16.0712 -12.0837 -0.837575
-16.3463 -12.3807 -0.738615
-16.0481 -12.294 -0.287746
-15.6544 -12.6942 -0.13494
-16.3409 -12.3042 -0.535222
-16.6674 -12.321 -0.730975
-19.7959 -10.8056 -3.39524
-19.0978 -11.4908 -2.50764
-16.0159 -12.3904 -0.653248
-16.2658 -12.9141 -0.147469
-19.8911 -10.4472 -3.59008
-16.3658 -11.9244 -0.691012
-21.479 -9.96927 -4.20109
-15.6942 -11.8458 -1.0542
-16.6404 -11.6866 -1.60488
-16.5865 -11.6598 -1.22994
-16.8636 -11.4089 -1.02851
-16.926 -11.4464 -1.54903
-16.4537 -11.8383 -0.752722
-19.5284 -10.9446 -3.7431
-18.6637 -11.2011 -2.79426
-16.0387 -12.1282 -1.21217
-18.9611 -11.027 -3.11381
-19.5176 -11.0555 -3.42539
-16.8087 -11.4134 -2.21447
-16.6216 -11.5426 -1.67389
-20.042 -10.6058 -4.00853
-16.0983 -11.9986 -1.39302
-16.791 -11.4434 -2.3136
-18.5088 -10.85 -3.33666
-17.2668 -12.004 -1.95435
-16.9541 -11.0589 -2.10272
-17.0343 -11.0706 -2.43391
-16.8888 -11.2012 -2.41998
-19.1282 -10.6141 -4.20029
-19.148 -10.9278 -4.43709
-19.107 -10.7871 -4.18636
-16.4485 -12.1045 -1.74045
-16.5488 -11.5342 -2.99257
-18.4981 -10.8625 -4.00943
-16.1552 -11.8258 -2.39096
-19.0643 -10.8916 -4.75214
-18.0297 -11.1296 -4.42578
-17.706 -11.6727 -4.6379
-17.8881 -11.4462 -4.33564
-17.548 -11.2647 -4.05599
-14.9794 -12.5827 -2.32642
-17.474 -11.1159 -4.23314
-16.3141 -11.9144 -3.90664
-15.7328 -11.6304 -3.17187
-15.5335 -13.0409 -2.34545
-15.7352 -12.4583 -4.01479
-15.1985 -12.0944 -2.87644
-15.7059 -12.0077 -3.17716
-15.2359 -12.569 -2.96726
-16.1367 -12.4391 -2.98881
-15.6747 -12.0086 -3.85969
-15.7636 -12.3968 -3.91552
-15.1403 -12.5042 -3.15332
-16.141 -11.8043 -3.84724
-15.4575 -12.3222 -3.85178
-15.8408 -11.9575 -3.54462
-14.7587 -12.4704 -3.46406
-14.2692 -12.5929 -3.34075
-20.2265 -9.68607 1.55815
-21.651 -10.8821 1.08303
-17.0351 -10.2514 1.83542
-17.2517 -10.3903 1.1545
-22.4525 -10.4161 -0.481548
-19.2757 -11.3418 0.234006
-20.8694 -11.3713 -0.497028
-18.4902 -11.8432 0.164071
-16.8617 -12.2427 0.185561
-20.994 -11.1775 -1.52509
-17.904 -11.9345 -0.269795
-17.654 -11.5544 -0.767176
-17.7624 -11.5345 -0.472746
-17.0942 -11.5704 -0.354872
-17.5953 -12.0892 -0.249333
-16.7374 -11.8647 -0.313469
-16.5585 -11.9541 -0.213347
-16.7321 -12.14 -0.423111
-18.8189 -11.7509 -1.81715
-16.8813 -11.871 -0.467082
-16.6278 -12.4113 -0.0444327
-20.7055 -10.7295 -2.78571
-18.0732 -11.3247 -1.59182
-16.3609 -12.2638 -0.459084
-16.9002 -12.1234 -0.80549
-20.0254 -10.9245 -3.26444
-17.9548 -11.4902 -1.38576
-16.7148 -12.5643 -0.660011
-20.3264 -10.8798 -2.80999
-16.1047 -12.5144 -0.348646
-19.6197 -10.5183 -3.56027
-16.3756 -12.4088 -1.33356
-16.0073 -12.3379 -0.692619
-19.6326 -10.5589 -3.14612
-16.2757 -12.1797 -0.382846
-16.022 -11.5295 -0.652668
-18.6408 -11.1294 -3.0997
-17.3618 -10.8924 -2.0471
-17.2641 -11.3829 -2.06502
-17.2466 -11.4651 -1.82509
-15.3812 -12.3707 -0.8244
-19.5106 -10.8483 -4.40146
-18.999 -11.6425 -3.22083
-16.4948 -12.104 -1.22004
-16.7084 -11.203 -2.5605
-19.7962 -10.2317 -4.92184
-18.9306 -11.1761 -4.26227
-15.8321 -11.8831 -2.22458
-15.7072 -11.7065 -2.35365
-16.153 -11.4036 -2.31087
-15.7402 -11.3455 -2.10512
-16.0805 -11.7609 -2.56655
-16.0146 -11.3706 -2.25583
-18.5053 -10.9878 -4.46451
-15.7004 -12.6071 -2.05873
-18.3764 -10.8907 -4.69572
-17.8903 -11.4367 -4.24272
-15.7248 -11.8956 -2.1696
-15.6668 -11.9139 -2.42235
-17.2192 -11.51 -4.34299
-15.232 -12.3083 -3.02197
-16.459 -11.2312 -3.44481
-15.276 -12.0199 -3.10448
-15.3436 -12.5416 -2.73873
-15.6105 -12.0226 -4.49146
-15.1225 -12.6041 -3.44617
-14.408 -12.7214 -3.7089
-14.4221 -12.4956 -3.74233
-14.4944 -12.4213 -3.42581
-14.9771 -12.6402 -3.46183
-14.2098 -12.5661 -3.97989
-22.0615 -10.8133 1.18188
-20.691 -11.0275 -0.311002
-19.9566 -11.0224 -1.01638
-19.4782 -11.4284 -0.290554
-16.4562 -12.4004 0.263154
-16.2861 -12.0514 0.493777
-17.8189 -12.0563 -0.505054
-17.0848 -11.9446 -0.325672
-18.3528 -11.553 -1.36316
-16.2511 -12.1314 -0.634059
-16.078 -12.1359 -0.0722283
-20.2729 -10.6974 -2.70432
-16.963 -11.2636 -1.61916
-19.2838 -11.119 -2.92043
-16.1199 -11.98 -1.18581
-16.0948 -12.0648 -0.952766
-16.1255 -11.401 -1.37473
-18.5981 -11.1451 -3.04561
-18.2408 -10.945 -3.30431
-17.0947 -11.3402 -2.18963
-15.8991 -12.113 -1.05217
-17.1306 -11.239 -2.85083
-19.4009 -10.2773 -4.8651
-15.4043 -12.0725 -1.59146
-16.2271 -11.0813 -3.363
-15.1947 -12.6252 -1.86008
-14.7507 -12.2213 -1.91778
-16.8565 -11.5943 -4.59492
-15.4328 -13.1296 -1.84988
-15.2593 -12.4762 -2.69526
-15.0439 -12.7178 -2.8514
-16.2977 -12.1462 -4.10258
-15.1225 -12.6995 -3.49442
-14.9203 -12.3485 -3.5155
-17.2083 -10.1248 1.81431
-18.9012 -11.2145 0.565826
-17.9195 -11.8746 -0.0841704
-17.3502 -11.6155 -0.559856
-18.2664 -11.3463 -1.40702
-17.9689 -11.3685 -1.08108
-16.2246 -12.394 -0.174332
-16.5039 -12.7086 -0.478662
-17.6406 -11.475 -1.66186
-17.1289 -11.5962 -1.17181
-17.0991 -11.9813 -1.20814
-18.0722 -11.4492 -2.06055
-16.2786 -12.28 -1.32379
-15.6073 -12.5947 -0.652951
-15.9518 -12.5695 -1.01917
-16.5789 -11.3385 -2.13266
-18.5692 -10.9935 -3.42597
-17.5828 -11.6166 -2.55787
-15.8862 -12.1697 -2.02727
-15.3419 -12.6877 -1.62823
-18.1799 -10.84 -4.26034
-15.411 -11.8493 -2.4981
-14.9674 -12.5839 -2.20263
-15.2456 -12.6903 -2.05729
-16.6831 -11.4672 -4.28705
-14.9954 -12.8968 -2.19328
-14.9257 -12.3711 -3.17136
-14.9419 -12.1754 -3.91982
-18.5402 -11.3558 -0.0136369
-18.2759 -11.2495 0.365123
-19.8731 -11.442 -1.33916
-18.9554 -11.3597 -0.696259
-18.323 -10.9119 -1.33749
-17.2599 -12.0252 -0.188842
-15.9201 -12.3183 -1.20914
-17.4022 -10.6965 -2.51908
-15.7884 -12.4298 -1.45593
-16.9261 -11.3019 -2.44347
-15.9016 -11.8506 -2.2998
-17.0569 -11.2017 -3.41737
-16.149 -11.4647 -2.90244
-18.0842 -11.3374 -4.55622
-15.0583 -12.6183 -3.2148
-20.0329 -10.7578 -0.172746
-18.9204 -10.9056 0.40233
-19.7925 -11.2064 -0.725374
-16.5985 -11.8146 -0.0370001
-16.1217 -12.4044 -1.37098
-17.0997 -11.7934 -1.70028
-16.67 -11.6996 -1.95414
-15.8304 -12.7701 -1.44599
-16.9106 -11.2937 -2.47915
-16.7101 -12.0895 -1.75369
-16.1576 -11.5844 -2.08387
-16.1197 -11.7623 -1.91486
-16.1882 -11.7311 -2.64384
-15.3135 -11.6925 -1.28342
-15.6815 -12.0068 -1.75214
