-16.3192 -12.7799 -0.79626
-17.1466 -11.6178 -0.0143806
-17.7093 -11.9492 -0.613697
-17.6214 -12.1867 -0.680089
-21.0435 -11.0507 -1.41643
-19.0061 -11.349 -1.31858
-15.8588 -13.0406 -0.592264
-17.1161 -11.9579 -1.12537
-17.4811 -11.5669 -0.752134
-19.5892 -11.5766 -1.16779
-16.0441 -11.4981 -1.04448
-15.7072 -12.4234 -1.06004
-16.4371 -11.914 -1.23854
-16.1344 -12.0948 -0.914632
-19.4357 -10.7603 -1.93474
-19.3077 -11.4427 -2.13311
-20.6885 -10.1198 -2.49075
-19.7104 -11.0674 -2.34296
-16.9971 -11.5918 -1.92071
-15.382 -12.9823 -1.92168
-19.4265 -11.1654 -2.52132
-19.1879 -11.3055 -2.38766
-18.9966 -10.9097 -3.04455
-16.9386 -11.2493 -1.99906
-16.9964 -11.7623 -2.4506
-15.9526 -11.8143 -2.14817
-15.9483 -11.8958 -2.74865
-16.0758 -12.1188 -1.6995
-16.9985 -10.9955 -2.41742
-15.8319 -11.6526 -2.16094
-16.1012 -11.7585 -1.89189
-19.6566 -10.4976 -3.75084
-15.7375 -11.4668 -2.47752
-15.4596 -12.4492 -2.69407
-16.976 -10.7789 -2.49807
-20.3136 -10.3582 -3.87412
-16.9407 -10.9104 -2.88753
-18.6503 -11.483 -3.78465
-18.7625 -11.0788 -3.94193
-18.0395 -10.7272 -4.08932
-15.0216 -12.7193 -2.6185
-18.884 -10.8913 -3.93059
-18.9347 -10.8996 -4.06944
-19.4819 -10.7134 -4.33489
-16.1956 -11.568 -2.85193
-15.456 -12.6236 -3.46153
-15.6672 -12.6141 -3.25754
-19.4359 -10.5982 -4.49628
-15.9294 -11.6366 -3.1871
-19.0994 -10.6596 -4.99766
-17.8686 -11.0085 -4.58341
-18.6102 -10.5831 -4.53528
-15.548 -12.4045 -3.17854
-16.0004 -12.4558 -3.60193
-16.7068 -11.1509 -4.16426
-15.1209 -12.5168 -3.87496
-15.555 -11.9051 -3.53319
-14.9719 -13.1001 -3.15431
-15.8065 -12.0818 -4.25154
-16.2314 -11.6535 -4.27236
-15.7517 -12.094 -4.45668
-14.2943 -12.6751 -3.34665
-19.5481 -10.7339 1.6678
-19.1388 -10.6607 1.68457
-16.7151 -10.5777 1.26628
-22.2149 -10.7832 1.28814
-17.7681 -11.5053 0.108119
-18.4178 -11.314 0.247926
-17.0532 -11.9201 0.231931
-16.6054 -11.9917 -0.00932301
-16.221 -12.7985 -0.145801
-16.2576 -12.4893 -0.59119
-16.2586 -12.6224 -0.38557
-16.7972 -12.0533 -0.329889
-16.239 -11.9342 -0.499894
-16.5622 -11.9071 -0.0450796
-20.2635 -11.1677 -1.11013
-16.8608 -11.6829 -0.343857
-17.4494 -12.0039 -0.69408
-17.5577 -11.6517 -1.21558
-16.4309 -12.4975 -1.58975
-15.3528 -12.0822 -1.3595
-16.8972 -12.0935 -1.39686
-16.832 -11.6601 -2.22824
-20.5988 -10.9576 -2.97726
-16.455 -11.1487 -1.968
-16.0237 -11.8148 -1.97993
-15.4482 -13.1801 -2.25424
-15.1064 -12.9404 -1.53424
-15.1134 -12.6189 -2.26823
-16.1945 -11.9073 -2.183
-17.3365 -10.9274 -3.22412
-15.3001 -13.3214 -2.38789
-18.6994 -11.0865 -3.88168
-16.5616 -11.1502 -3.02105
-20.0328 -10.3682 -4.16781
-14.9268 -12.2269 -3.0934
-18.158 -10.8219 -4.55081
-18.3924 -11.1883 -4.90834
-15.6117 -12.2875 -3.50024
-14.8737 -12.7635 -3.36746
-14.494 -12.4724 -3.28848
-15.0603 -12.7624 -3.58277
-14.4169 -12.9927 -3.50508
-16.5652 -10.456 2.26113
-19.0917 -11.2258 -0.135601
-17.3172 -12.0284 0.422403
-20.297 -11.1997 -0.386093
-16.2941 -12.3525 -0.663211
-18.7566 -11.5079 -0.814374
-17.1334 -12.1268 -0.736006
-17.846 -11.9954 -0.369368
-20.2315 -11.7689 -1.70366
-16.6501 -11.958 -0.953335
-16.134 -12.0479 -1.51215
-17.0315 -12.1188 -0.746591
-16.907 -11.8818 -2.09342
-17.4773 -11.2282 -2.01723
-17.5179 -11.059 -2.34407
-17.7541 -11.7245 -2.65909
-15.3078 -12.3489 -2.06069
-16.9863 -11.0671 -2.60367
-14.7249 -12.5627 -2.54073
-19.3166 -10.7231 -4.04912
-20.0701 -11.1542 -3.92161
-17.0782 -10.9845 -2.61466
-15.7498 -12.2524 -2.76253
-16.1832 -11.3232 -2.89996
-15.7429 -11.7287 -2.8538
-15.7237 -11.1588 -3.24609
-16.252 -11.268 -3.11397
-18.4734 -10.8313 -4.23025
-18.3383 -11.2649 -4.00714
-18.0158 -11.0339 -4.41588
-17.4861 -11.3355 -4.33554
-15.9591 -11.8517 -4.2366
-15.1897 -12.3055 -3.71142
-16.5938 -10.6821 1.99328
-19.9423 -11.5021 -0.0815518
-17.6474 -11.5309 0.102189
-19.8769 -11.4243 -0.822619
-19.6508 -11.2613 -0.78401
-16.4076 -12.2837 -0.42347
-17.1611 -11.8445 -0.357737
-18.5526 -11.5525 -0.609538
-18.8082 -11.1579 -1.4983
-16.3055 -11.4415 -0.687567
-15.8256 -12.7039 -0.873444
-16.0655 -12.3462 -1.28221
-16.9155 -11.8165 -1.70033
-18.9521 -11.2449 -2.32339
-19.3393 -11.49 -2.49959
-17.5474 -11.7508 -1.77858
-17.1138 -11.0195 -2.58301
-15.8414 -11.8427 -2.15409
-15.6775 -11.8499 -2.61545
-17.1357 -11.4207 -3.20318
-15.6441 -12.4149 -3.17932
-15.9849 -11.969 -3.05602
-15.8179 -11.5318 -2.54063
-18.1462 -11.3025 -4.14372
-17.7749 -11.0146 -4.6415
-17.2129 -11.5587 -4.48241
-14.3312 -12.9717 -3.99342
-16.5464 -10.7133 1.84655
-18.4068 -11.9081 -0.756988
-16.9365 -12.2185 -0.619582
-16.1998 -12.6551 -0.234502
-16.3145 -12.2496 -1.07102
-16.7156 -12.1595 -1.45795
-17.8705 -11.3874 -1.43279
-15.5161 -12.6062 -1.50491
-16.6511 -11.6863 -2.07169
-16.6236 -11.6988 -2.3878
-15.4124 -12.0474 -3.45921
-14.589 -12.4723 -3.28759
-19.0625 -11.3858 -0.579771
-15.2204 -12.434 -2.01501
-15.5639 -12.7458 -2.44748
-21.8152 -10.5231 1.23459
-19.5895 -11.1807 -0.384317
-18.1887 -11.7001 -1.21033
-16.9624 -12.4182 -0.65512
-17.3915 -11.6885 -0.786762
-16.835 -11.4881 -1.81623
-16.0297 -12.2166 -1.21545
-17.0767 -11.3339 -2.4078
-15.7912 -12.3886 -2.74121
-16.31 -12.1638 0.401725
-17.2099 -11.8734 -0.732642
-15.6571 -11.5561 -1.45997
-17.2822 -11.9453 -0.653033
-18.1376 -11.2301 -1.91116
-15.9805 -12.3002 -1.38257
-17.1789 -11.7058 -1.86374
-15.5172 -12.7753 -1.34247
-17.1789 -11.0308 -2.68258
-14.1251 -12.6595 -3.92863
-17.7494 -11.7664 -4.53507
-14.9041 -12.4481 -2.93254
-19.8534 -10.8969 -3.98889
-16.0013 -11.8253 -2.47952
-14.949 -12.3834 -2.90793
-15.2651 -12.547 -3.09297
-14.9247 -12.7759 -2.59642
-15.5166 -12.7285 -2.63545
-15.4492 -12.4677 -2.84839
-15.4438 -12.7303 -2.51846
-19.9104 -10.9305 -3.63623
-17.245 -11.3877 -2.32581
-17.9192 -11.1949 -2.18311
-16.8303 -11.3296 -1.53034
-19.5048 -10.8178 -2.18324
-19.8823 -11.1183 -2.36271
-17.198 -11.558 -1.59075
-15.3917 -12.6613 -0.901986
-20.2289 -11.0827 -2.09208
-15.902 -12.6434 -1.2215
-15.6328 -12.2294 -1.11784
-16.0172 -13.0933 -0.86052
-20.2153 -11.1875 -1.30028
-17.8909 -11.8748 -1.27245
-18.3014 -11.5541 -1.67948
-20.7455 -11.3197 -0.884268
-16.6573 -11.5673 -0.4414
-20.2227 -11.7326 -0.619704
-19.0461 -11.6029 -0.189513
-20.5568 -11.8477 -0.185232
-20.8902 -11.1816 -0.238237
-20.6662 -10.9852 -0.173775
-16.9136 -12.4913 0.59791
-14.0303 -12.9511 -3.48125
-18.3972 -10.9811 -4.44114
-15.1078 -12.5905 -3.40784
-14.7198 -12.5112 -2.73281
-15.5867 -11.5066 -2.10572
-16.2679 -11.9558 -1.84926
-15.0912 -12.4371 -1.98509
-19.331 -11.4012 -2.28973
-17.0867 -11.5313 -2.44592
-18.6901 -11.6647 -2.52763
-15.8848 -12.4168 -1.03113
-20.6378 -10.5796 -1.46252
-16.897 -11.9012 -0.0354068
-16.4776 -12.5009 -0.382735
-16.0203 -12.7349 0.110192
-18.4345 -11.8861 0.301606
-20.8147 -11.6573 0.00863347
-14.907 -13.3193 -2.85065
-18.3594 -11.4864 -3.97354
-15.2919 -12.3181 -2.31508
-15.9634 -12.0183 -1.56657
-17.3143 -11.6958 -1.8311
-19.8947 -11.4227 -2.29562
-19.6558 -11.2939 -2.63516
-15.7905 -12.8217 -1.50074
-17.4753 -11.2078 -1.18054
-17.2187 -11.576 -1.17988
-17.2536 -11.5927 -1.17299
-16.6275 -12.1201 -0.564639
-16.8064 -11.8295 -0.360468
-17.3858 -11.9845 -0.542765
-16.7818 -11.9944 -2.07197
-16.9885 -11.1691 -2.55397
-16.7263 -11.702 -0.114442
-16.1931 -12.3208 -0.570218
-17.2431 -11.8877 -0.221286
-16.8934 -11.9932 -0.214782
-16.4999 -11.9716 0.631668
-20.3102 -11.4531 -0.279997
-17.8774 -11.6698 -0.012064
-16.3241 -11.8039 0.568794
-17.3266 -12.1695 -0.39078
-20.3672 -11.3941 -0.0869114
-18.1055 -11.6448 -1.72434
-16.2961 -12.4536 0.253818
-17.1339 -11.4431 -2.64984
-17.1501 -11.5561 -0.951534
-16.0888 -12.2977 -1.16266
-18.387 -11.8435 -0.763953
-16.3679 -12.2584 -1.76601
-16.003 -12.093 -1.38937
-16.5837 -12.0309 -0.839833
-16.4268 -12.6349 -0.0570134
-16.1904 -11.4317 -2.74742
-16.7194 -12.0278 -1.81044
-17.2836 -10.8533 -2.24847
-18.9682 -10.4803 -4.61553
-18.1949 -11.1128 -4.54142
-16.5176 -11.6707 -3.94997
-18.7177 -10.7411 -4.66207
-14.3827 -12.6915 -3.65627
-14.032 -12.5217 -3.52234
-19.793 -10.8141 -3.91874
-15.8938 -11.2977 -2.48342
-15.1899 -12.453 -2.9739
-14.8679 -12.3387 -3.41707
-19.7954 -10.904 -2.7836
-15.249 -12.3295 -3.06507
-14.4911 -12.7062 -2.65244
-19.4992 -11.3015 -2.21002
-15.8636 -12.2758 -2.34423
-16.3171 -11.7186 -2.06993
-15.6466 -11.8267 -2.11503
-15.967 -11.8548 -2.03702
-20.0662 -10.8485 -2.03964
-17.1482 -11.961 -2.1661
-19.2126 -11.3771 -1.85884
-19.3696 -11.8562 -1.82698
-18.0114 -11.233 -1.41462
-20.1659 -11.2223 -1.51236
-17.1514 -12.1577 -1.13975
-20.5653 -10.8209 -1.2814
-19.774 -11.516 -1.43473
-16.3243 -12.0573 -0.635668
-18.4791 -11.3987 -1.11977
-18.0128 -12.1057 -1.26151
-15.779 -12.4898 -0.805575
-21.0274 -11.6129 -0.477273
-16.4182 -12.3176 -0.714801
-17.2531 -11.6987 -0.591912
-16.0881 -12.5594 -0.416679
-16.734 -12.2107 -0.625971
-15.7979 -12.8898 -0.693226
-16.7614 -12.3604 -0.407163
-18.4228 -11.2186 0.00249565
-16.4782 -12.8228 -0.277364
-18.9022 -11.3425 0.707313
-17.7051 -11.4356 0.0349677
-21.9742 -10.8464 0.966859
-16.2035 -12.1651 0.543895
-17.8851 -11.9373 0.425991
-21.4872 -10.811 0.932495
-21.8001 -10.7309 1.0115
-16.1306 -12.1837 0.258901
-16.7267 -11.9883 0.486735
-16.6015 -10.7006 1.61622
-18.3855 -10.7945 -4.26108
-18.236 -10.9621 -4.09557
-16.404 -11.6238 -4.70439
-19.8273 -10.5556 -3.95408
-19.3015 -10.532 -3.86357
-18.3809 -10.9278 -4.32688
-18.5815 -10.9801 -3.98578
-14.4551 -12.4747 -3.95638
-14.9632 -12.7352 -3.6413
-16.7113 -11.3989 -2.82834
-20.0328 -10.6521 -3.81741
-16.3181 -11.3654 -2.46217
-19.8646 -10.5146 -3.57129
-18.2994 -11.5326 -3.27205
-19.5355 -11.3537 -2.98751
-15.0379 -12.5179 -2.95498
-19.0014 -11.5799 -2.48473
-20.0785 -10.9459 -3.3266
-16.9069 -11.5485 -2.47646
-15.4641 -11.732 -2.25779
-20.3896 -10.9996 -2.32347
-16.7396 -11.8436 -1.56192
-16.8764 -12.0485 -1.65265
-19.8398 -11.1839 -1.72348
-18.2551 -11.3978 -0.849384
-18.8924 -11.3034 -0.956523
-17.9114 -11.7058 -1.40037
-16.102 -12.2112 -1.09953
-17.5949 -12.1132 -0.371321
-15.7532 -12.6938 -1.08013
-19.852 -10.988 -0.309452
-20.2734 -10.9433 0.0842174
-18.0882 -11.2513 -4.26079
-18.0603 -11.2836 -4.22397
-15.7444 -11.7021 -3.64024
-19.5919 -11.2854 -3.91289
-15.4964 -12.2424 -3.80109
-14.3861 -12.676 -3.66614
-16.5439 -10.9452 -3.31489
-16.8753 -11.016 -2.8847
-14.8499 -12.7952 -3.06725
-20.7064 -11.014 -3.5595
-19.8868 -10.6615 -3.15102
-19.9368 -10.9437 -2.80827
-17.0657 -11.523 -2.34007
-15.3769 -12.4015 -3.00683
-19.7883 -10.9725 -2.99688
-15.4952 -12.011 -2.35323
-16.1448 -11.4051 -1.84098
-15.374 -11.7813 -1.70561
-16.9574 -12.0046 -1.77165
-19.5221 -11.4279 -1.47801
-16.1998 -12.9369 -1.55534
-19.9757 -11.5712 -0.0191654
-16.404 -10.3938 2.36831
-17.533 -11.6398 -4.3915
-16.3745 -11.6453 -4.11673
-17.0423 -11.8955 -4.21905
-15.2551 -12.3237 -3.57116
-15.7456 -12.1321 -3.62947
-17.3565 -11.0727 -2.61068
-15.7801 -11.9041 -2.58013
-17.0076 -11.1913 -1.86444
-16.0089 -11.9428 -2.09468
-15.9993 -13.0485 -1.41969
-18.5761 -11.9554 -0.984402
-16.7652 -12.4373 -0.483857
-18.9103 -12.0732 -0.538008
-17.8783 -11.5478 0.16708
-15.4719 -12.2096 -3.85461
-17.3169 -11.3811 -1.91903
-19.8668 -11.1389 -0.484983
-16.6259 -11.9039 -0.404604
-18.2706 -11.293 -0.019074
-17.9503 -11.5208 -1.98522
-15.6265 -12.6309 -2.20872
-17.2275 -11.7085 -1.83741
-16.8084 -11.8203 -2.03357
-20.4015 -11.4305 -0.474319
-16.5916 -11.7239 -0.538889
-16.8942 -12.3181 -0.165166
-16.2729 -12.0407 -4.5589
-15.8716 -12.0444 -2.55333
-17.4855 -11.5162 -0.830394
-17.0165 -11.6566 -0.86918
-16.8297 -11.6146 -2.34628
-16.5824 -12.2351 -2.42788
-17.8401 -11.1032 -3.29603
-16.9601 -12.0708 -0.648493
-19.7707 -10.3805 -4.19765
-18.9765 -11.3948 -4.26048
-18.7305 -11.1107 -3.97236
-19.0289 -10.8364 -4.09693
-18.2262 -11.1397 -4.09942
-20.9056 -10.522 -3.17232
-18.5321 -11.1917 -4.12175
-20.0474 -11.101 -3.59636
-16.6739 -11.6501 -4.10299
-18.6696 -10.9724 -3.30001
-16.8036 -11.5126 -2.8039
-19.5052 -10.792 -2.75317
-19.8979 -10.5107 -3.26779
-16.6855 -11.7748 -2.71403
-16.4247 -11.4973 -2.33122
-15.2775 -12.524 -3.67965
-14.6541 -12.5548 -3.55754
-15.0417 -11.9593 -3.59527
-15.0356 -12.5336 -3.56219
-15.2357 -12.2034 -3.63993
-17.2538 -11.4028 -2.07028
-15.4682 -13.0565 -3.25369
-14.8714 -12.8984 -3.54337
-18.5328 -11.6027 -2.29594
-14.1912 -13.1168 -3.46573
-16.6671 -11.6421 -1.81819
-14.8123 -12.6834 -2.6963
-15.2783 -12.3681 -2.64225
-14.8263 -12.7912 -2.86069
-20.6499 -10.9412 -0.631156
-16.9703 -12.1526 -0.520365
-16.3593 -12.3132 -0.83995
-18.1268 -11.2001 0.238408
-16.7668 -12.1873 -0.699196
-17.1367 -12.2881 -0.722743
-16.9165 -12.3154 -0.397183
-16.1586 -12.622 0.460104
-16.8636 -12.3757 0.334113
-20.0606 -9.93228 -4.14567
-20.0337 -10.2963 -4.80712
-19.6592 -10.5572 -5.01873
-19.2735 -10.68 -4.26409
-18.2127 -11.4012 -4.19381
-18.1657 -11.2496 -4.54948
-18.0779 -10.9772 -4.14939
-17.8328 -11.6077 -3.82656
-17.1314 -11.2785 -4.50437
-18.724 -11.1548 -3.74451
-18.5994 -11.6663 -3.78266
-19.2826 -10.5515 -2.48154
-14.7551 -12.3368 -3.75561
-14.8176 -12.2183 -3.15047
-20.5339 -11.1555 -1.90733
-15.9227 -11.7039 -2.2357
-15.2322 -12.591 -2.78131
-17.4406 -12.1197 -0.948844
-18.8477 -11.1295 -0.88907
-18.3814 -11.4372 -0.594336
-19.3915 -11.3965 -0.129709
-17.6301 -11.8008 -1.16649
-16.8487 -11.594 -0.663063
-16.4875 -12.0148 -0.472083
-17.6524 -11.6762 -0.197981
-16.4776 -12.1144 -0.587408
-16.7011 -12.2642 -0.649801
-15.5891 -12.5688 -1.18738
-16.0039 -12.356 -0.0914293
-17.3281 -12.1906 0.0319578
-16.001 -12.2247 0.541177
-20.4973 -10.4032 -4.33675
-18.4471 -10.7698 -4.66506
-18.2063 -11.2543 -4.35205
-17.4559 -11.4924 -3.90898
-17.408 -11.4824 -4.43321
-16.135 -12.0101 -4.00585
-15.7962 -11.513 -2.14131
-19.65 -11.6853 0.022979
-20.3344 -11.5901 -0.391898
-19.1397 -11.2549 -0.313263
-16.3369 -12.2122 -0.377163
-15.792 -12.5958 -1.06599
-16.1696 -12.2061 -0.560011
-16.5001 -12.2265 -0.015232
-17.0344 -10.8643 -2.67867
-16.8051 -10.8433 -3.18303
-16.0917 -11.3296 -3.25839
-17.2692 -11.0947 -2.58538
-19.1797 -11.4686 -2.58665
-17.2391 -11.7063 -2.22785
-15.0617 -12.5244 -3.25649
-18.3347 -11.3434 0.258147
-16.0492 -12.1035 -0.63882
-16.7897 -11.9679 0.530377
-16.6742 -12.4638 0.628709
-16.131 -12.3112 -0.75983
-16.6853 -11.9219 0.719317
-18.5632 -10.9848 -4.54532
-16.7196 -10.7995 -3.21246
-16.7623 -11.0868 -3.00572
-15.9212 -11.7642 -1.81605
-14.191 -12.7345 -3.45134
-15.1592 -12.3145 -2.01567
-15.3314 -11.8572 -1.72301
-19.0516 -11.11 -0.114448
-16.5074 -11.3948 -2.15493
-14.2091 -12.4726 -3.36793
-16.6269 -12.0196 -1.62443
-18.9839 -11.7997 -0.849616
-18.2894 -11.36 -0.884997
-15.2497 -12.8332 -1.64914
-17.3567 -11.8673 -0.637339
-16.1743 -12.0214 -2.31376
-18.9024 -11.2621 -0.815743
-17.247 -12.008 -0.815911
-16.6382 -12.3753 -2.28167
-17.0401 -12.0727 -1.51111
-19.8319 -10.1449 -4.41624
-16.766 -11.2712 -3.76741
-16.2491 -11.7348 -2.60581
-15.9344 -11.2259 -3.44684
-16.2732 -11.6732 -2.07769
-16.0084 -10.3844 1.30925
-14.6899 -12.2805 -3.77642
-16.6359 -11.9087 -0.908401
-15.883 -11.9174 -0.576935
-14.7468 -12.9892 -2.6381
-16.1692 -12.636 -0.661197
-16.8844 -12.7574 -0.176642
-16.6854 -12.4741 -0.199532
-15.9584 -12.2835 -0.737734
-16.2286 -12.0137 0.369349
-18.6773 -10.7231 -4.85881
-18.3838 -11.2867 -4.5439
-17.3254 -11.1883 -2.0167
-20.1733 -11.4565 -0.340378
-20.8176 -11.3733 -0.7848
-17.0625 -11.4802 -1.82306
-17.0503 -10.647 1.52319
-16.7879 -10.0856 1.34783
-18.25 -11.1881 0.0636971
-17.2713 -12.1377 -0.618328
-17.5195 -11.9019 -0.594302
-14.8203 -12.4377 -3.27917
-17.4543 -11.7034 -0.573142
-14.7757 -12.5802 -3.34293
-15.3494 -12.8079 -3.15785
-17.5649 -11.7591 -0.308616
-16.0817 -12.4956 -0.641687
-16.5497 -12.0972 -0.226044
-16.1724 -12.6898 -0.704249
-16.517 -12.5846 -0.591539
-15.84 -12.3328 -0.66201
-15.946 -12.8577 -0.712845
-16.5214 -12.4296 0.440884
-18.6347 -11.2207 -3.9045
-15.9202 -11.8073 -3.30483
-16.2355 -12.09 -2.04213
-18.4138 -11.5375 0.364243
-17.3142 -11.6142 -1.185
-18.6299 -11.3882 -0.382078
-15.4444 -12.4687 -3.46537
-16.6406 -12.9395 -0.308985
-16.1578 -12.4458 -0.164549
-15.9107 -12.1022 -0.301359
-15.7224 -11.7492 -3.16908
-16.9899 -11.6902 -1.75125
-17.1193 -12.587 1.19925
-19.0405 -10.4252 -4.17813
-15.7554 -11.9316 -1.78798
-16.4578 -11.6508 -1.28829
-16.732 -12.0968 -1.13128
-16.5727 -12.1422 -1.00373
-17.0588 -10.2469 1.47569
-16.24 -12.3341 -1.01976
-18.2274 -11.433 -2.25957
-18.9576 -10.9022 -0.622938
-16.8527 -11.8916 -0.738722
-16.3486 -12.1962 -0.0279177
-16.7358 -12.3382 -2.36284
-17.9022 -11.7747 -1.24118
-16.0508 -11.7575 -1.14069
-15.3181 -12.76 -2.27546
-21.9471 -10.8671 -0.00730911
-21.7952 -10.5729 -0.154551
-19.0981 -11.1366 -4.9813
-17.0605 -10.9012 1.50397
-20.1883 -11.5321 -0.583911
-16.655 -10.4187 2.336
-16.8926 -11.2305 -3.49291
-17.1759 -11.2858 -4.27823
-18.6981 -11.6424 0.078288
-16.2855 -11.2655 -3.12544
-18.321 -11.8658 -0.58496
-16.0593 -11.6239 -2.76481
-18.2261 -12.2747 -0.469496
-17.0581 -11.6604 -1.42456
-17.3955 -11.8907 -0.784083
-17.8523 -12.0908 -0.0892533
-16.9001 -12.0904 -0.924852
-16.1629 -11.9918 -1.14664
-16.2 -12.0127 -0.143873
-15.0351 -12.8185 -2.81969
-14.6807 -12.8237 -2.47026
-22.0635 -10.4863 -0.245387
-19.9557 -11.4961 0.0557348
-16.644 -10.4856 1.66987
-18.4206 -11.1455 0.313846
-16.9469 -11.4483 -1.84006
-17.6467 -11.3569 -1.63237
-17.9547 -11.849 -1.20692
-17.1733 -11.7907 -1.54487
-17.2055 -12.0094 -0.9638
-17.0362 -11.8448 -0.476559
-17.4513 -11.8902 -0.44886
-16.0351 -11.7552 -2.09163
-16.5709 -12.0782 -1.27014
-16.0189 -12.2705 -0.615693
-16.4121 -12.2457 -0.718994
-16.4255 -11.9985 0.0356075
-16.1634 -12.4248 -0.450693
-16.2541 -12.568 -0.696222
-14.8556 -12.9044 -2.1324
-15.3308 -13.1422 -2.40684
-18.034 -11.5575 -4.30203
-15.991 -11.6431 -2.36308
-17.108 -12.073 -1.53441
-16.1592 -12.3816 -0.869742
-16.467 -12.356 -0.589973
-16.5547 -12.1321 -0.743957
-16.0647 -11.8606 -0.0749409
-20.1715 -11.473 -0.84432
-18.8886 -11.1275 -1.09663
-17.2612 -11.3936 -2.21574
-16.7875 -11.7264 -1.01553
-18.2405 -11.5839 -2.39415
-15.9408 -12.1406 -1.93093
-16.5628 -12.2936 -0.851909
-15.2734 -12.2303 -1.71746
-16.0461 -11.7265 -1.96518
-16.4634 -11.6507 -1.5387
-16.9644 -11.2024 -3.13017
-16.8022 -12.1677 -1.05467
-15.9542 -11.9396 -3.1134
-17.2934 -11.7615 -1.64067
-16.9369 -12.0328 -0.351705
-15.669 -11.6597 -2.25297
-17.5217 -11.2722 -2.09042
-15.7444 -12.5629 -2.02252
-16.0312 -12.1125 -1.43556
-16.5367 -11.3038 -1.44535
-21.9804 -10.9697 0.593455
-22.0835 -10.6862 0.379041
-22.2262 -10.6463 -1.12063
-21.669 -10.8544 -2.55174
-21.7346 -10.4864 -3.17159
-21.1914 -9.86378 -4.80265
-20.8344 -10.6793 -1.89298
-20.0016 -11.5189 -0.412506
-20.3024 -10.5981 -3.05427
-18.7168 -11.6411 0.368078
-17.6843 -11.8347 0.130515
-17.2114 -12.2376 -0.443953
-16.9872 -11.8596 -0.784687
-16.6172 -12.1479 0.259712
-16.6818 -11.9568 -1.32732
-16.879 -12.1681 -0.0691544
-16.4276 -11.9528 -1.39512
-16.4196 -12.3963 -1.33662
-16.0564 -11.7969 -1.9692
-15.5933 -11.561 -3.20654
-15.7214 -11.9301 -3.1518
-16.5348 -12.2372 -0.553324
-16.3761 -12.768 -0.308253
-14.6846 -12.9933 -2.63552
-15.0034 -12.9417 -3.47973
-19.4348 -11.1503 -1.85032
-18.9871 -10.9258 -0.90446
-16.5663 -11.649 -1.70385
-16.9574 -12.0123 -0.943855
-17.7829 -11.9977 -0.317797
-16.6444 -12.3219 -1.14795
-16.6574 -12.1669 -1.71391
-16.5356 -12.0956 -0.223451
-16.3831 -12.4207 -0.134205
-16.1542 -12.2553 -0.556945
-21.8603 -11.0377 0.627073
-21.6721 -10.8576 0.689208
-17.946 -11.3574 -4.6993
-17.7708 -11.2498 -4.43045
-17.2655 -12.0337 -1.20969
-16.5568 -11.6583 -1.18129
-16.5685 -12.0165 -0.165681
-16.6975 -12.2455 -0.538767
-16.3346 -12.6131 0.135858
-16.4012 -12.5725 -0.0131968
-16.3088 -12.4021 0.00373506
-21.8604 -10.719 0.183384
-15.9557 -12.1093 -1.74687
-15.9203 -12.2108 -0.208636
-15.0809 -12.9195 -3.24044
-19.2496 -11.1084 -3.83107
-17.8112 -11.454 -1.22904
-16.7096 -12.2438 -0.37342
-15.6898 -12.7032 -1.32609
-15.6823 -11.7982 -2.09239
-16.8446 -10.9271 -2.06315
-16.6112 -11.8172 -1.56984
-15.8502 -12.1978 -2.36643
-16.7099 -12.4728 -0.82718
-21.8703 -10.7667 -0.624018
-21.5768 -10.9056 -0.710563
-20.9056 -11.479 -0.52655
-20.3024 -11.663 -0.0709857
-20.4914 -11.1626 -1.79292
-18.8803 -11.2209 0.141074
-21.6271 -9.78082 -4.63649
-17.0128 -11.8898 -0.470896
-17.2183 -11.883 -0.713261
-16.4151 -11.9696 -0.642508
-18.1224 -11.7481 -4.53345
-16.5248 -12.0046 -0.126041
-16.377 -12.0346 -1.17296
-16.1129 -11.7686 -3.9256
-15.9008 -11.8765 -3.56712
-21.0104 -10.9828 -0.479789
-19.2873 -11.1769 -2.69442
-17.0479 -12.2441 0.345467
-17.1874 -12.4709 -0.627164
-16.9971 -12.1387 -1.06558
-17.1844 -10.6817 -1.95882
-16.2017 -12.15 -0.337832
-16.4735 -12.1716 -1.05426
-15.7107 -12.301 -0.166556
-15.761 -12.5063 -1.0816
-15.81 -12.9222 -0.962686
-21.5434 -10.6293 -0.152618
-16.026 -12.3027 -0.52655
-14.9719 -12.542 -2.8483
-20.3656 -10.3778 -3.23464
-16.7969 -12.0178 -1.63719
-16.2462 -12.1348 -1.18023
-15.9234 -11.9387 -2.31753
-15.0688 -12.2848 -1.84394
-14.9714 -12.932 -3.67338
-14.4296 -12.6223 -3.56781
-16.719 -12.2498 -0.313704
-16.4564 -12.4636 -0.582084
-16.6438 -11.7716 -1.93754
-16.1872 -12.0944 -1.61237
-17.2902 -11.2247 -2.17544
-16.1731 -11.9226 -1.19118
-16.0982 -11.9505 -2.44185
-15.637 -12.1238 -1.2885
-15.1988 -12.3324 -2.03117
-16.4613 -11.8973 -1.46641
-16.6676 -12.1524 -1.52063
-19.7992 -10.8821 -1.71912
-17.5508 -12.0621 0.146879
-16.4807 -12.2018 0.696156
-16.7815 -11.8239 -0.779311
-16.4988 -12.3173 -0.261154
-16.5435 -12.3858 -0.402814
-16.7456 -12.6339 -0.128362
-19.0764 -10.3057 -4.84076
-18.2919 -11.2856 -4.39792
-17.3151 -11.912 -4.52713
-16.0276 -12.145 -3.64252
-14.9792 -12.1047 -3.21599
-20.5087 -11.2815 -0.795858
-18.9843 -11.1991 -1.54859
-16.8551 -12.7393 -0.433909
-16.7482 -11.9636 -0.0908643
-18.6304 -11.5838 -2.90202
-16.1178 -12.3257 -0.79234
-18.8443 -10.6649 -4.57582
-16.1891 -11.901 -1.74633
-20.5772 -11.6903 -0.109894
-17.0866 -11.7982 -0.310732
-15.7883 -11.9299 -2.3965
-18.6171 -11.8351 -1.20102
-17.0427 -11.4579 -1.86877
-15.925 -12.0708 -2.06551
-17.1439 -11.4524 -1.43588
-16.1693 -11.6312 -2.02455
-15.2011 -12.2806 -1.09165
-22.3527 -10.8967 0.516493
-16.9924 -12.7496 -1.56528
-16.4451 -12.3944 -1.09237
-20.1631 -11.4076 -0.375239
-17.1019 -11.803 -0.500914
-19.8371 -11.6028 -2.22925
-19.7654 -11.5739 -2.32138
-16.4882 -11.8008 0.00913726
-18.0086 -11.5857 -1.17609
-19.8528 -10.7256 -3.47315
-16.5368 -12.1658 -0.774015
-15.76 -12.6379 -1.04834
-16.6091 -11.7497 -1.6773
-19.3053 -10.2492 -4.83246
-18.672 -11.1923 -4.48288
-15.7301 -11.5624 -2.0114
-18.9154 -10.4946 -4.80614
-16.7667 -11.3902 -2.09812
-18.6631 -10.7784 -5.1286
-15.6698 -11.7167 -2.29099
-17.508 -11.5236 -4.52381
-15.8335 -11.1619 -2.96507
-15.071 -12.8698 -2.49634
-14.3301 -12.2171 -2.81928
-14.5409 -12.591 -3.25559
-18.9072 -11.3028 0.285121
-17.8832 -11.6118 -0.27169
-16.7527 -11.6589 0.395435
-17.5584 -11.6893 -0.226237
-18.8501 -11.9027 -0.826442
-17.7118 -11.7602 -0.503509
-16.8558 -11.9696 -0.699888
-17.2713 -11.9113 -1.28644
-16.3178 -12.5648 -0.497449
-16.2643 -12.8249 -0.62715
-16.8457 -11.6932 -1.16677
-17.0603 -11.3427 -2.27646
-15.4913 -12.5973 -1.11481
-15.6558 -12.7364 -1.31074
-16.3591 -12.0247 -1.99048
-18.3135 -11.2762 -4.48254
-18.6915 -11.3391 -1.12567
-16.8049 -11.9149 0.246643
-17.3598 -12.2583 -0.391093
-16.7019 -11.9703 -0.161326
-17.2124 -12.2353 -0.458765
-17.3336 -12.4669 -1.52147
-16.5595 -11.3255 -1.96085
-16.1575 -11.9223 -1.61207
-15.1661 -12.1357 -2.18741
-15.7913 -12.0118 -2.52346
-15.4821 -13.3526 -3.05078
-18.4231 -11.6102 0.10007
-18.7933 -11.336 -0.559456
-18.5164 -11.4478 -0.879395
-17.3697 -11.7257 -0.863273
-16.5546 -12.4003 -0.161017
-16.4315 -12.7298 -1.22822
-15.5025 -11.9409 -2.20345
-18.7072 -11.4816 0.271131
-15.6445 -12.4119 -1.07457
-15.5952 -11.9695 -3.12692
-17.0851 -11.9651 -2.28809
-15.8017 -12.2552 -1.25468
-16.4117 -12.3263 -1.07788
-16.3523 -11.8332 -0.108793
-21.3978 -10.6874 0.936086
-18.9715 -11.4402 0.401912
-17.197 -12.3058 -0.312664
-17.7173 -11.5299 -0.0373773
-16.9875 -11.8465 0.449998
-17.1334 -11.9869 0.267597
-16.3211 -11.8563 0.393999
-16.1987 -12.3045 0.558781
-20.4276 -11.3383 -1.12279
-20.0589 -11.384 -1.58824
-19.143 -11.2417 -1.33377
-21.0221 -11.3147 -2.50051
-19.2592 -10.9827 -2.61102
-19.3969 -11.1546 -2.635
-16.771 -11.0786 -2.44827
-16.0121 -11.1856 -2.1051
-15.4077 -11.7498 -2.11641
-15.6165 -11.4965 -2.73194
-19.91 -10.655 -4.41359
-15.0325 -12.8264 -2.08014
-16.0745 -11.702 -2.69213
-15.6331 -11.8994 -3.29281
-17.308 -11.2856 -4.66227
-15.6435 -12.6352 -3.74029
-15.2833 -12.2572 -3.57384
-16.5757 -10.6209 0.983168
-17.6025 -11.8897 0.746549
-18.113 -11.2505 -0.0717735
-16.626 -12.0368 0.452566
-16.2101 -12.4524 0.500152
-16.6005 -12.095 -0.284328
-16.7828 -11.6066 -0.629913
-18.2806 -11.4135 -1.13546
-15.7759 -12.733 -0.876863
-16.2737 -13.0167 -0.840231
-16.1936 -11.9261 -1.1427
-17.1088 -11.5977 -1.66233
-15.6226 -13.0311 -1.47696
-15.9315 -12.088 -2.41579
-15.3488 -12.6142 -1.80011
-14.8242 -12.6722 -2.40857
-15.2465 -12.8663 -2.97928
-17.4178 -10.8602 -4.42968
-15.9196 -12.0174 -4.2118
-17.2561 -11.8321 0.552638
-20.2597 -10.9899 -1.12351
-16.5818 -12.2711 0.409514
-20.5176 -10.926 -1.03435
-17.2978 -11.6908 0.0485266
-17.075 -11.8623 -0.430666
-17.1075 -12.1377 -0.264502
-17.0585 -11.6133 -1.22773
-16.517 -11.9561 -0.687921
-17.3272 -11.5785 -2.05387
-19.0538 -11.414 -2.8502
-15.1031 -12.6446 -2.17122
-18.639 -11.1863 -3.87256
-14.9255 -12.5891 -2.77992
-15.9081 -12.2373 -3.83491
-14.2376 -13.1037 -3.45654
-16.1829 -10.5026 1.5431
-19.8455 -11.1465 -0.728569
-17.1468 -11.6452 -0.186744
-16.6083 -12.5482 -1.36665
-16.4035 -12.5787 -0.455712
-17.239 -11.3417 -2.26179
-15.376 -12.8 -2.00775
-15.7364 -11.5458 -3.28748
-15.5717 -12.3069 -3.34324
-15.2946 -12.4891 -2.69459
-17.9258 -11.7661 -0.615442
-17.0198 -12.5177 -0.58548
-16.4206 -12.1194 -0.661479
-16.3772 -12.5148 -1.06281
-16.9654 -11.5565 -1.87656
-15.1451 -12.416 -2.73724
-17.831 -11.7516 0.235695
-18.7039 -11.4412 0.0514879
-16.6827 -12.6424 -0.517802
-16.7447 -12.0345 -1.53672
-16.0455 -11.9934 -2.04634
-16.8517 -11.4546 -2.09833
-14.6924 -12.6705 -3.36396
-21.3311 -10.8601 0.908251
-18.8185 -11.5673 0.074847
-20.2266 -11.539 -0.339977
-16.4658 -11.8616 -1.94444
-15.7542 -12.7595 -3.24188
-15.6527 -11.5434 -2.47444
-15.8794 -11.4855 -3.08359
-16.3878 -12.0919 -0.756788
-16.3224 -11.9033 -1.80366
-15.2074 -12.8754 -2.14749
-16.4295 -11.881 -0.430945
-17.0945 -10.8905 -2.88327
-16.411 -12.3861 -0.35383
-15.7038 -13.0039 -3.26654
-15.1991 -12.8624 -2.30324
-15.5773 -11.582 -1.32308
-19.1183 -10.9817 -2.35665
-15.2216 -12.7209 -1.6985
-19.804 -11.4334 -2.45218
-15.5822 -12.2211 -1.79835
-20.0387 -11.0366 -2.31982
-16.9321 -11.755 -0.869835
-16.3139 -12.5296 -1.31825
-16.432 -12.0836 -0.663925
-20.3378 -11.4101 -1.90306
-15.6034 -13.0719 -1.26325
-16.6596 -12.5418 -0.890822
-17.2199 -12.1401 -0.524761
-16.6817 -12.3342 -0.0642524
-16.0155 -12.875 -0.0561109
-18.7767 -11.7107 -0.426541
-20.6828 -10.8491 -0.71109
-19.1415 -11.2406 -0.130998
-20.1615 -11.4616 0.0226932
-17.3017 -12.1805 0.190589
-20.8383 -11.3329 0.409458
-21.6113 -10.9474 0.862175
-19.7168 -10.5335 1.49483
-16.1812 -9.92049 2.05924
-15.964 -10.5403 1.75613
-18.5554 -11.1856 -3.08186
-17.4851 -11.1378 -2.44142
-17.4203 -11.7833 -2.0897
-15.645 -12.7369 -0.862746
-15.9473 -12.8912 -0.820904
-19.8446 -11.3858 -1.39232
-18.6213 -11.4421 -0.370178
-17.975 -11.3093 0.174428
-17.5419 -11.758 -0.101053
-16.2054 -12.3172 0.199075
-17.4453 -12.4175 0.0537919
-15.1316 -12.3869 -3.65642
-16.8199 -11.7826 -2.48638
-17.1183 -11.5396 -1.71823
-17.4092 -11.6933 -1.88647
-16.3699 -11.7804 -1.60907
-16.1038 -12.2663 -1.55851
-19.2028 -11.3388 -2.5225
-16.6849 -11.7692 -0.0620203
-20.1581 -11.3929 -0.553401
-19.6652 -11.669 -1.24595
-19.825 -10.9219 -0.399851
-20.0277 -11.4552 -0.742488
-19.1651 -11.5907 -0.227616
-16.8017 -11.5358 -1.74276
-20.2167 -11.5364 -0.624076
-18.0757 -11.0559 0.734401
-15.3668 -12.5187 -1.61558
-16.208 -11.7713 -0.531585
-16.6195 -12.511 0.102671
-16.8268 -12.5946 0.0217886
-16.119 -12.7799 0.0581867
-17.6674 -12.4524 -0.21258
-19.0178 -11.5577 0.234096
-16.5401 -11.0862 -2.14861
-16.5422 -12.347 -1.757
-16.8626 -12.1344 -1.43724
-16.7796 -12.5187 -0.81508
-16.6809 -11.6247 -4.82102
-14.0936 -12.8142 -3.53633
-14.3514 -12.7067 -2.92733
-18.8676 -10.7379 -3.8224
-15.1057 -12.5085 -3.11126
-20.1256 -10.7971 -3.20989
-20.7591 -10.9002 -3.32664
-15.1281 -12.773 -2.95762
-15.1397 -12.8592 -2.55177
-20.2145 -10.5699 -2.77645
-15.1804 -12.6773 -2.56218
-15.0972 -11.921 -2.30825
-16.1452 -11.6101 -2.68843
-16.3231 -12.3838 -1.49059
-16.0134 -12.4635 -1.26797
-15.635 -12.0636 -0.93793
-16.8414 -11.6484 -0.631521
-16.6353 -12.5233 -1.05517
-20.9579 -11.7052 -0.685484
-21.061 -11.3836 -0.280233
-21.6576 -10.7518 1.52561
-19.3725 -10.3039 1.58594
-20.1198 -10.1933 1.3265
-19.3396 -10.7138 -4.39014
-17.6868 -11.4263 -4.28093
-15.9046 -11.6348 -3.15672
-19.2279 -11.1733 -3.73292
-18.909 -11.062 -3.85399
-16.9878 -11.3706 -2.6995
-19.7764 -11.1911 -3.22768
-18.3054 -11.3994 -3.4158
-19.8773 -10.7469 -3.1723
-17.1686 -11.2266 -2.82274
-20.0758 -10.3453 -2.85317
-17.054 -11.3039 -1.85151
-15.9348 -11.7015 -1.58108
-19.2575 -11.1486 -2.00011
-20.2126 -10.9297 -1.84021
-18.3288 -11.7477 -1.13904
-16.4863 -12.0372 -1.16138
-16.0717 -12.5786 -0.924876
-20.5125 -11.44 -0.157332
-16.3291 -12.2728 0.570012
-17.6699 -11.2972 -4.21204
-17.8653 -11.3367 -4.29509
-18.1309 -11.3772 -4.24416
-16.8082 -10.9707 -3.5761
-18.4388 -10.9231 -3.56293
-19.9198 -10.6444 -4.10587
-16.7897 -11.3595 -3.61123
-14.7441 -12.6984 -2.98059
-19.5363 -11.1359 -1.64638
-16.6603 -12.0986 -0.623611
-18.5406 -11.9922 -0.499012
-15.9963 -10.6481 1.708
-14.8284 -12.2413 -3.54594
-16.0396 -11.5622 -2.69444
-17.5962 -10.9617 -2.60455
-14.9513 -12.6609 -2.73018
-15.7369 -11.9008 -1.946
-14.656 -12.68 -2.56582
-16.6056 -11.4323 -1.87846
-14.5831 -12.7451 -2.81545
-17.1675 -11.0127 -2.33877
-15.4065 -11.3274 -3.11629
-15.4347 -12.3484 -2.80988
-17.2191 -11.8751 -2.67928
-17.2594 -11.5581 -2.86908
-15.7034 -11.3239 -2.27704
-17.2058 -11.4035 -1.64467
-16.8591 -11.8518 -0.949429
-15.2457 -12.4086 -2.73736
-16.6503 -11.944 -0.738032
-16.3339 -12.3384 -1.75789
-18.1905 -11.3661 -4.28422
-18.6307 -10.5839 -4.32241
-19.8618 -10.9866 -3.87064
-20.154 -10.5909 -2.97221
-20.1835 -10.4691 -2.85406
-14.2996 -12.6261 -3.75727
-14.4296 -12.1794 -3.57548
-16.9582 -11.4657 -2.24515
-20.1779 -10.9996 -2.07404
-16.8861 -11.3198 -2.08046
-17.5977 -11.541 -2.3019
-14.7358 -12.8909 -2.74766
-16.6875 -11.5115 -2.30524
-15.6281 -11.7628 -2.47047
-14.6585 -13.0277 -2.62009
-20.6298 -11.4174 -0.466802
-15.6628 -12.8545 -0.768945
-17.594 -12.1483 0.135168
-17.7477 -10.9506 1.68712
-16.1976 -9.91455 2.17475
-19.4802 -10.891 -4.6479
-18.0076 -11.4104 -4.38142
-20.0141 -10.278 -4.33864
-20.4353 -10.6198 -3.62571
-14.8616 -12.3093 -3.52403
-16.0582 -11.668 -2.69841
-15.3779 -12.8406 -3.32601
-17.0395 -11.3854 -2.7872
-15.6305 -12.746 -2.67654
-16.8639 -11.8107 -1.92531
-18.219 -11.9452 -0.546743
-16.6048 -12.0939 -1.43347
-18.0755 -11.2888 -0.0460576
-17.4503 -11.8114 0.594785
-16.4004 -12.8077 0.170211
-16.1799 -12.0947 -3.7765
-16.8458 -11.5042 -3.64771
-17.0901 -11.3115 -3.02871
-16.1034 -11.5843 -2.4774
-19.4026 -11.2518 -3.21531
-15.9104 -12.6826 -3.72413
-15.5539 -11.9046 -2.30913
-15.3916 -11.5287 -1.904
-18.6495 -11.993 0.27788
-15.6926 -12.9282 -1.06508
-16.1945 -12.027 -0.56001
-15.1489 -11.6837 -3.02129
-15.3185 -11.4877 -3.02936
-16.2168 -12.4132 -2.73191
-17.6796 -11.5102 -1.48064
-18.5944 -11.2426 -0.260896
-18.6134 -11.3877 -0.494484
-16.7394 -12.2827 -0.10534
-16.1157 -11.7074 -2.71188
-15.7946 -11.5396 -1.72427
-15.9797 -12.2471 -0.682273
-15.2529 -12.6085 -2.13734
-16.446 -11.4154 -2.40144
-17.377 -11.6309 -1.27637
-16.5543 -12.48 -0.946325
-19.9718 -10.5836 -4.55842
-18.2567 -10.7269 -4.32042
-18.2735 -12.0245 -3.83612
-16.0554 -11.3858 -3.16445
-15.9556 -12.2708 -3.27389
-16.5688 -11.3108 -2.17156
-16.3059 -11.3883 -2.53004
-14.3136 -12.7255 -4.029
-14.8659 -12.5622 -3.62459
-15.0234 -12.7267 -3.13312
-15.6201 -11.9072 -2.10554
-18.0797 -11.3287 -1.88061
-16.9316 -12.0617 -2.20797
-14.3271 -12.4777 -3.50864
-20.6776 -11.0424 -1.08956
-20.4625 -11.2267 0.035831
-14.8964 -12.8259 -2.6008
-16.9362 -10.4577 1.06059
-16.4537 -11.7289 -0.701953
-17.5846 -11.021 -4.47872
-17.0289 -11.3635 -2.34103
-17.1876 -11.2572 -2.02981
-14.8578 -12.4846 -3.0361
-16.5856 -12.1816 -1.79529
-20.1695 -11.4146 -0.739776
-20.3688 -11.0141 0.0892624
-20.3389 -11.4603 -0.518857
-18.1497 -11.0333 -0.625264
-17.8266 -11.9034 -0.459979
-16.7108 -12.3246 -0.137664
-16.4305 -12.5837 0.0180727
-16.5869 -12.7443 0.0262289
-17.2923 -11.1639 -3.24382
-20.4738 -11.2508 -1.00145
-15.825 -12.1985 -1.39579
-16.0964 -12.7374 -0.714743
-16.4852 -12.3206 0.360006
-19.4433 -10.7498 -3.0542
-16.2962 -12.298 -1.97326
-17.4402 -11.8392 -0.907681
-17.2788 -11.5075 -1.44129
-15.713 -12.2618 -1.92537
-18.7738 -11.9178 -0.58635
-16.7517 -11.7148 -1.74026
-16.529 -11.567 -3.17009
-17.2503 -11.5665 -2.0731
-16.7882 -12.153 -0.724491
-18.3832 -10.8927 -4.97133
-19.1736 -11.3816 -2.85993
-16.5443 -11.698 -4.07038
-16.2062 -11.8644 -2.25896
-20.6793 -11.2632 -0.518712
-15.5691 -12.0377 -1.98807
-16.3681 -11.7688 -2.2871
-17.3147 -11.8145 -0.888549
-16.4631 -12.6603 -0.300877
-15.7749 -12.4733 -0.240146
-18.0622 -11.3846 -4.80973
-17.6174 -11.2518 -4.1772
-17.7424 -11.0721 -4.63337
-19.8196 -11.2483 -0.762013
-18.0171 -11.7981 -1.05178
-14.6394 -12.5363 -3.98428
-15.0656 -12.7981 -2.50486
-14.8207 -12.9645 -2.90148
-18.3732 -11.6133 0.459406
-16.2664 -12.193 -0.766882
-15.711 -12.5091 -1.23962
-16.2368 -12.3853 -0.938523
-15.8375 -12.8595 0.00985445
-16.1314 -12.6859 -0.382538
-18.8532 -11.2982 0.616894
-17.3927 -11.7202 -0.83296
-18.2176 -12.4749 -0.403278
-16.6067 -12.256 -0.620116
-16.593 -12.3015 0.441016
-15.8495 -11.772 -2.8205
-17.5596 -11.6145 -1.27787
-17.813 -11.5905 -1.39272
-17.7344 -10.7417 -2.11308
-20.4756 -11.5443 -0.327271
-20.5039 -11.7729 -0.333795
-21.0666 -11.4909 -0.476967
-20.7277 -11.5792 -0.280061
-19.9607 -11.5237 -0.199604
-20.3103 -11.3714 -0.298093
-16.6364 -10.1791 2.2039
-15.607 -11.7773 -3.41554
-17.0569 -11.8127 -1.34765
-17.4728 -11.8728 -1.08906
-17.2591 -11.9882 -1.18024
-17.3731 -12.047 -0.314064
-14.8443 -12.816 -3.84849
-16.5722 -12.0764 -0.891364
-16.2155 -12.5789 -0.798713
-16.0883 -12.2888 -1.28168
-16.8928 -11.9943 0.760443
-16.4387 -12.2315 0.177279
-16.6173 -12.1377 -0.468888
-16.3744 -12.1522 -0.422993
-15.0733 -12.5313 -2.30641
-21.2647 -10.9198 -0.154001
-20.3655 -11.3872 -0.418535
-20.2467 -11.3322 -0.66639
-20.5531 -10.9035 -0.23498
-20.7657 -11.3804 -0.455757
-18.3908 -11.1598 -2.06882
-15.876 -11.734 -3.16638
-17.7282 -11.9133 -0.950376
-15.5728 -11.2687 -2.04033
-17.2166 -11.5103 -0.272552
-17.25 -12.1724 -0.290698
-21.7889 -11.0778 0.784586
-18.7143 -11.3245 -1.06164
-17.6869 -11.8641 -1.05501
-16.0108 -11.4955 -2.05096
-16.3972 -12.0662 -1.69921
-17.2528 -11.801 -1.10257
-15.6759 -12.443 -0.98361
-16.8375 -10.5066 1.03372
-15.8101 -11.7652 -2.71324
-17.7402 -12.116 -1.2947
-15.6327 -11.73 -1.96436
-16.1941 -12.1897 -0.706035
-16.7507 -11.3764 -1.97761
-17.9343 -11.6209 -2.53037
-15.8483 -12.3182 -1.72456
-16.8796 -11.6791 -1.82761
-18.6757 -11.3155 -1.33802
-16.3439 -12.4876 -1.2483
-22.2457 -10.766 -0.499384
-20.1891 -11.4876 -0.0883
-18.7545 -11.7248 -2.69194
-16.7814 -11.0874 -3.59748
-18.4858 -11.1582 -0.228791
-17.5173 -12.0804 -0.262047
-16.418 -12.2037 -0.526255
-16.4566 -11.7989 -0.679561
-19.7568 -10.6935 -2.10507
-20.3867 -11.1348 -0.144372
-20.2459 -11.3013 -0.258848
-18.3446 -11.4639 -3.83235
-16.0035 -11.982 -3.83948
-16.7153 -11.7432 -0.861581
-16.905 -11.8909 -1.59114
-15.5731 -11.533 -2.5867
-16.294 -12.6208 -0.475902
-15.3111 -12.1452 -3.7828
-15.0961 -12.5637 -3.35331
-17.3445 -10.7723 -2.7979
-17.6957 -11.9602 -0.532627
-18.2369 -11.8997 -0.325494
-16.9679 -12.0233 -1.16761
-15.7669 -12.0335 -3.36831
-16.8573 -11.9726 -1.68757
-16.3575 -12.6092 -1.37815
-15.5739 -12.0255 -0.516962
-18.2384 -12.0762 -0.52933
-16.5653 -11.8798 -1.4251
-16.095 -11.7658 -2.06761
-16.7186 -11.7633 -1.5105
-18.3208 -11.2098 -1.21624
-16.7471 -12.0279 -1.57076
-16.5879 -12.084 -0.753612
-17.6321 -12.1296 -1.94716
-15.8153 -12.3216 -1.42221
-22.294 -10.8168 0.457488
-21.0387 -9.56212 -4.4764
-19.199 -10.8534 -4.17585
-18.893 -10.8182 -4.48204
-17.8727 -11.7017 -3.90194
-16.6753 -10.6853 -3.63225
-17.6718 -12.0298 -0.235928
-17.3912 -12.182 -0.197158
-17.0441 -11.225 -0.564919
-16.1745 -12.2087 -0.380787
-15.1181 -12.2585 -2.24768
-15.7769 -12.4572 -3.40254
-14.9784 -12.3266 -3.32982
-21.6324 -10.9029 -0.463751
-20.5854 -11.3824 -0.376354
-18.0567 -11.6797 -1.14296
-17.9447 -11.7317 -3.79871
-16.1601 -11.8796 -0.227943
-15.7119 -12.2546 -2.31389
-15.7318 -12.3075 -3.75058
-15.7453 -12.1066 -2.86112
-22.3106 -10.8899 0.889526
-17.5767 -11.3637 -1.58425
-17.0162 -11.8882 -0.857089
-17.2163 -11.5628 -0.922643
-15.6329 -12.477 -2.18435
-22.5187 -11.1422 0.348341
-18.5547 -11.2693 -0.0681543
-17.7481 -11.2682 -1.59689
-17.2099 -11.6833 -1.48162
-17.2107 -11.8354 -1.38137
-15.5698 -12.2523 -1.93552
-16.4725 -11.6293 -0.807956
-16.4149 -11.7634 -0.773153
-15.789 -11.8838 -1.84349
-17.1386 -11.871 -2.66761
-21.9111 -10.8293 -0.494027
-21.9018 -10.6646 -0.404323
-18.7332 -11.7632 -3.6465
-17.316 -11.6299 0.064034
-17.3525 -11.5464 -0.777963
-16.9638 -11.9405 -1.40911
-16.683 -12.829 -0.0163983
-16.0023 -12.8701 -0.85406
-14.9872 -12.328 -1.89155
-22.1446 -10.6207 0.208974
-20.1572 -11.3219 -1.95185
-14.8955 -12.3083 -3.49353
-16.5621 -12.1879 -0.775611
-15.4035 -12.6276 -3.54312
-17.7792 -11.7172 -1.39374
-16.9378 -11.5403 -2.31515
-14.9736 -12.8393 -3.41101
-15.7494 -11.9871 -1.74658
-15.2643 -11.7146 -1.92142
-17.1785 -11.5737 -1.93258
-16.4951 -11.8584 -1.02604
-16.4847 -12.3618 -0.289065
-17.8434 -11.5108 -2.13736
-16.9716 -12.1428 -1.08717
-16.7728 -11.0235 -3.08915
-20.2148 -11.1461 -0.203751
-20.3959 -11.3081 -0.463283
-18.2068 -11.6725 -0.402466
-16.502 -12.2671 -0.242832
-16.6028 -11.9488 -0.643465
-17.2514 -11.4408 -4.30499
-15.3061 -12.6363 -0.712323
-20.4264 -11.5684 -0.281555
-18.4524 -11.178 -0.815514
-16.6625 -12.3046 -0.338785
-16.4863 -11.9539 -1.58668
-16.005 -12.36 -1.22417
-16.0657 -12.0376 -1.53516
-15.5176 -12.0444 -3.65097
-15.7369 -11.5059 -3.436
-14.7408 -12.4908 -4.12679
-15.7442 -12.1671 -2.67995
-15.4752 -12.426 -1.96715
-15.6844 -12.0238 -1.83212
-16.8307 -11.9974 -0.0113526
-16.6364 -12.3345 -0.829451
-15.653 -11.8372 -2.26041
-15.9549 -12.3902 -2.25586
-16.9018 -11.9924 -0.811089
-16.7236 -12.903 -0.593107
-15.6186 -12.6858 -1.08278
-16.1195 -11.697 -2.19826
-16.0979 -11.2701 -3.1694
-18.779 -11.1033 0.0569323
-20.3722 -11.5741 -0.344532
-16.7828 -12.1563 -0.130935
-16.8083 -12.03 -0.859871
-16.8674 -11.9475 -1.83191
-15.827 -12.5703 -0.866374
-15.9151 -12.4231 -3.45109
-16.3955 -11.6465 -3.38769
-15.3396 -12.6307 -2.2395
-16.793 -11.1227 -2.09266
-16.9041 -11.985 -0.659922
-16.049 -11.9103 -1.91939
-17.9467 -11.7839 -2.5871
-17.2473 -12.0621 -1.12701
-15.868 -12.7025 -1.82864
-18.8134 -11.2398 -1.26128
-16.3834 -12.0728 -4.21744
-14.8237 -12.8921 -3.17386
-18.2519 -12.3664 -0.448868
-16.8153 -11.7766 -0.582431
-16.1212 -11.6567 -2.58292
-14.5996 -12.5979 -3.14791
-16.1574 -11.6349 -3.25702
-15.0706 -13.1433 -2.13486
-16.8998 -11.47 -2.19465
-15.4831 -12.1153 -2.26434
-15.8332 -12.2904 -1.46602
-15.0451 -12.7942 -4.05715
-16.9679 -12.1804 -0.735767
-16.8818 -12.2869 -0.907561
-15.5714 -11.9055 -2.36895
-20.4391 -11.1339 0.0327549
-18.445 -11.4588 0.625531
-16.7895 -12.0716 -0.348139
-16.0453 -12.0776 -1.10021
-15.491 -12.029 -2.57539
-15.8498 -12.1273 -2.76493
-17.5156 -11.3458 -4.52798
-15.0304 -12.7848 -3.178
-20.6723 -11.5849 -0.401903
-17.1432 -12.121 -0.311969
-15.7125 -12.6123 -1.55065
-16.0087 -12.0394 -2.04238
-15.8141 -12.0211 -2.55355
-15.6808 -11.9756 -2.37167
-16.2955 -11.6251 -3.55559
-18.8233 -11.4667 -1.32372
-16.5228 -11.8547 -0.263595
-16.1421 -12.5109 -0.619852
-14.4691 -12.9025 -3.41276
-16.5557 -11.567 -1.8301
-17.2334 -11.5017 -2.01324
-15.8396 -11.7497 -1.99406
-15.8492 -11.8712 -3.72655
-15.3829 -11.2421 -3.16892
-16.5895 -11.9683 -0.148123
-17.2922 -11.9127 -1.08625
-16.0187 -11.9017 -2.96515
-17.0552 -12.3765 -0.749052
-15.6057 -11.7951 -1.49634
-16.1271 -12.3136 -2.4237
-16.409 -11.9741 -0.634974
-15.7848 -12.697 -1.5214
-19.1875 -11.6366 -0.351982
-18.5363 -12.0317 -0.830548
-16.9565 -12.1558 -0.0380594
-16.439 -12.1328 -0.953432
-19.6369 -11.1153 -2.10777
-15.4466 -12.1395 -1.28453
-16.0112 -11.6555 -2.10339
-15.2709 -12.7427 -2.92194
-17.0258 -12.2263 0.296233
-17.1663 -12.2512 0.0612042
-16.7339 -11.9824 -0.283233
-15.2826 -12.844 -1.69769
-15.9576 -11.7196 -1.90515
-15.799 -12.0368 -2.16646
-16.2177 -11.7695 -2.88214
-16.3353 -11.4212 -3.7923
-15.2562 -12.3163 -3.56631
-18.5107 -11.2745 -0.884113
-16.7143 -11.9654 -0.794571
-17.2206 -11.4251 -2.05999
-15.8877 -12.1712 -1.86087
-15.8615 -11.8014 -2.44876
-16.0251 -12.018 -2.82571
-15.0077 -13.2384 -3.37332
-16.5266 -11.8013 -0.080983
-16.177 -12.1292 -1.54286
-17.5548 -11.963 -0.362715
-16.713 -11.3474 -1.23971
-16.5691 -11.7876 -1.14327
-15.779 -11.9893 -2.02075
-16.6152 -12.1413 0.380769
-18.2721 -11.5791 -0.692091
-15.1234 -12.1171 -2.90688
-16.7385 -12.0092 0.111641
-16.403 -10.4799 1.99559
-16.5594 -10.4012 1.94909
-21.4626 -10.9824 0.841791
-16.6862 -10.8673 1.19529
-17.0404 -11.8065 0.454204
-18.4006 -11.4738 0.0742534
-18.3894 -11.4444 0.0807883
-18.6454 -11.9628 0.137041
-17.3742 -11.7601 0.256559
-17.1302 -11.7679 0.606543
-20.795 -11.2648 -0.208157
-18.741 -12.0487 -0.59604
-18.8749 -11.6792 -0.533767
-20.6617 -11.1226 -0.736976
-16.1689 -12.5681 -0.464855
-16.4388 -12.1452 -0.391312
-20.6658 -11.2398 -1.09718
-20.3088 -11.2144 -1.40682
-16.7107 -11.9494 -0.699537
-18.5029 -12.1186 -1.41512
-16.1608 -12.5129 -0.952349
-15.5185 -12.6301 -1.09802
-15.8553 -12.6061 -1.64376
-15.7051 -12.5218 -1.70639
-18.8315 -11.4898 -1.67415
-15.3749 -12.1972 -1.93337
-16.7624 -11.3158 -2.21939
-15.7744 -11.8733 -2.38084
-19.8953 -10.8205 -3.56752
-19.7353 -10.5198 -4.34565
-15.1034 -12.392 -2.72998
-19.1561 -11.3509 -4.59065
-19.8021 -10.6309 -4.66849
-19.28 -10.9415 -4.18574
-15.4425 -11.5696 -3.24171
-19.1127 -11.2353 -4.74799
-14.663 -12.2792 -2.90694
-14.5816 -12.5364 -3.0959
-18.1069 -11.0691 -4.46108
-15.7823 -12.0484 -3.27043
-16.3868 -12.02 -4.41196
-16.8367 -11.7728 0.470002
-17.2168 -12.0695 0.298273
-17.1636 -12.009 -0.232908
-18.4692 -12.0105 -0.676197
-16.8048 -11.4448 -0.165278
-19.4727 -11.3549 -1.02832
-20.3662 -10.8474 -1.4251
-17.8806 -11.9486 -0.839311
-18.827 -11.4754 -0.999528
-16.9411 -12.5574 -1.46371
-17.2885 -12.0367 -1.74227
-16.4202 -12.2156 -1.22821
-15.9139 -12.6753 -1.55963
-15.6724 -12.5825 -1.23711
-20.372 -11.0464 -3.18687
-20.3681 -11.0053 -2.83836
-20.3396 -10.9373 -3.57763
-16.3545 -11.8428 -2.041
-15.8721 -11.6789 -1.56965
-16.9036 -11.4046 -2.2488
-19.1789 -11.0505 -3.01808
-18.3595 -11.3716 -2.7482
-15.8081 -12.213 -2.18305
-19.6197 -10.7409 -4.33648
-16.7132 -10.7627 -2.90442
-15.0843 -12.6102 -3.84449
-15.9656 -12.1112 -3.98591
-16.6935 -10.1499 1.30555
-16.3147 -12.7724 -0.136815
-19.9159 -11.6161 -0.574401
-16.5607 -12.1564 0.0436024
-19.7082 -11.0249 -0.799413
-20.4627 -11.1151 -1.35124
-17.2744 -12.0923 -1.05989
-17.1068 -11.932 -1.64912
-16.6912 -11.8125 -1.58005
-17.205 -11.5673 -2.08723
-16.6926 -11.1839 -1.83328
-16.9939 -11.257 -2.07906
-19.7221 -10.726 -2.98724
-16.8395 -11.5096 -2.03477
-18.499 -11.1883 -3.1938
-15.6388 -12.2739 -2.58859
-15.9819 -11.5593 -2.98914
-16.527 -10.9987 -3.53331
-16.244 -11.3141 -3.94522
-17.9364 -11.9745 1.08693
-20.1739 -11.513 -0.365722
-16.0274 -11.8893 -1.40433
-15.3913 -12.6377 -1.45581
-16.9608 -11.8561 -1.78589
-20.0903 -11.2025 -2.83289
-16.7938 -11.0031 -2.24158
-16.937 -11.4992 -2.60317
-15.1728 -12.3402 -2.67608
-16.9129 -11.6769 -3.78563
-16.6187 -12.3769 -0.118328
-16.3861 -12.224 -0.325776
-18.8592 -11.9491 -1.07823
-15.9064 -12.5289 -1.49356
-16.5981 -12.1251 -1.84182
-17.0497 -11.3619 -2.23215
-15.258 -12.3135 -1.64926
-16.4643 -12.0607 -0.605375
-16.3867 -12.7712 -0.850423
-15.9227 -12.3167 -2.09283
-14.1429 -12.8088 -3.97573
-15.4114 -12.8027 -3.67374
-14.2258 -12.8045 -3.01343
-15.0143 -13.0671 -3.60704
-15.0245 -12.8054 -3.59863
-15.6462 -12.3635 -3.35531
-15.618 -12.5612 -3.59784
-14.9962 -12.6879 -3.57581
-15.009 -12.9288 -3.40476
-15.604 -12.8907 -3.34442
-15.2302 -12.5064 -3.31979
-15.0198 -12.3122 -3.19741
-15.1489 -12.61 -3.41075
-14.9016 -12.4663 -3.02838
-15.0546 -12.6292 -3.36835
-15.0078 -12.5408 -2.86429
-14.6334 -12.6505 -2.64424
-14.6449 -12.522 -3.26589
-14.9708 -12.4539 -2.89857
-18.0129 -11.4828 -3.31207
-15.4319 -12.6502 -2.43702
-15.3949 -12.4221 -3.19344
-15.5682 -12.0064 -2.64955
-15.7046 -12.4362 -3.1071
-15.6689 -12.8874 -2.84838
-15.3948 -12.739 -2.7279
-15.0102 -12.8961 -2.57282
-19.2928 -11.1063 -4.24694
-15.2652 -12.8309 -2.42031
-15.7327 -12.6678 -2.84726
-15.1222 -13.0118 -2.23679
-14.66 -12.9765 -2.17534
-19.7131 -11.2717 -3.94068
-19.0985 -11.2611 -3.20659
-19.4363 -10.5472 -3.4516
-18.0618 -11.6624 -3.03585
-18.2054 -11.6797 -3.0628
-19.9846 -10.6185 -3.83917
-18.1642 -11.7572 -2.96127
-18.7117 -11.2039 -3.06548
-18.1767 -11.6164 -2.93028
-14.609 -12.9446 -2.4255
-15.1637 -12.9901 -2.38402
-19.2026 -11.0015 -3.29829
-14.9735 -12.8698 -2.17411
-19.0744 -11.0049 -3.44777
-14.8954 -12.8037 -2.35275
-16.744 -11.7652 -1.84946
-19.4982 -11.171 -3.27907
-20.6054 -10.4229 -3.30487
-20.5752 -10.5842 -3.18438
-16.9254 -11.5217 -1.88873
-15.0832 -13.0102 -2.09468
-15.1027 -12.639 -1.7335
-19.6868 -10.388 -2.79107
-20.0777 -11.0007 -2.99945
-20.1109 -10.1675 -2.99663
-18.8972 -11.1679 -3.03953
-20.0734 -10.9986 -2.60688
-20.1011 -10.7777 -2.47832
-19.8913 -11.1719 -2.41213
-18.2971 -11.5889 -1.94905
-18.6747 -11.5676 -2.43522
-17.4393 -11.7528 -1.91058
-17.4437 -11.4126 -2.02708
-18.8835 -11.6137 -2.2978
-20.2804 -10.8841 -2.04625
-20.4449 -10.8923 -2.28985
-17.6498 -11.4657 -2.38618
-17.6601 -11.6645 -1.72186
-19.2029 -10.7235 -1.91535
-16.4973 -11.8343 -1.28388
-16.3511 -12.445 -1.24052
-18.1995 -11.6339 -1.29588
-18.7475 -11.1652 -1.62191
-18.375 -11.6898 -1.50247
-16.3643 -12.6359 -1.05968
-16.7015 -12.3601 -0.434647
-16.399 -11.9333 -0.754903
-16.535 -11.8183 -0.651262
-16.8833 -11.6417 -0.783921
-16.3861 -12.1453 -0.672825
-18.701 -11.4819 -1.00464
-16.2849 -12.4308 -0.830816
-17.065 -12.4674 -0.775416
-20.1246 -11.2814 -1.5713
-20.5667 -11.296 -1.96028
-17.147 -12.4755 -1.04292
-18.3175 -11.907 -0.734654
-18.5262 -12.1184 -1.22903
-18.1902 -11.3592 -0.866195
-18.222 -11.8708 -0.755956
-20.0634 -11.2167 -1.53474
-16.7544 -11.6358 -0.956975
-17.8831 -11.9061 -0.611237
-20.4677 -11.6733 -1.03605
-15.9677 -12.1143 -0.397201
-16.1502 -12.0631 -0.35606
-17.2717 -11.7395 -0.0670072
-17.021 -11.7597 -0.324876
-17.6707 -11.6724 -0.620986
-19.658 -12.1423 -0.414229
-20.3742 -11.1291 -0.581654
-19.1074 -11.6971 -0.114403
-18.8316 -11.6638 -0.32332
-21.0718 -11.2219 -0.705505
-20.2744 -11.021 -0.239535
-20.2491 -11.0578 -0.857927
-20.3813 -10.834 -0.462098
-16.6709 -12.1067 0.80825
-17.3554 -11.5431 0.582688
-16.4622 -12.2486 0.3934
-17.8266 -12.0755 0.414749
-17.6931 -11.4203 -0.0501386
-16.1708 -12.4116 0.373867
-21.2658 -11.0535 -0.305485
-17.151 -11.6412 0.843492
-18.3172 -11.1746 0.0732948
-18.7189 -11.5431 0.307551
-18.9369 -11.5105 0.292964
-16.3828 -12.7542 0.540084
-17.8719 -11.7194 0.736488
-16.8314 -12.1032 0.757428
-20.6449 -11.0645 0.290691
-21.0197 -11.2115 0.617015
-21.2131 -11.2392 1.0058
-20.6819 -11.6391 0.562828
-21.4659 -10.98 1.37785
-21.7066 -10.8397 0.98263
-17.2558 -10.0038 1.48538
-17.0292 -10.6379 1.76962
-15.2501 -11.9076 -3.55123
-14.5221 -13.1835 -3.16118
-15.0604 -12.5213 -2.77751
-14.509 -12.8422 -3.01585
-15.6471 -11.9401 -3.82754
-14.5217 -12.7164 -3.04469
-14.918 -12.0939 -3.37251
-14.8014 -13.2206 -3.19953
-15.4392 -12.8266 -3.54647
-15.2247 -13.0548 -3.26291
-14.3637 -12.893 -2.93061
-15.1739 -13.2102 -2.66446
-18.489 -11.3586 -3.68273
-19.5802 -11.07 -3.57829
-14.8002 -13.1755 -2.57159
-15.348 -12.8751 -2.3356
-14.7158 -12.5881 -2.4992
-19.3899 -10.9008 -2.95813
-19.4999 -10.933 -3.3915
