-19.1495 -11.4664 -2.41826
-18.9862 -11.1378 -2.90006
-19.5142 -11.4759 -2.69466
-17.9382 -11.8289 -2.03706
-18.9179 -11.6674 -2.49298
-18.7042 -11.5415 -2.47696
-18.7622 -11.1964 -2.47717
-16.1902 -12.2218 -1.69294
-18.4277 -11.477 -2.45087
-19.4661 -11.7215 -2.17643
-20.1472 -10.6833 -2.09582
-20.3996 -10.7129 -2.55751
-20.6731 -10.7301 -1.99994
-18.5933 -11.7771 -2.05685
-19.4672 -11.5168 -1.91559
-15.5905 -12.766 -1.46633
-20.6267 -10.8503 -2.00589
-20.4789 -11.1126 -2.09507
-16.9957 -12.1774 -1.32622
-17.775 -11.9762 -1.66308
-16.7627 -11.8006 -1.48748
-19.6655 -11.6501 -2.11384
-18.348 -11.7033 -1.39347
-20.4935 -11.1256 -1.55713
-20.0116 -10.7917 -1.93552
-20.5931 -11.1029 -1.20027
-16.6934 -12.2367 -0.678268
-20.067 -11.2373 -1.86956
-15.9524 -12.2516 -0.203017
-16.8027 -12.1953 -0.806222
-16.5555 -12.5385 -1.14947
-16.0775 -12.9308 -0.681586
-17.6991 -11.5039 -1.15466
-19.701 -11.6587 -0.63382
-20.3436 -11.3829 -1.18588
-19.5276 -12 -0.958385
-17.0452 -11.8293 -0.569833
-16.3243 -12.6875 -0.576126
-15.9659 -12.4101 -0.788732
-16.6841 -12.2467 -0.464079
-16.1138 -12.4611 -0.844679
-16.2671 -12.3215 -0.520574
-16.3647 -12.6893 -0.145553
-20.002 -11.3917 -0.775724
-16.574 -12.3862 -0.75472
-16.6766 -12.6894 -0.11384
-16.6795 -12.5157 -0.877821
-17.171 -11.7744 -0.100222
-20.5527 -11.1329 -0.450491
-19.5775 -11.7104 -0.751327
-18.4283 -11.7321 -0.476072
-18.6066 -11.5842 -0.29118
-20.7899 -11.5257 -0.690889
-19.9572 -11.516 -0.410276
-19.9058 -12.125 -0.414381
-20.0136 -12.0884 -0.425739
-18.5171 -11.62 -0.0529545
-18.3411 -11.7339 0.487731
-17.769 -11.8347 0.197325
-18.6236 -11.452 0.197193
-16.514 -12.5883 0.379867
-20.8651 -11.1972 -0.326102
-16.7941 -12.3482 0.428784
-19.9453 -11.5656 -0.506542
-17.3056 -11.9817 0.14885
-18.9784 -11.2549 0.217518
-18.7181 -11.5854 0.433749
-16.0124 -11.8376 0.389466
-16.9958 -12.2568 0.586906
-17.1551 -11.9121 0.150477
-16.3826 -12.5673 0.692685
-16.0144 -12.1429 0.466754
-16.6513 -12.0819 0.681672
-17.4381 -11.6527 0.626921
-20.1782 -11.7381 0.314551
-20.3163 -11.6833 0.311632
-20.8998 -11.6859 0.27231
-21.6187 -11.6243 0.0394805
-20.714 -11.8707 0.338046
-21.4737 -11.5087 1.00584
-20.2613 -11.9579 0.631045
-16.8479 -10.5902 1.25616
-16.408 -10.7108 1.00604
-17.1773 -10.4707 1.38313
-16.5845 -11.3732 1.79678
-17.1197 -10.5317 1.15775
-17.0641 -10.1486 1.08709
-16.5319 -10.3417 1.43298
-16.6748 -10.2417 1.69361
-16.6456 -10.6987 1.0896
-16.4881 -10.599 1.43711
-17.0024 -11.0215 1.31784
-16.6737 -10.3606 1.92422
-17.4581 -10.8109 1.92411
-16.4517 -10.4683 1.96718
-16.6642 -10.654 1.44312
-16.9416 -10.747 1.58182
-16.7216 -10.6761 1.40872
-16.8979 -10.7264 1.22913
-19.6678 -11.2394 2.20694
-16.8439 -10.1791 1.80124
-14.7698 -12.9637 -3.40162
-15.4995 -12.5378 -3.63319
-14.4856 -12.7735 -3.07702
-16.0889 -11.6247 -2.89845
-14.8461 -12.9203 -2.97713
-17.0324 -11.1961 -2.72636
-15.0144 -12.5949 -2.42462
-14.6002 -12.4424 -2.98824
-18.9808 -11.09 -3.47211
-16.1864 -11.8157 -2.66716
-18.2945 -11.7985 -3.60052
-20.0807 -10.535 -3.10193
-15.3031 -11.4281 -2.11659
-17.3094 -11.128 -2.10862
-19.0352 -11.238 -2.77955
-14.7354 -12.5959 -2.05308
-19.2171 -11.188 -3.00286
-19.4007 -11.1486 -2.92056
-19.883 -10.5755 -3.05091
-20.2987 -11.0271 -2.93787
-16.9453 -11.719 -2.53851
-16.0291 -12.4377 -1.92708
-16.6166 -12.1058 -1.92571
-16.9154 -11.8432 -2.20039
-19.8502 -11.0107 -2.46347
-18.7604 -11.7204 -2.70226
-15.7209 -13.2176 -1.85933
-18.3499 -11.7863 -2.89824
-16.3188 -11.9139 -1.55408
-20.4297 -10.8898 -2.39338
-18.5035 -11.6454 -1.92871
-17.9095 -11.4777 -2.2882
-19.7615 -11.1665 -2.39337
-19.9418 -11.1554 -2.60528
-19.02 -11.8456 -1.97694
-18.1293 -12.0181 -1.85243
-17.9042 -11.7791 -1.91785
-18.3407 -11.6373 -1.21956
-18.9309 -11.5804 -1.53381
-19.5736 -11.5959 -1.98942
-20.8562 -10.8533 -1.66701
-18.2789 -12.0648 -0.942298
-20.1881 -11.7474 -1.23581
-15.9875 -12.6689 -0.803029
-19.6038 -11.2575 -1.28032
-17.4519 -11.9917 -1.2351
-18.636 -12.0418 -1.46568
-17.1237 -11.7817 -0.765277
-18.0239 -12.0261 -0.604913
-16.6694 -12.2855 -0.412524
-16.8053 -11.5148 -0.332417
-17.9544 -12.0546 -0.368974
-16.3978 -11.9858 -0.00813534
-16.2247 -12.118 -0.258749
-19.4865 -11.7612 -1.0018
-19.0969 -11.5972 -0.0938064
-16.8087 -12.22 -0.442393
-19.9576 -11.6133 -0.491979
-20.1399 -12.1054 -0.523678
-19.218 -12.0852 -0.181416
-19.9412 -11.3428 -0.248197
-20.3844 -11.4417 -0.652993
-18.613 -11.0669 -0.0653212
-18.8776 -11.6899 0.0934727
-17.9894 -11.6654 0.457823
-20.3644 -11.8024 -0.0395532
-17.2641 -11.7012 0.377721
-20.3958 -11.7042 0.332312
-19.139 -11.684 0.020895
-16.6286 -11.8711 0.71524
-18.9067 -11.7333 0.590897
-20.2813 -11.9952 0.429099
-17.1565 -12.1041 0.232719
-20.7335 -11.5176 0.510968
-20.4857 -11.7895 0.223476
-20.9988 -11.1807 0.535484
-21.0927 -11.0383 0.390316
-20.2251 -12.1107 0.361852
-20.3754 -12.0967 0.416404
-19.6904 -11.8209 0.786505
-15.6907 -10.8353 1.39298
-16.7044 -10.7958 1.51511
-14.8717 -12.7168 -3.75059
-16.879 -11.0991 -3.19658
-16.5844 -11.5348 -3.13743
-16.2693 -11.4976 -3.37066
-16.2365 -12.0589 -2.76783
-14.9906 -12.7771 -3.20684
-18.3692 -11.2778 -3.4521
-19.6546 -10.7802 -3.26783
-20.1813 -10.5683 -3.60177
-18.207 -11.7757 -3.1269
-17.7982 -11.6514 -2.95088
-18.3409 -11.2975 -3.07415
-16.1432 -12.2219 -2.04793
-19.8155 -10.9432 -3.69448
-18.9067 -11.2242 -2.52311
-20.0447 -10.6088 -2.85964
-20.3906 -10.7471 -3.06
-16.5464 -11.7295 -1.66255
-19.3467 -11.0435 -2.3666
-18.8711 -11.5497 -2.05872
-18.9209 -11.8486 -1.84955
-19.0666 -11.829 -1.63556
-18.812 -11.9567 -1.67966
-19.9751 -11.2806 -1.90709
-16.0849 -12.2092 -1.00893
-17.5329 -11.9694 -1.38657
-20.6612 -11.2155 -1.41574
-20.1992 -11.1103 -1.36806
-16.2637 -12.4128 -0.741146
-16.2431 -12.6539 -0.203319
-17.0465 -12.0452 -0.09951
-16.1366 -12.5155 -0.135807
-16.5689 -12.5986 -0.270271
-20.2869 -11.0213 -0.332214
-20.6291 -11.5914 -0.77167
-20.0437 -11.7268 -0.5023
-17.2647 -12.2741 0.40159
-16.9834 -12.1761 0.318646
-18.0582 -11.7619 -0.275889
-18.8949 -11.1655 0.358192
-17.783 -11.9778 0.446767
-18.6245 -11.9057 0.416349
-20.4539 -11.5331 0.578469
-20.6556 -11.0422 0.791825
-16.7547 -10.3117 1.80753
-17.2025 -10.8435 2.02769
-16.9282 -10.6705 1.49371
-16.248 -11.1469 -2.91653
-14.972 -12.6367 -2.88493
-17.8007 -11.5261 -3.6449
-18.0211 -11.8056 -2.98505
-14.6246 -13.027 -2.29344
-16.0396 -12.2186 -1.91161
-15.6321 -11.8383 -2.26581
-16.0632 -12.039 -2.47073
-15.7506 -12.0313 -2.31249
-19.8952 -11.2989 -3.11057
-18.0434 -11.1438 -2.73526
-18.9559 -11.1664 -2.51318
-19.4068 -11.7967 -1.34056
-16.9019 -12.1236 -1.46531
-16.3842 -12.3647 -1.08994
-17.8444 -11.8366 -1.41131
-17.0651 -11.9292 -0.681361
-16.7986 -12.1781 -0.493184
-17.4612 -12.3548 0.230912
-17.9049 -11.9526 -0.340581
-19.9092 -11.4647 -0.918429
-20.9508 -11.4548 -0.671799
-20.3766 -11.8146 -0.0928662
-16.4779 -12.5355 0.124582
-16.3643 -12.351 0.276747
-20.2307 -12.0739 0.00605769
-16.3304 -12.4136 0.413483
-20.617 -11.674 0.40292
-16.8361 -11.6611 -3.2748
-19.9086 -10.3592 -3.82676
-16.1314 -11.9012 -2.44257
-17.441 -11.2541 -2.40499
-20.1719 -11.053 -2.89814
-16.745 -11.7107 -1.89806
-17.069 -11.9093 -1.95246
-16.4755 -12.1596 -1.81787
-16.54 -11.862 -1.17623
-15.5155 -12.9092 -1.17536
-18.2119 -11.4686 0.173944
-20.978 -11.6494 0.514977
-20.6498 -11.7025 0.713959
-16.2083 -11.98 -2.40888
-17.0397 -11.9742 -1.62494
-15.1486 -12.4283 -1.68549
-17.9065 -11.2066 -1.8804
-15.7 -12.7214 -1.41136
-16.629 -12.1498 -1.0536
-17.7922 -11.8879 0.191613
-18.6034 -11.4459 0.109602
-16.6367 -12.0177 0.0628043
-19.1353 -11.5818 -0.00280596
-19.3214 -11.6806 0.172165
-15.452 -11.9167 -2.53382
-18.6393 -11.3565 -3.26008
-14.9385 -12.6639 -2.45125
-17.0327 -11.7024 -1.94787
-16.6112 -12.8196 -0.740102
-19.7558 -11.9243 -0.958482
-19.3706 -11.8776 -0.857468
-18.5245 -11.4077 0.354063
-16.9964 -10.4629 1.7973
-16.4885 -12.0999 -1.52378
-16.3853 -12.609 0.0891319
-17.7675 -12.1009 -2.01055
-17.5941 -12.0623 -1.19354
-15.1774 -13.0758 -0.595548
-19.0401 -11.2861 -0.882139
-16.6095 -12.0814 0.262908
-16.5975 -11.1679 -2.1682
-16.0656 -12.0416 -1.43835
-16.3928 -11.6978 -1.80203
-15.6446 -12.9769 -1.62164
-16.533 -12.0166 -1.19377
-17.1804 -12.2757 -1.14212
-16.0306 -11.8573 -1.99905
-16.7164 -11.77 -0.0651066
-15.1364 -12.4353 -1.61581
-19.9691 -10.8466 -2.85396
-20.0211 -10.3344 -2.78613
-19.5125 -11.456 -2.60825
-19.2404 -11.2147 -3.3051
-19.2301 -10.9202 -3.43688
-18.7441 -11.1408 -2.89859
-18.7404 -11.3658 -3.40896
-19.0121 -10.8523 -3.45522
-19.8421 -11.677 -2.25995
-18.9935 -10.8056 -3.47663
-20.4539 -11.3201 -0.990315
-18.4699 -11.7615 -3.38314
-18.0119 -11.6245 -3.29176
-18.1601 -11.3161 -3.30126
-19.8548 -11.3425 -1.26348
-18.8127 -11.6849 -2.80288
-19.3194 -11.349 -2.16065
-18.7863 -11.6994 -2.54801
-18.2859 -11.7092 -2.9714
-20.5867 -11.116 -1.20499
-18.791 -11.8192 -2.76376
-18.6303 -11.8792 -3.04696
-16.849 -11.2247 -3.46583
-18.9556 -11.2731 -2.26716
-20.6816 -11.2043 -0.695554
-20.6906 -11.2086 -0.650235
-16.367 -11.1651 -3.19324
-19.822 -11.7046 -1.07869
-20.3411 -11.4911 -0.460285
-20.2882 -11.6683 -0.237326
-19.6133 -11.7929 -0.849197
-20.6441 -11.5013 -0.22158
-17.7277 -11.5764 -1.72447
-19.5643 -11.7013 -0.621319
-18.2038 -11.744 -1.82442
-21.2026 -11.5686 0.493177
-17.981 -11.779 -1.51536
-18.0276 -11.8491 -1.27954
-15.4792 -11.4886 -2.97596
-17.3472 -11.8506 -1.81579
-18.6028 -11.9761 -1.18508
-20.4064 -11.9546 0.684723
-18.2813 -11.9392 -0.815218
-18.5265 -11.5982 0.25148
-18.7455 -11.6441 0.184618
-15.0499 -12.2193 -3.26562
-18.5729 -11.8462 0.149655
-15.7417 -11.5676 -2.29411
-17.5445 -12.2915 -0.51923
-18.392 -11.6072 0.461297
-18.4368 -11.674 0.811831
-16.5377 -11.951 -1.66827
-16.4263 -12.0835 -1.3918
-14.899 -12.9187 -3.23245
-18.1 -11.6222 0.33892
-17.2089 -12.0237 -1.38761
-17.5311 -12.1525 -0.88714
-18.02 -11.9218 0.0646442
-17.0292 -12.1428 -1.08122
-17.2742 -10.4038 1.40384
-16.347 -12.3396 -0.96873
-16.5123 -10.5283 1.58864
-17.9709 -11.7279 -0.103947
-16.6982 -11.5708 -0.70042
-16.3629 -12.3963 -0.423044
-15.0282 -12.7897 -2.98444
-17.3575 -12.1915 -0.104944
-14.9988 -12.6826 -3.05403
-14.9089 -12.9703 -2.60899
-17.7701 -11.7053 -0.196199
-17.7416 -12.1987 0.328037
-17.2094 -12.4056 0.217147
-14.9178 -12.6451 -3.3201
-15.8103 -12.0495 -1.49874
-14.6602 -12.938 -2.88043
-14.6402 -12.8517 -3.02129
-16.3146 -12.1479 -0.256265
-14.6079 -12.9639 -2.82969
-15.9223 -12.6854 -1.62418
-17.2883 -12.4063 0.209812
-15.1482 -13.0622 -2.38324
-15.3456 -12.6935 -2.75782
-16.9621 -11.1654 2.05479
-15.4874 -12.3676 -1.83221
-15.9995 -12.3702 -0.684011
-15.6483 -12.6354 -1.09735
-16.1792 -12.5748 0.0143909
-15.4627 -12.9386 -0.452047
-16.026 -12.1465 0.499258
-20.3413 -10.9394 -3.24455
-20.6896 -10.5952 -2.53858
-19.8637 -10.8148 -3.09924
-19.8304 -11.2475 -3.59716
-20.4933 -11.4818 -3.14532
-20.1776 -10.7465 -2.00945
-19.059 -11.6253 -3.98087
-19.6295 -11.1458 -3.28913
-20.4946 -11.3301 -1.9644
-19.6874 -10.9505 -2.79564
-20.0064 -11.1281 -1.70087
-20.1168 -11.2616 -1.59539
-19.7645 -11.0965 -2.75077
-19.364 -12.024 -2.50581
-18.3263 -11.4524 -3.36781
-18.2583 -11.179 -2.96419
-17.867 -11.454 -2.9262
-18.481 -11.5784 -2.81932
-17.8374 -11.3024 -3.34194
-18.7993 -11.9267 -2.06853
-19.5062 -11.7961 -2.83075
-17.7659 -11.5621 -3.03542
-17.6371 -11.8056 -3.53896
-19.7495 -11.629 -2.30039
-16.2948 -11.1268 -2.62318
-20.9849 -11.3403 -0.226866
-20.3285 -11.8732 -0.548052
-19.9703 -12.2845 -0.734369
-20.2837 -11.4043 -0.323546
-20.9504 -11.6118 -0.918059
-20.6779 -11.4512 -0.279878
-21.1041 -11.8688 0.358228
-21.1227 -11.521 0.103085
-20.3419 -11.4186 -0.24673
-17.0382 -11.2867 -2.00158
-17.0404 -11.6476 -2.37637
-16.2612 -11.6841 -2.87534
-16.2189 -11.3882 -2.92923
-20.8858 -11.716 0.376957
-20.8427 -11.5466 0.531224
-20.0016 -11.4977 -0.0932832
-20.909 -11.8344 0.436911
-20.0283 -11.9465 0.115639
-20.0809 -11.6036 0.581648
-20.0535 -11.7609 0.302923
-20.3576 -11.6566 0.222289
-20.5388 -11.6872 -0.126966
-20.0466 -11.8132 0.220587
-17.4483 -12.1452 -0.937079
-18.4786 -11.6286 -0.41775
-15.6535 -12.0018 -2.32591
-18.2573 -12.1811 -0.522042
-17.0327 -12.0751 -0.948626
-17.0439 -11.9901 -0.977415
-17.9649 -11.5695 0.23108
-17.4762 -11.7866 -1.11355
-16.7549 -11.9371 -1.25718
-17.3435 -10.6453 1.64745
-16.6779 -12.034 -0.909006
-17.572 -12.0983 -0.0854999
-16.9921 -10.8621 1.29723
-16.8031 -10.6301 1.72285
-16.8622 -10.3333 0.691664
-14.7179 -12.4294 -3.37042
-14.8019 -12.4342 -3.48837
-15.0651 -12.3005 -3.32347
-14.9075 -12.9916 -2.83724
-17.032 -10.9787 1.65194
-17.0402 -12.3322 -0.370068
-15.0248 -12.8964 -3.27197
-16.9036 -10.4077 1.63403
-17.2829 -12.3624 -0.670794
-16.9089 -12.0308 -0.732241
-15.4343 -12.3945 -2.14927
-16.6026 -12.1468 -0.200737
-17.0733 -12.1703 0.0299431
-14.7174 -13.2622 -2.93428
-15.833 -12.6127 -1.33113
-17.4372 -12.2345 -0.23307
-15.9202 -12.3758 -0.785705
-14.364 -12.5825 -2.2083
-16.3245 -10.6242 1.66271
-16.8622 -12.3928 -0.421499
-17.2265 -12.0434 0.714874
-15.7882 -12.539 -0.714842
-15.7694 -11.1587 1.92374
-15.3829 -12.8016 -2.39399
-16.3225 -12.2476 -1.13849
-16.2887 -10.9244 1.77907
-16.5941 -12.5904 0.250181
-16.2897 -10.8001 1.74351
-15.0608 -12.9113 -1.3841
-14.7388 -13.0379 -1.77639
-15.9852 -12.465 -0.390373
-15.0195 -12.6607 -2.18944
-16.2606 -10.6051 1.4592
-14.9441 -12.7881 -2.12906
-16.5808 -12.3477 -0.277068
-16.5107 -12.8886 -0.368503
-15.9685 -12.2694 -0.284867
-16.4262 -12.8318 -0.95122
-16.0727 -12.057 0.200392
-20.2372 -10.9002 -2.53117
-19.241 -11.1048 -3.01519
-19.2263 -11.3401 -3.23259
-19.8047 -11.4136 -2.10429
-20.8463 -10.7957 -2.04948
-19.1999 -11.7115 -2.18042
-19.5508 -11.3814 -1.55252
-17.6025 -11.6179 -2.81555
-18.6525 -11.1056 -1.35008
-17.3194 -11.5079 -2.29991
-17.3661 -11.5094 -2.67187
-19.0872 -11.2453 -1.13947
-20.6507 -11.461 -0.194503
-17.2957 -11.1203 -2.44193
-20.8438 -11.1961 0.580796
-20.5223 -11.3479 0.101624
-19.8377 -12.0159 -0.266905
-19.7623 -11.9028 -0.754693
-17.5654 -11.5911 -1.53856
-19.5621 -11.4383 -0.937315
-19.5135 -12.3303 -0.407898
-17.7309 -11.9472 -1.74426
-20.9595 -11.7555 0.251465
-17.7154 -11.9246 -1.92279
-19.5046 -11.3465 -0.185552
-20.1201 -11.625 0.481797
-19.294 -11.4325 0.501184
-18.3136 -11.7217 -0.561674
-16.7477 -11.7407 -1.18242
-17.8538 -11.7292 -1.1698
-15.6304 -12.5059 -3.37399
-15.7239 -12.3323 -3.6093
-15.4843 -11.782 -1.96131
-15.9449 -11.7714 -2.3233
-18.29 -12.0272 -0.618136
-17.485 -11.8768 -0.677783
-17.9077 -12.0512 -0.919248
-15.4543 -12.4971 -2.7013
-14.7385 -12.8285 -2.9393
-16.432 -11.9642 -0.580846
-14.3869 -12.7218 -3.45029
-16.4347 -12.6523 -1.33759
-17.1725 -11.8877 0.874386
-16.2124 -12.1887 -0.019277
-16.5964 -12.2033 0.294677
-14.8727 -12.9128 -1.44837
-16.5529 -10.5734 2.00681
-16.0804 -12.8987 -1.00607
-16.1698 -12.8248 -0.517303
-16.4655 -12.6397 -0.135373
-16.6381 -12.4125 0.447258
-16.1785 -12.3814 0.0642221
-15.9698 -13.1057 -0.809075
-20.5593 -10.1841 -3.75517
-19.608 -10.6788 -3.17897
-19.4998 -10.5107 -3.24947
-19.5873 -11.3373 -3.06544
-19.2116 -11.1002 -3.20055
-19.1377 -11.4288 -2.88283
-18.0675 -11.247 -2.87887
-18.4043 -11.385 -3.28335
-18.1772 -11.4373 -3.14298
-18.7258 -11.7295 -2.61442
-17.0715 -11.0217 -3.04534
-17.9191 -11.2969 -1.70608
-17.0425 -11.0748 -2.21758
-16.5256 -11.2052 -2.16324
-20.5504 -11.3445 -0.866285
-18.53 -11.4577 -1.85673
-17.1831 -11.4495 -2.17353
-17.0938 -11.7476 -2.45318
-17.1291 -11.5579 -2.39012
-17.0451 -11.7251 -1.8901
-19.3948 -11.3559 -1.0523
-19.3704 -12.0526 -0.855499
-20.562 -11.4478 0.496108
-20.4931 -11.6802 0.283984
-19.5132 -11.5703 -0.439731
-20.1855 -11.7989 0.126164
-20.0177 -12.1891 -0.45392
-19.7666 -11.7716 0.204805
-18.989 -11.0082 -0.174871
-20.0567 -12.5224 0.937235
-17.9613 -12.0735 -0.922498
-16.9109 -12.0086 -1.35925
-16.6976 -12.1936 -1.50041
-16.6848 -12.0507 -1.96743
-15.6938 -11.4958 -2.47957
-15.8931 -11.8483 -2.12609
-15.4175 -11.9157 -2.0806
-17.3371 -11.736 -0.870997
-17.0569 -11.9989 -0.265123
-17.1944 -10.3981 1.41359
-16.3572 -11.9387 -1.19243
-16.5482 -12.2171 -0.633414
-16.3821 -12.0294 -0.557715
-16.3855 -12.0257 0.0723425
-16.7293 -12.0504 0.323419
-14.8779 -13.3036 -2.19319
-16.0018 -12.0337 -0.281046
-17.0938 -12.1464 0.844268
-15.624 -12.7901 -0.161395
-16.0188 -12.3135 -0.547146
-16.0885 -12.3085 0.539705
-19.254 -11.3265 -2.64647
-20.0799 -11.3097 -2.43077
-18.276 -11.3254 -3.27212
-18.3284 -11.7048 -3.15146
-20.036 -11.2476 -1.87397
-16.6831 -11.1538 -3.14427
-19.2834 -11.5639 -1.45289
-18.4358 -11.802 -2.57075
-20.5333 -11.2753 -0.715146
-19.278 -11.5555 -0.817882
-20.6829 -11.5808 -0.331202
-19.9203 -11.5691 -0.693926
-19.03 -11.9089 -1.64161
-18.5838 -11.7437 -2.00072
-20.9001 -11.6094 0.116165
-19.7197 -11.9812 -0.603442
-16.9147 -12.4378 -1.16435
-15.4338 -11.7873 -2.40404
-16.4718 -11.7911 -1.90527
-16.1736 -12.5016 -1.67041
-15.6094 -12.0264 -2.05119
-17.3111 -11.7544 -1.08362
-17.4905 -11.8725 -1.1002
-16.9654 -11.5796 -0.672225
-17.3687 -12.2229 -0.671796
-17.8041 -11.912 0.284011
-16.9152 -12.1133 -0.466973
-16.5599 -12.5747 -1.01112
-16.8859 -11.7513 -0.549438
-14.6266 -12.5881 -2.05338
-16.6608 -12.7134 -0.79668
-16.44 -12.1889 -0.313664
-16.0892 -12.7022 -0.275489
-15.9533 -12.5984 0.315167
-16.0896 -12.3993 -0.351112
-20.234 -11.1588 -2.1853
-18.3937 -12.2463 -2.52714
-17.4623 -11.4921 -2.56216
-17.0515 -11.1331 -2.02908
-17.6785 -11.5196 -1.96457
-17.4007 -12.0665 -1.6564
-18.3892 -11.6473 0.244668
-16.8 -12.118 -1.76482
-14.6969 -12.6522 -3.25104
-16.8714 -12.4018 -1.39666
-14.8852 -12.704 -2.73512
-16.5493 -12.6731 -0.824359
-16.2993 -12.2785 -0.304256
-17.0648 -11.1247 -1.84375
-17.6756 -11.6093 -2.32094
-16.9946 -11.6034 -2.59151
-17.7436 -11.4659 -1.54587
-17.9308 -11.6919 -0.753201
-16.5216 -12.4653 -0.0627609
-16.1454 -11.3307 -2.8866
-17.4715 -11.4275 -2.15456
-17.5635 -11.6323 -1.12114
-18.1493 -11.9111 -0.364868
-17.9179 -12.1157 0.630639
-16.3038 -12.0699 -1.13278
-15.8913 -12.369 -0.476222
-16.6122 -12.0051 -1.84889
-20.2832 -10.9486 -2.23442
-17.2983 -12.1298 -1.44595
-15.9948 -11.937 -1.85831
-16.7 -12.6062 -0.458907
-18.3811 -11.9155 -1.10918
-17.2828 -11.9018 -0.38561
-20.9152 -11.8001 0.189094
-19.9352 -11.7269 -0.125911
-20.6353 -11.5568 0.214619
-19.9225 -11.3813 0.0594581
-20.65 -11.396 -3.02678
-20.1346 -11.4539 -1.81784
-20.6146 -10.8306 -2.17183
-16.9445 -10.8628 2.09506
-19.7405 -11.226 -1.18547
-16.8725 -11.056 2.25281
-18.5462 -11.1952 -0.0976173
-19.0802 -11.4414 0.229774
-18.6719 -11.1412 0.424511
-19.9766 -11.549 -1.65229
-18.2641 -11.669 0.339366
-18.4218 -11.6176 0.320073
-19.4278 -11.0436 -2.22377
-19.8686 -11.2986 -2.17758
-18.3634 -11.7252 0.0550726
-19.9421 -10.5521 -2.70765
-18.2497 -11.7741 0.248943
-19.3828 -11.6584 -2.70872
-19.4118 -11.4183 -1.97991
-18.9533 -11.0683 -2.78533
-17.4427 -11.6869 0.659158
-19.2237 -11.2149 -2.95697
-18.6009 -12.0161 -1.13584
-19.148 -11.6113 -2.13241
-19.1834 -11.5312 -3.59437
-17.5812 -11.4223 0.14208
-19.0565 -11.6512 -1.88037
-18.2667 -11.7573 -0.899031
-17.5575 -12.1775 0.480082
-18.0275 -12.0374 -1.26772
-18.0405 -11.9071 -2.83571
-18.3392 -11.3279 -2.50797
-18.2676 -11.4476 -2.589
-18.2554 -11.9669 -2.56336
-17.1017 -12.1809 0.232071
-17.7296 -11.3548 -1.61963
-18.2478 -11.9344 -2.03291
-17.811 -11.7279 -2.09167
-17.7997 -11.7864 -1.80507
-17.2563 -12.6411 -0.179803
-17.2116 -12.2755 -1.14375
-16.5942 -12.6968 -1.16177
-16.6404 -12.4723 -0.711759
-16.5139 -11.777 -0.24375
-16.5502 -12.123 -0.924924
-17.0522 -12.7573 -0.680715
-16.4157 -12.0753 0.422681
-17.1015 -12.35 -1.36415
-16.7753 -12.4914 -0.124246
-16.6708 -12.1263 -0.263171
-17.2318 -12.1131 -0.711848
-16.6273 -11.6299 -2.97007
-15.7966 -12.5545 0.770571
-16.5765 -11.4873 -2.53141
-16.3702 -12.4156 -0.232206
-16.2185 -12.5167 -0.38698
-16.5809 -11.3327 -2.34421
-16.2295 -12.2476 -0.586351
-16.3625 -11.6248 -3.52086
-16.2211 -12.6075 -1.51006
-16.0709 -13.013 -0.107223
-16.2935 -12.5941 -1.85456
-15.4699 -12.6753 -1.77345
-15.6762 -12.5444 -1.57728
-15.0323 -12.8684 -1.78855
-15.1765 -12.4773 -3.16615
-15.2084 -12.8642 -3.51523
-14.7486 -12.4947 -2.85094
-14.8567 -12.4461 -2.87877
-15.2853 -12.9543 -2.31747
-14.7949 -12.9776 -3.25632
-15.2324 -12.5907 -3.49888
-14.4781 -12.8412 -3.18976
-20.6848 -11.3728 0.196433
-20.5087 -11.9838 0.7287
-20.6951 -11.8075 0.299339
-20.4383 -11.7069 -0.812555
-20.3056 -12.1018 0.437589
-20.5037 -11.6005 0.288012
-20.3614 -11.5764 -0.438091
-20.485 -10.6585 -1.8242
-20.9116 -10.6015 -3.44189
-20.1589 -11.8021 0.545779
-19.9894 -11.756 -0.701731
-19.7215 -11.6694 -1.39556
-20.0129 -10.7504 -2.83192
-19.3641 -12.1642 -0.280563
-16.9901 -10.9491 0.939636
-19.1963 -11.9624 -0.426188
-19.4442 -11.1003 -0.160924
-16.7392 -10.8628 1.33068
-17.1647 -10.6677 1.29211
-19.4672 -11.303 -2.04907
-19.5078 -11.4939 -0.996394
-16.9665 -10.4796 1.52414
-18.8843 -11.6114 0.722298
-18.9072 -11.3409 -1.22304
-19.4001 -10.8142 -3.44989
-19.3321 -10.7299 -3.2594
-18.3736 -12.0234 0.211206
-19.6187 -11.347 -2.38687
-19.0843 -12.0752 -0.649216
-16.0036 -10.5002 1.34624
-16.4715 -10.4874 1.50014
-16.0443 -10.4612 1.65502
-16.7376 -10.7084 1.73416
-18.9484 -11.5523 -2.31305
-19.0603 -11.2002 -2.71192
-18.9295 -10.8927 -3.75125
-19.3429 -11.0309 -3.49739
-18.7938 -11.6427 -2.35428
-19.1191 -11.0955 -3.61094
-18.6245 -11.8384 -0.968918
-18.6545 -11.5596 -2.28764
-18.6229 -11.5836 -2.74189
-18.8692 -11.6624 -2.42151
-18.2804 -11.6713 -1.32681
-18.0904 -11.8508 -0.763723
-18.4344 -11.3392 -2.74659
-17.7956 -11.8491 -0.771487
-18.2174 -11.7322 -3.61157
-17.434 -12.6112 -0.000445452
-17.0471 -12.0877 0.0237642
-17.4275 -12.4059 -0.592386
-17.7754 -11.7593 -0.811391
-17.4756 -12.3102 -0.873578
-17.008 -11.4441 -2.82936
-16.8663 -11.9094 -0.446095
-16.3968 -12.0248 0.392019
-16.6915 -11.8672 -0.707092
-16.4027 -11.0312 -2.71439
-16.7352 -12.334 -1.06042
-16.7593 -11.8291 -1.17161
-16.0931 -12.6304 0.77413
-16.226 -12.4512 0.465798
-15.9489 -12.348 -0.933346
-16.2433 -10.9915 -2.54839
-16.5532 -12.7016 -0.801833
-16.3839 -11.9328 -2.7894
-16.1266 -12.9365 -0.531287
-15.589 -11.9873 -2.36113
-15.6012 -12.72 -1.06114
-15.5021 -12.3106 -3.4722
-14.9245 -12.9107 -2.41973
-14.6471 -12.8474 -1.98426
-15.1392 -12.8148 -3.54453
-14.6663 -12.6053 -2.92708
-15.1627 -12.852 -3.33416
-14.7129 -12.8772 -2.78501
-14.3019 -12.8352 -3.1248
-14.8719 -13.0772 -3.30243
-14.1929 -12.6684 -2.91756
-20.6514 -11.3817 -0.0457818
-21.2753 -12.0419 0.121201
-20.2629 -12.146 1.1065
-20.8179 -11.1458 -1.52877
-20.7581 -12.0747 0.315105
-19.889 -11.785 -0.58503
-19.5386 -11.8267 -0.698118
-16.2395 -11.133 1.48046
-19.2003 -11.3652 -1.46643
-18.911 -11.3418 -3.7124
-17.7474 -11.6565 -0.083287
-18.0837 -11.5538 0.0521937
-18.6935 -11.2904 -3.62961
-17.7581 -11.9839 -0.704554
-18.1971 -11.5126 -3.4864
-17.6833 -12.1106 -0.583967
-18.312 -11.8938 -3.3098
-18.1172 -11.678 -1.87346
-17.5057 -12.2332 -0.791066
-17.6327 -12.4407 -0.22106
-17.149 -12.3248 0.305997
-16.8862 -12.4188 0.409854
-16.4866 -12.6571 0.16428
-16.4223 -12.0919 -0.694379
-16.3531 -12.4729 0.375409
-15.859 -12.1105 -0.255184
-16.0913 -12.5695 -0.175828
-16.0383 -12.2971 -0.86036
-16.0358 -11.9334 -1.62375
-16.1507 -12.813 -0.682643
-15.5768 -12.7127 -2.98107
-15.4091 -12.383 -2.08404
-14.9942 -13.3535 -1.68313
-14.752 -12.7572 -3.35066
-14.696 -12.9074 -2.91652
-15.0015 -12.6252 -3.24612
-20.6201 -11.7745 0.695533
-20.6799 -11.8932 0.367028
-20.4217 -11.4916 -0.105753
-17.1894 -10.209 1.32117
-19.8548 -11.3464 -1.14767
-19.7965 -11.7733 -0.750374
-19.6419 -11.4051 -0.852643
-19.8998 -11.9921 -0.348659
-18.571 -11.6577 0.0862628
-18.598 -11.2683 -1.13612
-19.0731 -10.7017 -3.02632
-19.805 -10.7709 -3.55584
-18.0307 -11.5623 0.516162
-17.8289 -11.7168 -2.85338
-18.3497 -11.2474 -3.3471
-17.9234 -11.7557 -3.37951
-17.625 -11.405 -3.07129
-17.2602 -12.1432 -0.592526
-16.881 -11.8873 -0.695608
-17.4427 -11.5154 -1.07045
-17.0362 -12.3286 -0.257887
-16.9321 -12.1486 -0.423911
-16.4195 -11.4796 -2.47014
-16.9879 -11.87 -0.797977
-16.3331 -11.9307 -0.00515908
-16.6784 -12.1327 -1.33584
-16.3774 -11.5623 -1.96733
-15.8459 -11.9473 -1.99481
-16.188 -11.5999 -1.54809
-15.7277 -12.1643 -2.40852
-16.0428 -11.7959 -1.51906
-16.2301 -13.1229 -1.12633
-15.7942 -13.0358 -0.295482
-15.6224 -12.9174 -0.46226
-15.2193 -12.7419 -2.98381
-15.6933 -12.3173 -2.05885
-14.9381 -12.4755 -3.26028
-14.915 -13.4814 -2.56349
-21.0332 -11.7805 0.505606
-20.332 -11.5101 -0.0476073
-20.9175 -11.4954 -0.0124933
-19.9256 -11.9752 -0.501502
-19.2498 -11.64 -1.32847
-19.5471 -11.38 -1.64848
-17.9155 -11.7546 -0.130366
-18.2043 -11.5165 -1.53779
-17.3272 -12.1898 0.323333
-17.3226 -12.0897 -0.886052
-17.6889 -11.6619 -0.242828
-17.7547 -12.2787 -0.628594
-17.0901 -11.782 -0.895294
-17.4786 -12.5886 -0.831667
-17.0482 -12.1685 -0.440427
-15.7681 -12.3056 0.0224842
-16.0858 -12.7739 -0.239956
-16.0504 -12.1947 -1.70651
-15.8157 -11.8996 -2.11452
-15.3074 -12.7863 -2.61635
-14.6892 -12.5257 -3.09203
-18.9798 -11.2016 0.558
-18.8215 -11.5868 -0.266871
-19.3889 -11.689 -0.82396
-16.8386 -11.782 -0.358295
-16.6914 -11.1622 -2.27604
-16.4052 -12.2065 -0.804124
-16.2499 -11.8342 -2.2431
-16.0841 -12.5073 -0.555055
-14.977 -13.023 -2.44086
-20.3344 -11.4503 0.344165
-19.8514 -11.4091 -2.35278
-19.7285 -11.9376 -0.8111
-19.4406 -11.4948 -0.967598
-17.9714 -12.1186 0.161694
-16.6316 -12.3705 -0.205278
-16.683 -12.5384 -0.235037
-15.9796 -12.8018 -0.911441
-19.6976 -11.4581 -1.13585
-18.0576 -11.695 -3.30608
-16.417 -12.255 -2.04311
-20.4886 -11.6687 0.666896
-20.4051 -10.8532 -1.73211
-15.7981 -11.9827 -2.50684
-17.4255 -11.3791 -2.42374
-16.9331 -11.6312 -0.925697
-17.2667 -12.0657 -1.74358
-16.6225 -12.4676 -1.59803
-20.0907 -11.819 -0.675642
-16.5479 -12.0885 -0.497766
-15.9315 -12.6616 -0.673615
-16.2515 -12.1872 -1.03424
-16.5632 -12.2669 0.108803
-15.8148 -12.3949 -1.4598
-19.2472 -9.4506 1.85269
-20.9849 -11.908 0.63278
-20.572 -11.5567 0.0912729
-16.5706 -10.2977 1.7045
-20.5224 -11.6415 0.146681
-20.915 -11.2762 -0.416691
-19.027 -11.4321 0.0513795
-20.1808 -11.7993 0.12569
-20.7535 -11.2822 -0.835243
-18.7801 -11.3878 0.340548
-18.4487 -11.627 -0.1139
-20.5273 -11.4978 -0.0263235
-19.4805 -11.5442 0.0491786
-20.1775 -11.6782 -0.32054
-19.737 -12.0405 -0.211445
-18.1134 -12.0019 0.548431
-19.7523 -11.4115 -0.824221
-20.2202 -11.6813 -0.519394
-19.2671 -11.6936 -0.724334
-18.7687 -11.6431 -0.201119
-18.7246 -11.1782 -0.533048
-19.3011 -11.7616 -0.947943
-16.589 -11.8095 0.228494
-20.5595 -11.2465 -1.17089
-17.4576 -12.7816 0.6769
-20.8437 -11.1954 -1.36944
-18.5885 -11.1392 -1.69985
-18.7166 -12.0098 -0.487392
-18.8388 -12.0633 -1.02804
-18.6538 -11.8416 -0.729
-19.9755 -11.2566 -2.08078
-15.9199 -12.5322 0.0474011
-19.2434 -11.5533 -1.59719
-17.7768 -12.1197 -0.825157
-18.0381 -11.834 -0.558975
-16.1436 -12.8965 -0.039914
-18.1865 -11.7601 -1.45563
-17.6969 -11.7502 -0.521628
-20.3066 -11.058 -2.66867
-16.81 -12.2505 -0.437146
-18.7999 -11.5631 -1.50875
-16.6513 -12.8052 -0.222738
-19.017 -12.1171 -1.65933
-16.3342 -12.699 -0.212837
-20.1421 -11.8091 -2.15797
-16.7947 -11.6993 -0.532326
-16.5174 -12.8067 -0.149317
-19.4597 -10.967 -2.08971
-20.0936 -10.9736 -2.5558
-16.8987 -12.4798 -0.80783
-16.3997 -11.9511 -0.506936
-16.9352 -12.3228 -0.987979
-20.3035 -11.4045 -2.86415
-18.0179 -12.0992 -1.56967
-18.3196 -11.8898 -1.64054
-17.9313 -11.8078 -1.60441
-17.4135 -12.1499 -1.17072
-16.6305 -11.9785 -0.739005
-18.8699 -11.2404 -2.34125
-17.2106 -11.7459 -0.654475
-16.7256 -11.6376 -1.12673
-18.4495 -11.2386 -2.10391
-17.3196 -11.6034 -1.64818
-19.2876 -11.6521 -1.9136
-16.8838 -11.9076 -0.997675
-16.3034 -12.6854 -0.672866
-17.9716 -11.8671 -0.897708
-17.8988 -11.5261 -1.77847
-18.1232 -11.2432 -1.77508
-16.1705 -12.5873 -0.708918
-19.9835 -11.0219 -2.95269
-19.0912 -11.1042 -2.4643
-18.4946 -11.4913 -2.46957
-17.6204 -11.708 -1.94592
-19.1695 -11.594 -3.25004
-19.2285 -11.6466 -3.37571
-18.0538 -11.548 -1.55361
-19.518 -11.6632 -2.82625
-20.2783 -10.6246 -3.18276
-17.3464 -11.756 -1.80055
-15.6887 -12.2359 -0.721691
-16.6848 -12.1082 -0.985571
-17.0579 -12.3394 -1.34562
-17.7323 -11.9282 -2.26631
-17.0833 -12.0614 -1.32706
-17.4304 -11.6879 -2.20342
-19.6233 -11.2197 -3.33846
-19.6109 -11.3208 -3.58372
-19.3509 -11.2672 -3.23284
-18.1025 -11.5214 -2.41454
-18.9942 -11.6412 -2.97675
-18.2747 -11.4153 -2.91705
-18.3068 -11.3965 -2.55612
-19.014 -10.9777 -3.92594
-16.2402 -11.7183 -1.47417
-18.6133 -10.9165 -4.18249
-17.2248 -11.4386 -2.147
-16.9957 -11.6604 -2.04122
-18.1073 -11.3475 -3.04494
-18.2429 -11.5738 -3.07077
-15.6919 -12.4875 -1.09528
-15.7992 -12.7154 -1.32687
-18.0793 -11.4544 -3.40689
-18.3031 -11.3266 -3.5445
-17.7411 -10.9579 -3.07061
-16.9253 -11.1713 -3.04322
-17.0898 -11.0299 -3.27618
-16.0689 -12.8414 -1.67403
-15.4737 -11.9144 -2.08099
-16.5016 -11.1879 -2.992
-15.0199 -12.6952 -2.32313
-14.8298 -12.6703 -2.47393
-15.3587 -12.7227 -2.79858
-15.3635 -12.8071 -2.94171
-14.816 -12.4282 -3.10073
-14.5751 -13.135 -2.70128
-14.909 -12.9227 -3.03442
-15.3489 -12.5109 -3.36815
-14.7451 -12.6948 -2.86954
-15.0352 -13.07 -3.28429
-15.2186 -12.8134 -3.27906
-14.7718 -12.532 -2.77218
-15.0237 -12.7495 -3.4216
-15.1912 -12.758 -3.28903
-17.3994 -10.5351 1.82037
-16.9698 -10.7976 1.53398
-17.0716 -10.4513 1.65646
-20.868 -11.5912 0.389985
-20.7538 -11.1654 0.627489
-21.053 -11.631 0.310259
-20.8787 -11.5749 0.364602
-16.8825 -10.3213 1.41093
-20.7161 -11.5721 0.572415
-16.834 -11.1791 1.48004
-20.2943 -11.8284 0.438313
-16.5938 -10.2871 1.74604
-20.3952 -11.7835 0.320654
-19.8294 -12.1999 0.704523
-19.9723 -11.854 -0.22335
-18.8356 -11.8378 0.0896232
-18.9325 -11.8739 0.40874
-19.0325 -11.025 0.105151
-18.4939 -11.4034 0.169675
-18.1886 -11.5904 -0.089427
-19.6903 -11.4361 -0.914333
-19.785 -11.5833 -0.271178
-20.6288 -11.1724 -0.460711
-19.7309 -11.8761 -0.296653
-19.302 -11.8525 -0.504806
-18.0154 -11.9733 0.588869
-20.0027 -11.5515 -1.3088
-18.0573 -11.63 0.508469
-19.9321 -11.7699 -0.49528
-17.8243 -11.7193 0.765252
-17.0651 -12.567 0.281551
-18.6427 -12.3989 -0.486175
-18.8122 -11.7566 -0.813666
-20.5017 -11.2155 -1.47167
-16.9142 -12.1841 0.149106
-16.8485 -12.4232 0.895374
-18.5734 -11.927 -0.585569
-16.1238 -12.2455 0.483686
-18.3463 -11.4284 -0.705303
-19.2074 -11.1763 -1.39625
-18.5758 -11.2403 -1.31273
-19.6847 -11.5303 -1.4751
-17.3907 -11.8864 -0.067724
-17.2108 -12.1514 -0.437494
-17.0832 -12.2435 -0.142874
-18.3091 -11.3993 -1.08829
-20.4591 -10.9515 -2.54671
-16.2893 -12.1681 -0.410665
-17.1321 -11.9871 -0.445862
-17.052 -12.1467 -0.377863
-17.7122 -11.6392 -1.24916
-20.0336 -11.0642 -1.7019
-16.5083 -12.3951 -0.815216
-17.5811 -11.6556 -1.31898
-17.3013 -12.1859 -0.885151
-18.2361 -12.1994 -1.3499
-20.0779 -11.2381 -2.55934
-16.3152 -12.3121 -0.527173
-19.4805 -10.8066 -2.49235
-18.884 -12.0021 -1.91794
-20.76 -10.7536 -3.08726
-19.0571 -11.6571 -2.16166
-20.7173 -10.2356 -3.09412
-16.7236 -12.6527 -0.896749
-20.5727 -10.6138 -2.99076
-16.0318 -12.0624 -0.382023
-20.0595 -11.3354 -2.68622
-17.8291 -11.4775 -1.28083
-17.8303 -12.0001 -1.49496
-19.475 -11.2294 -2.87362
-15.7728 -12.463 0.156716
-19.8261 -10.9923 -2.81412
-18.5035 -11.8213 -1.95683
-16.2102 -12.8938 -0.277864
-16.3276 -12.543 -1.04381
-19.1203 -11.1534 -2.83117
-18.9222 -11.2066 -2.47515
-16.5436 -12.6161 -0.992438
-16.1812 -12.1066 -0.784823
-15.9696 -12.1698 -0.530272
-16.7396 -12.538 -1.16262
-20.432 -10.7694 -3.60629
-15.9404 -12.5843 -0.581699
-17.1893 -12.2077 -1.27129
-16.6175 -12.2311 -0.919823
-18.5225 -11.5707 -2.75651
-17.2281 -12.2959 -1.81664
-18.4812 -11.4305 -3.17583
-16.0943 -12.8628 -0.860714
-19.7653 -10.7275 -3.29146
-18.8015 -11.5525 -2.68086
-19.557 -11.3446 -3.14266
-18.8432 -11.5447 -3.03203
-18.2212 -11.9517 -3.21353
-19.1698 -10.6577 -3.85065
-15.8755 -12.7903 -0.86395
-18.4947 -11.3471 -3.04423
-18.6072 -11.6324 -3.32184
-17.5323 -11.5414 -2.06253
-15.8196 -12.4352 -1.61969
-16.8244 -11.285 -1.86897
-18.2697 -11.5419 -2.99251
-16.9302 -11.5302 -2.01257
-16.7799 -11.4472 -2.46512
-18.0544 -11.5918 -3.79151
-15.2027 -12.8176 -1.35007
-15.7475 -12.2072 -2.30319
-16.1071 -12.0691 -1.82867
-16.5379 -11.7993 -3.34767
-15.142 -13.272 -2.09306
-16.8703 -11.977 -3.08936
-16.9638 -11.7314 -3.1492
-14.8087 -12.9061 -2.19902
-14.9704 -12.6822 -2.48574
-15.084 -12.6933 -3.48249
-15.3532 -13.1233 -2.86832
-14.5603 -12.6349 -2.92943
-14.9541 -12.476 -2.89652
-14.6402 -12.9921 -2.89025
-15.3319 -12.7942 -3.36931
-15.2544 -13.1607 -3.58207
-15.3742 -12.6077 -3.08006
-15.0086 -12.954 -2.91233
-14.9738 -12.3176 -2.84784
-15.1461 -12.53 -3.70517
-15.2706 -13.0249 -3.3276
-14.6398 -12.454 -3.32442
-14.1208 -12.9031 -3.51006
-20.7184 -11.6558 0.765655
-20.7414 -11.2796 0.668721
-20.7303 -12.0175 0.654736
-16.9442 -10.3118 1.47594
-19.9883 -11.6185 0.375366
-20.9666 -10.9265 -0.270898
-21.0483 -11.6903 0.0782916
-20.184 -12.5886 -0.20511
-20.3477 -11.2707 -0.381313
-20.476 -11.794 0.309044
-20.6527 -11.9504 0.0261468
-19.7678 -11.8388 0.132629
-19.1721 -11.6463 0.507299
-15.7154 -10.9574 1.40281
-20.3814 -11.9264 -0.281595
-19.7916 -11.7418 -0.184222
-19.5109 -11.4784 -0.0995314
-18.5286 -11.5923 0.460845
-19.7662 -11.7842 -0.159982
-17.9567 -11.8452 -0.218546
-17.3103 -12.1226 0.522241
-19.1868 -11.5539 -0.716539
-19.296 -11.3474 -0.424117
-19.5013 -11.483 -1.35937
-17.7127 -12.3512 -0.217174
-16.1507 -12.3563 -0.11033
-16.9711 -12.0127 -0.385505
-18.2859 -11.8027 -0.79347
-18.2781 -11.5589 -1.06725
-17.1051 -12.2912 -0.702138
-19.5974 -11.4591 -1.87511
-16.7293 -12.093 -0.534238
-16.5037 -12.0409 -0.846063
-18.3273 -11.7592 -1.26566
-18.8441 -12.0203 -1.57393
-20.2666 -10.6192 -2.5409
-16.9251 -12.1885 -0.324788
-16.6747 -12.2428 -0.357656
-17.2547 -12.0015 -0.643615
-16.7613 -12.2169 -0.952339
-20.2255 -10.6899 -2.92021
-20.6084 -10.669 -3.19515
-16.2178 -12.6574 -0.115493
-20.5686 -10.7768 -2.78323
-20.618 -10.4623 -3.11917
-18.3142 -11.3898 -2.1885
-18.5566 -11.4974 -2.03044
-20.2955 -10.8987 -3.23734
-15.7202 -12.7545 -0.740761
-18.8532 -11.6515 -2.67297
-18.8235 -11.3308 -2.56613
-18.1923 -11.4247 -2.45362
-19.8365 -11.1203 -3.34129
-19.463 -11.5709 -2.81749
-18.4208 -11.3462 -2.90867
-15.4861 -12.9163 -0.500031
-15.7743 -13.1693 -1.06831
-17.5998 -11.8033 -2.34087
-17.0035 -11.7475 -1.93987
-16.7244 -11.4619 -1.94384
-18.0892 -11.7308 -3.48948
-16.5215 -12.0551 -1.85315
-15.6272 -12.4256 -1.5028
-15.3772 -12.5899 -1.22861
-15.9773 -11.8834 -2.3197
-15.6829 -12.0296 -1.84973
-16.8108 -11.5138 -3.56098
-15.2581 -12.0797 -2.31104
-15.8645 -12.1032 -2.59048
-15.7142 -11.2772 -2.64714
-15.0832 -12.8909 -2.99594
-15.3438 -12.0002 -3.39663
-15.084 -12.3553 -3.47075
-15.539 -12.5989 -3.42117
-15.0392 -12.5716 -3.38633
-20.9964 -11.6362 0.47267
-20.3949 -11.6334 0.439394
-20.5145 -12.2534 0.0802932
-21.0637 -11.422 0.524155
-20.1155 -11.7318 -0.544619
-20.2003 -11.8508 -0.287419
-20.1443 -11.721 -0.0811463
-20.3382 -11.4566 -0.060973
-20.5315 -11.4168 -0.240059
-20.3055 -11.6619 -0.560716
-18.4459 -11.6534 0.505608
-19.0997 -11.4344 -0.1297
-18.6653 -11.7922 -0.572981
-19.8936 -11.9362 -0.809629
-16.7336 -11.9932 0.412122
-17.5669 -12.0961 -0.14721
-16.6473 -12.8748 -0.0011517
-20.439 -10.9936 -2.25246
-16.3524 -12.9051 -0.193936
-17.4475 -11.9421 -0.69008
-16.1813 -11.9418 -0.60021
-16.3783 -12.0265 -0.502837
-17.7462 -12.0931 -0.709996
-19.629 -11.0266 -1.98719
-18.9836 -11.6131 -1.82042
-19.4455 -11.1619 -2.03325
-20.0136 -11.0949 -3.01489
-16.8237 -12.0708 -1.21581
-19.8069 -10.8837 -3.11331
-16.8662 -12.3415 -0.332171
-18.6821 -12.1712 -2.58948
-15.6947 -12.4378 -1.08582
-15.9265 -12.2176 -0.984499
-16.5008 -12.6905 -0.367565
-15.8857 -12.6757 -0.437204
-15.4814 -12.391 -0.535111
-15.8207 -12.534 -0.761168
-19.3833 -11.045 -2.83484
-18.7316 -11.7856 -3.19855
-18.7113 -11.5955 -3.07601
-18.0142 -11.1787 -2.11415
-17.0748 -11.7938 -2.04765
-16.4481 -12.4204 -1.51186
-18.4455 -11.4843 -3.14984
-17.2348 -11.4028 -1.87365
-17.9958 -11.6091 -3.0282
-18.2541 -11.6424 -3.10732
-18.3414 -11.2141 -3.39879
-16.7073 -11.4162 -2.57086
-16.3281 -11.3122 -2.08767
-14.9821 -12.7265 -1.81999
-16.6142 -11.0854 -3.34687
-16.1413 -11.6464 -2.96944
-14.5981 -12.8781 -2.35081
-15.4227 -12.838 -2.93608
-21.6008 -11.3339 0.218446
-18.9654 -11.2792 0.0127163
-20.9086 -11.5799 -0.373846
-20.5719 -11.6647 -0.317412
-20.3679 -11.5601 -0.523146
-18.5779 -11.5909 0.498916
-18.6841 -11.2259 0.139312
-17.9289 -11.4506 0.215649
-20.1465 -11.8244 -0.580135
-18.0965 -11.9929 0.510845
-20.2297 -11.5268 -1.29715
-19.4078 -11.7401 -0.906773
-16.0954 -11.942 0.362568
-16.4859 -11.9541 0.900315
-16.9067 -11.9901 0.228362
-17.7069 -11.5531 -0.921945
-16.6071 -12.3334 -0.204105
-20.2985 -10.9695 -3.08618
-19.8739 -11.066 -3.04213
-16.2094 -12.5588 -0.654496
-16.4291 -12.5107 -0.438104
-20.0789 -11.4216 -2.95525
-19.0704 -11.5741 -2.91708
-19.4927 -11.4185 -2.5665
-16.9395 -12.0161 -1.61424
-19.3691 -11.3054 -3.01481
-16.7301 -11.9421 -1.54718
-17.0125 -11.6672 -2.29388
-17.7007 -11.2146 -2.79368
-16.8189 -11.5934 -2.27682
-18.2864 -11.8707 -3.51426
-17.9956 -11.1195 -3.67069
-15.8957 -12.4096 -2.21138
-15.8705 -11.78 -2.15245
-15.9812 -12.3081 -2.27096
-14.8496 -12.4852 -1.72864
-15.2267 -12.6683 -2.91831
-17.1563 -10.2056 1.56755
-20.714 -11.943 0.329745
-20.2487 -11.6079 -0.0861583
-19.4637 -11.1934 -0.0179912
-19.0477 -11.8207 0.113064
-18.553 -11.3147 0.179488
-18.1204 -11.5094 0.264926
-20.0257 -11.7547 -1.07012
-19.4728 -11.0964 -1.55149
-18.88 -11.3339 -0.911546
-17.3738 -12.2709 -0.589765
-17.7117 -11.8471 -0.766985
-18.8845 -11.5963 -1.98073
-16.2496 -12.0121 -0.745888
-18.1793 -11.6563 -1.1508
-16.3012 -12.2942 -0.895997
-16.4734 -12.6774 -0.607416
-18.4763 -11.5936 -2.77029
-16.594 -11.9325 -2.20109
-15.6884 -12.4593 -1.66505
-14.4151 -12.2241 -2.95024
-19.1136 -11.237 0.663123
-18.8618 -11.7575 0.0393895
-19.6453 -11.8258 -1.16293
-20.2887 -11.0301 -1.8355
-17.0713 -12.1602 -0.273705
-16.0651 -12.5216 -0.710028
-15.9054 -12.4245 -0.794823
-15.6696 -12.5307 -1.16718
-17.1869 -11.5901 -2.47348
-18.5419 -11.3238 0.0684125
-19.7196 -11.5889 -0.706268
-16.5831 -12.2601 0.117882
-17.125 -11.8747 -1.10956
-17.1908 -11.8807 -1.50719
-16.8873 -12.0721 -1.77375
-17.0831 -11.7015 -1.93062
-16.7751 -11.5162 -2.13252
-15.6833 -12.1647 -2.16474
-15.5259 -12.1545 -2.59497
-15.8442 -11.6203 -2.4108
-18.8321 -11.0839 -0.332107
-17.8271 -12.5125 -0.835669
-16.3801 -12.7276 -0.789884
-16.5298 -12.0678 -0.941014
-16.7746 -12.3477 0.212215
-20.0527 -10.9639 -2.01695
-16.998 -12.1883 -1.68937
-18.9221 -11.3237 0.116619
-17.4808 -11.7184 -1.88904
-17.0146 -12.3052 -1.31861
-15.9962 -12.6497 -1.59245
-16.9089 -11.6438 -2.30569
-18.2159 -11.826 -1.3225
-16.4396 -12.302 -1.04998
-16.7414 -11.9925 -1.18637
-15.9508 -12.3099 -1.60951
-15.7281 -11.6043 -1.88913
-15.5361 -12.1286 -1.89326
-15.8591 -11.4825 -2.94377
-15.0511 -12.708 -3.20141
-14.6836 -12.8576 -2.92636
-14.5963 -12.8897 -3.1195
-14.8867 -12.4922 -2.57933
-14.8518 -13.2417 -3.12073
-17.8394 -11.2787 -3.58938
-15.163 -13.2245 -3.01852
-18.2727 -11.3736 -3.60531
-14.518 -12.703 -2.70762
-15.2571 -12.5912 -3.15052
-14.9371 -13.295 -2.5141
-20.0222 -11.0114 -3.74725
-14.8579 -13.1889 -2.13612
-14.8241 -12.6847 -2.76155
-14.936 -12.4913 -2.76877
-18.4089 -11.5476 -3.03457
-18.6335 -11.0955 -3.11986
-19.908 -11.1435 -3.34505
-14.7247 -12.7412 -2.21267
-15.7006 -11.4673 -2.25568
-20.3407 -11.0428 -2.77102
-17.0683 -11.7786 -2.4093
-15.6697 -12.174 -2.1727
-20.0218 -10.5932 -3.4072
-16.7133 -11.6358 -2.29145
-19.4378 -11.5003 -3.10669
-20.2698 -10.8068 -2.90466
-19.9451 -11.3915 -3.12459
-19.0872 -11.6856 -2.88742
-20.4395 -10.899 -2.88496
-18.9706 -10.8569 -2.73654
-19.4392 -11.2204 -2.50109
-18.5065 -11.5754 -1.62816
-18.4707 -11.7899 -2.39444
-20.0723 -11.3525 -2.24402
-19.6719 -11.5242 -2.48961
-20.6574 -11.505 -2.11756
-18.7054 -11.7684 -1.69316
-19.7085 -11.361 -2.04364
-19.5706 -11.0336 -1.78841
-18.1151 -11.5243 -1.81001
-19.2528 -11.7403 -1.97257
-18.6516 -11.5908 -1.47835
-19.1808 -11.1516 -1.69009
-16.5217 -12.7763 -1.36108
-20.5416 -11.3887 -1.75078
-20.503 -11.1826 -1.67371
-20.6194 -10.8223 -1.75921
-19.4773 -11.474 -1.39511
-19.6363 -11.9188 -1.37668
-18.8142 -11.9674 -0.535571
-16.3565 -12.5564 -0.943503
-17.3861 -12.0344 -1.15952
-17.4773 -12.0786 -0.631963
-16.5987 -12.5427 -0.640036
-16.4039 -12.6564 -0.142379
-16.1143 -12.8173 -0.230202
-16.2358 -12.8036 -0.0924609
-17.1823 -12.1268 -0.38224
-17.6515 -11.9448 -0.501724
-20.6421 -11.1441 -1.24723
-20.1448 -11.5778 0.369383
-18.3208 -11.3366 0.32055
-19.0501 -11.6285 0.114999
-18.1688 -12.0693 0.536666
-17.7217 -12.2597 0.553086
-16.6285 -12.2926 0.0852932
-20.0766 -12.0025 0.38325
-20.5887 -11.4426 0.396401
-16.7693 -10.3558 0.757098
-16.8541 -10.6869 1.1278
-20.3022 -11.9503 1.02779
-15.112 -12.581 -3.88165
-14.9302 -12.5527 -2.95314
-14.8743 -12.2335 -3.08378
-14.8286 -12.5815 -3.4361
-14.9051 -12.588 -3.10331
-14.6535 -12.8113 -2.56422
-14.7731 -13.1882 -3.09696
-15.5308 -12.8658 -2.36969
-15.5956 -12.8347 -2.67699
-14.9957 -12.938 -3.12053
-14.6373 -13.1795 -2.3793
-20.1027 -10.7312 -3.5071
-19.7745 -10.5147 -3.58049
-18.2259 -11.5896 -3.2192
-18.4019 -11.6751 -3.16819
-20.0089 -10.7995 -3.42017
-18.023 -11.8912 -3.36026
-18.4887 -11.2851 -3.17724
-18.8321 -11.4801 -3.12875
-16.6567 -11.5642 -2.70259
-19.1909 -11.2138 -2.71376
-19.989 -10.9713 -3.36089
-19.783 -10.675 -2.63294
-16.5966 -11.6334 -2.0485
-18.4151 -11.7999 -2.71032
-19.2992 -11.5257 -1.82735
-16.6495 -12.0884 -1.60325
-19.1537 -11.955 -1.87075
-15.7623 -13.072 -1.14383
-17.8155 -11.7653 -1.75514
-18.9859 -11.4205 -1.79013
-20.563 -10.8301 -1.88978
-17.5504 -11.9465 -1.18955
-15.6255 -12.7723 -1.12187
-16.5832 -12.5789 -0.406333
-17.4169 -12.2999 -0.760112
-16.0446 -12.1292 -0.899101
-16.4873 -12.0492 -0.435921
-18.7326 -11.6655 -0.714713
-19.1857 -12.4007 -1.36859
-16.0727 -12.9976 -0.466346
-16.1151 -12.8156 -0.235274
-17.8086 -12.0946 -0.291845
-16.7674 -12.1249 -0.00276775
-18.9934 -11.6418 -0.473257
-18.2733 -12.2804 -0.0764483
-17.2558 -12.2852 -0.274073
-20.8892 -11.3752 0.0186057
-20.2369 -11.8302 -0.280721
-20.6479 -11.1528 -0.203645
-17.6842 -11.929 0.250578
-20.3068 -11.5342 0.193039
-20.7639 -11.947 0.369166
-21.0484 -11.2179 1.00775
-16.3036 -11.0223 1.58246
-16.6632 -10.4887 1.46647
-15.9238 -10.458 1.92124
-16.7018 -10.5092 1.60012
-14.3907 -12.2143 -3.31313
-15.0616 -12.6855 -3.30301
-15.8967 -11.6705 -3.01796
-16.4013 -11.1814 -3.38256
-14.749 -12.6996 -3.01239
-18.4845 -11.3948 -3.36512
-15.0469 -13.0124 -2.63308
-16.8306 -11.1621 -2.55315
-15.1943 -12.3071 -2.61292
-15.8673 -12.3616 -3.10546
-18.0306 -11.7017 -3.18455
-19.3203 -11.1694 -3.42128
-16.2452 -11.7223 -2.41064
-19.8547 -10.8024 -2.94426
-16.8196 -11.2087 -1.84462
-16.9039 -11.6973 -1.925
-20.2598 -11.1241 -3.11268
-18.9081 -11.8962 -2.31195
-18.7416 -11.6549 -2.53096
-16.7684 -11.6535 -2.20276
-16.5642 -12.0449 -1.96765
-18.1834 -11.5836 -1.44466
-18.8396 -11.1763 -1.77834
-19.6252 -10.9786 -1.65117
-18.2572 -12.2938 -1.3349
-17.9263 -11.4559 -1.11138
-18.4889 -11.1474 -0.910122
-16.0703 -12.4222 -1.08666
-15.4019 -12.4442 -0.74325
-15.8258 -12.4185 -0.641777
-16.8539 -12.3169 -0.315516
-16.4475 -12.2754 -0.233742
-20.0417 -11.4447 -1.17354
-17.2299 -12.3511 0.0833241
-20.7906 -11.7984 -0.122519
-20.8359 -11.506 0.354296
-20.3888 -11.9292 -0.365043
-20.0164 -11.7047 0.365054
-20.1721 -11.6315 0.578099
-17.0261 -10.5726 1.31117
-17.1512 -10.9706 1.29704
-17.033 -10.1712 1.42459
-15.8472 -10.8633 1.1772
-15.4427 -11.495 -3.0556
-16.3699 -11.6092 -3.06562
-16.7845 -11.2494 -2.89067
-18.3031 -11.5846 -3.68773
-18.2596 -11.3686 -3.06081
-14.6837 -12.5385 -2.65258
-18.5917 -11.4205 -3.75876
-14.6683 -12.7773 -2.10073
-17.1765 -11.6262 -2.61649
-15.6641 -12.3857 -2.70333
-16.0903 -12.0807 -1.97227
-15.9778 -12.0128 -2.11966
-18.6418 -11.2426 -2.4064
-15.5536 -12.8275 -1.1039
-17.0075 -11.7512 -0.661827
-16.653 -12.4348 0.695286
-16.8229 -12.967 0.325292
-16.5319 -12.4486 -0.120663
-17.1553 -10.6495 1.21847
-16.5912 -10.597 2.0161
-16.9406 -10.7945 1.68004
-14.5527 -12.4635 -3.03181
-16.8732 -11.0295 -2.65048
-19.7529 -10.4707 -3.2957
-14.8533 -13.0233 -2.80478
-16.7977 -11.2543 -2.83518
-16.8765 -11.6983 -2.30862
-16.7459 -11.576 -2.00905
-16.6509 -12.7046 0.0307924
-16.7498 -12.1528 -2.24139
-15.7192 -12.7432 -0.440015
-16.3909 -12.456 -0.0325757
-20.1543 -11.4343 -1.00961
-15.8051 -12.4271 0.603982
-16.6004 -12.4044 -0.968597
-20.006 -11.4724 -0.393972
-17.8126 -11.7176 -0.415793
-17.4322 -12.2049 0.0447069
-16.2928 -11.4439 -2.23123
-16.8642 -12.1308 -1.88497
-16.1407 -12.2119 -0.678958
-17.1479 -12.0949 -0.0109238
-17.2187 -11.79 -2.07278
-16.7999 -11.5456 -1.78949
-17.4065 -11.5894 -1.72097
-18.2724 -11.8327 -1.18776
-17.0429 -11.9695 -0.307757
-16.9856 -12.4204 -0.480952
-19.8537 -10.6947 -3.83985
-19.8566 -11.3974 -2.89858
-19.6843 -11.1403 -2.92933
-16.7266 -11.1523 -2.94397
-18.5525 -11.863 -2.72217
-19.3035 -11.2856 -1.76421
-20.6291 -11.2895 -1.29271
-20.5684 -10.9831 -1.65177
-15.9283 -11.8811 -3.12433
-15.9047 -11.464 -2.56831
-20.6159 -11.4641 -1.85552
-20.3545 -11.1282 -1.40682
-17.9908 -11.6167 -2.59606
-18.5161 -11.9027 -2.15761
-16.8368 -11.1383 -1.97561
-17.0157 -11.6454 -2.64184
-16.5915 -11.3774 -2.3757
-16.8323 -11.5473 -2.30867
-16.9653 -11.0292 -2.05343
-19.7661 -11.5202 -1.58909
-17.6621 -11.5359 -2.15255
-19.6253 -11.78 -1.27354
-20.741 -11.0249 -1.33698
-18.9717 -12.0299 -1.17951
-20.9147 -11.4012 -0.283456
-20.1924 -11.2926 -0.637982
-19.5053 -11.3135 -0.614143
-18.3887 -11.8432 -1.4139
-17.518 -11.6675 -1.3448
-15.0787 -12.569 -3.43641
-19.5396 -11.6766 -0.812911
-19.5308 -11.4457 -0.592915
-14.862 -12.2896 -3.34196
-20.444 -11.3221 -0.0899432
-20.3834 -11.5404 -0.259997
-20.3186 -11.2204 -0.303897
-18.2081 -12.0213 -0.732082
-20.2628 -11.7496 -0.553131
-20.1443 -11.6307 -0.274333
-17.9354 -11.8265 -1.00712
-19.1678 -12.0304 -0.964689
-20.6055 -11.558 0.294082
-17.6641 -11.6999 -1.01198
-20.3396 -11.5032 -0.0358775
-14.7418 -12.9546 -2.79068
-16.549 -12.4957 -0.907703
-20.956 -11.5932 0.500415
-15.3843 -12.6224 -2.09049
-17.8437 -12.002 -0.666158
-15.145 -12.6698 -2.582
-20.153 -11.84 -0.195167
-17.0752 -12.0561 -1.39855
-20.0124 -11.3917 0.0527297
-16.9191 -11.6926 -0.830684
-14.9557 -13.025 -2.46822
-18.9006 -9.66814 2.12671
-18.2748 -9.9866 2.25581
-16.0022 -12.5861 -1.15471
-18.7276 -11.9948 -0.169705
-15.2978 -13.112 -1.61948
-16.3093 -12.1648 -0.870084
-18.0878 -11.9166 0.0153563
-15.7213 -12.9265 -0.677036
-16.2617 -12.7237 -0.675851
-16.1837 -12.2403 -0.891681
-16.5448 -12.5106 -0.771637
-17.4122 -12.0972 0.380759
-16.2911 -12 -0.582484
-17.15 -12.1865 0.434138
-16.6325 -10.3113 1.3052
-15.5249 -12.8139 -0.717326
-16.5034 -10.4096 1.17215
-17.2775 -10.6411 1.40385
-16.2406 -13.0893 -0.266179
-17.2033 -11.7967 0.612535
-16.2003 -12.5 -0.289964
-16.1552 -12.7359 -0.106045
-15.9346 -12.1977 -0.698166
-16.0351 -12.3539 -0.192877
-17.1413 -11.2618 1.59545
-16.8529 -10.5597 1.28254
-16.4428 -10.8686 1.6596
-20.1119 -10.1315 -3.00128
-20.5414 -11.0127 -3.05327
-20.2074 -10.9665 -2.92317
-19.8695 -11.3672 -3.23781
-18.5266 -11.4375 -3.32879
-17.6028 -11.3165 -3.85569
-19.11 -11.1013 -2.55149
-18.156 -11.195 -3.12093
-16.8894 -11.4937 -3.00893
-18.8858 -11.5361 -2.96622
-16.3459 -11.6915 -3.4967
-18.7557 -11.2991 -2.15971
-17.3387 -11.3108 -1.95279
-20.0164 -11.295 -1.86524
-17.0618 -11.1486 -2.44593
-18.6584 -11.4214 -2.09789
-16.6164 -11.1817 -2.19152
-17.9336 -12.3235 -1.83114
-19.4238 -11.6697 -1.01801
-14.9929 -12.6184 -3.71868
-15.2168 -12.4665 -3.70627
-17.859 -11.6374 -1.72083
-20.4136 -11.0024 -0.874266
-15.7231 -12.1677 -2.17445
-17.1056 -12.1205 -2.04078
-19.7119 -11.471 -0.431605
-16.0272 -11.632 -1.97269
-16.0331 -11.909 -2.0306
-15.2362 -12.6527 -2.97412
-20.0513 -11.4154 -0.743811
-14.8712 -12.7209 -3.03108
-14.5816 -13.0163 -3.14455
-15.0816 -12.1507 -2.30194
-21.1028 -11.7398 0.659188
-17.9519 -11.9803 -1.05463
-20.0501 -11.6056 -0.0706612
-17.2371 -11.9538 -1.50999
-21.0343 -11.6076 0.351978
-21.1383 -11.3558 0.429673
-17.3583 -11.8162 -1.02502
-20.4356 -11.9756 -0.100742
-18.3805 -12.2249 -0.218251
-17.121 -12.2593 -0.511577
-15.5336 -12.4114 -1.75699
-17.403 -11.658 -0.982672
-16.1302 -12.0651 -1.12259
