-17.7028 -12.1525 -1.48433
-14.8488 -11.0872 -1.24787
-17.0981 -11.4025 -1.9718
-17.9635 -10.7036 -0.969381
-13.6107 -12.5192 -2.0732
-15.3681 -12.3265 -2.98592
-21.3139 -8.61979 -3.16748
-22.3951 -8.36388 -5.51425
-21.7434 -10.3495 -3.77863
-19.6174 -10.788 -4.27036
-19.9847 -12.3087 -4.2465
-21.7775 -10.1224 0.703376
-19.5564 -9.10135 -2.14998
-19.7718 -11.1372 -3.40878
-20.2509 -13.1912 -3.79631
-18.914 -11.348 -6.52041
-18.2967 -10.6557 -4.18444
-18.9331 -11.733 -5.27469
-19.6099 -9.37979 -3.10305
-20.6435 -9.32367 -4.14886
-20.3864 -11.3111 -2.86128
-22.0857 -9.48925 -0.176505
-22.4967 -9.23923 0.162118
-18.693 -10.8153 -1.91591
-22.0314 -10.7999 -0.149518
-22.0439 -11.4022 -0.693629
-20.1557 -8.78295 1.38695
-21.6075 -8.47013 0.576865
-20.4147 -10.5063 -0.372748
-20.249 -10.4325 -2.89223
-15.1611 -8.94115 1.1572
-18.3921 -11.9228 -3.5636
-20.3902 -11.764 -2.02812
-20.4102 -10.5678 -3.30681
-18.6773 -10.885 -3.56031
-20.6026 -11.1905 -2.88237
-19.7145 -10.5695 -2.41295
-19.8341 -10.59 -3.09209
-19.394 -11.4526 -4.20477
-18.939 -11.3977 1.01524
-19.0671 -12.0408 -5.59673
-19.0982 -9.22297 -0.467882
-17.9826 -11.8701 -2.86163
-18.2219 -10.0747 -4.26297
-17.4903 -12.3365 -3.42212
-17.17 -10.4843 -4.19425
-19.7562 -10.1859 -0.725035
-16.8395 -8.53554 0.7168
-15.2426 -10.2048 -0.767079
-18.0014 -10.3412 -1.75871
-16.1069 -9.17908 -3.10599
-16.9885 -10.0378 -3.11537
-19.5198 -10.3917 -2.93127
-17.3486 -10.2957 -3.20266
-16.4861 -12.7027 -1.25631
-16.6794 -11.4171 -0.879298
-17.6534 -11.2545 -2.05885
-17.3247 -11.296 -2.44874
-16.9609 -9.03003 -3.21391
-17.1217 -10.2075 -3.68883
-16.0074 -11.832 -4.73758
-17.4851 -9.3129 0.102851
-17.5441 -13.5754 -4.34268
-16.0921 -11.1785 -3.6548
-17.3406 -11.8513 -0.519626
-16.628 -10.9251 -4.60004
-17.4199 -12.867 -0.582661
-17.9213 -10.9258 -1.67886
-15.8547 -9.65305 -5.86587
-16.958 -9.34635 -2.50659
-16.5251 -10.4434 -3.89002
-15.9583 -10.6325 -0.908161
-15.4362 -11.1291 -3.61581
-16.0979 -11.2191 -2.29628
-17.2712 -9.42303 -2.93495
-15.6123 -13.1308 -3.46282
-17.8902 -10.8597 -1.72227
-18.3283 -10.0321 -1.40649
-17.8223 -12.3393 -0.314879
-16.5808 -13.2613 -4.09461
-17.1435 -12.2755 -2.43369
-15.4943 -12.6681 -5.27843
-15.8743 -11.6407 -4.53511
-18.0606 -10.1544 0.976005
-18.105 -11.3958 0.0524482
-16.9723 -11.8004 -2.79938
-16.3122 -12.3241 -2.89188
-16.2282 -11.5954 -1.35353
-14.4255 -11.7473 -1.70913
-15.603 -11.803 -3.13477
-14.5385 -11.5748 -6.09277
-15.5418 -10.1229 -0.564572
-14.2105 -12.3501 -2.50727
-17.2137 -10.9785 1.32739
-14.2513 -12.3004 -1.76243
-16.3355 -11.6043 0.505167
-15.939 -14.1751 -3.48984
-15.6195 -11.5839 1.24445
-16.4118 -9.89404 -0.0609979
-15.8641 -13.0555 -6.31454
-17.8253 -11.3241 -0.101422
-15.411 -10.7906 1.15125
-16.6258 -13.2888 0.639241
-17.208 -10.9691 -1.45395
-15.8311 -13.3858 -2.74019
-17.884 -12.9742 -2.46292
-14.3934 -12.23 -2.81811
-15.8077 -12.6133 -0.00505369
-15.7231 -13.088 -3.56592
-15.2835 -10.7271 -2.90998
-15.6394 -13.2721 -4.8557
-14.2558 -12.6598 -1.69215
-15.5798 -11.7629 -1.39673
-15.4073 -12.5134 -2.70539
-14.6517 -13.73 -2.71801
-15.2313 -13.123 -4.56799
-13.8683 -12.9262 -0.835434
-14.4185 -11.0087 -2.38566
-16.8665 -10.062 -0.830933
-15.2969 -12.293 -2.56723
-14.4998 -10.0313 -2.43624
-14.9072 -13.8155 -2.75577
-13.3601 -12.7184 -3.30566
-15.5085 -13.3006 -3.65494
-14.6463 -13.1511 -1.37547
-20.7821 -10.0638 -6.2788
-19.3335 -11.595 -3.72911
-19.6611 -11.3857 -5.43231
-21.4677 -9.76292 -4.87214
-19.8754 -13.4422 -4.46207
-20.3231 -10.9809 -5.5908
-20.2777 -11.1274 -3.22762
-19.6229 -11.9702 -3.70414
-20.3259 -14.0852 -5.37426
-19.787 -8.92388 -3.12946
-20.8844 -10.3328 -0.255569
-19.2755 -10.9831 -6.18583
-19.4612 -9.62365 -4.29159
-20.9683 -8.30586 1.48247
-20.4587 -9.82922 -0.516668
-18.8319 -12.1036 -4.25742
-18.4 -11.0528 -2.7076
-20.5437 -11.8349 -3.6553
-16.1212 -9.02153 0.146156
-19.3194 -12.198 -4.64273
-17.2722 -10.3147 -4.92522
-17.984 -11.1697 -4.57445
-18.2661 -11.0988 -1.40858
-20.0957 -10.1951 -2.2951
-20.9698 -11.2511 -0.188327
-16.7963 -10.1779 -4.50084
-17.6328 -11.1096 -0.0208642
-17.1697 -10.2346 -3.56739
-19.5815 -11.1088 0.253725
-19.3699 -10.5539 -2.25408
-17.5049 -12.3477 -3.87426
-17.2585 -10.535 -5.31191
-17.0355 -9.99357 -1.27124
-17.9161 -11.1664 -1.73259
-18.3768 -11.226 1.29912
-16.1525 -9.80411 -2.26925
-18.115 -10.3031 -1.58877
-16.2743 -11.5807 -1.86663
-17.4854 -10.3568 -3.52096
-18.6159 -9.7351 -3.66917
-17.8753 -12.3782 -2.59802
-16.5415 -9.94625 -1.53893
-17.5554 -10.573 -2.47878
-17.6689 -12.0534 0.135054
-16.7142 -10.4352 -2.08925
-17.6804 -11.6413 0.791394
-16.357 -10.7317 -3.40539
-16.0453 -11.0698 -1.84863
-19.6055 -9.81961 0.932721
-16.6975 -12.0677 -5.17765
-16.2301 -10.704 -4.40809
-17.6756 -11.6448 -0.979289
-18.9972 -10.1986 1.13868
-16.3446 -11.9725 -2.31993
-17.4843 -12.0808 -1.11877
-15.5208 -11.9214 0.454399
-18.3285 -11.0458 -1.32167
-16.7604 -11.406 -5.05799
-16.843 -11.3914 -1.02923
-16.5036 -11.7831 -0.420723
-15.4399 -11.7285 -0.975435
-16.4021 -11.1178 -1.73733
-16.1671 -10.2638 -2.25179
-17.3358 -10.1143 -1.69797
-16.8016 -11.2996 0.958549
-17.8485 -10.8016 0.0898838
-16.9736 -12.0675 0.311878
-17.3007 -10.8052 -3.97579
-15.9246 -11.2434 -1.40832
-15.4207 -10.7674 -0.819528
-15.6448 -11.3112 -1.03016
-16.9003 -12.779 -1.58803
-15.9093 -8.74422 -1.56688
-17.0642 -9.52128 1.67282
-15.5076 -11.3639 -0.761142
-17.6558 -12.1609 0.730891
-17.7577 -9.45676 -0.170185
-16.8554 -13.0044 -2.44898
-15.3523 -9.2182 0.141939
-17.6587 -12.6045 -1.27471
-15.1123 -11.9769 -0.829513
-15.4431 -11.6381 -1.54787
-18.3842 -11.1083 -0.375664
-16.8632 -11.426 0.337385
-15.745 -10.7985 -1.82315
-16.3868 -11.589 -0.569634
-14.9546 -9.77676 -1.57377
-14.6981 -11.1287 -2.69213
-17.1457 -12.7427 0.142705
-17.547 -11.2776 0.557171
-14.338 -11.0958 -0.144021
-15.9851 -12.9004 -0.0176313
-16.1087 -12.4385 0.944319
-16.1488 -10.7095 -1.43902
-16.1998 -11.0727 -1.28841
-19.0555 -12.2944 -0.755881
-16.1688 -10.2731 -0.777864
-16.7174 -11.1603 -0.0429306
-16.4346 -13.2945 -2.69393
-16.168 -10.8163 -1.2145
-15.4165 -11.7389 0.971326
-14.4779 -10.1209 -1.32767
-15.8562 -12.6682 -4.28347
-15.7417 -11.9912 1.62871
-16.1559 -10.5797 -4.70236
-14.2904 -12.9084 -0.565883
-17.0201 -10.2596 -0.940187
-15.7398 -12.3113 -0.597964
-14.5253 -13.1743 -3.22585
-14.9944 -10.8664 0.0569804
-14.196 -13.0695 -2.74561
-15.1325 -12.0462 -1.23711
-15.6803 -11.2327 -1.59565
-14.1622 -11.9254 -2.95389
-15.5262 -11.7857 -1.69489
-14.6995 -13 -0.698593
-16.1452 -12.7081 -0.663866
-14.1949 -12.4165 -2.78048
-14.9969 -11.9627 -3.45286
-15.1194 -12.8889 -2.14516
-13.9495 -11.524 -2.89439
-16.1216 -13.4273 -2.42509
-20.245 -11.0266 -3.6294
-18.0989 -12.2927 -2.3832
-16.97 -12.1664 -5.84128
-19.5753 -11.4766 -0.772308
-18.9485 -12.2909 -2.10019
-19.7755 -10.6813 -4.63627
-18.9125 -11.8932 -3.97939
-18.865 -11.5296 -3.56391
-20.0853 -11.5575 -0.929747
-18.0212 -11.5664 -3.4603
-18.745 -11.2866 -0.967995
-16.6512 -9.98585 -2.35188
-15.9415 -11.1337 -1.77577
-16.9315 -11.5873 -3.01583
-13.6908 -11.1163 -4.41548
-16.6643 -11.0113 -4.83758
-14.7948 -11.7529 -2.13331
-18.5466 -8.64811 2.54842
-16.0155 -11.4989 -1.50492
-15.3026 -12.2466 -5.06259
-15.9213 -11.8013 -3.10313
-16.5476 -13.8512 -4.01924
-16.7802 -10.8732 -1.69282
-16.0769 -12.1409 -3.60726
-15.7462 -13.4219 -1.42
-18.6673 -10.6753 -0.747085
-16.7806 -12.7073 0.0218242
-15.5658 -11.6709 -0.867194
-17.4185 -10.2643 0.875415
-15.5744 -13.0661 -2.31092
-16.5254 -11.7905 -0.936754
-15.9108 -10.9541 -1.09305
-18.9815 -9.55224 -0.00463703
-18.2453 -12.5819 1.14633
-15.7953 -11.242 -1.67265
-15.8149 -10.9057 0.787403
-15.9861 -10.4062 -0.894251
-14.1613 -11.9447 -3.02981
-16.9946 -12.9762 -1.52364
-14.0256 -12.0872 -2.67454
-14.3083 -11.8258 -3.37749
-17.454 -10.4685 -0.830421
-16.7364 -10.8524 -0.631535
-16.1541 -12.4275 -2.97365
-17.8141 -11.4692 0.447535
-15.7534 -11.9376 0.956547
-16.5972 -12.1754 -2.50396
-18.7677 -9.79816 1.0406
-16.0704 -11.2999 -0.665601
-15.7248 -12.6337 -2.19898
-17.0665 -11.5675 -1.46151
-14.8232 -11.3227 0.754752
-14.5852 -10.9916 1.16476
-14.8987 -10.0667 -1.46659
-16.8279 -10.7605 -0.306843
-15.8554 -11.738 -2.32547
-17.0641 -10.0581 1.32304
-16.8118 -11.7945 -1.40773
-16.9597 -11.8806 0.576439
-15.7075 -11.2429 -1.87576
-14.63 -11.8038 0.936467
-15.0133 -9.86366 0.512189
-15.3646 -12.7234 0.952489
-15.9937 -11.9266 -2.41622
-14.2687 -9.77271 -1.31836
-15.055 -12.3046 -0.235546
-15.9525 -10.3744 0.189606
-16.462 -10.739 -2.23474
-14.8535 -12.4153 -2.4123
-15.1101 -11.949 -0.196847
-14.2248 -12.4095 -5.08213
-14.3455 -11.7137 -0.609109
-16.5287 -10.86 -2.60057
-15.4112 -14.1055 -0.364584
-23.754 -11.0996 -5.31304
-17.941 -11.4952 -3.36678
-17.7064 -10.095 -3.45177
-17.4434 -12.1545 -3.55872
-17.6196 -11.1537 -3.10935
-18.0225 -9.92105 0.0757583
-16.0235 -12.3317 -2.87564
-18.867 -10.8204 0.926165
-16.4898 -9.59305 -0.239171
-18.501 -12.3822 -2.96996
-17.2538 -12.1077 -4.22139
-16.0659 -9.12994 -4.22332
-18.4638 -8.52986 -1.30761
-16.9383 -11.638 0.273818
-16.9977 -11.4342 -1.92843
-14.7779 -11.1922 -2.7823
-16.5004 -12.5664 -5.90575
-15.4554 -10.0174 1.47256
-15.6008 -10.1023 -0.0341956
-15.5583 -12.6526 -0.728611
-14.1956 -12.2534 -2.4916
-15.4158 -12.9145 0.395392
-15.2409 -13.1453 -0.300382
-16.6007 -11.5472 -0.727079
-14.8721 -11.407 -2.75458
-17.0466 -12.2274 0.329067
-16.4442 -10.8737 -0.00322302
-16.8668 -11.3669 -2.3637
-15.4087 -12.8615 -0.414524
-14.8693 -12.5553 -1.93441
-13.4338 -11.613 -3.17984
-14.6227 -11.302 -1.54559
-15.4061 -11.7313 -5.11507
-16.339 -12.6142 -1.03058
-13.9897 -12.312 -0.121281
-14.1045 -11.6675 -1.5509
-19.4759 -12.1456 -2.77845
-19.9534 -11.1322 -3.11156
-18.5528 -11.9841 -0.559794
-16.3404 -10.8016 1.30678
-17.8915 -11.787 -0.159655
-16.2432 -11.207 -5.9337
-16.1501 -10.8868 -6.16248
-17.1192 -12.5693 0.60533
-16.8428 -9.8312 0.141782
-14.6033 -9.56534 -3.59054
-15.9548 -11.4455 0.204085
-15.574 -9.49612 -0.640169
-15.665 -10.0813 0.418793
-15.3984 -11.4348 -2.72917
-13.9159 -11.9782 -3.45141
-15.8249 -13.4953 -4.13854
-21.2187 -9.42936 -0.731637
-16.4897 -11.329 -0.601357
-15.7236 -12.3768 -3.8661
-17.0733 -12.1182 -4.38127
-16.6959 -11.5078 -0.345194
-16.9227 -11.6281 -1.5131
-16.9534 -11.4915 -1.53752
-17.455 -10.0732 -1.54453
-16.5003 -10.8234 -1.22028
-16.3762 -12.4198 -1.94885
-13.9634 -12.3301 -1.78023
-16.088 -13.4047 -1.53835
-14.8297 -11.2665 -2.09763
-23.3727 -8.09127 -3.30025
-22.4651 -10.5628 -5.76185
-17.1972 -10.8552 -2.9185
-15.9684 -9.38098 -1.00557
-17.2983 -10.5153 -1.42924
-14.5376 -13.1604 -0.946312
-17.0763 -11.7789 -0.62008
-13.8482 -11.2012 -3.186
-15.3714 -11.5401 -2.32032
-14.8046 -13.0659 -3.55564
-15.0996 -11.5802 -2.78378
-17.8927 -9.45397 -3.11591
-15.9686 -11.3715 -3.41974
-18.0722 -9.64805 -2.03645
-16.8042 -11.7513 -1.8556
-16.3488 -11.9955 -2.09049
-15.5427 -10.9231 -1.68512
-15.1076 -12.9624 -0.498912
-15.4571 -11.1287 -0.680765
-15.9308 -11.0555 -2.37971
-16.2364 -13.3675 -2.92284
-19.2864 -10.9993 0.356904
-17.7137 -9.72003 -2.42745
-21.654 -11.8599 1.28227
-19.4263 -10.7179 0.713742
-17.5862 -11.5928 -0.47213
-20.2532 -11.4051 -1.67971
-20.3875 -11.7693 -2.34756
-19.9175 -11.3994 -5.81164
-19.7762 -10.7869 -5.10009
-20.2541 -10.0759 -3.08844
-21.2445 -12.3953 -2.86101
-17.8324 -11.9795 -1.6974
-20.7388 -11.0585 -6.94185
-14.7465 -11.9723 0.53505
-16.8405 -10.5802 -1.23393
-18.8127 -9.74719 -4.10278
-16.1155 -9.85701 -0.705515
-16.9346 -10.1514 -1.85064
-16.1903 -12.6613 -1.50239
-16.2195 -11.0555 -3.71847
-13.3427 -12.6706 -0.905057
-17.1747 -10.4416 -1.31802
-15.7918 -11.5531 -0.881782
-15.6324 -11.0931 0.237283
-15.1592 -12.3349 -0.184097
-16.5491 -10.1725 -1.64579
-16.5099 -12.4807 -1.54889
-15.5517 -11.5959 -2.6743
-15.9424 -11.5184 0.0345817
-15.4642 -12.7872 1.13022
-15.7007 -13.0135 -2.34043
-15.9963 -11.6358 0.357689
-17.3578 -11.4444 -0.311195
-17.5368 -11.9408 -5.59636
-14.8339 -12.471 -2.51603
-18.697 -11.0298 -2.12282
-15.1837 -13.1604 -0.99481
-18.9152 -12.5506 -4.56422
-16.1863 -10.0158 -2.85595
-15.1276 -12.5543 1.05434
-15.8812 -11.1856 -4.65406
-17.891 -10.8696 -4.15007
-15.5418 -10.973 -3.16405
-14.3008 -12.7606 -5.80969
-14.327 -14.1559 -4.88933
-16.0323 -12.9584 -3.63983
-14.5277 -12.5136 -3.41027
-21.5638 -11.8497 0.608591
-20.1821 -9.49378 -0.425585
-22.385 -9.30467 -3.87303
-22.8039 -10.2197 -5.08163
-21.5147 -10.7039 0.0699802
-17.743 -11.1044 0.876086
-19.7841 -10.236 -1.02387
-18.085 -9.63816 -1.59989
-15.6541 -10.1545 -1.84058
-16.4093 -9.45005 -0.903437
-17.5786 -9.52157 0.816479
-16.6769 -11.4576 -3.84527
-16.7357 -11.7663 -1.6261
-17.0617 -12.2734 0.831583
-18.9117 -12.8234 -1.50908
-16.4282 -10.0761 1.28442
-19.3239 -12.5481 -4.75124
-16.159 -10.4863 -3.06665
-16.8871 -11.3597 -3.00599
-18.2169 -10.6564 -4.7402
-16.8865 -10.7566 -2.5874
-15.8698 -11.9228 1.03458
-13.4751 -9.98128 -0.968559
-14.4078 -11.1753 0.798485
-15.5327 -10.0835 -2.12277
-16.1477 -12.7803 -0.362809
-15.4573 -13.2425 0.238465
-16.295 -12.5285 -2.35993
-16.1287 -10.6873 0.188237
-17.8644 -12.6568 -2.06668
-15.9875 -12.034 -2.20732
-15.5598 -13.7153 -3.20366
-16.0773 -12.7033 -4.77567
-16.2526 -11.9759 -3.18242
-16.4189 -12.8897 -5.07907
-15.0005 -11.0093 -2.84944
-15.2346 -12.6988 -2.49694
-13.8774 -14.0233 -3.16457
-15.4848 -10.6419 -3.54624
-20.0798 -10.5972 -0.174255
-21.8604 -9.0979 -3.64222
-17.7979 -11.2785 1.92549
-15.0735 -11.8091 0.227632
-17.2611 -12.4483 -0.0826376
-17.8658 -11.9509 -1.84247
-16.5318 -12.2731 0.566378
-17.1558 -10.7278 -0.504194
-17.0939 -10.8413 -2.33617
-15.4721 -10.08 -1.56234
-17.3295 -10.4836 0.729617
-17.2447 -12.2069 1.03976
-18.6029 -10.0141 -4.75192
-15.9785 -11.4564 -0.93838
-18.9306 -11.1969 -4.17298
-15.0718 -10.8734 -1.5571
-15.0861 -13.2824 1.75536
-15.8706 -11.6109 -2.06086
-15.2641 -10.7414 -3.945
-16.7226 -10.1557 -0.51773
-14.8704 -12.153 -1.34831
-16.9292 -11.2997 0.103839
-16.6352 -11.7438 -3.34274
-15.6519 -10.9685 -1.65844
-16.7291 -9.81932 -2.436
-17.0332 -12.5518 -3.63789
-15.3882 -10.1901 -4.53292
-16.9573 -12.7063 -5.0559
-15.8779 -10.792 -3.93448
-14.6964 -12.8739 -2.67932
-15.0421 -11.3415 -3.22325
-17.0419 -10.5292 0.210478
-17.5744 -11.611 -1.34011
-17.9761 -11.7038 -1.3342
-17.1287 -10.5785 0.523494
-16.9972 -10.7371 -0.624852
-15.4079 -10.0934 1.75882
-17.1341 -10.833 -1.85567
-15.4958 -12.5225 -0.686263
-15.4574 -10.034 -2.96192
-15.591 -12.5377 -3.19853
-16.4717 -11.1209 -3.46163
-17.0196 -11.7197 -4.31418
-15.3913 -13.0126 -2.05798
-15.5164 -13.4133 -2.74289
-15.1504 -13.4376 -3.6193
-14.7428 -13.2435 -4.64181
-17.4788 -9.96372 1.53704
-19.0548 -10.9675 0.025844
-17.6855 -8.94672 -0.00805537
-19.2424 -9.31071 1.1674
-15.7808 -10.6183 0.967983
-16.9888 -10.6541 -3.03618
-15.8834 -13.0548 -2.65269
-17.4999 -10.8387 -3.23687
-16.4092 -9.91351 -3.45579
-14.9695 -12.363 -1.57746
-15.2717 -9.88406 -1.94631
-19.5857 -10.6982 0.729229
-18.3706 -9.33523 -1.31387
-16.3019 -10.2501 1.01255
-15.5605 -11.4016 -1.2436
-14.9451 -10.7081 -1.54522
-13.4835 -12.0929 -1.16417
-14.2121 -11.1445 -2.03832
-14.6765 -12.1293 -3.5632
-18.0481 -9.6991 -1.90579
-14.9674 -11.8298 -0.0988658
-14.7503 -11.3773 -2.57693
-16.2342 -13.4219 -1.11918
-14.0463 -12.1406 -3.51829
-16.5518 -11.3884 -1.17016
-16.4986 -12.4444 -1.19575
-14.0371 -10.2809 -1.55615
-14.8345 -11.5714 -1.83798
-17.5926 -10.7832 -1.90072
-14.7022 -12.4071 -2.1344
-15.9499 -12.2518 -1.39074
-17.2456 -11.2451 -2.09917
-15.2402 -11.3033 -1.49888
-15.7373 -11.3324 -0.42164
-17.1059 -11.4168 -1.40732
-14.3841 -12.7067 -1.38063
-15.3956 -12.6243 -3.03186
-18.3632 -10.5013 -2.88406
-17.2845 -12.5457 -0.34583
-16.2678 -9.53 2.71333
-15.8903 -9.51337 2.68702
-20.821 -10.8137 -0.503245
-22.2893 -10.3142 -0.14544
-19.4155 -11.64 0.731146
-16.197 -11.2852 0.883236
-16.8415 -11.356 0.20099
-18.6335 -11.391 -0.357528
-15.463 -9.3285 -0.585048
-17.4637 -10.6996 0.875669
-16.5163 -9.95575 0.176546
-21.3459 -11.9963 1.23169
-15.4482 -10.5672 -0.919176
-18.2137 -11.8441 3.89381
-17.7823 -10.4357 -1.27415
-17.4942 -11.0678 -2.33642
-17.2274 -11.2376 -0.389364
-15.9434 -9.58059 -1.49068
-17.2026 -11.3922 0.00585282
-15.9761 -11.7109 -0.210308
-17.575 -13.151 -0.64423
-16.5331 -11.3644 -0.604768
-14.4076 -10.3652 -0.759735
-15.1801 -11.9178 0.339885
-14.3114 -12.9402 -0.374863
-19.6206 -10.518 -0.94127
-15.8385 -9.94851 -0.228303
-15.153 -10.7129 -0.290644
-17.7033 -10.6935 -1.04221
-16.5704 -11.0703 1.28814
-15.4428 -11.4755 -1.45882
-15.0645 -10.8619 -0.48813
-16.5168 -10.5579 -1.5287
-17.611 -10.1899 -1.8998
-15.1239 -10.8 -0.248468
-18.325 -10.9253 -2.78021
-21.2769 -10.438 -3.57526
-16.6766 -11.8466 -0.864194
-16.1577 -10.257 -0.907394
-15.1151 -10.4414 2.53685
-14.4478 -13.3998 -0.358252
-16.4866 -11.5613 -2.55879
-19.5364 -11.1219 -1.48054
-15.4595 -12.7873 0.840666
-16.6867 -11.5895 -0.428095
-16.5611 -10.9434 -2.03658
-18.1275 -13.0758 -1.71894
-16.6422 -12.713 -1.23176
-18.6568 -12.1553 -2.3516
-17.9356 -11.6677 -2.89247
-15.443 -11.2414 -0.223676
-14.1702 -11.3387 0.0464685
-17.6851 -9.37888 0.0882949
-17.5315 -9.34663 -3.23288
-15.8287 -11.9211 -2.34852
-16.9131 -11.3304 -1.22295
-17.1279 -9.87416 -1.56035
-19.8188 -10.8827 -4.8914
-18.4496 -10.2817 -2.8435
-18.9344 -12.6831 -5.0955
-16.138 -10.9663 -1.03895
-16.3703 -10.4843 -2.6129
-18.7386 -10.9377 -3.81659
-15.0476 -10.8877 -4.6875
-16.7867 -12.1024 -0.742762
-15.4904 -10.6944 -2.47223
-15.6283 -11.6789 -2.48807
-15.7605 -12.6228 -1.61643
-14.8258 -11.3867 -2.54143
-17.9264 -10.0256 -4.24481
-19.3584 -9.72457 -4.12547
-15.5391 -10.5042 -4.6092
-17.1617 -11.2328 -2.28106
-15.0294 -10.8185 -2.26542
-15.8034 -12.1423 -6.84104
-17.3851 -12.2718 -2.4696
-19.8027 -11.2084 -4.05388
-16.2829 -13.9685 -1.78305
-15.148 -11.4649 -1.84199
-15.9163 -9.98004 -1.66071
-18.09 -9.29394 -6.33965
-18.1855 -10.5486 -4.02553
-17.1696 -11.1794 -5.08619
-15.2733 -13.0944 -3.07402
-17.4168 -11.4881 -2.6814
-14.3013 -11.2505 -3.74674
-15.7717 -11.4814 -2.7009
-15.0766 -11.5822 -2.79204
-15.6845 -9.26128 -6.61866
-14.3947 -13.4016 -5.17457
-15.2244 -12.3739 -4.17649
-14.7846 -13.1087 -3.57929
-13.9741 -13.2226 -1.71443
-21.2757 -12.1919 -0.583127
-18.3503 -10.0456 0.640279
-17.8618 -10.2207 0.461221
-17.4399 -11.7737 -1.45595
-21.5207 -10.5462 -0.580488
-16.8608 -12.4709 -0.257767
-16.5712 -10.9162 -0.932062
-17.1632 -11.4476 -0.733163
-16.2871 -11.096 -1.96295
-17.4508 -10.6257 -1.85671
-18.6158 -12.8447 -1.12149
-16.5324 -14.2377 -0.974897
-16.412 -10.6765 -1.9605
-15.7734 -11.9686 1.72981
-19.4028 -10.0703 -2.15775
-14.5679 -8.0383 0.881444
-13.8224 -11.5901 -1.55711
-22.7285 -9.7669 -6.07395
-21.787 -8.62611 -5.25698
-17.1154 -12.7094 -1.59082
-16.0296 -11.4892 -0.567435
-15.8608 -11.8209 -1.25462
-15.5372 -10.8493 -2.20869
-17.9385 -10.0309 -2.298
-16.6675 -10.6926 -1.57039
-17.3674 -11.0875 -2.37951
-17.8501 -10.2103 -2.97099
-16.1556 -10.7786 -4.82222
-18.2544 -10.828 -1.40179
-15.124 -10.6875 -2.1845
-16.1097 -11.9179 -2.27588
-21.0534 -11.2134 -4.96903
-15.7461 -10.836 -0.36724
-19.5053 -12.2583 -5.76149
-18.4402 -11.3471 -3.1874
-17.1741 -12.4039 -5.53143
-14.8991 -13.7362 -0.728633
-15.5079 -12.2977 -4.13095
-16.396 -11.655 -1.67089
-17.0968 -9.9552 -2.88322
-16.5401 -10.1094 -3.35795
-16.2902 -12.7316 -4.74505
-16.7708 -12.2974 -2.94489
-17.7098 -10.7739 -6.88095
-17.8176 -10.1173 -5.6623
-14.8548 -13.0661 -1.66655
-17.0567 -12.6067 -4.87475
-16.4672 -10.4596 -2.44197
-15.2532 -12.3098 -2.32596
-15.9656 -12.2367 -3.70464
-15.1758 -12.3092 -4.57605
-16.1254 -11.0677 -3.93672
-15.903 -12.1497 -2.98841
-14.1765 -12.2271 -1.47595
-15.4191 -13.1893 -1.30699
-14.8094 -12.269 -3.74931
-14.6843 -11.0565 -3.84785
-14.3755 -11.8661 -5.19402
-14.368 -13.4712 -3.15842
-14.3749 -12.1001 -2.05386
-15.4525 -12.0182 -4.45261
-15.5095 -10.6848 -2.94372
-14.4357 -11.3121 -3.45748
-13.1012 -13.1621 -2.59299
-17.636 -9.75823 0.60039
-20.0268 -12.1566 -0.869044
-16.5333 -10.5421 0.808436
-19.0655 -10.4216 1.40862
-19.2639 -8.62183 -1.325
-18.4388 -10.0357 -1.86401
-18.1534 -10.9934 -1.19511
-15.7194 -11.3861 0.011312
-16.6362 -11.784 -0.272111
-16.1479 -11.3596 0.332838
-16.2561 -10.4066 -1.47709
-17.7697 -12.3385 -2.54532
-19.4135 -11.3503 -2.60453
-16.7537 -11.0083 -0.0398927
-23.756 -8.44084 -3.15943
-17.3016 -9.87863 -1.68013
-15.7584 -11.1183 -0.780048
-21.0865 -10.7496 -2.53324
-15.9521 -12.1205 -1.5847
-16.3677 -12.0995 -0.624541
-15.5007 -11.0743 -2.27391
-16.1966 -12.3221 -1.78649
-18.1297 -10.3769 -1.56543
-17.3063 -10.6107 -2.93736
-17.9352 -10.146 -2.11091
-19.1527 -8.46298 -3.10428
-15.8855 -11.7468 -2.28532
-16.5438 -11.1293 -2.09071
-15.5773 -10.7454 -1.80341
-16.198 -10.5951 -2.32219
-16.6979 -11.2143 -1.66441
-17.3548 -12.0815 -0.764181
-16.227 -12.9617 -2.3695
-17.2727 -11.4934 -2.90809
-15.0306 -11.4304 -1.09634
-15.8506 -11.6665 -3.31548
-17.9491 -11.0394 -2.99222
-17.0161 -10.7909 -2.61403
-13.5456 -12.2071 -1.44056
-18.5351 -11.1907 -4.08925
-13.4145 -11.6993 -2.50245
-17.7271 -11.1736 -3.13319
-14.1892 -12.252 -1.50681
-16.5557 -10.2631 -3.7169
-15.3235 -12.7896 -2.33735
-16.0039 -11.3687 -1.89344
-15.622 -10.4211 -3.82229
-16.2795 -9.82044 -2.95099
-14.5356 -10.7339 -2.56
-14.0093 -11.9477 -4.02709
-16.3189 -12.6907 -3.96015
-14.3087 -12.1636 -2.79258
-16.3003 -12.6356 -2.78864
-14.7302 -12.6634 -3.99384
-13.5207 -10.4707 -4.28127
-13.6119 -11.7247 -2.79511
-14.7049 -12.3135 -4.93219
-18.2334 -7.51751 0.256984
-18.9228 -10.6775 0.93309
-17.9356 -9.45284 0.0746502
-16.661 -9.47214 -0.856718
-16.2774 -11.3512 -0.458398
-16.5324 -11.4239 -1.01335
-15.6364 -11.7601 0.788507
-17.4473 -10.2293 0.361594
-17.4016 -11.7535 -1.63276
-15.3379 -12.6488 -2.40697
-16.5432 -11.2225 1.09448
-19.3027 -9.42852 -0.598366
-14.5188 -13.6487 -0.263435
-16.3477 -10.9133 -2.93177
-15.6903 -11.6198 -2.49478
-15.0653 -12.3664 -0.270808
-15.5413 -10.4413 -1.03878
-15.0682 -12.371 -1.49029
-17.2656 -11.5493 -3.8436
-15.2685 -10.0263 -2.90352
-18.749 -11.9402 -3.12556
-12.5373 -13.8839 -1.8334
-16.2197 -9.94927 -4.57181
-18.5705 -11.0514 -4.62179
-15.9986 -11.5922 -1.81661
-16.5262 -11.2106 -1.09971
-15.2606 -13.689 -3.09761
-17.2573 -11.1278 -3.70288
-14.9205 -12.7213 -3.92968
-16.901 -13.4493 -3.19033
-17.0954 -11.6648 -3.74334
-17.0528 -10.3622 -1.55272
-14.6259 -13.0818 -3.87229
-14.8584 -12.6632 -3.56893
-15.3876 -10.6605 -2.65169
-16.6356 -12.4644 -4.01309
-14.7745 -13.5355 -4.62884
-12.8002 -11.7111 -2.82615
-19.9235 -11.9351 -0.147754
-15.8183 -10.5407 0.318103
-16.7789 -11.8874 0.380042
-15.8314 -11.3331 -1.17688
-14.298 -10.2772 -0.715336
-15.4445 -12.1077 2.1361
-16.9456 -12.1259 -1.13922
-17.2518 -10.5212 -1.21475
-16.4431 -12.1793 -0.835389
-23.8177 -9.31386 -3.2403
-18.7205 -11.1298 -3.15928
-14.4461 -11.5729 -2.70306
-17.8017 -11.7122 -1.15148
-15.4854 -11.7325 -0.58102
-14.8634 -12.4603 -2.43345
-19.5757 -12.5237 -3.61122
-15.1267 -11.8708 0.499432
-14.8515 -12.2577 -2.5633
-15.7385 -12.5681 -3.80271
-14.4552 -10.1809 -3.23388
-16.81 -11.6456 -0.660879
-15.9187 -13.7325 -0.0710989
-16.328 -11.1845 0.768527
-15.0194 -10.7534 -2.6609
-21.0983 -8.31519 -3.8991
-16.2804 -10.5459 -1.85138
-17.1733 -11.279 -2.03083
-15.6198 -12.1734 -1.64117
-15.2397 -10.8507 -1.68252
-14.1322 -12.8738 -1.69396
-14.4249 -13.1228 -1.99633
-15.9463 -10.5845 -2.61102
-16.8041 -11.4296 -0.407487
-16.3757 -10.9098 -2.27472
-14.8515 -10.2726 -3.36077
-15.9432 -11.9726 -2.60961
-16.9083 -12.51 -3.37648
-18.0926 -10.3037 -1.41351
-15.2337 -10.7027 -0.16134
-17.15 -11.0887 -2.23736
-16.5841 -11.9581 -0.96787
-17.7926 -10.4182 -2.24934
-15.3414 -12.356 -1.43144
-13.8758 -12.3259 -2.79255
-15.2155 -11.703 0.227549
-15.1261 -12.4971 -1.50739
-16.1816 -11.6912 -1.98908
-15.9126 -11.4651 -1.09397
-15.8098 -12.3737 -3.14246
-16.509 -11.7161 -0.560083
-14.5437 -11.9954 -2.29895
-15.2623 -11.3616 -0.0833155
-16.228 -9.93888 -1.28352
-16.3091 -10.2747 -0.902685
-14.4883 -12.2214 -1.09449
-15.7893 -9.83205 -2.72638
-15.1636 -11.8695 -0.65291
-18.1836 -12.6114 -0.805765
-16.893 -11.6386 -0.563572
-16.7319 -11.0668 -2.5344
-13.9 -11.4055 -3.00751
-15.4501 -13.5529 -3.41781
-18.3321 -10.8786 -3.39144
-14.3341 -12.5648 -2.97649
-14.6846 -14.3925 -1.64493
-21.0753 -11.1585 -3.39136
-15.2333 -12.6677 -2.20501
-15.2434 -11.6686 -3.87736
-21.0006 -9.86689 -2.89771
-19.8451 -8.50849 -3.83877
-15.6497 -11.4515 -2.3649
-15.0524 -12.2972 -1.87005
-16.1509 -10.7879 -4.09916
-19.8103 -11.055 -2.2233
-16.6686 -11.8145 -1.87068
-14.2071 -13.3632 -1.3196
-19.2122 -11.1489 -2.6637
-19.8661 -11.2373 -1.64132
-20.857 -11.593 -2.09049
-19.7255 -11.4238 -1.45236
-21.1012 -9.06677 -3.80531
-15.3468 -10.7534 -0.319769
-20.91 -9.22478 -3.2922
-15.8768 -9.63172 -0.253722
-19.7088 -9.50995 -2.49876
-20.3831 -11.1547 -0.760918
-18.2623 -11.1376 -1.15692
-16.9137 -11.0456 0.223708
-19.6952 -11.4602 -1.9486
-14.6221 -12.0622 -1.7649
-15.8297 -11.5304 -0.745314
-15.6594 -10.8596 1.04095
-20.7465 -11.2178 -2.55856
-15.5432 -12.2661 -0.841465
-16.2662 -11.0967 -0.417746
-17.7775 -13.3233 -1.26665
-17.3497 -10.1341 -1.17092
-17.0339 -12.117 -0.522739
-17.0249 -11.2875 -1.26739
-15.8349 -11.7794 -1.60289
-16.817 -11.1866 -0.345867
-15.7884 -10.7514 -0.810004
-17.8865 -10.3409 -0.852033
-17.5179 -9.9632 -0.190458
-18.4723 -11.8913 -1.28947
-16.2976 -11.8151 -0.303482
-16.3417 -8.06091 1.50068
-14.4116 -8.73606 0.100261
-14.4732 -11.3683 -3.53807
-14.211 -10.9948 -1.71257
-16.9832 -14.1856 -2.21814
-15.0274 -13.1075 -4.97892
-15.9114 -8.88847 -2.40835
-20.525 -11.0804 -3.78523
-17.5187 -10.1673 -2.63141
-19.8867 -10.756 -4.54677
-18.4639 -9.95561 -5.15588
-19.5216 -12.6036 -4.52701
-21.0077 -9.84721 -5.98875
-20.0464 -11.1946 -3.03959
-19.7125 -8.38168 -3.60492
-15.483 -11.1069 -2.92794
-21.5073 -10.3066 -4.84503
-21.3621 -11.3023 -5.39888
-20.1894 -11.8485 -3.38096
-17.5548 -11.506 -2.47933
-14.4933 -12.5596 -1.44473
-16.2334 -9.35246 -1.48722
-17.1585 -11.6349 -2.42914
-16.235 -11.2916 -1.73233
-15.4056 -11.0993 -1.95201
-16.8349 -12.7607 -2.55313
-15.4124 -11.6332 0.205534
-16.2661 -11.5802 0.379296
-15.9655 -10.6904 -0.85743
-16.2093 -10.8919 -0.48737
-15.8155 -10.2878 0.745915
-16.5863 -11.4661 -0.80762
-15.5078 -11.4169 0.523563
-17.9506 -11.4275 -0.601673
-17.7105 -8.40052 1.58264
-19.5079 -9.32934 -0.195892
-14.5672 -11.14 -4.44501
-19.2247 -10.3977 -4.92641
-19.1732 -11.16 -6.45299
-18.3289 -9.68379 -3.90886
-17.9362 -11.9605 -3.39221
-15.0491 -11.6459 -2.58992
-14.8605 -11.4182 -2.16569
-15.6247 -9.09626 -2.16695
-16.748 -9.74264 -2.02755
-14.9027 -12.1195 -1.12666
-15.2765 -14.4548 -2.46253
-16.8595 -11.6392 -1.45358
-15.5848 -10.6545 -4.20733
-21.1279 -11.6284 -4.30411
-15.7498 -10.9727 0.104945
-16.8969 -12.5632 -1.76013
-16.2996 -11.2918 -3.6883
-19.7778 -10.9337 -4.09538
-21.2198 -11.9628 -3.11024
-19.3187 -10.1221 -2.82634
-16.6305 -12.0813 -3.30003
-15.1952 -10.5646 -1.75916
-21.521 -11.6511 -0.662205
-15.4178 -10.7936 0.365586
-17.7384 -11.5075 -0.310514
-19.5297 -9.77958 0.120174
-20.4554 -13.2127 0.663411
-22.1063 -10.2852 1.82389
-18.5235 -11.6943 1.81013
-17.2793 -10.9557 0.0273066
-19.127 -10.8155 -0.902436
-13.8547 -12.9058 -3.3134
-18.3356 -10.2749 -4.94646
-14.5136 -13.1745 -2.79924
-14.7793 -12.7511 -3.30366
-15.5157 -11.5497 -2.34187
-14.0622 -13.0114 -1.94534
-16.5012 -11.7001 -1.93506
-15.5218 -12.1958 -3.95143
-15.8278 -11.2111 -0.97471
-14.9165 -9.87895 -1.45154
-15.8888 -10.8763 -1.35095
-15.5505 -12.7302 -2.87336
-16.7322 -9.42443 -2.90834
-15.4895 -12.3219 -0.216345
-14.0769 -10.4803 -0.486838
-17.2852 -9.53259 -1.61832
-14.8601 -12.3478 -1.50698
-16.7271 -11.4962 -2.66101
-18.2559 -10.9926 0.153739
-14.0452 -11.9945 2.3514
-20.0776 -11.5252 1.8104
-17.105 -10.0615 -0.128194
-15.545 -12.31 2.11037
-14.6474 -10.2688 -3.08257
-18.4406 -12.3238 -1.24755
-17.0817 -12.5018 -3.0086
-21.0268 -10.1449 -3.68536
-15.8215 -11.5523 -1.0346
-16.6255 -11.5944 1.13734
-16.4094 -12.1911 0.932089
-16.4266 -12.3017 -3.36324
-16.1334 -10.7132 -3.27454
-14.4039 -12.9827 -1.03516
-16.2111 -11.7779 -1.91302
-16.9316 -10.7116 -2.86822
-17.2968 -10.0524 -0.96721
-15.0231 -11.3302 -2.07524
-19.9118 -10.6249 0.777853
-16.4133 -10.4654 1.09243
-14.6111 -13.2708 -2.81576
-16.3341 -10.8296 0.154785
-18.1529 -10.0675 -0.0784874
-18.4486 -11.0887 -1.46871
-14.8089 -10.721 -2.84116
-14.9855 -10.5746 -2.11325
-17.6807 -11.5518 -2.96284
-14.5808 -10.66 -1.05729
-20.4305 -10.9526 -5.8859
-19.1832 -9.9408 -4.78105
-17.6456 -11.3071 -5.0121
-17.0192 -12.2572 -4.71273
-20.1144 -9.95412 -3.96286
-17.9825 -10.3487 -5.80065
-20.8935 -10.7097 -4.48589
-20.1051 -10.5263 -2.90385
-17.1659 -11.496 -2.93421
-19.245 -10.6543 -3.09836
-17.0367 -11.5019 -4.78304
-16.6465 -9.39509 -4.43916
-17.975 -11.3822 -3.44725
-18.1285 -12.508 -4.47417
-19.1052 -9.94093 -4.12834
-18.5187 -13.822 -2.45605
-19.4374 -10.2575 -4.75725
-16.5789 -11.7577 -4.49561
-18.0652 -11.8011 -3.76821
-18.16 -10.0902 -3.66048
-15.2425 -11.991 -3.36449
-16.654 -12.3135 -2.99255
-13.9095 -13.5163 -1.81114
-14.3989 -12.3314 -5.75447
-18.8497 -9.71832 -2.82298
-17.2094 -10.4019 -2.06463
-21.3035 -10.122 -3.75549
-14.1097 -11.6149 -3.63885
-16.614 -12.0953 -2.3942
-14.3829 -10.8813 -4.21156
-14.0194 -8.65763 -4.17191
-15.8609 -11.1882 -1.8023
-18.1557 -10.9829 -1.63654
-16.2722 -11.6491 -2.39241
-15.854 -12.008 -2.02045
-14.6867 -11.5614 -3.29271
-15.397 -11.1611 -0.819732
-14.7129 -11.9807 -1.29651
-15.9754 -10.5279 -2.41063
-17.3018 -10.3747 -3.69234
-15.5135 -9.12813 -2.96392
-16.2165 -10.7894 -2.54167
-17.5179 -11.3892 -2.00592
-14.9933 -13.3623 -2.89516
-14.6997 -11.5584 -3.09695
-17.4584 -11.0518 -1.58736
-16.5976 -12.6346 -2.943
-15.7941 -11.6456 -3.19942
-18.5445 -10.7461 -2.08759
-20.7777 -10.8056 -2.63489
-14.3694 -10.0338 -1.45456
-17.4564 -12.2204 -2.44043
-22.0662 -9.26411 -2.38553
-17.4802 -11.004 -1.23656
-14.2439 -14.1016 -2.60623
-14.7128 -12.2237 -1.94938
-16.8571 -12.2415 -2.12687
-13.3333 -11.5689 -2.0331
-17.1251 -12.9843 -1.65855
-15.482 -11.647 -1.25902
-15.6026 -13.8206 -1.93262
-21.5651 -9.44626 -0.367448
-16.0133 -9.13809 0.0779963
-18.5023 -9.44054 0.278834
-15.9875 -11.8985 0.941949
-15.4713 -13.1531 -3.12562
-18.8119 -12.3772 -0.96567
-16.9952 -10.2851 -0.514765
-20.37 -11.6702 2.05504
-17.2554 -10.3152 -1.14843
-16.4431 -12.2643 -1.97367
-21.6448 -11.1732 0.599644
-15.968 -10.6306 -0.19649
-15.6431 -10.1734 -0.7266
-17.1361 -9.35117 -0.261631
-20.4814 -10.6657 0.902117
-14.4714 -10.7219 0.33199
-16.7336 -11.2351 -0.35458
-14.9407 -10.2971 -0.240906
-17.1171 -11.4079 -0.0140786
-14.7261 -12.2826 -0.0128101
-13.6536 -10.0321 -0.649045
-13.1382 -11.5614 0.862301
-17.351 -9.81814 0.305115
-15.59 -11.9853 0.708294
-17.5425 -10.3364 0.118967
-13.1571 -12.538 2.39056
-20.2267 -11.9521 -4.79027
-20.0596 -9.91194 -4.90225
-17.6268 -11.7702 -5.02876
-19.8145 -9.17847 -2.65808
-21.1788 -11.6523 -4.18753
-16.7407 -12.0317 -2.59986
-15.6507 -11.2157 -3.66924
-19.4745 -11.3326 -4.82783
-19.1401 -11.6542 -4.88704
-21.7122 -11.3414 -5.04139
-14.3837 -9.0579 -3.3979
-19.6432 -11.3972 -3.50242
-15.169 -12.3542 -2.81068
-15.9191 -11.3451 -3.83489
-13.9042 -13.3905 -3.15113
-19.1555 -10.7354 -3.606
-14.9778 -12.9979 -3.62942
-19.9545 -11.1707 -3.58663
-18.853 -12.3454 -3.50519
-15.9985 -11.6385 -3.96938
-18.5876 -10.1402 -2.03767
-15.2337 -11.9233 -3.21984
-13.3838 -11.2659 -4.67501
-16.0056 -12.0715 -3.751
-16.2241 -10.5272 -3.25197
-19.4663 -8.59521 -2.82747
-16.1891 -13.3732 -3.50882
-19.5849 -11.6807 -2.91276
-20.0543 -10.8703 -3.26098
-19.9512 -9.59119 -3.12182
-20.3728 -10.76 -4.04977
-15.696 -10.4288 -2.72057
-19.2999 -10.4031 -2.29337
-14.9901 -11.644 -3.66064
-13.7585 -10.1993 -2.34652
-14.0248 -12.3178 -1.37458
-18.8928 -11.9893 -2.18637
-15.2126 -10.7744 -3.59346
-14.4645 -10.1166 -0.712883
-19.9079 -9.54966 -2.19108
-14.8112 -10.8971 -0.805675
-13.1045 -12.0568 -2.40053
-13.7197 -12.7325 -3.08522
-19.4062 -10.7235 -1.8835
-17.6984 -10.7652 -2.50786
-15.5721 -11.5845 -1.95989
-15.8017 -11.2959 0.136939
-18.9716 -12.4765 0.708419
-16.6942 -10.7616 -2.47073
-16.394 -12.8573 -1.45114
-17.1336 -10.9725 1.80695
-13.9198 -12.013 -0.33992
-18.1647 -11.4526 -2.66739
-16.2734 -12.988 -0.11735
-15.4863 -13.3895 -2.34684
-17.7793 -12.8818 1.36531
-17.5193 -11.6408 -0.419232
-16.0087 -12.1242 0.738408
-17.6523 -10.8353 1.81648
-16.8747 -10.8904 2.22737
-16.7087 -12.0104 0.428888
-15.0272 -10.9695 -1.12398
-18.1423 -11.1441 1.53261
-19.6702 -11.5309 -5.59471
-19.8707 -11.6214 -3.675
-19.3642 -10.5655 -6.57685
-17.4917 -11.7841 -3.33487
-17.8311 -12.904 -4.14175
-17.3202 -11.9667 -6.10804
-17.4331 -12.1533 -3.73491
-21.1441 -10.4886 -3.05645
-16.6125 -10.2913 -4.40933
-16.7801 -11.9897 -2.74945
-15.4063 -12.4622 -4.25615
-15.657 -10.9029 -4.29075
-16.2775 -11.9678 -4.6429
-15.8298 -11.8953 -3.28623
-16.551 -11.0232 -2.89434
-19.7153 -9.92788 -7.30705
-21.3033 -11.7666 -4.74764
-20.1923 -12 -3.5603
-17.3977 -9.73643 -1.6601
-16.7832 -12.0116 -3.7343
-15.8853 -11.8489 -4.38174
-15.4436 -10.0897 -2.62969
-13.231 -12.763 -4.19629
-16.1641 -11.6336 -2.00604
-15.5749 -11.7008 -1.84592
-15.5951 -10.5131 -1.6078
-16.7223 -10.478 -4.24887
-18.7443 -12.7537 -3.1037
-19.0572 -11.5422 -0.91835
-20.9025 -9.88145 -4.03043
-19.351 -10.7222 -3.65538
-17.0562 -9.98414 0.236496
-16.7883 -9.53768 -1.55351
-13.2209 -13.2515 -2.66182
-15.425 -10.3133 -2.57321
-16.751 -11.6061 -1.76331
-15.3954 -12.1522 -2.25147
-13.8699 -14.2621 -2.64205
-16.4763 -11.4772 -1.76151
-14.539 -13.6504 -0.201234
-18.2551 -10.9512 -1.2382
-16.8368 -9.80185 -0.0187497
-16.9029 -11.8524 -2.03594
-17.512 -10.2298 0.774537
-15.1907 -12.0611 -1.46148
-15.6918 -12.1666 -1.52963
-13.3697 -12.423 -1.2826
-16.3814 -11.5289 0.0965719
-15.4499 -10.5591 0.960511
-16.1483 -12.6352 -1.14394
-21.9402 -10.0322 -0.428318
-17.7552 -10.8167 1.05214
-16.5731 -9.22706 -0.987236
-14.2726 -11.3516 -2.66533
-16.9389 -12.951 -1.09963
-17.6488 -12.9276 -1.01167
-17.6185 -10.2375 -1.02234
-17.1896 -11.1341 0.84788
-15.8402 -9.80688 0.0606244
-15.8308 -9.95523 -3.01624
-15.355 -11.1916 -0.470665
-13.5423 -12.1022 -0.977675
-18.5062 -10.7607 -5.73782
-17.4357 -10.2279 -5.34196
-22.1975 -9.54157 -3.12683
-17.917 -10.9198 -3.80149
-19.2656 -11.7707 -4.59007
-17.7507 -12.1029 -5.40395
-13.063 -12.5325 -3.29728
-18.2517 -12.1219 -2.6416
-13.608 -12.077 -3.05995
-15.479 -12.5021 -1.72129
-16.4399 -11.1572 -2.73909
-14.4338 -10.6639 -0.864725
-13.8911 -9.44382 -3.04871
-20.836 -10.3093 -3.674
-16.5653 -10.6131 -2.6656
-15.5532 -11.7541 -2.98293
-15.4391 -11.3597 -1.41479
-14.5399 -12.0674 -3.01856
-14.6499 -12.5185 -2.60344
-16.7564 -11.8429 -0.701794
-15.8321 -11.4802 -1.06599
-16.5589 -11.1817 -2.30407
-18.6094 -10.2814 1.81363
-16.6274 -9.8798 -0.977504
-22.5122 -9.9463 -5.78869
-16.7991 -11.4886 -3.20722
-16.2802 -12.3783 -2.91231
-16.4225 -12.3514 -3.60808
-16.7031 -10.0444 -1.52522
-15.4826 -12.3633 -2.49696
-17.1594 -11.0522 -1.90446
-14.4743 -12.0313 -3.61702
-20.3565 -12.1704 -2.16401
-18.1551 -10.0557 -2.24722
-16.7516 -11.0139 -0.6514
-16.1376 -10.4354 -0.845955
-17.2955 -10.8727 0.221245
-20.1207 -10.9876 -1.97978
-16.5046 -11.0954 -0.172367
-17.0358 -10.3113 -0.273255
-17.6638 -9.48378 1.29064
-17.3129 -13.4817 1.05429
-13.7829 -11.6465 -4.42224
-19.6409 -10.6129 -2.75415
-14.7874 -12.2289 -0.929229
-16.7526 -12.9128 -1.79897
-18.0067 -11.9031 -3.99329
-17.7955 -10.4963 -0.956351
-18.4168 -9.69596 -2.99133
-16.2259 -11.5226 -2.24665
-15.7688 -11.8151 -1.4621
-17.0698 -11.3318 0.309309
-14.6509 -11.2227 -5.93046
-16.5643 -11.8683 -2.58874
-17.7199 -11.0619 -2.23346
-17.4478 -11.5027 0.110327
-14.2016 -13.6471 -0.568475
-16.4441 -12.3037 -2.50925
-15.1529 -11.8884 -1.643
-15.6883 -11.1962 -1.68883
-15.502 -11.9823 -2.03726
-17.8504 -11.4748 0.58195
-16.4285 -11.1642 -0.544992
-14.4144 -13.2694 -2.61202
-15.2395 -10.8071 -1.09871
-14.075 -11.6974 -4.1599
-16.6648 -10.6196 0.220124
-15.5955 -11.4103 -1.40497
-16.7305 -10.4179 -4.23918
-17.8185 -10.831 -2.68382
-17.3977 -10.8079 -3.20683
-14.8307 -11.3433 -3.10486
-17.1724 -10.9625 1.04575
-15.3315 -10.022 2.00056
-23.7757 -9.76041 -5.29739
-21.7168 -10.2584 -5.10191
-18.9721 -11.5485 -4.91523
-19.3417 -10.2935 -4.49089
-19.4858 -9.97124 -4.29753
-21.2131 -10.0531 -5.13522
-18.4129 -11.6691 -3.86804
-18.9937 -10.9869 -2.0518
-19.6569 -11.3753 -3.54154
-20.5868 -11.8738 -4.15514
-19.5027 -10.0521 -3.47547
-20.422 -9.73395 -2.26226
-18.06 -13.6344 -5.68282
-16.1595 -10.9307 -5.28325
-18.3409 -11.5688 -4.04198
-20.8565 -9.18352 -3.90813
-18.4011 -10.1217 -5.38922
-16.823 -10.2957 -3.73214
-21.3951 -9.88549 -2.72685
-16.634 -10.3042 -3.18411
-16.4178 -12.0008 -3.39916
-16.5564 -9.79108 -1.06444
-18.409 -11.7634 -4.24406
-18.3055 -12.0689 -2.3904
-17.7702 -11.6895 -2.56445
-15.1606 -11.0122 -2.58445
-16.2524 -10.618 -3.56974
-20.2446 -12.6519 0.389843
-16.2649 -13.6776 -4.88015
-17.6781 -12.3415 -2.81672
-16.5747 -13.5057 -2.45425
-16.2822 -13.8589 -4.04852
-19.0709 -11.3331 -1.19256
-15.0262 -11.2376 -3.73948
-21.3453 -9.11896 -1.47153
-18.1854 -13.0118 -3.0346
-18.4166 -11.8572 -3.2723
-20.684 -10.8095 -0.746215
-13.4428 -12.8595 -4.04092
-16.1378 -9.94214 -4.40183
-15.24 -10.6837 -5.39089
-16.1863 -11.9001 -2.75108
-13.8593 -11.8442 -1.75408
-15.754 -11.0677 -2.35959
-20.9824 -10.2684 0.992793
-20.9784 -11.3316 1.5274
-18.3717 -9.08204 1.48816
-14.1821 -12.3219 -1.36515
-13.7008 -14.4122 -4.46775
-14.2193 -12.1692 -2.3617
-15.2204 -11.6453 -3.50192
-13.8371 -11.938 -4.99456
-18.3564 -9.93863 0.905012
-13.9404 -12.5768 -3.43654
-14.3437 -12.0634 -1.77353
-15.2387 -10.0508 -2.557
-17.1472 -10.7399 1.48759
-18.581 -8.57727 1.74297
-17.1078 -9.80834 -0.195247
-15.2375 -12.9429 -0.279858
-16.1287 -10.5162 -1.79513
-14.0709 -11.5512 -3.78504
-16.6126 -12.1054 0.540492
-16.1898 -11.367 0.958531
-17.5241 -10.4899 0.674004
-18.3192 -10.6196 0.139997
-18.468 -10.2444 -0.643666
-17.1491 -10.9281 -1.483
-13.655 -11.927 -2.65342
-15.9237 -10.3546 0.220697
-17.2808 -11.8421 -0.0766567
-15.7983 -11.2397 1.07997
-17.1688 -11.9469 2.04783
-15.3735 -11.3436 0.00598808
-16.7992 -13.2553 -1.06041
-17.4269 -12.0894 0.792848
-15.3752 -12.5327 0.0172281
-21.134 -10.6942 -5.04921
-20.4986 -10.3523 -5.0846
-18.4712 -9.90047 -4.97203
-19.0704 -9.19406 -2.68937
-19.3744 -10.1169 -3.86247
-19.6623 -10.5669 -3.20905
-19.7667 -11.1656 -3.78182
-16.7604 -12.2119 -4.47458
-18.1608 -11.2557 -1.74803
-17.3887 -10.4684 -5.76624
-15.6509 -10.9598 -5.14343
-16.3708 -10.8835 -3.43403
-15.5456 -11.2716 -2.67301
-13.9911 -12.3021 -3.17866
-17.7041 -12.0079 -3.68161
-18.2514 -11.773 -1.96627
-17.6913 -8.42031 -0.430318
-18.9839 -10.4811 -1.22517
-17.2459 -11.9749 -1.91974
-14.8412 -11.0474 -2.44237
-15.6439 -11.6281 -2.6956
-17.1423 -12.9246 -4.4023
-13.8415 -12.4648 -2.25831
-18.1088 -10.4649 -3.22369
-17.644 -12.0405 -2.48012
-16.3752 -12.2136 -1.67793
-15.4702 -12.2202 -2.31349
-15.5962 -12.2167 -2.35454
-14.8799 -10.3222 -3.06757
-21.7969 -9.92233 -0.327418
-20.393 -12.3842 -0.139495
-15.1939 -12.6066 -0.55394
-15.0043 -11.9305 -3.62044
-17.9809 -10.772 -1.35042
-18.7999 -11.1658 -1.65067
-16.4661 -10.2415 -1.22065
-18.1528 -13.9738 -1.18139
-15.9943 -11.7369 -2.12976
-16.8119 -9.9712 -1.90419
-15.6894 -8.5366 1.54855
-17.2509 -11.269 -0.0141682
-15.2633 -13.7288 -2.93087
-17.8618 -10.9721 0.727878
-17.8183 -9.80059 0.674779
-15.1293 -12.7519 -1.2669
-15.6285 -11.271 -0.202511
-15.8824 -10.2053 -0.929411
-16.5086 -11.6262 -1.52349
-17.8522 -12.4972 -1.89254
-16.8779 -10.7265 -0.164236
-17.4637 -9.99443 0.991754
-16.2511 -11.0081 -1.23572
-16.4962 -10.7709 2.5123
-14.6795 -12.2756 -1.93796
-14.9972 -12.4965 0.0299239
-14.8819 -12.6483 -1.03826
-16.3122 -13.806 -1.15851
-16.398 -11.465 0.236503
-22.0161 -8.631 -3.43079
-19.4102 -9.50858 -5.29185
-19.2629 -10.5616 -3.3083
-15.6139 -11.5991 -3.84973
-15.8684 -9.2076 -2.13415
-15.1827 -10.7692 -1.51277
-15.4861 -12.3579 -2.96813
-13.9407 -13.6146 -5.3684
-13.9902 -12.5879 -1.31163
-20.1307 -11.4786 -1.27929
-15.2621 -10.8933 -2.55461
-16.9578 -11.0391 -6.06059
-17.4853 -12.4874 -0.517808
-14.9125 -11.5025 -2.54027
-14.7905 -11.9818 -4.49683
-15.4098 -12.7091 -4.52593
-14.6556 -11.8772 -2.68456
-20.7325 -9.49658 0.903643
-19.0845 -10.8813 0.303093
-16.1732 -11.8421 -3.63229
-18.6665 -10.6896 -2.18495
-15.3498 -9.19773 -1.64439
-17.6197 -10.0644 1.18864
-16.716 -11.8032 -0.887927
-16.6921 -12.635 -0.099408
-14.9038 -11.852 -0.173138
-16.2058 -10.3441 -0.0883685
-14.2354 -11.8552 -0.313222
-15.8298 -11.3242 0.289952
-16.8468 -10.7429 0.571771
-15.9379 -9.60976 -0.774131
-17.6571 -12.7503 -2.94286
-17.3684 -10.5004 -3.43477
-16.4409 -11.7923 -1.86233
-17.4113 -9.95638 -0.324303
-14.1294 -14.338 -2.3031
-18.6713 -10.2546 1.4037
-18.5385 -9.41859 1.46098
-17.6426 -9.52884 2.80549
-18.049 -10.7186 0.434821
-16.7645 -11.1378 0.142102
-16.9018 -11.9041 0.176216
-14.3492 -11.9949 0.488539
-16.8203 -11.2643 -0.374762
-17.5621 -11.8679 0.677735
-15.9152 -11.9114 1.79887
-15.0882 -10.7406 0.744912
-15.8816 -12.1423 0.738238
-17.1336 -12.2537 -1.30015
-17.8514 -10.8918 -0.294388
-16.352 -9.37802 0.0732729
-23.4301 -8.93657 -3.88743
-15.6894 -12.2055 -1.03468
-17.6309 -11.2952 -1.47606
-15.1907 -10.7422 -3.21456
-18.0128 -10.8646 -1.72648
-16.4721 -12.9808 -2.50221
-15.839 -9.71139 -0.882034
-15.5644 -11.8184 -1.32495
-15.5537 -11.695 -0.817266
-14.6913 -12.5162 0.693137
-16.0635 -9.77647 -1.13224
-16.498 -9.82928 -1.90772
-14.5843 -12.1995 -0.500477
-16.66 -12.2534 -2.06792
-18.3427 -11.3782 -1.1201
-18.7613 -11.2289 -3.06935
-17.4956 -10.1536 -1.59478
-15.7526 -11.1623 -0.196501
-16.9449 -12.4651 -0.810433
-17.9427 -10.7863 0.66617
-14.1141 -12.1017 -0.525651
-18.4581 -11.3572 -0.221809
-16.3461 -12.0548 -2.20834
-16.3385 -11.3957 0.00641361
-16.3343 -11.7552 -4.54163
-18.6573 -11.625 -2.47867
-15.9567 -12.6876 -1.58952
-20.1168 -9.59108 -3.69596
-19.3924 -10.5555 -3.06601
-21.5061 -10.9773 1.02606
-21.7642 -10.5764 1.32368
-22.5503 -10.1347 0.588135
-21.046 -12.66 -3.72109
-19.4809 -10.6891 -1.68363
-18.0894 -11.5815 -4.60728
-19.8856 -10.4226 -2.8224
-21.371 -11.2791 0.292064
-18.8367 -10.8781 0.64261
-18.7041 -12.1532 -3.24202
-17.9243 -13.3472 0.431307
-16.7072 -11.1014 -4.08335
-15.4583 -10.2659 -6.74614
-18.1699 -9.67413 0.470849
-16.109 -9.21515 -0.841361
-17.0358 -11.5567 -3.88629
-16.5205 -12.3052 -2.86612
-18.1541 -11.2276 -1.83908
-17.3103 -11.7764 -1.17915
-15.0461 -12.7692 -4.26603
-14.7969 -10.6361 0.644522
-16.6511 -12.2431 -1.6622
-15.4567 -10.7783 -5.28623
-17.2794 -12.4102 -0.637241
-16.3396 -10.6008 -0.943817
-16.2102 -9.92825 -1.25266
-16.381 -11.8326 0.394832
-15.4468 -12.3198 -1.8261
-16.1818 -12.0661 -3.17373
-14.4845 -12.5524 -1.82582
-16.3449 -11.3482 -1.2245
-17.3628 -9.15991 -0.297444
-17.2883 -12.5474 -2.84209
-18.4087 -11.8937 -3.42701
-17.4802 -11.4002 -2.71979
-16.2214 -10.9129 -3.73549
-15.5518 -10.3669 -2.30128
-15.6687 -11.024 -5.2391
-18.2882 -12.5862 -2.11288
-16.7315 -10.3891 1.16945
-16.1651 -11.7922 -2.99022
-19.7657 -11.6098 -1.37519
-16.1646 -10.5249 -2.23612
-16.3165 -12.0002 -2.1747
-15.3619 -12.5402 -4.766
-16.2054 -11.1461 -0.537545
-17.748 -11.1263 -0.381529
-16.5437 -11.01 0.523237
-15.5329 -11.0939 -0.517926
-17.2478 -9.90523 -1.31637
-15.6854 -12.1361 0.0620024
-14.7879 -12.8697 -2.51611
-16.1017 -11.7053 -1.14724
-16.1125 -11.3885 -0.93911
-14.8657 -11.3134 -4.63124
-18.6765 -10.6006 -2.92358
-16.6566 -8.69698 1.7154
-17.0269 -12.8018 -1.74043
-16.8648 -12.4306 -0.971695
-19.3032 -9.01385 0.53253
-17.0997 -11.6496 -4.32648
-16.6457 -10.5312 -4.68028
-18.5714 -13.2213 -3.74715
-15.6952 -12.1465 -3.15988
-16.8987 -10.6984 0.0853192
-15.3791 -11.2672 -2.52049
-16.9922 -10.3134 -0.342828
-17.6182 -12.1827 1.22497
-15.0659 -12.1518 -2.69007
-17.6053 -12.5715 0.324436
-14.0733 -10.6266 0.856221
-17.1079 -11.2496 0.792692
-15.5093 -13.0649 -2.48071
-16.0902 -9.57131 -0.0610381
-17.5094 -11.19 -4.52614
-16.8198 -12.7409 -1.09908
-15.3225 -10.2762 2.36935
-14.7258 -13.263 -1.52221
-19.8706 -10.7718 -4.01849
-20.3287 -11.4601 -0.311182
-18.8409 -10.504 1.12883
-15.06 -12.0293 -4.08907
-15.5011 -13.5422 0.155208
-17.0316 -11.9086 -1.63855
-16.3117 -12.0589 -2.70179
-17.0235 -12.1416 -0.939213
-16.5159 -11.1415 -1.04069
-14.5905 -9.80929 -1.48638
-22.7733 -9.75832 -4.22536
-16.8779 -8.07849 1.31579
-15.974 -13.0815 -1.56448
-17.9457 -10.1663 -3.69534
-18.1269 -11.2481 -0.627333
-16.1382 -11.1717 -1.08527
-14.4633 -12.2389 -0.757531
-17.4964 -11.6111 -0.445845
-18.3268 -10.5915 -1.96744
-17.6831 -11.1629 -0.718445
-18.2749 -11.2413 -3.16665
-15.9555 -13.1319 -0.630691
-15.3646 -10.9525 -1.73777
-15.666 -11.5875 0.386098
-17.5533 -11.8447 -0.197285
-17.5267 -10.5179 -0.430088
-17.2943 -11.1002 -4.12152
-16.4688 -8.65975 -2.24315
-20.3913 -8.08518 -0.489302
-20.9263 -9.60984 -0.0350108
-20.0853 -8.30428 0.551312
-22.1494 -11.0122 0.0848302
-21.7025 -9.72055 -2.18222
-19.6942 -10.5208 -1.44441
-17.7037 -10.2332 0.28334
-17.8364 -11.732 -0.315195
-18.6099 -10.7687 0.472798
-18.7145 -12.7693 -5.63541
-15.2396 -12.5346 -1.57461
-19.4191 -12.6136 -4.51009
-18.7439 -10.8434 -2.21705
-16.805 -11.2254 -0.981329
-16.4628 -10.8107 0.0620537
-17.0667 -11.6371 -2.45417
-18.9692 -11.2474 -5.46715
-15.137 -10.5095 0.362321
-15.4587 -12.3513 -2.36646
-15.4389 -13.4009 0.214053
-16.9577 -13.1621 1.30929
-15.5111 -11.7395 -1.49672
-17.519 -10.8261 -4.63885
-18.4585 -11.5808 -3.30078
-14.9237 -12.423 0.1652
-16.4679 -12.2389 -1.27639
-15.7505 -12.3111 -1.63613
-17.1768 -12.1352 -2.17712
-17.4995 -13.4656 -0.107183
-15.717 -12.1728 -1.26391
-17.0665 -11.3679 -4.64352
-15.7361 -11.1307 -3.39002
-15.0279 -11.3698 -4.00238
-18.2569 -11.8648 -2.74339
-15.3264 -12.3252 -0.67014
-15.9764 -11.0778 -1.48558
-16.921 -11.0933 -4.54432
-16.9072 -11.3988 -3.04051
-17.5064 -13.3277 -3.0319
-13.9013 -12.3549 -3.94392
-16.6086 -10.3994 -0.167634
-22.8726 -9.56345 -5.17189
-23.2776 -8.54534 -4.50202
-21.7827 -9.57993 -0.808666
-19.0145 -10.0593 0.777959
-18.3193 -9.95151 0.578618
-17.2354 -11.0205 1.46944
-19.6828 -11.9707 -2.25238
-16.8616 -10.9634 -2.13797
-17.5664 -10.823 0.23399
-16.6557 -11.1593 0.0333997
-18.6677 -11.5259 -4.10833
-17.1331 -11.4501 -1.0661
-17.7724 -9.64576 -2.88
-17.9441 -11.4114 -4.45168
-15.0481 -10.0742 -0.231672
-15.4963 -10.6599 -0.487591
-17.7307 -10.0672 -1.43863
-15.835 -11.2049 -1.02269
-15.0593 -11.6701 -1.121
-16.1289 -11.36 0.698098
-17.5644 -10.7326 -4.22778
-17.3932 -12.5311 -6.12951
-16.9057 -11.1132 -4.5064
-15.551 -10.1817 -4.69798
-14.9165 -11.9914 -4.22888
-15.0494 -11.2804 -2.40176
-16.5822 -12.2135 -3.24457
-15.7325 -13.2598 -5.89182
-15.9745 -11.6692 -3.59297
-15.4468 -10.5566 -3.11312
-15.259 -10.5344 -0.831491
-21.3628 -10.0074 -4.86865
-23.1118 -8.2828 -5.33425
-16.7236 -10.4908 -2.4597
-16.7451 -11.4585 -0.709987
-17.2993 -11.3147 0.617836
-17.7457 -11.3622 -0.947255
-14.96 -10.5056 -0.13365
-16.4241 -12.8449 -0.68497
-16.5758 -13.1993 0.700072
-16.4894 -11.4097 -0.730043
-16.3187 -12.8614 -1.06597
-16.7715 -11.6869 -1.51097
-14.3132 -13.2039 -0.924005
-15.7506 -12.2485 -2.86857
-14.6721 -10.165 0.973907
-17.737 -12.9938 -1.25151
-16.5678 -12.1116 0.0363421
-16.3236 -13.2289 0.460902
-15.9325 -13.1739 -4.66568
-21.6895 -10.3755 -4.9114
-21.7764 -11.1175 -4.43348
-21.0199 -8.3444 -5.15645
-20.2432 -9.92879 -1.62284
-21.6813 -10.2112 -2.17265
-16.2463 -12.3169 0.228869
-15.6326 -11.1549 1.03701
-15.0015 -10.4634 -3.44727
-17.8377 -9.54411 -3.26736
-16.0219 -13.0387 -2.18671
-16.8233 -11.1988 -3.05759
-14.9378 -12.5845 -3.30075
-12.7094 -13.1442 -2.17801
-16.9005 -11.6141 -5.8625
-16.2758 -13.247 -2.86113
-15.9581 -12.3095 -1.85993
-16.9661 -11.3375 -1.50014
-15.6575 -12.7424 -1.74395
-17.7165 -10.7044 0.297942
-15.3697 -12.5352 0.168467
-16.7509 -9.39564 -2.4509
-17.1007 -11.1648 -0.244047
-16.8739 -11.8941 -1.77936
-14.8934 -11.2466 -1.94812
-16.2715 -12.1622 -1.30976
-14.2709 -13.7298 -2.67561
-16.97 -10.703 -2.1403
-15.0927 -12.6108 -1.68315
-15.8341 -11.1129 -1.45079
-16.1669 -11.1521 -1.92416
-14.8689 -9.87556 1.32015
-20.395 -9.9127 2.13486
-19.4775 -11.6304 0.378688
-21.6945 -12.009 -0.164734
-18.6952 -8.85169 -2.23707
-18.5477 -9.98174 -1.12554
-22.0552 -9.97151 -5.86342
-17.2499 -10.9358 -0.121916
-17.6254 -11.7617 -0.095992
-15.8125 -10.5724 1.83894
-16.4212 -10.5534 0.354725
