-17.7278 -10.5754 -4.37235
-15.1518 -10.9388 -2.79821
-15.1657 -12.759 -1.46493
-20.1537 -10.9785 2.38084
-19.0395 -10.5116 0.130231
-18.2003 -12.5364 -0.476691
-20.0363 -10.4637 -0.500347
-15.9303 -10.6972 0.940396
-17.4161 -9.61769 -1.9684
-16.4302 -10.0975 -0.728093
-19.0477 -10.9951 -3.13561
-15.0243 -12.4382 0.291531
-14.6825 -11.0435 -0.283001
-16.275 -11.9609 -3.54089
-14.8354 -12.4403 -3.86869
-17.2233 -9.71808 -2.00974
-15.9555 -9.98522 0.777506
-18.6945 -9.20214 0.323493
-17.4591 -8.73583 -2.54126
-17.232 -11.3896 0.429735
-16.0537 -11.4087 -0.415286
-18.1834 -10.4017 -2.07488
-14.9335 -11.7493 -2.27638
-17.0102 -11.9562 -2.12562
-16.5216 -11.4678 -1.94707
-14.5941 -10.5092 0.181534
-16.2575 -10.7992 0.00651936
-19.7886 -10.1134 -0.12645
-18.666 -10.4584 -1.35334
-19.4481 -11.3379 -3.06412
-16.4602 -10.9856 -1.09701
-19.1267 -10.7892 0.234778
-19.2661 -13.7042 -1.88968
-18.3754 -10.8436 -1.34515
-17.0558 -10.0637 -1.68763
-16.4374 -10.4746 -1.46858
-18.6388 -11.8418 0.0387944
-16.7548 -10.7829 -1.03611
-17.3355 -11.3189 0.0948934
-15.6053 -11.2049 0.110359
-13.7354 -8.54579 0.508927
-14.8377 -11.1232 -1.9602
-14.5728 -12.6164 -0.0077059
-14.0065 -13.495 -2.7183
-17.0831 -12.5143 0.245137
-13.8946 -13.2158 -1.08327
-17.0373 -10.9193 -3.97247
-16.8739 -12.6592 -1.68509
-20.6506 -10.1776 -2.58967
-19.7255 -10.9516 -3.39598
-18.3469 -12.466 -2.44563
-14.4931 -12.2218 -2.69859
-15.762 -11.8806 -3.34417
-19.0686 -10.9959 -2.82262
-16.3725 -10.4015 -2.68318
-18.2361 -11.6226 -2.5767
-19.8834 -12.1344 -1.89485
-17.9936 -10.151 -3.16633
-18.8491 -11.0292 -3.24189
-17.688 -9.69878 -3.91562
-16.7741 -10.8897 -1.07028
-18.6403 -10.6196 -2.99572
-19.7918 -11.1167 -1.77419
-20.1966 -11.0142 -1.44344
-19.8262 -13.0076 -3.18217
-20.4574 -11.7671 -2.76095
-15.0709 -9.67602 -1.93349
-19.9156 -10.8578 -2.53523
-19.354 -12.217 -2.1294
-15.7658 -10.706 -2.85883
-18.5434 -9.83936 -2.14971
-21.2355 -10.5295 -1.29515
-17.2417 -10.8555 -2.11991
-20.0061 -10.1349 -2.07422
-19.9673 -10.0867 -1.41489
-18.8532 -8.94869 -4.19661
-19.2293 -11.4219 -3.2675
-19.2812 -9.73005 -1.51592
-18.439 -10.8535 -3.94562
-15.4333 -10.6252 -1.84987
-20.0026 -10.2744 -0.210044
-19.5625 -12.5786 -1.6493
-19.2998 -9.46511 -3.05268
-18.5864 -10.2419 -1.80705
-17.5161 -10.6806 -3.02933
-14.9853 -13.9558 -0.113699
-17.8493 -11.7046 -2.1601
-21.1333 -11.4087 -1.87216
-15.652 -10.7672 -0.845507
-17.8751 -11.0841 -2.36891
-16.2226 -10.97 -1.6849
-20.3023 -11.8821 0.317796
-20.5154 -11.1396 -0.63831
-17.3977 -10.7825 -0.954607
-19.7185 -10.9797 -0.470184
-19.1754 -12.0842 -1.85711
-18.8424 -9.79613 -1.2447
-19.1991 -9.51681 -2.46018
-15.9304 -12.1904 -1.32651
-18.1143 -11.5185 -0.810167
-15.0684 -12.2378 -2.80967
-13.913 -12.1366 0.31163
-14.4318 -9.73631 -1.40774
-16.8344 -10.899 -0.40836
-16.3741 -9.60288 -1.26462
-16.5447 -12.0665 0.97842
-19.5328 -11.555 0.492684
-20.1583 -11.0992 -2.17148
-19.5719 -11.0347 0.15036
-17.3711 -12.6534 -1.30412
-17.5977 -11.4836 -0.483041
-15.6149 -11.7586 -0.834838
-18.0748 -14.3265 -1.67979
-16.7891 -9.95257 -1.51273
-14.1492 -12.2624 -0.031948
-19.3074 -12.1876 -0.107168
-18.1897 -10.3366 0.394805
-15.6121 -11.7968 -0.113126
-17.2026 -12.2709 -0.321607
-15.9548 -12.1293 -0.955454
-15.7555 -11.8085 1.08619
-17.372 -10.9248 -0.882327
-19.0957 -12.2421 -0.326307
-19.6259 -11.8194 0.698994
-22.1912 -10.7326 -0.447547
-18.6309 -11.4784 -0.396837
-21.9933 -12.6127 -0.532886
-18.9459 -11.4597 -0.633825
-22.0149 -9.85633 -0.576463
-18.2475 -10.7087 -1.14429
-19.6991 -11.1647 -0.142593
-18.9023 -10.6806 0.246713
-17.305 -10.9238 2.63056
-18.7637 -10.4981 -0.505522
-18.1884 -9.04982 0.734381
-14.0967 -9.37516 0.0774015
-17.0735 -8.39232 -1.19972
-15.5795 -10.0562 -0.465381
-18.189 -10.926 1.76654
-19.0948 -11.7614 -0.0065559
-19.8043 -11.3755 1.09435
-20.1046 -10.1276 -1.16379
-18.3312 -9.02266 -0.359556
-18.6631 -10.6514 0.417656
-17.1545 -10.9848 0.2678
-18.6196 -9.67399 -0.0520515
-15.5607 -11.4043 -0.264041
-19.7355 -8.73212 1.24975
-16.4406 -10.8034 1.49013
-16.1461 -11.22 2.64125
-17.7457 -10.2076 0.443759
-21.2642 -10.9213 1.27444
-21.4169 -10.6639 2.48296
-19.2375 -9.8919 4.09867
-19.0236 -10.8612 1.60437
-21.835 -9.58035 2.22153
-18.4581 -10.321 1.42263
-19.4049 -10.9795 -0.364301
-16.7693 -8.51369 1.30979
-17.6195 -8.78942 2.30719
-20.2204 -8.1216 0.953565
-15.4568 -12.4354 -2.83848
-16.2906 -12.2158 -2.91414
-17.2776 -12.6758 -3.94415
-15.271 -11.4964 -4.54634
-13.3996 -10.674 -2.78273
-14.8875 -11.1946 -3.64965
-18.051 -12.8786 -3.56166
-19.1187 -9.85979 -3.19848
-16.5206 -10.8646 -2.274
-19.4017 -11.7655 -0.337167
-18.5079 -10.9897 -2.01586
-19.7827 -10.7779 -2.65729
-19.2693 -11.4074 -3.14227
-20.5451 -10.5854 -2.78024
-19.5318 -11.8262 -1.52524
-19.5112 -10.5976 -1.76036
-18.2869 -10.9652 -3.53915
-17.7634 -10.0165 -2.8889
-15.8129 -11.6287 -3.24486
-19.7934 -11.7945 -1.8566
-19.7261 -9.86226 -1.55181
-20.7929 -11.9298 -2.9883
-17.65 -10.0335 -1.39971
-19.331 -10.0191 -1.2771
-18.6755 -8.85215 1.67257
-19.1194 -11.0188 -1.99566
-18.4407 -10.786 -1.41678
-19.1065 -12.583 -1.87604
-17.2247 -12.9345 -1.04701
-18.4067 -11.5262 -0.907689
-21.7834 -10.9363 -1.51382
-20.3276 -12.7657 -0.846761
-19.0682 -10.2189 -0.208344
-18.2412 -10.0958 -1.06766
-17.3471 -11.7871 -1.1452
-16.9457 -11.6828 0.0876582
-18.8395 -9.54425 0.336437
-17.1617 -12.3346 -0.688004
-15.7446 -11.4977 0.11377
-17.6385 -10.5169 0.0576907
-20.6667 -11.6614 -0.389055
-16.2741 -12.3293 0.358411
-19.6509 -10.8653 -0.646413
-18.7193 -10.3911 -0.65401
-20.1192 -11.8268 2.94327
-19.693 -10.8294 0.966133
-18.6331 -11.9725 0.392595
-16.5818 -12.1178 2.04022
-14.4617 -9.1138 1.94376
-18.8248 -9.77515 -0.770572
-20.0363 -10.9548 0.541686
-16.749 -10.099 1.41246
-19.2395 -12.7651 0.353756
-17.0489 -8.95464 1.57457
-18.3472 -12.6945 0.958834
-15.7001 -11.6065 0.929108
-19.5774 -10.5516 0.629049
-18.3739 -8.56593 0.483844
-19.9887 -9.33997 0.541937
-20.6299 -10.2253 1.35855
-21.031 -12.0985 -0.583165
-19.2335 -12.0591 1.71739
-18.7394 -11.9193 1.03633
-20.1885 -10.6185 1.47591
-14.0372 -9.41708 2.97175
-15.5747 -10.564 1.8218
-16.7057 -7.52944 1.64945
-19.6944 -11.393 0.866956
-15.8591 -7.90568 1.50732
-16.1336 -10.1552 1.73986
-16.0131 -11.3615 -2.80162
-18.9075 -12.3677 -2.56598
-18.8848 -11.2181 -3.09991
-14.7153 -11.5477 -0.936421
-14.065 -12.1353 -2.19749
-19.8953 -13.6721 -2.38408
-17.1493 -12.0449 -2.35636
-18.801 -12.7422 -2.68919
-14.8962 -8.51614 -3.0443
-19.6213 -11.8887 -3.92032
-17.7664 -11.6494 -1.67186
-17.7592 -11.776 -2.22669
-17.6927 -10.2472 -2.80556
-17.7992 -11.7183 -1.98804
-15.5614 -11.2053 -2.73991
-18.6952 -11.5761 -2.34359
-19.7686 -10.4849 -1.39453
-17.3682 -11.0599 -2.00807
-12.277 -10.5078 -0.845807
-16.7014 -11.7014 -2.15993
-19.2214 -11.0844 -1.70869
-20.4981 -10.4301 -1.84722
-18.7308 -10.8805 -1.92456
-14.624 -12.0395 1.15546
-17.9892 -10.8503 -2.05057
-18.1203 -12.9166 -1.01951
-15.5002 -12.0906 -1.03789
-16.1439 -12.0978 1.00117
-16.7113 -11.5686 0.95649
-16.9392 -13.3021 0.213463
-18.7873 -11.8392 -1.34425
-18.0594 -8.93812 -0.358112
-18.8411 -9.6181 0.0457677
-19.3218 -10.8316 2.50897
-16.8896 -11.4488 -0.376979
-17.4659 -9.15169 -0.448528
-17.7967 -10.7964 2.09881
-18.4704 -10.5871 1.22252
-19.9688 -12.2112 0.457359
-20.1783 -8.29965 0.85556
-17.4382 -10.5446 1.98395
-16.2249 -8.16372 0.967663
-20.1045 -11.6667 0.807815
-17.6551 -11.5602 1.90608
-20.4243 -11.1175 2.06746
-17.1272 -11.1781 1.77389
-16.7836 -9.29708 -0.0940198
-16.5653 -10.764 1.41761
-15.5655 -12.4811 -2.69422
-17.0507 -11.7599 -2.47801
-14.8088 -10.1756 -1.95907
-16.0695 -11.2523 -1.98382
-18.9721 -12.4804 -2.94801
-15.0055 -12.453 -0.700825
-18.0909 -12.084 -2.63608
-18.6282 -11.6561 -3.01371
-21.0365 -11.0584 -0.962703
-19.2747 -12.2102 0.483485
-18.3332 -11.6459 -2.60159
-19.06 -12.2796 -1.22315
-15.5356 -12.0047 -0.69108
-17.6895 -10.4748 1.43799
-16.0718 -11.4894 0.220277
-20.4057 -10.0716 -0.011043
-16.4678 -11.8071 -1.50616
-14.6487 -12.7077 -1.06768
-14.6069 -12.0615 -0.160567
-16.8137 -13.5848 1.14664
-17.0256 -10.5469 0.633676
-15.0878 -13.1239 -0.543008
-18.5984 -10.9291 -0.749551
-18.7848 -10.7277 -0.558088
-20.5806 -12.4082 -0.35042
-14.2602 -12.647 1.80795
-19.7896 -10.3969 -0.87721
-17.9874 -12.6541 1.13581
-14.2417 -10.6786 -0.138711
-18.7094 -10.9261 0.713186
-20.6043 -10.9473 0.552972
-14.4058 -12.8701 -1.29909
-15.3709 -10.6988 -2.29335
-15.1526 -11.1827 -1.7328
-16.3729 -10.2883 -4.31707
-13.0693 -13.1229 -2.32495
-18.6974 -11.6905 -3.93764
-18.0008 -10.1235 -2.14749
-15.0523 -11.1858 -3.66553
-15.7331 -9.56517 -3.15095
-17.2177 -10.7363 -2.45736
-17.1551 -12.2671 -0.255285
-17.7114 -12.4539 -1.24375
-18.8616 -10.778 -0.858654
-19.0283 -11.0207 0.0957347
-15.639 -11.3172 -0.697961
-18.3283 -11.0762 2.27973
-19.4875 -10.2861 -0.576539
-18.2888 -10.509 0.0277435
-17.6635 -11.2011 1.70137
-14.9885 -10.9725 1.33451
-22.4167 -11.4674 0.26818
-19.9283 -8.68587 1.35738
-14.623 -11.5082 -1.68522
-18.6098 -12.19 -0.12364
-15.4149 -11.5328 -2.24896
-14.9027 -10.3202 0.230257
-19.7677 -10.0528 1.15156
-18.5558 -10.7554 0.806312
-16.1655 -11.6939 0.661795
-18.6877 -11.9632 1.67322
-19.2114 -8.58259 1.77744
-16.4905 -12.1241 -3.1279
-16.8651 -11.3611 -2.29861
-18.7789 -11.4648 -2.77916
-21.9731 -10.3819 -0.752246
-19.5463 -10.8269 -0.658426
-16.9037 -12.0814 0.915415
-15.4489 -11.3665 -1.68357
-18.0091 -10.9166 -0.15275
-18.4308 -10.6199 0.565134
-15.1803 -10.836 -1.897
-15.9166 -10.9003 1.45249
-16.6604 -12.263 -1.03995
-18.3943 -13.1105 -1.28305
-20.0967 -10.3642 2.22795
-19.9736 -11.6845 1.14101
-17.0603 -10.801 0.0517178
-17.8776 -10.3057 -0.895786
-15.5018 -12.4126 0.0983
-17.8348 -10.5184 0.859855
-15.7609 -10.1199 -3.20531
-18.3466 -10.5455 -2.94935
-16.2858 -11.3041 -2.1935
-18.1247 -11.6219 0.696307
-17.0508 -11.8601 2.51669
-19.4256 -11.4699 -3.39054
-20.8246 -10.1202 -3.0352
-17.7572 -11.5854 -4.19199
-20.2578 -11.0799 -1.43474
-20.9042 -12.4972 -4.45212
-20.6201 -11.5425 -2.60388
-19.018 -11.3257 -3.03489
-19.7913 -9.23115 -4.12302
-16.0001 -10.5179 -2.50723
-18.1851 -10.7954 -2.5009
-17.7631 -12.2426 -3.14243
-18.8723 -11.1468 -1.40558
-18.9504 -11.2329 -1.58979
-19.7659 -9.49077 -1.06656
-18.2848 -11.3354 -3.01643
-20.1951 -11.7326 -0.664881
-19.6761 -10.7153 -1.92387
-18.0644 -10.8854 0.091708
-20.5718 -8.90663 0.571344
-19.2559 -12.0571 0.793579
-19.0349 -9.27397 0.213939
-18.7123 -10.3884 -2.36739
-16.0816 -12.7534 -3.15826
-19.9685 -11.5485 -0.0123558
-17.793 -10.559 -2.6785
-15.5582 -10.7597 -2.64419
-18.0401 -12.0494 -0.273931
-20.3424 -9.51296 0.923641
-21.5433 -10.988 1.1189
-16.1598 -10.7917 -0.832572
-18.1049 -11.8003 -0.4559
-15.1663 -10.8694 -2.47653
-17.2982 -12.6703 -2.83123
-18.5042 -12.0577 -0.334572
-20.5439 -10.8826 1.47401
-18.9218 -11.6717 1.00723
-15.229 -11.699 -3.43952
-20.5042 -9.30266 -0.887673
-14.4556 -11.5909 -4.21005
-20.2065 -11.4983 -0.042953
-16.5521 -11.0528 -3.35201
-20.1147 -10.2004 -1.12245
-18.3514 -11.5791 0.681585
-18.9469 -9.64464 -1.78202
-19.8432 -10.1692 -0.449753
-17.4255 -12.8711 -3.60833
-17.1344 -10.7384 -1.01784
-19.0498 -11.5758 -0.796148
-17.5145 -10.6111 0.134703
-19.5097 -10.0142 -1.4224
-17.288 -10.2582 -0.179771
-19.4381 -9.6163 2.80523
-19.5839 -9.46313 3.50098
-14.9039 -13.2629 -3.9689
-18.293 -8.68353 2.28742
-20.1999 -11.5583 0.546296
-20.0037 -12.229 0.0828978
-14.4688 -13.8659 -2.12322
-17.9044 -11.3016 0.740138
-15.5563 -13.2567 -1.71916
-17.7863 -8.72217 1.00907
-19.6445 -8.78686 0.902605
-16.1352 -11.2316 -0.606135
-16.6647 -11.5131 0.941813
-16.8738 -8.45409 0.826361
-11.9735 -14.9978 -2.28495
-16.7164 -11.2013 -0.393937
-18.4018 -9.99986 2.89158
-14.966 -12.9 -0.169777
-16.1827 -10.6444 0.376729
-17.0023 -10.6069 -2.99662
-15.3949 -12.6854 1.72623
-17.3314 -9.40757 0.646792
-15.1898 -10.9243 -0.0577689
-17.8764 -10.8199 -0.857848
-17.0083 -12.1157 -0.112105
-16.3175 -7.03052 0.140348
-17.5328 -11.0478 -1.26427
-15.9818 -9.20308 -0.817962
-15.5332 -13.4516 -0.682251
-16.7469 -8.33542 2.36271
-16.2905 -10.5021 1.71031
-16.7573 -10.0986 0.512288
-16.5897 -11.5151 1.42673
-15.6695 -10.1458 2.263
-15.4566 -10.3895 0.211717
-15.3153 -9.96546 1.46872
-16.9361 -11.8506 0.850884
-16.0452 -9.55288 1.90157
-15.2479 -9.75644 0.21341
-22.0846 -11.0817 -3.84069
-17.9114 -10.8447 -2.73041
-19.6789 -12.1986 -2.95117
-18.1506 -10.8505 -4.49051
-19.9717 -10.297 -3.69945
-18.9268 -10.8702 -2.27383
-21.5079 -10.9853 -2.20258
-19.2009 -11.4436 -1.70978
-18.2105 -11.8165 -0.231732
-20.6329 -10.4086 -2.80702
-18.365 -10.8528 -1.96117
-17.1396 -11.8088 -1.81335
-19.6238 -11.7852 -3.21506
-20.0006 -9.38895 -1.50704
-18.9703 -10.0659 -1.10151
-20.0909 -10.996 -1.35141
-17.2999 -12.2768 -1.86868
-21.6338 -11.8597 -0.343515
-18.2074 -10.3075 -1.46535
-17.4158 -11.746 1.40729
-21.0167 -10.6257 -0.422117
-21.0709 -12.0191 -0.811749
-19.0154 -11.3476 0.535409
-19.3515 -10.9716 -2.20327
-20.0847 -11.3498 1.3651
-21.7319 -10.9098 0.991948
-18.5351 -12.1353 -2.40857
-17.082 -12.3853 0.301881
-14.6969 -12.4847 -0.915894
-15.1415 -10.4451 -2.3354
-15.9485 -12.4256 -3.35375
-13.0248 -12.6662 -3.5253
-17.9777 -9.34186 -0.718672
-17.7346 -11.2346 -0.281672
-13.8161 -12.8004 -0.240664
-14.5676 -12.0025 -3.1486
-14.2162 -12.1411 -3.64185
-18.9401 -8.24558 0.811083
-19.7419 -11.5234 -1.60291
-13.6855 -12.9161 -3.24989
-18.719 -10.0192 0.515064
-17.1419 -11.3886 1.22713
-15.5509 -11.2464 -0.203513
-17.0449 -9.30128 1.59843
-15.8516 -13.482 0.151599
-18.5241 -9.20691 0.4574
-18.7758 -11.4729 0.460271
-18.257 -11.9063 -0.594998
-16.4943 -9.77229 0.760405
-18.4742 -10.3247 1.90993
-14.9469 -11.6657 -2.58636
-19.1952 -9.20756 0.956264
-15.5905 -11.542 -2.82223
-15.3113 -12.5348 -0.040205
-17.335 -8.15011 0.538822
-17.4562 -12.8672 -1.67031
-15.0149 -13.2464 -1.7155
-15.5576 -12.6985 -0.688764
-16.352 -10.7746 -1.93617
-14.1679 -10.9146 0.513841
-14.1107 -9.80091 1.31232
-16.6967 -10.8243 -0.681521
-15.7445 -10.9377 0.74197
-17.8971 -11.2313 0.251136
-16.9196 -10.4812 1.26185
-14.855 -11.6266 -1.25897
-14.8406 -10.0916 2.53883
-20.4881 -10.9375 -3.79654
-19.9879 -10.1141 -2.91319
-20.7601 -12.1243 -1.49284
-17.1291 -11.8519 -3.27629
-16.1308 -11.2214 -1.59064
-15.6083 -11.8533 -3.66864
-15.5484 -11.8369 -2.96495
-18.4341 -11.1035 -2.1415
-19.8087 -11.269 0.348287
-19.4694 -10.6732 -1.49512
-18.1979 -10.952 -0.446827
-18.5327 -11.7968 -1.84541
-19.1354 -11.5142 -0.266913
-18.015 -10.1006 -1.83929
-16.2877 -10.9625 -2.2264
-20.6327 -11.1291 1.06234
-17.0451 -12.4984 -2.42001
-18.5744 -11.1819 0.940946
-18.5401 -10.7864 0.197575
-17.6366 -11.5786 0.540174
-16.6046 -13.0345 -1.01539
-20.4388 -11.8485 1.89705
-18.723 -11.5917 -0.697934
-19.0968 -11.7515 0.89788
-17.1529 -12.693 -0.963563
-18.7038 -10.6031 0.432323
-19.0474 -11.7907 -0.184336
-17.4197 -12.7208 -1.87144
-15.0322 -12.5365 -0.574308
-18.0931 -11.6051 0.0953291
-20.5307 -8.66773 1.61238
-17.1611 -11.3756 0.601178
-15.3653 -10.1088 -1.13659
-16.277 -10.4979 -3.17802
-17.9998 -9.25799 -2.75461
-17.8738 -10.2379 -2.059
-16.8126 -12.6857 -2.34048
-17.4713 -10.2436 -1.92962
-18.1534 -10.05 -2.77603
-20.0334 -12.1458 -0.309243
-15.4402 -12.1379 -1.3514
-20.0307 -10.7629 0.455643
-21.1491 -10.3916 0.873789
-20.8202 -9.94888 1.05151
-13.8329 -9.50486 -1.31437
-20.8094 -10.4399 0.68254
-15.1875 -10.9232 -0.976635
-15.7203 -10.01 -2.27098
-18.4553 -9.89609 0.887148
-20.3627 -10.2229 1.15309
-17.1359 -14.783 -0.564164
-19.0691 -13.3175 -0.985155
-17.1311 -12.4482 -2.4966
-17.2522 -11.9408 0.751489
-17.7686 -11.425 1.20331
-16.6091 -11.7598 0.40271
-16.7012 -11.0297 1.68287
-19.1011 -9.66619 1.27288
-15.935 -12.9296 0.35978
-15.5994 -12.9814 -1.8487
-16.3043 -10.8603 1.08798
-15.2455 -11.7004 -1.52603
-16.9574 -11.0858 0.914266
-16.5969 -12.2645 -0.344166
-15.3453 -12.1778 -0.262166
-15.0339 -12.8541 -0.433105
-15.0594 -12.2984 -0.241546
-19.0213 -11.5354 -3.32022
-16.7885 -9.76316 -2.569
-18.2922 -11.9198 -1.50541
-13.4701 -12.9819 -0.730497
-19.007 -8.87526 0.620012
-17.5189 -11.6354 -2.31174
-20.942 -9.56636 -0.434507
-18.374 -11.5896 -0.971829
-18.3279 -10.9912 -4.08356
-17.0592 -12.0123 -0.934033
-15.5422 -10.8022 -1.92846
-16.2039 -12.7898 -0.91365
-19.15 -10.4997 0.25748
-15.4864 -11.9147 -0.813653
-14.9614 -12.7644 -1.86088
-17.1124 -10.9163 0.175984
-15.6111 -11.9205 0.360715
-14.5063 -12.8434 -0.369595
-14.8868 -9.99603 -3.57656
-15.43 -12.6703 0.506272
-17.8223 -10.5608 0.860612
-16.5631 -12.3447 0.569968
-16.1981 -11.4878 -1.47447
-18.8597 -11.1675 -4.01467
-17.4277 -12.2084 -3.13719
-17.1996 -9.51452 -1.22889
-16.8494 -13.2918 -2.75439
-18.0592 -11.1116 -1.52657
-20.7836 -11.2808 2.1654
-17.5753 -9.61 -1.04024
-17.0164 -11.2102 -0.420312
-18.5836 -11.3899 -0.903967
-16.494 -12.7423 -1.18677
-19.5117 -11.1967 0.542927
-18.9721 -10.1742 -0.815278
-16.947 -12.8859 -3.11955
-18.5271 -10.2514 -0.503482
-18.6102 -12.6389 3.15774
-14.0817 -12.5793 -0.992563
-15.774 -10.7953 1.42309
-16.5586 -11.0525 -1.89361
-17.8373 -11.1056 -0.0802427
-16.1204 -12.4297 -2.29074
-17.6933 -11.138 -0.359423
-15.3465 -12.9621 -1.52216
-15.6724 -10.5603 -2.2863
-16.9892 -12.2405 -0.843451
-16.7144 -12.591 -0.199133
-19.0009 -11.7642 0.0284823
-20.1916 -9.62069 -0.619254
-19.5441 -11.3314 -2.36994
-21.5932 -12.1297 -3.10493
-19.5665 -9.23645 -0.62066
-21.3525 -10.0451 -1.73012
-20.7273 -10.5409 1.18457
-21.5824 -11.5188 -2.8418
-18.8727 -10.4583 -1.39097
-20.2152 -10.5433 -1.23023
-18.7514 -11.4541 -2.07243
-19.793 -10.9966 -1.09823
-20.7839 -10.6958 0.000632843
-19.3422 -11.4294 -1.59957
-17.5856 -12.496 -0.741613
-19.8549 -10.1351 -1.86477
-18.7823 -11.191 -2.50976
-19.9662 -10.8417 0.401915
-18.8187 -12.377 -3.18277
-18.2473 -11.407 -2.7362
-20.7477 -9.62515 1.03259
-19.5541 -11.1106 -0.688691
-17.6606 -11.0307 -4.43677
-20.2241 -10.0167 0.0203235
-17.9592 -11.3267 -3.33285
-19.5175 -11.4389 1.40009
-19.0618 -9.69719 -1.36142
-19.2702 -11.6293 0.730031
-17.9159 -10.4354 1.07809
-17.9509 -12.156 1.24313
-17.625 -12.0834 -1.83607
-18.1897 -11.1505 -0.646215
-17.2843 -12.5388 1.50047
-18.5077 -13.3418 -2.81112
-18.7818 -9.31623 1.74978
-18.4668 -9.7637 0.693521
-17.3044 -13.1169 -0.204632
-16.8832 -9.8716 -4.18214
-17.6563 -7.84401 1.01173
-16.5562 -9.47685 2.87673
-18.7749 -13.2579 1.31602
-16.0201 -9.98157 -0.887706
-16.1737 -9.28349 0.391991
-17.6662 -7.92231 0.962086
-16.3519 -11.7057 -2.32055
-18.03 -10.0163 0.24181
-18.1508 -11.3467 -0.635895
-16.4369 -11.727 -1.08499
-16.2782 -12.8984 -0.943833
-18.7228 -11.5725 -2.47474
-16.8256 -11.2456 -3.43289
-16.2589 -9.11334 0.283521
-16.2044 -12.367 -1.0815
-15.3966 -10.0405 2.27436
-15.0469 -10.4921 0.260961
-15.8596 -9.65772 1.88402
-17.1022 -10.7587 -0.673788
-17.0865 -8.57143 0.725275
-14.7862 -13.3937 -3.19413
-15.8773 -10.9943 -3.46394
-17.4801 -12.1842 -1.86622
-14.3767 -13.2104 0.650515
-14.1653 -11.7908 -0.726586
-17.1471 -10.9591 0.963468
-14.3646 -10.9647 -1.99937
-13.6536 -12.0266 -2.51015
-16.6379 -12.0941 0.592891
-15.3304 -13.3952 -1.51911
-16.3991 -11.6158 -2.22586
-13.234 -12.8748 -4.01177
-15.9773 -11.6631 -2.66119
-20.275 -9.70467 -1.44741
-20.919 -9.59813 -1.24458
-20.5224 -11.4218 -2.04453
-21.3291 -11.8525 -2.07361
-19.6709 -10.7289 -3.10472
-22.6002 -9.6286 1.82306
-19.8431 -11.1477 0.232695
-20.0825 -10.4881 0.376836
-20.6998 -9.07463 0.114949
-19.8864 -11.9883 1.95475
-18.7503 -10.0221 0.272781
-18.6841 -11.9959 -2.38549
-22.0117 -10.5729 0.148531
-16.5011 -12.4892 -2.82768
-19.7742 -11.5789 2.73191
-17.2527 -11.1042 1.76945
-19.1086 -11.7842 -0.580535
-20.1711 -10.6363 -1.46117
-20.0319 -12.3846 -4.25579
-19.2111 -10.7333 -0.362004
-17.9377 -11.4923 -3.37969
-18.6737 -11.3303 0.293379
-19.6557 -12.8934 -0.422661
-19.2927 -10.3159 -3.2889
-17.1602 -12.6929 0.0145354
-17.5389 -10.6992 -0.611935
-16.3435 -11.9181 -1.12946
-17.5203 -12.4721 -2.00626
-17.0071 -9.28093 1.90363
-15.4353 -9.40619 -0.302636
-18.6134 -11.5186 -0.483499
-16.7072 -9.50316 -1.25923
-15.5493 -10.8946 -3.9893
-18.2534 -10.7973 -1.07024
-16.8297 -11.2874 0.00358625
-16.7747 -10.0698 0.47573
-15.6809 -11.3479 -4.13109
-16.7973 -8.90156 0.472908
-17.4471 -7.89107 1.93511
-15.3952 -11.8623 -2.75255
-15.9745 -11.6494 -1.90106
-16.3636 -10.6552 -2.25244
-16.7733 -12.4609 -0.0268908
-16.4094 -11.4748 -1.60052
-17.1367 -11.6367 -0.895229
-14.5441 -9.24918 -2.35519
-13.9955 -11.5223 -2.76531
-16.3376 -10.5765 -0.218106
-16.5611 -9.94137 1.85145
-15.2378 -10.849 -0.373365
-14.206 -11.9578 -2.42129
-16.5122 -11.0658 -0.686785
-16.1723 -12.4425 0.748418
-14.7094 -12.8875 0.566967
-13.1635 -13.7206 -1.19871
-13.4398 -12.6548 -2.89429
-20.5095 -11.877 -2.05119
-19.5484 -11.5524 -1.97978
-20.793 -10.377 -0.743734
-18.6409 -10.5022 1.3587
-18.9242 -10.8019 -0.219152
-19.6602 -8.88123 0.249615
-19.9463 -10.6988 -0.530483
-18.7451 -12.4739 0.584787
-19.6408 -9.55245 -0.86068
-17.4681 -10.8025 -2.11261
-19.9097 -12.5198 -3.0523
-18.1223 -11.8958 -5.42836
-18.5158 -10.3483 -0.72579
-18.256 -9.2518 0.763647
-18.1364 -12.2606 -0.579576
-17.6432 -12.178 -1.39098
-17.6201 -10.1614 -0.47517
-17.6275 -9.75816 -1.68448
-18.9107 -11.1355 2.37539
-18.9338 -10.7978 1.08568
-17.6761 -9.3939 2.10023
-17.4408 -10.479 0.256657
-16.5724 -11.7352 0.164952
-17.6088 -8.50216 -1.3335
-16.9119 -10.4563 -2.12813
-15.6258 -14.2524 -2.85179
-18.2047 -9.9544 -1.11844
-16.4336 -9.9679 -0.547662
-18.2094 -13.6989 -0.81618
-17.8799 -10.6415 1.50206
-17.5875 -11.8366 1.10718
-16.3115 -10.7231 -2.67853
-15.94 -10.8802 -0.6449
-15.0261 -12.6452 -1.29949
-15.4715 -10.7017 -0.0453846
-15.6552 -12.6926 -1.37584
-16.3429 -13.4849 -0.159093
-14.0796 -11.3751 -3.63045
-20.9734 -10.1979 0.970631
-20.7996 -10.7239 -2.09116
-17.459 -11.2718 -1.80962
-20.1042 -10.1631 -1.87524
-17.148 -10.2155 -1.11969
-18.5768 -12.3532 1.77597
-18.4215 -12.3352 -2.94791
-18.704 -10.0518 1.28829
-18.6547 -12.5356 -2.84874
-16.7021 -11.1216 1.6144
-18.2385 -11.6041 -3.21357
-15.9565 -12.0103 -1.07555
-16.4501 -12.004 -0.917778
-16.7298 -11.7899 -1.36028
-17.6998 -12.4413 -2.59898
-18.0442 -10.783 0.361318
-15.6198 -12.1385 -0.787339
-17.4259 -9.52842 -1.92448
-18.3089 -12.758 -2.13804
-20.7216 -12.316 1.16654
-18.8527 -12.1247 -4.09163
-19.6164 -9.39674 1.47998
-17.431 -10.6482 0.730251
-20.3103 -11.0407 -0.942563
-14.9004 -12.4527 -2.24095
-16.9045 -12.204 -1.35176
-18.1609 -9.89134 -0.0854149
-15.9366 -8.81305 0.788051
-15.0263 -11.3005 -1.47853
-17.5161 -13.1282 -1.90312
-18.431 -10.6812 -0.835553
-17.0216 -10.6171 -3.08923
-18.3421 -11.1122 1.49962
-16.9976 -11.3768 0.165998
-15.6281 -11.6399 -0.0940048
-16.1959 -11.5412 -0.876917
-17.386 -10.7646 -3.49666
-17.8153 -9.5448 -0.662522
-16.5157 -9.99166 -2.02983
-15.8511 -11.3143 0.6971
-16.1797 -12.8107 -0.0682002
-17.1362 -12.7019 -0.777053
-18.3929 -13.9631 -0.295133
-18.8473 -10.8999 0.339371
-16.29 -9.97632 -1.01304
-16.9225 -10.5732 -1.16529
-16.7856 -10.0427 -1.01657
-19.3912 -10.5687 0.212657
-16.803 -11.787 1.01498
-17.913 -9.92191 -0.734264
-16.6893 -9.914 -2.83788
-15.2361 -12.2634 -1.83565
-15.2754 -10.8514 0.591154
-15.9164 -9.72243 0.827985
-15.9691 -11.9682 -1.50064
-17.011 -9.21543 -0.92148
-16.9649 -10.4519 -1.09296
-15.9525 -11.1762 -0.750573
-14.825 -10.6963 -0.547072
-14.8901 -12.2211 -1.74745
-21.0039 -11.9305 -1.99294
-19.4337 -8.00565 1.98071
-19.8348 -11.4754 -2.64644
-19.8064 -10.2061 -0.920102
-18.6559 -12.1845 0.798058
-18.9309 -10.2629 -0.0320033
-20.4827 -10.7765 -1.38405
-19.1137 -10.6138 0.0643434
-16.4066 -8.87334 1.30777
-19.4364 -10.9795 -1.37075
-16.2729 -10.8834 1.18961
-17.1405 -10.3185 1.74084
-16.8231 -9.12654 2.94214
-21.3822 -10.5045 -3.01921
-15.9577 -9.69397 1.62461
-19.1445 -12.2434 -1.88869
-16.7055 -9.5897 -0.145428
-19.8655 -12.0161 -3.07282
-21.4792 -10.9882 -1.39054
-18.409 -11.7877 -0.624722
-18.163 -9.75514 -2.55327
-19.3255 -9.2113 -2.10566
-17.187 -11.9958 -0.521523
-15.9581 -8.54294 1.15371
-15.522 -9.08322 1.31302
-19.13 -10.5544 -2.60813
-17.3222 -8.24856 3.58279
-13.9118 -11.0389 0.676291
-19.6486 -9.19468 -1.82587
-20.5132 -10.2733 -1.53
-18.4219 -13.1393 -1.38091
-15.9062 -9.84826 0.855882
-19.2302 -9.57123 -3.01955
-15.897 -10.4942 -0.180321
-16.7706 -12.8676 -3.67346
-16.0368 -11.0205 1.25795
-15.1518 -10.0048 -0.565987
-14.7425 -10.7968 -0.0506115
-16.7315 -11.6266 -0.522949
-14.4267 -9.52055 -0.0171029
-15.7101 -11.1347 0.480879
-16.3752 -12.0152 1.24132
-16.7541 -9.66089 -1.42477
-16.1487 -11.0099 1.43371
-15.5643 -11.073 -0.610793
-16.6626 -11.4524 -3.61942
-16.1546 -12.9355 -2.66465
-15.347 -12.501 -2.21781
-13.7665 -12.5624 -2.91637
-14.313 -11.8859 -1.90488
-14.7917 -10.4099 -3.12942
-14.8729 -12.9462 -3.2593
-18.147 -11.6945 1.97567
-19.2493 -10.0566 -0.202699
-20.4817 -10.853 0.915675
-19.9047 -12.4042 2.21933
-21.0318 -13.6401 2.32878
-19.3963 -10.7873 -1.09874
-18.0397 -11.7622 -1.26791
-18.9067 -11.7344 1.37546
-21.6317 -10.3618 -2.03226
-18.2956 -11.9872 -0.236154
-19.5472 -11.6662 -2.04711
-20.2102 -11.4042 2.99276
-19.4991 -11.7176 -1.32883
-19.5533 -9.09229 -2.32566
-18.4564 -9.75309 -4.84588
-18.5746 -9.40272 -2.66893
-17.0328 -11.3852 0.791993
-17.5214 -10.3026 0.797731
-19.8996 -10.0642 -1.04871
-18.158 -11.7448 -1.06698
-19.6868 -10.5578 1.11641
-16.8262 -12.3101 0.461832
-15.4622 -9.81673 1.65081
-17.104 -10.9553 1.1756
-14.9613 -8.81902 1.27399
-20.3345 -8.89081 -2.05025
-18.3068 -10.5961 -0.577444
-15.4602 -9.70866 2.42348
-19.592 -10.2021 -0.0602457
-15.3184 -9.48601 1.80373
-16.3398 -10.1696 -0.292805
-15.9886 -9.29013 -0.0499094
-17.7458 -12.0338 0.0618422
-15.6179 -7.4478 1.46183
-17.6499 -11.5879 0.586769
-15.9079 -12.8256 0.422817
-17.8497 -11.8328 -1.56246
-16.6082 -10.0015 -0.878993
-17.1594 -12.1419 -0.57884
-18.7618 -9.36648 -3.83933
-18.6499 -10.7435 -0.117651
-17.0847 -11.1313 -3.56692
-15.9868 -10.5393 -0.0678887
-16.6674 -11.4106 -2.58726
-15.2977 -11.5211 -0.754393
-16.9421 -12.0802 -0.485648
-15.7619 -12.1786 -0.770092
-18.0734 -10.7407 -2.98562
-16.4371 -10.6712 -0.456182
-15.8247 -11.2479 -2.6636
-17.8217 -12.2426 0.589108
-15.7705 -11.5873 -0.669007
-15.9482 -10.4651 -0.534164
-18.5546 -11.6186 -1.86833
-14.7983 -10.9147 0.0491602
-16.1152 -10.955 -1.26733
-15.2843 -12.5617 -0.553534
-14.3152 -12.3129 -1.82271
-15.3929 -12.6439 -3.46298
-13.9005 -12.4043 -2.83615
-15.4787 -12.2411 -1.8684
-19.3274 -11.8986 0.917879
-18.9354 -11.6928 0.511924
-19.4455 -11.6326 0.464198
-19.5459 -12.5868 -2.55234
-18.7724 -11.2561 -1.42813
-19.0842 -10.7385 -1.06874
-18.0629 -12.4047 -2.06216
-18.9061 -10.5967 -3.3106
-19.0775 -12.459 -1.35464
-18.5849 -10.4572 -4.52186
-17.2381 -10.1224 0.595959
-16.955 -10.2348 -0.0307775
-19.6292 -11.0717 -3.7413
-17.8938 -10.6796 -0.804546
-16.9403 -12.1523 -4.47903
-17.4335 -11.0542 -1.76469
-18.7729 -11.9955 -3.44456
-17.13 -11.1745 -1.62955
-17.1881 -13.1248 0.542849
-16.8995 -9.86731 -0.559367
-17.0328 -9.86325 -0.974154
-14.6252 -10.1934 0.954708
-15.21 -10.2412 -1.57183
-18.4085 -10.65 -2.38856
-17.1042 -10.4474 -2.64232
-14.6778 -10.9149 -2.42973
-15.9651 -10.3537 -1.46216
-16.3761 -12.1327 0.520661
-16.2796 -11.8649 1.54187
-16.3598 -10.5238 -2.03144
-16.167 -10.4688 -0.490663
-16.118 -11.6389 -1.41786
-16.0188 -10.7338 -0.307484
-15.2564 -12.3313 -2.10886
-15.6892 -11.0021 -1.07669
-14.2146 -12.4635 -1.05742
-13.776 -12.1552 -1.31071
-14.9726 -10.7224 -2.8253
-16.8156 -10.4665 -3.31378
-15.0784 -12.5016 -2.85071
-19.3459 -9.22913 2.1398
-17.1157 -10.1416 1.31174
-19.5077 -11.3078 -0.620473
-19.9401 -11.1371 -2.03133
-19.3054 -9.33365 -3.27884
-19.6708 -11.6784 -3.22622
-18.7111 -10.8282 -3.20043
-19.9439 -10.8123 0.70112
-18.3746 -11.1238 0.713527
-19.5985 -10.034 -1.5605
-17.9749 -11.1925 -0.463241
-19.0709 -11.6597 -2.74625
-18.7117 -11.7247 -5.02949
-15.9751 -10.891 0.960462
-18.4483 -10.2887 -0.141185
-14.2504 -11.2049 -0.440244
-18.0772 -11.7637 -1.30543
-18.4329 -9.70914 1.19994
-18.8032 -12.554 -3.52802
-19.2586 -10.7974 -1.28551
-17.677 -11.2535 -1.0677
-16.0793 -11.5279 -2.2106
-17.21 -12.6459 -0.158764
-17.824 -10.9456 -3.07248
-16.7065 -10.6602 1.39272
-17.2425 -11.6655 -2.59824
-18.2241 -12.8282 0.0295327
-17.7683 -11.5573 -2.14925
-16.9311 -11.7011 -0.996072
-17.0417 -13.0221 -0.341679
-15.0387 -12.3803 -1.81035
-15.8478 -12.5996 -2.79266
-15.3322 -11.9165 -0.81324
-15.6511 -11.4224 -3.50821
-16.4995 -11.4784 -1.87049
-16.5929 -10.7259 -0.955427
-15.6861 -12.5746 -3.30771
-15.2846 -11.3348 -2.10408
-20.7996 -9.29371 -2.13236
-17.2677 -11.4356 -0.181529
-19.314 -10.7829 0.806699
-18.6502 -9.22874 0.616019
-20.6328 -10.102 -0.691114
-19.4843 -10.3181 -1.37994
-19.1703 -10.8634 -1.49693
-19.1474 -12.0724 -2.82752
-19.5653 -10.19 -2.79949
-19.6607 -10.4555 -2.03515
-17.9537 -9.93541 -3.85871
-17.0443 -9.3184 0.37932
-17.0603 -11.7651 -0.576609
-14.774 -11.3446 -0.0303553
-18.3606 -12.1198 -4.40122
-16.618 -12.7188 -3.54138
-17.2215 -11.1022 -2.50217
-14.937 -10.9236 -0.293632
-15.9052 -10.0816 -2.41149
-13.6533 -11.8489 -0.105359
-16.0736 -11.7016 -0.344344
-18.1037 -12.0234 0.112131
-16.7205 -12.4279 1.49202
-14.5997 -11.1603 -1.50783
-14.4225 -10.9799 -0.420236
-14.7499 -11.0361 -1.81604
-20.3205 -11.1665 -1.83527
-19.4534 -11.1921 -3.16135
-17.7736 -9.88206 0.560248
-18.9751 -10.3164 -2.61336
-17.7087 -11.2462 -2.37876
-15.6652 -11.7269 1.70222
-15.6858 -11.7495 -0.404123
-15.8579 -9.93534 0.280709
-16.1269 -11.0093 -2.30372
-14.8681 -11.8515 -0.342818
-16.1615 -11.7989 -2.69227
-15.7596 -10.5262 -3.6231
-14.3918 -12.8288 -4.96073
-16.6898 -10.5484 -3.6774
-16.7493 -12.2758 -1.21904
-15.3099 -10.724 -1.27954
-20.5915 -9.47307 -3.4768
-15.9101 -12.9514 -1.30717
-15.8003 -10.0865 0.474765
-17.7108 -11.6465 -4.56859
-16.6877 -10.928 -1.9191
-15.8115 -11.9126 -0.122176
-17.0477 -10.8567 -2.29156
-14.312 -11.3065 -0.349552
-14.9538 -13.2902 -1.86579
-16.8324 -10.9927 -1.79682
-18.2755 -11.8561 -1.31931
-20.451 -11.1269 0.407659
-22.1729 -9.72147 0.787274
-20.3251 -9.57585 0.960673
-15.5509 -8.69249 1.8083
-21.2742 -11.7244 -1.14418
-20.2345 -8.9219 0.0676612
-17.0033 -9.67281 -0.228087
-20.3635 -11.3089 -0.824549
-20.7615 -10.7104 -0.212782
-21.4692 -8.03863 -1.2905
-18.277 -13.6404 0.902564
-20.0265 -11.635 -0.812911
-21.8598 -10.7069 0.0177258
-18.5866 -12.0238 -0.363535
-19.7492 -12.5322 0.982602
-16.2051 -9.0321 0.0953837
-21.2641 -9.34908 -1.24269
-17.3705 -11.3318 -0.398691
-18.8547 -12.4084 -0.971568
-15.594 -11.1878 -0.0057051
-21.0909 -9.7895 -3.03064
-20.4067 -10.3767 -2.18007
-18.9737 -10.9788 -0.792691
-16.9607 -10.7272 0.568854
-16.4757 -13.4329 -0.463465
-18.0608 -11.8942 -0.862206
-20.2261 -10.2076 -2.34539
-22.3855 -8.60163 -0.937752
-20.3354 -11.3544 -2.33973
-18.8205 -9.71866 -2.31939
-16.4747 -9.10736 -1.93705
-17.6397 -10.3362 -0.258171
-17.432 -11.6973 1.22745
-15.9716 -10.0433 0.955093
-21.0749 -11.7383 -0.973125
-18.94 -11.277 -2.38801
-18.646 -12.5167 -2.17684
-15.3796 -11.0084 -1.91265
-20.4356 -11.298 -1.77223
-18.7098 -10.9953 -1.77852
-19.7152 -11.4586 -3.19055
-21.0235 -11.532 -2.46624
-18.43 -11.4517 -0.676868
-17.9166 -11.4023 -2.62514
-17.2636 -10.6526 -1.09125
-17.9907 -11.9001 0.10719
-19.5207 -10.2206 -1.404
-16.3597 -13.223 0.337955
-16.7081 -10.0441 0.688568
-20.5271 -11.4005 -2.8811
-20.962 -10.7137 -1.42884
-20.6154 -10.5331 -1.6485
-18.8639 -10.1122 -2.37449
-19.9282 -8.67538 -4.21509
-18.8265 -10.5749 -1.30867
-16.9906 -9.91354 -0.781905
-19.4062 -12.2109 0.76546
-18.3745 -12.2035 -4.29185
-17.3832 -10.906 -3.6079
-19.9514 -10.4569 -1.75043
-16.9008 -10.219 -0.162042
-18.4392 -11.8285 -2.8381
-19.096 -10.111 -0.903713
-18.7259 -11.1841 -3.6421
-19.513 -10.4151 -2.2418
-19.1407 -11.4757 -0.65275
-18.6714 -12.9437 -2.82906
-18.6801 -11.9633 -2.91852
-17.0102 -11.8847 -2.64138
-17.782 -10.7278 -3.21189
-16.409 -10.7158 -1.23982
-15.8571 -11.9665 -1.15973
-17.848 -11.2966 -3.23078
-18.8795 -12.2688 -3.30026
-19.2775 -10.7602 -4.10179
-17.9997 -11.7852 0.860565
-19.5149 -10.6762 -1.67662
-19.5944 -11.4471 -3.26041
-17.8331 -12.6084 -2.69218
-14.5262 -10.4664 -3.04252
-18.8295 -12.1793 -0.511704
-19.6512 -10.4203 -0.93388
-16.9037 -10.4722 0.234802
-17.2626 -11.9146 -1.36529
-19.1676 -12.4464 -3.00136
-15.178 -13.0949 -0.406793
-18.0821 -11.1465 -2.20457
-17.0845 -10.9201 -3.12496
-16.3046 -9.96686 -1.99901
-17.2143 -11.599 -2.4928
-17.449 -12.1178 -2.44267
-16.749 -11.7017 -2.63238
-14.9078 -11.411 -2.34626
-15.9283 -11.113 -1.48725
-17.7188 -10.7969 -3.82378
-16.6585 -11.5619 -2.32382
-17.2405 -11.0824 -2.10834
-17.1842 -12.3304 -2.11584
-16.6784 -10.7713 -1.91462
-14.8791 -10.5297 -3.93998
-16.0265 -11.2613 -1.28908
-16.36 -12.6304 -4.36175
-13.4285 -10.7924 -0.537194
-20.2715 -10.7828 0.689762
-19.9653 -9.61474 1.31584
-18.0305 -11.0191 -0.0601392
-19.0142 -10.5907 2.01494
-18.9501 -9.78305 -1.19731
-18.3789 -11.2149 -0.0457515
-21.4763 -11.148 -0.880534
-15.7964 -10.7586 1.85285
-16.5592 -8.00776 4.30652
-15.0926 -9.47139 2.43775
-19.614 -10.6512 2.54181
-19.7816 -12.5245 2.02988
-19.3295 -12.1682 0.211999
-17.8054 -10.3682 0.62715
-18.2068 -12.0224 0.738098
-13.6919 -9.69318 1.36508
-17.8151 -10.0903 -1.52938
-16.7148 -10.7336 2.64319
-17.7811 -10.0999 0.679494
-18.3177 -12.1296 0.197921
-20.4602 -12.2966 -1.90414
-20.2287 -11.6425 -0.831942
-22.3651 -10.5453 -0.867631
-20.7711 -12.1349 -2.32643
-20.0455 -10.3826 -1.68981
-19.104 -10.5587 0.593133
-17.8018 -8.9061 0.364385
-19.0116 -9.17188 -0.0976341
-19.0771 -10.9268 -0.62599
-20.7036 -10.0745 1.38227
-16.5586 -10.8863 0.687186
-17.5761 -10.593 -0.171504
-17.3301 -10.283 0.317646
-17.492 -11.5251 0.888273
-16.18 -9.85259 1.93217
-19.4841 -9.58039 -3.52567
-19.4349 -11.432 -2.06273
-18.1935 -11.0998 -0.309004
-19.2585 -9.69238 -2.09623
-18.8517 -10.4942 -2.82589
-19.3785 -9.15964 -3.30687
-16.7981 -10.6986 1.87555
-16.5555 -11.3982 1.40785
-16.8986 -11.8046 2.3388
-16.6221 -10.9317 -0.568096
-20.5688 -10.7006 -1.08433
-18.8066 -11.7163 -2.41023
-18.3518 -10.4539 -1.64301
-18.8519 -9.93863 -0.164814
-18.2346 -10.4511 -1.43789
-18.138 -11.0754 -1.10015
-18.0417 -11.431 -2.2844
-18.0118 -11.7258 -1.05804
-16.4526 -11.9062 -0.695022
-17.643 -12.7384 -1.60157
-20.7628 -10.7602 -2.54673
-20.0129 -9.71839 -3.02197
-19.9706 -10.4625 -2.09439
-17.4 -12.0955 -0.808172
-16.5322 -12.1293 -1.15512
-18.7773 -11.0941 -1.56899
-19.927 -9.41546 0.954914
-16.3986 -11.2235 0.930446
-16.6683 -11.8583 0.442545
-20.161 -10.6614 -2.22935
-19.849 -9.6023 -1.26175
-17.0229 -10.5573 -0.673474
-15.0783 -11.742 -0.622732
-16.8489 -9.96042 -2.27128
-18.171 -11.2566 -3.20741
-18.6195 -10.0558 -1.93899
-19.4323 -11.6601 -1.3723
-20.6527 -11.6569 -2.9804
-17.6021 -11.1692 -0.858436
-16.5406 -10.847 -3.23161
-17.0706 -11.5916 -1.32197
-18.6728 -11.0247 -4.64605
-17.9525 -12.4831 -4.26164
-18.5965 -10.9369 -2.29105
-17.9908 -11.396 -3.16846
-18.6631 -10.0229 -2.18214
-19.1357 -11.6295 -3.91531
-19.2015 -11.2139 -2.89095
-14.8646 -13.4249 -2.94577
-17.0821 -10.3498 -1.0122
-17.5071 -12.085 -2.7824
-15.8298 -12.5547 -1.3509
-17.1108 -11.7384 -1.47638
-16.4754 -11.4099 -3.06821
-15.1375 -14.5263 -2.04477
-14.2426 -11.5759 -2.78961
-14.8206 -11.0705 -2.30651
-15.2908 -11.8836 -4.58194
-15.0293 -10.9317 -1.59686
-18.712 -12.358 3.08432
-19.668 -9.32692 0.783855
-18.7847 -10.6848 -0.922924
-20.6313 -11.356 -0.535465
-20.8958 -11.596 0.655645
-19.4326 -10.8611 0.827739
-16.8719 -10.988 1.13799
-19.4237 -10.0809 1.52276
-19.0888 -10.8428 -0.719006
-18.6127 -10.8984 -0.213978
-19.7018 -10.3468 -1.93592
-20.0904 -9.5761 1.88277
-16.3399 -12.1717 -0.39904
-22.3454 -8.5115 -1.30305
-21.9136 -9.19827 -1.38773
-18.273 -9.22255 -1.54795
-19.1854 -12.5546 -1.01628
-18.0543 -10.777 -1.88632
-20.7949 -9.70523 -1.50614
-17.9449 -11.2836 -0.181528
-19.3382 -12.0737 1.46
-19.2774 -12.9447 -1.40977
-18.0739 -11.675 1.14499
-20.154 -10.3443 -2.50553
-21.4919 -12.4529 -2.97197
-16.1659 -11.6201 0.554511
-16.1264 -12.3305 -0.476811
-22.1295 -10.7028 -2.74648
-16.8384 -13.6354 0.858488
-17.5271 -11.8421 0.432956
-19.6051 -11.0448 -1.87296
-14.6628 -11.6074 1.56183
-20.9059 -9.73946 -3.23036
-17.0126 -9.67847 0.00614151
-19.6509 -9.87424 -3.24786
-16.4395 -13.3336 1.567
-19.3568 -9.36458 -0.418306
-20.7361 -10.1448 -0.128793
-18.0047 -10.4765 -1.65999
-16.4133 -11.5174 1.5013
-19.0682 -11.7953 -3.53639
-19.8333 -11.4123 -1.48268
-20.563 -11.2583 -3.62442
-18.9104 -10.3451 -2.95757
-20.005 -9.52079 -3.51322
-19.1129 -11.6132 -2.50457
-16.848 -11.3655 -1.20351
-18.5203 -11.6448 -1.08855
-15.1803 -11.2095 0.830929
-16.3597 -11.215 -0.225038
-20.5293 -13.3094 -5.49215
-16.971 -9.50979 -1.77908
-20.8163 -11.7947 -2.81104
-19.2986 -11.9564 -3.98356
-15.7047 -12.4314 2.50456
-20.1848 -12.3887 -3.60579
-14.8822 -10.432 -1.58814
-16.0245 -13.7127 0.517628
-17.9643 -11.1238 -0.691649
-17.069 -12.1966 -1.08241
-14.4358 -10.3189 -2.0229
-17.0172 -11.7744 -2.55712
-16.13 -10.4557 -0.367544
-17.58 -11.4699 -3.2017
-15.0733 -11.8902 0.116722
-14.2164 -11.2887 -1.7208
-15.7163 -12.8312 -2.46544
-15.3932 -11.6811 -3.12043
-14.7716 -11.21 -3.60391
-13.7854 -13.8271 -5.13354
-19.2527 -11.2223 1.92893
-19.251 -12.645 1.07965
-19.2204 -9.88419 1.35234
-20.2421 -11.3397 1.05732
-20.3787 -10.4689 0.425813
-18.3972 -10.8777 -0.297553
-15.8768 -11.3049 0.09133
-18.2702 -11.0308 -0.497128
-19.9441 -10.072 -1.20301
-18.9256 -11.2403 2.49523
-16.933 -8.73155 -1.65359
-18.9932 -10.4402 -2.55315
-19.7984 -10.5613 -2.83493
-15.0931 -9.20051 -0.0242115
-18.6622 -11.0218 -0.636977
-18.1589 -11.022 -0.399762
-19.8606 -11.8959 -1.65667
-16.1397 -11.1462 0.770832
-15.8088 -12.0724 -0.572856
-17.1339 -11.464 -0.525923
-17.8421 -11.9123 -1.81091
-17.0694 -11.3763 0.618084
-20.0455 -12.0703 -1.60561
-20.8607 -11.8832 -3.56352
-16.0697 -10.8118 1.13548
-19.1557 -10.5939 -2.24954
-17.4951 -10.8708 -0.850759
-17.351 -11.2642 -1.81846
-17.4403 -9.38292 -2.92955
-14.5835 -10.4721 -1.00568
-15.3802 -11.4377 -0.366415
-17.2884 -11.7327 2.28848
-15.9229 -10.7553 -2.67641
-13.9887 -11.936 -1.11913
-15.858 -10.778 -1.80778
-16.756 -12.785 -3.677
-18.4348 -12.1064 -4.33505
-17.2013 -9.89515 -2.61643
-18.009 -9.66862 -3.14539
-15.4682 -11.5834 -1.41753
-16.0962 -11.2219 -1.39749
-14.5719 -11.5557 -1.15912
-16.0898 -11.1081 -0.948467
-14.8125 -10.9831 -2.5844
-15.3695 -11.3242 -2.27085
-20.547 -10.2021 0.202092
-18.6436 -9.81063 -0.30149
-20.5439 -8.9321 -0.465519
-22.5482 -10.9097 -0.00909695
-18.5772 -11.5396 1.20631
-19.4448 -11.5176 -0.621273
-22.6377 -10.4515 -1.37226
-17.0051 -11.9158 -0.0884821
-20.4238 -10.4331 -1.54211
-19.112 -11.9926 1.2852
-18.8374 -11.2516 -1.41867
-17.6473 -11.6599 0.0184373
-18.5687 -11.1001 0.00329179
-19.4223 -10.4872 -2.24698
-18.8973 -10.36 -3.8035
-17.4875 -12.0626 0.342106
-18.2442 -10.6401 -1.4117
-17.5196 -9.23842 0.726387
-14.7949 -11.2894 0.115264
-16.6035 -10.8041 -1.90175
-15.844 -9.7054 -0.350136
-17.0633 -11.2635 -1.02318
-16.4353 -10.546 -1.40024
-18.2017 -11.7635 -1.31052
-18.6442 -9.75976 -1.09615
-18.9528 -10.6724 -3.22336
-19.5453 -10.5673 -0.517286
-16.7915 -10.9106 -0.247035
-17.24 -12.5675 -0.756478
-14.355 -13.2674 1.15431
-16.6151 -11.562 -0.580956
-18.72 -13.0618 -1.32709
-17.6375 -11.2924 -2.93906
-16.2843 -12.8552 -0.332645
-15.6441 -11.9216 -2.04332
-15.8284 -12.8699 -1.12999
-16.7363 -12.5394 -1.8742
-18.0958 -11.6309 0.17313
-14.4195 -10.7152 -1.54301
-18.7075 -11.4126 -1.62659
-18.2657 -10.0818 -4.28274
-18.9485 -10.1688 -2.34772
-18.3259 -10.8967 -2.24981
-15.9578 -11.7175 -1.64765
-15.3175 -9.50815 -3.28491
-16.0788 -11.585 -2.59427
-15.0655 -10.3702 -1.56955
-16.2212 -12.4413 -3.01665
-19.1969 -9.64314 -1.69118
-14.6537 -9.68962 1.10043
-16.5627 -11.046 1.5945
-18.2057 -11.0749 0.20979
-17.9585 -9.0911 -0.877661
-16.2255 -10.977 -1.26078
-17.7028 -9.68948 -1.26919
-15.0297 -11.2799 0.923795
-15.2599 -12.3284 -0.0360127
-15.7573 -13.2349 -0.415472
-16.6805 -12.5855 -1.92875
-17.0874 -11.576 -2.06051
-21.1631 -9.62224 0.398478
-18.9873 -10.946 -0.0804956
-17.7967 -10.8367 1.20122
-16.9053 -11.0885 -0.0502729
-19.3591 -12.445 -0.190195
-16.098 -11.5146 0.980573
-15.405 -10.8952 0.718188
-14.7139 -10.6819 -0.119204
-19.8827 -8.79088 -3.10221
-15.252 -9.52633 -0.0400412
-17.2538 -10.5393 -1.50186
-15.9041 -12.9563 -0.522989
-15.4821 -10.2436 1.9762
-19.7389 -9.52646 -0.498675
-15.3057 -12.2577 2.2599
-18.74 -11.1726 -0.951139
-17.2629 -10.8066 -0.406725
-20.4419 -10.8783 -2.14306
-17.5835 -12.1703 -2.20632
-14.8674 -11.1618 -1.38529
-17.0586 -11.5922 -2.84797
-16.4745 -10.9851 0.655704
-18.0491 -13.2233 -2.28259
-14.2175 -11.9478 0.565614
-16.7168 -12.5392 -0.713658
-15.3348 -9.52794 1.16492
-17.3473 -11.9235 2.09589
-16.6424 -12.1451 -2.25421
-14.7392 -14.0271 -1.89431
-13.9356 -10.8362 -2.02349
-15.3207 -12.6331 -3.09921
-15.4184 -11.5426 -1.74088
-18.1653 -11.5427 -2.86078
-17.3545 -10.2386 -3.6425
-19.9979 -11.9289 -2.30324
-12.7627 -14.1252 -0.86605
-19.1056 -12.2186 -2.12118
-19.7242 -11.778 -2.98897
-16.1378 -11.1291 -1.91834
-20.2536 -10.8561 -3.03542
-21.0463 -10.1985 -4.34251
-16.9434 -9.89909 -1.49017
-17.0067 -12.004 -1.52948
-18.8318 -10.952 -2.37114
-17.915 -11.6386 -2.91338
-20.38 -11.5619 -2.95136
-17.8142 -14.5119 -0.73427
-18.0813 -10.8626 -1.23081
-18.7576 -12.3728 -1.82989
-18.406 -11.18 -4.5432
-16.691 -12.8066 -1.01162
-20.8798 -10.5956 -0.143018
-17.1803 -10.4926 -1.17312
-18.3378 -11.7428 -1.8117
-17.1149 -11.6927 -3.34
-16.0737 -10.1764 -1.30413
-18.0662 -12.2951 0.110788
-17.3753 -9.43345 -1.13852
-18.7929 -10.1126 -0.722615
-18.7493 -9.87336 -0.348695
-16.1327 -10.7165 0.518481
-19.5616 -8.90559 -1.1772
-18.8442 -10.3246 -0.236005
-17.1942 -10.9345 -2.3145
-15.4534 -12.174 0.412639
-17.2499 -12.4452 -0.0446179
-20.2834 -12.3363 -0.816223
-20.2233 -8.16139 -1.3412
-16.0078 -13.2051 1.16575
-22.0288 -13.2686 -0.417612
-20.1217 -11.1661 -1.50765
-20.6523 -10.7816 -0.0879052
-17.9635 -10.0594 -0.565712
-16.2605 -9.34884 -1.25689
-18.4382 -13.4914 -0.105375
-15.2244 -12.6255 1.85753
-18.4883 -12.7275 1.09767
-14.1463 -9.51257 -2.31567
-16.7042 -10.8361 -0.575134
-16.1948 -10.4708 0.0367924
-16.5421 -14.3259 0.0579377
-16.0994 -11.3615 0.477243
-16.8836 -10.9095 0.722858
-20.1015 -9.66905 -0.614681
-18.5826 -9.99595 -0.264006
-20.6376 -12.4226 0.896272
-20.13 -11.357 0.35955
-19.2515 -11.6879 -0.898825
-21.1229 -11.8761 -0.16107
-18.8076 -12.3662 0.242506
-18.5441 -9.73797 -2.05944
-18.7925 -10.9769 0.618099
-15.821 -11.2791 -0.165198
-16.6403 -10.9817 1.32085
-15.018 -11.7691 1.86703
-15.4351 -11.9734 -0.434481
-15.4885 -10.5379 -0.511145
-18.8481 -10.534 -0.545916
-15.9882 -12.2302 2.5105
-17.765 -12.0195 0.435097
-15.2454 -12.6277 -0.244769
-19.0447 -9.69683 1.03232
-18.8517 -11.6023 0.422908
-16.6111 -11.5981 0.220863
-17.7385 -11.2095 0.641732
-18.0162 -11.7825 1.6639
-17.6661 -9.67313 0.755919
-19.0784 -10.033 2.86147
-16.9373 -11.2858 1.35014
-16.9148 -9.57839 2.39621
-18.9021 -9.68021 1.2693
-20.9299 -11.8541 1.62919
-19.4613 -9.62253 0.811662
-19.4461 -10.7128 -0.217019
-20.5093 -10.6697 1.86294
-20.2036 -10.3641 1.16506
-19.0699 -10.1139 0.105304
-18.0052 -10.7706 0.563778
-19.4908 -11.0698 -0.322842
-19.9711 -10.9816 -1.10371
-18.6012 -10.5109 1.87756
-18.7715 -10.0417 2.74082
-20.6264 -9.54483 2.09359
-20.5307 -10.7273 1.94884
-16.4886 -9.62816 0.826723
-15.2681 -8.40932 2.0081
-15.5852 -11.5402 2.43048
-16.8157 -10.0789 1.83528
-15.9731 -8.76345 1.69541
-15.8633 -12.9307 -2.72635
-17.9295 -8.95376 -3.24519
-17.905 -10.2145 -2.44327
-14.9362 -13.9922 -2.75815
-17.1083 -11.0686 -2.89093
-15.4939 -10.545 -2.96271
-12.9587 -12.7813 -4.12411
-19.1509 -12.1128 -3.87811
-16.4239 -10.2395 -2.43473
-20.8036 -9.98779 -1.3931
-19.6669 -11.1642 -2.5194
-20.898 -12.4782 -2.4013
-17.9605 -10.3288 -3.5931
-17.4085 -9.90618 -2.23711
-18.9154 -9.48579 -2.46019
-18.4235 -11.2324 -3.15896
-17.1484 -11.1046 -1.99574
-19.0016 -12.3352 -0.557754
-18.9162 -13.0097 -0.169708
-21.2249 -10.7506 -1.41398
-18.6941 -10.265 0.091545
-15.8156 -12.8863 -2.6125
-19.8737 -12.7754 -0.89616
-21.4793 -11.9231 -1.2803
-17.7713 -9.94875 -0.630049
-20.8546 -12.0094 -0.463929
-20.2613 -10.4295 -0.125658
-17.5196 -11.0716 -0.947239
-16.6817 -10.5437 -1.49912
-17.7442 -10.5804 1.18038
-15.6032 -10.6376 0.478538
-16.8279 -12.4757 -0.330643
-18.3201 -11.0643 0.438112
-17.5278 -11.5257 -0.696001
-16.4801 -11.531 0.260082
-17.9473 -10.3549 0.960583
-20.718 -10.6359 -0.658706
-19.3389 -11.2788 2.37576
-20.051 -13.0078 0.538662
-16.3718 -10.0416 0.560292
-19.9397 -11.4484 -0.541482
-17.3817 -10.861 -0.350721
-19.6377 -9.28504 3.26687
-15.7809 -9.95898 -1.10361
-15.662 -10.1044 -0.52059
-18.9794 -11.0084 0.59183
-19.6455 -9.20443 -1.2606
-17.269 -11.9033 -0.527555
-18.5786 -11.4128 0.736001
-20.2938 -10.7839 2.13288
-19.292 -10.6091 1.69379
-18.1828 -10.3225 -0.267542
-20.8623 -9.59317 2.66552
-19.4872 -10.6345 -0.136862
-20.2916 -10.514 2.25908
-15.6304 -10.0025 1.38591
-16.1027 -8.04323 1.83367
-14.8824 -11.3482 -2.84307
-16.9522 -12.1491 -3.90516
-15.4453 -10.8062 -2.64574
-12.8676 -12.8973 -2.8331
-15.081 -11.7083 -1.36807
-21.2241 -12.3671 -0.292631
-17.4296 -11.5916 -1.95959
-16.3316 -11.4595 -3.41173
-17.0666 -10.1594 -1.62946
-18.4092 -10.6524 -1.72281
-17.2898 -10.8456 -1.83982
-17.1784 -11.2233 1.4657
-16.858 -10.3765 -0.632229
-16.345 -11.4844 -0.377176
-16.147 -10.2997 0.560588
-19.529 -11.3454 -1.52777
-14.9927 -11.7556 0.389886
-20.0956 -10.9305 1.26296
-18.7548 -13.1358 -0.21378
-18.025 -10.4963 0.419006
-17.1916 -12.0637 1.07296
-21.4313 -10.9098 0.203628
-19.7217 -10.3106 0.691313
-17.5932 -10.7639 0.855313
-18.4196 -8.83864 0.594547
-15.8212 -11.2768 1.89618
-18.8645 -11.4935 0.353154
-18.3171 -11.9771 0.72914
-21.6033 -8.89011 2.32668
-20.8934 -11.8949 0.949694
-16.4739 -9.97266 2.52501
-16.1254 -9.88402 2.31042
-15.777 -9.6472 0.426359
-17.929 -9.78062 1.48212
-17.5672 -9.8235 2.29406
-14.4995 -12.0644 -2.74509
-20.8214 -10.6466 -2.84439
-18.3657 -10.2142 -2.85838
-15.9312 -10.8988 -2.49328
-17.9741 -11.067 -1.42453
-18.4705 -11.6209 -1.03619
-17.1941 -10.5721 -0.999819
-17.4387 -8.40394 -0.315922
-18.1869 -10.1267 -1.3575
-16.619 -11.0558 0.351908
-21.5702 -13.2968 -2.00759
-18.6507 -10.8491 -0.391156
-13.139 -11.6209 -0.112505
-16.4631 -11.2507 0.183055
-19.8243 -11.9108 0.894807
-19.9244 -10.1025 0.984362
-20.6157 -9.7019 0.980737
-15.9165 -9.97398 2.10704
-19.4585 -11.0409 -2.40097
-20.2707 -10.3609 -1.15644
-18.7601 -10.8841 -2.73984
-17.8129 -11.4931 -3.40107
-20.2449 -10.307 -3.20438
-18.099 -11.8544 -2.63602
-15.4098 -10.3242 -0.189318
-19.5624 -9.04469 -1.78023
-17.5298 -13.0126 -0.835754
-14.6858 -11.6479 0.690195
-15.8447 -12.447 1.67502
-19.3573 -11.8555 0.0511304
-20.4394 -10.9602 -0.233739
-16.1615 -13.5786 -3.62982
-14.9786 -12.5607 -4.26727
-17.5321 -9.92302 -1.35349
-16.5953 -9.91057 -2.50744
-17.1145 -11.1592 -1.47939
-14.614 -12.6086 -1.54726
-18.5804 -10.0059 -2.80224
-18.2191 -12.4836 1.14746
-17.9206 -11.7304 -0.52075
-15.1967 -11.4788 0.985106
-18.904 -11.2563 -0.0189624
-18.0983 -9.7902 -1.6552
-19.3011 -11.2055 0.752738
-16.1067 -11.3761 -1.09484
-19.782 -10.4247 0.893172
-14.6706 -9.88129 -1.1776
-16.4515 -10.2427 -3.29205
-17.2289 -10.1622 0.275604
-18.9465 -11.7001 0.250429
-15.7369 -10.9958 0.56697
-16.987 -11.5874 1.32046
-15.6883 -9.93099 -0.221445
-17.4659 -12.0146 -1.15859
-19.2616 -10.8666 2.35029
-17.118 -11.7701 -2.28116
-15.8906 -11.472 -0.441787
-16.4675 -11.1679 -0.348747
-20.883 -11.2687 -0.919718
-19.9872 -9.32336 -2.14654
-19.95 -9.75343 -3.10129
-20.0075 -10.699 -2.09175
-19.9151 -11.912 -2.08314
-19.5373 -10.4072 -3.30127
-17.4611 -10.0549 -2.9276
-18.5234 -9.19378 -2.02821
-20.9998 -10.3709 -0.93817
-20.4085 -11.0078 -0.716709
-20.1431 -8.57879 -1.28556
-19.7388 -11.3084 0.604057
-19.5372 -12.1027 -2.88628
-17.772 -11.91 -2.13751
-15.3607 -13.1567 -5.48773
-21.1234 -10.72 -0.348779
-21.0932 -12.5806 -1.0342
-15.2163 -12.6455 -3.40305
-17.8992 -12.8317 -2.75041
-17.4731 -11.3909 -1.32416
-19.0539 -12.096 -2.12768
-16.793 -11.1507 -0.73825
-18.6232 -11.1319 -0.368489
-16.2574 -11.1429 -1.65983
-16.6208 -11.6331 -3.12783
-17.1164 -11.9838 -0.919542
-16.8785 -10.6271 0.0289377
-19.5076 -10.5143 -1.44603
-20.1502 -9.14352 -2.09754
-19.3999 -8.79064 0.0507469
-19.2761 -12.9936 -1.80098
-19.5147 -10.5303 -0.277597
-20.2684 -10.4537 1.03551
-15.5475 -11.6926 -1.21732
-18.3848 -11.6432 1.28423
