-18.0132 -10.6046 -1.49138
-17.4298 -10.1454 -4.16224
-16.1008 -13.9581 -1.5555
-19.9514 -10.4982 -3.71663
-17.2707 -9.88042 -3.18963
-20.653 -9.70026 -2.96245
-15.73 -10.114 -3.26132
-17.9937 -10.1428 -4.74204
-18.7426 -11.8521 -5.49171
-15.8116 -11.6619 -3.13352
-15.1023 -12.5573 -2.6693
-14.0685 -11.1661 -2.92048
-16.1075 -12.7124 -3.34767
-14.2476 -13.0689 -3.3949
-16.4089 -9.05331 2.59522
-19.5486 -10.2817 -0.737716
-18.1373 -10.7574 1.23322
-19.4076 -9.85271 0.211109
-15.6193 -11.5586 -1.88755
-18.5874 -10.5678 -0.69193
-14.5044 -11.7395 -0.954328
-18.4799 -11.154 1.62708
-20.3745 -12.7738 -1.269
-16.1785 -10.5552 -1.08897
-15.9678 -10.9372 -2.96493
-17.0278 -11.213 1.29262
-16.7691 -11.6046 -3.42418
-16.2983 -10.3475 -1.38676
-16.5888 -10.0159 -2.64673
-19.7174 -12.4453 -3.47552
-14.8036 -11.8699 -2.51867
-16.0655 -10.1021 -1.96031
-14.3835 -10.943 -3.16006
-19.8881 -10.1206 -4.37891
-21.373 -11.9815 -2.75258
-17.0196 -10.3299 -1.77486
-16.6356 -10.6956 -2.65094
-15.4991 -10.5376 -2.7526
-16.55 -11.4048 -3.01595
-16.1073 -9.81752 -4.70576
-16.3393 -10.718 -2.96421
-18.8083 -9.85844 -3.72854
-18.4712 -11.2469 -2.69092
-18.8724 -10.3173 -4.74753
-17.5312 -10.9887 -4.5008
-16.3596 -11.0899 -4.67895
-15.7828 -11.3347 -3.37482
-16.4275 -10.1655 1.81833
-18.069 -10.5799 0.759894
-17.1358 -9.46531 0.125381
-19.9233 -10.3303 -0.67792
-18.8993 -9.63942 0.0250396
-15.2234 -11.7053 -0.300083
-16.0768 -10.4298 0.220018
-16.9609 -10.9339 0.193883
-18.9882 -10.5282 -2.78339
-16.129 -8.04292 -0.208596
-15.5977 -11.8426 -0.0241572
-16.7541 -10.9942 -0.721351
-16.8656 -10.8705 -1.62738
-18.1877 -10.3033 -1.46086
-19.3248 -11.6178 -0.890893
-18.4752 -11.6733 -0.26316
-16.6711 -9.59536 -2.30242
-15.8732 -11.0912 -1.48599
-15.5687 -11.1086 -3.26819
-17.8926 -12.0093 -3.52323
-16.4275 -11.8468 -3.6771
-17.3153 -12.5383 -3.59393
-15.9904 -10.7435 -1.75124
-18.0107 -11.5157 -2.61335
-18.0072 -10.3577 -4.96785
-19.0689 -11.1671 -4.92724
-13.0166 -13.8626 -5.27758
-17.0138 -9.06767 2.8093
-18.966 -11.2391 -0.762647
-17.0823 -12.1571 -0.576887
-15.3359 -12.3117 0.736017
-15.0293 -11.8914 -1.79329
-14.7626 -12.5656 -2.02406
-18.0833 -9.43368 -1.06094
-15.6661 -10.81 -0.887305
-16.7654 -10.6286 -2.21094
-16.917 -11.0796 -3.08487
-14.6694 -10.837 -3.16364
-15.6624 -10.794 -2.95656
-19.5011 -10.4415 0.951752
-14.3991 -12.1699 -2.02597
-16.782 -12.0007 -0.865556
-21.6839 -7.64764 2.30573
-17.9272 -9.34458 -0.352394
-17.6423 -10.8459 -2.45636
-17.0247 -11.5444 -0.112168
-17.8595 -10.3038 0.112536
-15.9033 -10.2224 -4.17607
-16.7126 -10.4375 -0.84625
-17.221 -10.6529 -3.57061
-16.8691 -11.168 -2.42064
-15.2357 -10.8785 -0.130318
-17.4772 -10.3838 -0.465008
-14.6033 -9.58496 -0.67581
-17.3082 -10.7825 0.448102
-18.7017 -9.87823 -2.6492
-15.3408 -11.6821 -0.973552
-17.875 -10.9893 -1.92671
-15.4635 -12.7177 -0.913712
-17.2979 -9.03329 -2.8296
-14.0357 -12.0333 -5.4614
-19.5132 -12.5065 -4.65318
-14.6627 -11.1227 -2.03444
-19.8027 -11.3789 -2.0787
-16.2363 -11.8693 -1.56139
-14.7242 -10.8217 -3.55361
-15.0765 -11.9843 -4.02124
-14.6446 -11.9675 -2.6134
-16.4272 -12.1309 -2.41269
-15.6883 -11.5093 -3.43918
-16.6628 -11.8893 -2.85518
-19.353 -11.428 -3.08038
-19.3608 -9.72592 -2.54151
-18.2873 -10.4767 -1.63053
-16.0615 -9.6047 -0.281933
-18.8993 -9.18339 -1.7606
-19.9181 -10.7261 -2.03258
-17.8829 -10.3285 -2.06872
-14.2804 -11.5049 -0.643959
-19.3412 -10.9896 -2.52372
-16.4291 -11.8214 -2.01545
-15.1857 -10.1521 -2.12015
-16.174 -13.4217 -0.213597
-19.3564 -10.5636 -0.279239
-17.7806 -11.2656 -1.63185
-18.932 -10.6178 -3.2627
-20.7213 -10.9495 0.726943
-16.2345 -9.41001 -0.570015
-20.1595 -11.6525 0.677238
-19.7401 -11.0412 0.268709
-20.1661 -12.2813 0.957799
-20.8101 -9.94619 -0.132358
-19.928 -9.12422 -0.233675
-16.9456 -12.1227 1.37362
-13.5722 -12.6827 -3.60999
-18.8514 -10.7021 -4.04032
-16.2236 -11.9169 -3.77944
-12.9382 -11.3836 -2.39411
-14.3314 -9.85651 -2.51253
-16.7953 -11.4199 -1.13676
-14.7284 -10.3165 -2.47785
-19.6069 -10.966 -0.832175
-17.9587 -10.5876 -3.89311
-18.8933 -11.7024 -2.97093
-14.8491 -11.9065 -0.795989
-21.1671 -8.39761 -2.17013
-16.8773 -10.3912 1.33288
-16.8123 -11.6948 -0.438849
-15.21 -11.3423 1.25522
-16.8548 -12.3074 1.19167
-21.3704 -11.244 0.617414
-14.2759 -14.5303 -2.35221
-18.5666 -12.0973 -3.96734
-13.6625 -12.7287 -2.81144
-15.901 -10.9913 -0.062303
-17.9889 -11.2442 -0.762864
-20.8458 -11.6116 -1.48502
-19.7299 -11.1772 -3.06613
-16.0439 -12.7075 -1.69193
-18.5544 -8.94894 -0.575991
-14.9163 -10.0437 -1.20719
-16.9538 -10.0642 -1.31863
-15.8921 -11.0776 0.487771
-16.9016 -10.2502 -0.151798
-16.9956 -11.0539 -1.34306
-16.3097 -12.6066 -1.02402
-16.955 -10.0167 -4.0961
-16.4324 -9.49806 0.651196
-14.9705 -11.7385 -1.2547
-17.2205 -10.4018 0.142714
-17.6095 -9.9596 -0.128082
-13.5214 -9.77378 2.89049
-18.7613 -10.879 1.04133
-17.691 -10.2963 -0.0777338
-15.4808 -9.19292 1.00591
-18.6361 -11.7868 -0.0481413
-20.5617 -9.81446 1.34608
-19.7765 -11.2255 -1.95751
-16.0358 -11.6556 0.334546
-18.137 -11.2684 -3.32479
-16.9506 -9.74563 -0.769575
-14.8337 -11.6586 -2.1996
-18.119 -11.0808 -0.51208
-16.1916 -12.3292 -1.60098
-15.8086 -10.5606 -1.68358
-16.3827 -10.6892 -0.930276
-15.5973 -12.2723 0.907296
-15.7106 -10.7677 -1.67648
-17.026 -11.712 -1.95834
-17.6076 -8.88472 -0.731984
-17.8641 -9.89101 -4.20959
-18.2864 -10.9683 -4.48826
-17.1187 -11.2159 -3.3057
-19.0386 -10.2038 -5.46299
-14.2252 -12.0591 -4.32835
-13.2983 -11.2023 -4.19897
-19.8413 -11.0067 -4.31304
-16.2685 -9.83214 -1.63625
-14.3883 -11.6501 -2.27294
-15.7813 -10.7478 -4.22544
-20.2194 -10.1057 -1.83163
-16.4998 -10.7034 -3.5284
-13.7149 -11.4505 -2.06242
-20.5003 -10.4364 0.426128
-16.9269 -10.4712 -0.974411
-17.6024 -10.7276 -1.52111
-14.6749 -10.9754 -2.49005
-16.0256 -11.0076 -1.9655
-19.6724 -9.64857 -0.922239
-17.9831 -12.0908 -2.02623
-18.3287 -10.7163 -1.00225
-18.3353 -12.7171 -0.47926
-18.0848 -8.97898 -1.26728
-19.215 -10.8571 -1.15324
-17.5924 -11.8276 -0.407775
-21.2279 -9.01234 -1.29855
-18.9293 -11.456 -1.81103
-16.1232 -10.3617 0.627799
-17.799 -10.7499 -1.77226
-18.3406 -12.2094 -2.12695
-15.799 -10.813 -0.168129
-21.3282 -11.8733 0.928709
-16.4642 -11.3526 -0.207064
-18.669 -10.1134 -0.652431
-15.6841 -11.1357 0.620934
-16.7232 -11.525 -1.01714
-14.6524 -12.623 -1.07801
-17.1826 -11.6601 -0.393387
-17.6558 -9.7826 -0.39927
-16.1823 -13.0037 0.21965
-19.7346 -9.5634 2.38132
-16.972 -9.77159 -1.15241
-21.7942 -9.89206 1.53427
-15.0335 -10.1577 1.39756
-19.1903 -10.852 0.882999
-21.1032 -9.11236 1.05854
-22.4735 -8.72819 1.41343
-15.3703 -10.6872 -0.210024
-16.4171 -10.2279 0.426514
-15.1384 -9.89755 1.95362
-18.6972 -9.73708 -3.47037
-19.3369 -9.85785 -2.87648
-16.4456 -11.5362 -6.25746
-19.2239 -10.3926 -3.10632
-19.8161 -9.26525 -3.8122
-18.0277 -10.4991 -5.82938
-18.5457 -10.3595 -4.35344
-13.9204 -11.9037 -5.5215
-15.443 -12.691 -3.78537
-17.7719 -10.7619 -2.18951
-21.6597 -10.106 -3.84235
-17.0112 -10.2826 -1.65918
-20.6357 -9.41933 -4.05257
-18.1613 -11.5438 -3.17989
-19.8618 -11.8071 -2.22892
-14.3728 -11.6993 -3.08335
-18.8273 -11.6879 -0.651842
-21.8904 -10.9642 -4.15099
-17.1304 -11.2695 -2.78885
-15.2589 -9.9966 -2.31326
-20.8291 -10.7492 -1.74219
-15.8829 -11.0911 -0.093119
-16.5429 -11.8983 -1.33048
-21.382 -9.77583 -1.13694
-16.7774 -10.9263 -0.104997
-19.2218 -10.9182 -0.330129
-17.6129 -10.8325 -2.18857
-15.8187 -11.1849 -1.09152
-17.5537 -11.4732 0.882774
-15.2201 -12.0465 -1.54393
-18.7244 -8.43448 -0.313896
-19.7129 -8.24686 0.990408
-20.2434 -10.5131 -3.83386
-18.7044 -10.934 -3.73283
-14.4634 -12.7864 -4.99401
-19.9534 -12.484 -3.02449
-16.2171 -11.4273 -4.36543
-13.5286 -12.3163 -4.27656
-17.7607 -9.3505 -4.47019
-16.4803 -10.4119 -2.85778
-15.7776 -12.1012 -2.4183
-21.7727 -12.0237 -3.42782
-19.2315 -10.0227 -2.93378
-19.6058 -10.7608 -1.38307
-16.9955 -11.2925 -1.4126
-15.8904 -11.2373 -3.17837
-19.9057 -10.6923 -2.95693
-16.2426 -10.95 -2.82474
-16.1699 -9.31773 -1.41031
-13.0233 -10.5881 -1.41045
-18.008 -11.5644 -0.641266
-19.6551 -10.6497 -0.218318
-16.911 -13.5851 -0.940708
-18.2686 -10.7939 1.01244
-15.7746 -8.3595 2.90137
-18.8624 -11.8154 -4.28946
-15.613 -11.0719 -4.05284
-17.199 -12.6387 -3.94893
-15.1843 -11.5399 -2.9315
-16.4361 -11.223 -3.60701
-18.0951 -10.035 -2.88061
-15.9431 -11.852 -3.19544
-17.391 -9.36863 -0.581787
-16.3971 -10.8976 -1.14206
-15.8777 -13.856 -0.528747
-17.9857 -12.4186 -1.07126
-16.5005 -12.007 1.10676
-19.2093 -12.3761 0.776959
-18.2415 -9.11359 1.02505
-16.6171 -11.3096 -3.8913
-17.8337 -10.4301 -1.29226
-19.5348 -9.09808 -0.0526128
-16.811 -9.93522 -0.793018
-17.7661 -9.92021 -1.00207
-18.3951 -11.0208 -1.21821
-16.4962 -12.9622 -2.31055
-16.6201 -10.9844 -2.90233
-16.1794 -11.7341 -1.85685
-21.0123 -10.4668 0.227735
-15.667 -10.2085 -1.31031
-16.7228 -10.852 1.74532
-17.2392 -11.6141 -5.48834
-15.8768 -12.6272 -2.5334
-17.7298 -9.226 0.973924
-16.81 -9.93533 -1.12932
-17.5995 -11.1668 -2.40393
-17.429 -12.7244 -2.34832
-20.669 -10.5793 -3.62905
-15.2913 -11.3072 -1.49142
-20.0797 -9.51856 -3.45186
-20.8568 -12.1351 -2.60581
-19.227 -10.8792 -2.52506
-19.6845 -10.2867 -3.78993
-19.5961 -10.434 -3.39271
-22.4419 -9.95259 -0.978931
-19.9448 -10.859 -3.79349
-20.2313 -12.0688 -2.76067
-17.8359 -10.7855 -3.60338
-17.5982 -10.1338 -2.57275
-17.4577 -11.4393 -1.81411
-17.5252 -10.023 -2.3853
-21.6675 -8.80676 -3.77282
-16.4156 -12.248 -2.74127
-15.9215 -10.5953 -1.63591
-15.7447 -12.2975 -3.85904
-13.4493 -12.1596 -3.71401
-14.9817 -9.98584 -4.18287
-14.9482 -12.1275 -3.565
-15.7639 -11.0173 -4.10065
-17.6409 -10.6086 -1.56009
-17.5956 -13.6151 -1.69387
-15.2909 -13.1528 -3.39978
-18.1241 -11.1932 -2.33301
-14.2015 -13.3315 -3.16927
-15.5918 -10.9535 -1.41527
-14.2829 -11.7348 -2.08985
-15.083 -10.9045 -2.42887
-15.0737 -12.0583 -3.66362
-21.5479 -8.88754 -1.1187
-15.5866 -11.5408 0.638225
-16.3104 -11.5222 0.0464112
-16.2787 -9.47298 0.295624
-16.6344 -12.071 -0.98656
-16.3358 -12.2534 -1.51375
-17.9747 -11.2645 -0.300037
-15.5182 -10.6639 2.58857
-16.8691 -11.942 0.387975
-20.6063 -8.05222 -2.25135
-21.0701 -9.98908 -4.57496
-20.2329 -10.7829 -5.72463
-18.4239 -10.6741 -3.57356
-17.8889 -11.9658 -2.91387
-18.9332 -11.36 -4.39929
-18.5578 -9.92007 -3.26361
-18.0018 -11.843 -2.069
-16.9865 -10.4595 -5.27668
-18.9842 -10.8838 -3.13475
-19.3591 -12.6631 -2.89311
-18.8141 -8.16185 -1.55504
-14.02 -11.4536 -3.7954
-14.8003 -10.2349 -2.25766
-20.3765 -11.2283 -1.52648
-16.1186 -10.5456 -2.80785
-15.6239 -11.6129 -2.25873
-17.5863 -11.8707 -0.235211
-20.0659 -8.66448 -1.29861
-19.5921 -9.07764 0.15786
-20.254 -11.0647 -0.0372107
-18.3607 -10.953 -2.1488
-15.1399 -9.54325 -0.861965
-15.4966 -10.5298 0.578542
-17.9218 -9.64684 -0.0745363
-16.7415 -10.4707 -0.380923
-17.4161 -11.2135 -0.69819
-15.1348 -11.4871 -2.07751
-14.2726 -10.9547 0.354315
-17.1969 -12.0735 -0.611324
-14.8734 -10.5515 0.976436
-21.2528 -10.4256 -4.26961
-19.4042 -9.82906 -5.14662
-18.5809 -11.3166 -4.29702
-17.2485 -11.1874 -2.73057
-17.6349 -11.4766 -4.7533
-17.1318 -11.3995 -4.15373
-15.5252 -9.87948 -2.54031
-17.0999 -11.0579 1.00232
-19.9788 -11.1679 -0.410389
-19.7277 -10.4826 -0.936136
-16.0161 -10.5986 0.280429
-15.4528 -11.625 -1.59228
-15.4028 -10.7955 -1.49938
-16.5348 -10.4207 0.825659
-16.8192 -9.7973 -2.13492
-16.5413 -9.81306 -4.1354
-16.2015 -9.97426 -2.85923
-18.1796 -9.85788 -2.54916
-17.7382 -12.0559 -2.99044
-17.1382 -12.0072 -1.95184
-15.1624 -11.7877 -2.82199
-18.3485 -9.62771 0.61641
-13.6887 -10.5906 -1.11613
-16.1737 -10.2873 1.18703
-16.6426 -11.7798 1.94769
-16.2471 -10.4212 -2.39608
-16.8368 -9.57115 1.56998
-20.1332 -10.4274 -4.80166
-16.1432 -9.90815 -4.27337
-16.6614 -10.5978 -3.18458
-15.1546 -10.792 -0.541585
-14.2525 -11.8412 -3.33714
-14.7737 -11.8728 -1.82277
-15.137 -9.59081 -1.45934
-20.0278 -9.60181 -0.696565
-14.9956 -10.4603 -2.12995
-14.2949 -10.8054 -3.58133
-16.2597 -11.5044 -0.72911
-17.8842 -11.8049 -0.600155
-17.0748 -10.049 -1.18351
-14.5136 -13.2316 -0.626055
-18.804 -10.4797 -0.499773
-16.3266 -12.0988 -2.60251
-19.5988 -9.9403 -0.50344
-18.2339 -11.1145 0.45057
-16.3421 -13.4344 -3.46141
-16.9304 -12.0625 -1.55803
-19.8608 -9.05439 -3.29284
-17.9057 -11.2448 -5.72486
-15.7862 -11.7687 -1.3889
-16.7173 -9.75529 -3.79864
-17.0416 -10.5262 -2.10302
-14.3305 -8.41589 0.378618
-15.2319 -10.8346 -4.41664
-16.3166 -11.1416 -2.12063
-14.2226 -9.67758 -0.273292
-14.1845 -12.7809 -2.82888
-15.5828 -12.4699 0.0335885
-17.4391 -12.8559 0.763351
-16.9024 -11.6746 0.456774
-16.3434 -10.1424 -0.940117
-15.8198 -9.96638 0.268896
-19.1622 -10.2726 -5.16207
-19.3594 -11.6401 -4.90365
-18.1026 -9.77383 -1.32136
-19.2599 -10.613 0.351294
-21.976 -10.8098 -1.22399
-17.2101 -10.3916 -1.3155
-16.0381 -10.1163 1.83059
-16.2342 -7.74262 0.182205
-18.1338 -9.18962 -0.528193
-16.5541 -11.755 0.00315089
-17.3971 -10.879 -0.139345
-15.2328 -11.0874 -2.67647
-17.4637 -9.98939 -0.0340537
-15.3812 -11.6178 -2.84938
-15.8767 -12.9017 -3.49864
-17.9721 -9.93732 0.64848
-15.2293 -11.9 -0.519653
-16.6168 -10.1709 0.0990085
-15.807 -12.6524 -0.999416
-17.0576 -12.2197 -0.947262
-14.3376 -11.228 -2.4364
-16.1898 -12.2764 0.199865
-16.3205 -11.6882 0.851507
-20.0525 -10.8629 -2.1473
-15.5268 -11.8238 -3.00191
-17.2746 -12.0768 -1.02442
-17.6572 -10.6047 1.24341
-17.3383 -10.061 -1.64882
-19.5463 -10.4997 -2.11096
-16.7271 -11.81 -4.95717
-16.9802 -13.4701 1.44387
-15.2585 -11.303 -0.0837336
-14.5474 -9.98339 -1.02988
-15.8215 -11.1132 -3.18899
-16.8141 -10.815 -0.99592
-16.7453 -12.2525 4.43183
-19.7519 -8.83016 -4.8455
-14.8369 -11.256 -0.813077
-15.188 -10.0178 -2.20415
-16.4486 -11.4229 -0.569668
-15.6767 -11.4185 -0.852685
-15.9538 -8.7881 0.611471
-16.4556 -11.4687 -0.556997
-19.6167 -11.1533 -1.79395
-19.347 -8.34074 0.120767
-16.6678 -10.5497 0.0572835
-15.0445 -10.2308 1.50134
-16.0063 -13.8347 -1.94769
-16.1265 -11.9036 -1.01504
-16.1143 -9.62283 -0.231452
-15.5488 -11.78 -2.10783
-21.4582 -10.0557 1.61627
-21.0158 -8.98719 0.550006
-20.4428 -12.1867 -4.85778
-16.9746 -10.8333 1.94786
-19.6868 -11.0241 -1.14676
-16.677 -8.9459 2.95397
-17.1277 -11.0016 -3.5036
-17.0001 -10.422 -3.85316
-18.5047 -10.9932 0.780731
-16.39 -10.3746 -3.75389
-17.8308 -11.3386 -0.365535
-15.782 -11.2772 -2.22563
-18.7197 -12.1822 1.00262
-17.5781 -10.146 -0.318907
-17.3495 -10.8911 -0.270092
-18.45 -11.2375 1.41494
-15.6654 -11.6118 -1.75634
-16.0054 -10.3527 -1.98092
-15.8372 -9.51134 0.757796
-15.5767 -12.2893 -2.70271
-13.8731 -11.9902 -2.35853
-22.1676 -8.75457 0.770357
-17.7661 -10.5139 1.67301
-15.5944 -8.8936 2.25787
-17.7974 -9.13865 0.581619
-16.6386 -10.5932 -1.36203
-17.0948 -9.70526 -2.65727
-17.9435 -11.1143 -0.900371
-16.6742 -11.2364 -2.59475
-16.3541 -11.5903 -1.86197
-15.9138 -10.3698 -0.26367
-17.6464 -10.5395 0.375638
-16.2269 -10.9178 -1.71137
-16.0654 -11.2986 -0.889225
-14.8147 -11.0697 -0.0319846
-16.4386 -11.1215 -0.640609
-15.7956 -9.60719 0.661141
-15.2393 -11.5313 -0.736542
-15.8937 -12.2499 -1.6679
-14.2806 -12.1168 -0.967144
-16.234 -13.3006 -1.59524
-17.8241 -12.4273 -3.80081
-15.9073 -10.7773 -3.0861
-17.4466 -11.9374 -2.46164
-15.7552 -11.6541 -0.423967
-16.4134 -11.4741 -0.338321
-16.9355 -10.7341 -1.17679
-15.0548 -8.93331 -0.421246
-19.7495 -11.0119 -0.995221
-19.7245 -9.87355 -0.736697
-16.2473 -10.5927 -2.20089
-16.3665 -10.2229 -0.994624
-19.6574 -11.71 -2.6952
-15.5058 -12.2788 -0.800187
-15.7695 -12.0687 -0.645174
-14.7794 -10.9844 -1.38155
-15.8391 -10.6815 -1.58215
-15.8039 -9.88577 -2.9235
-16.3426 -11.4152 -3.79081
-16.9923 -11.448 -1.07564
-15.5294 -12.2692 -1.91511
-17.8944 -10.9951 -1.9146
-16.5027 -11.0416 0.800419
-15.1763 -10.1631 -3.52809
-17.2733 -10.0341 -0.619352
-15.7836 -12.8597 -0.461211
-16.1546 -11.1832 -0.942379
-15.0116 -9.20677 -2.15779
-21.1642 -9.98972 1.13181
-21.7915 -9.014 0.392347
-23.2647 -10.1445 -1.65058
-21.9096 -11.9848 -2.40866
-22.656 -11.0855 -1.31751
-21.6728 -9.9425 -4.74211
-21.6523 -9.35573 -1.75486
-18.8173 -10.813 0.0570559
-21.3823 -9.57363 -1.91936
-18.4147 -10.7472 1.90347
-17.0639 -10.7321 0.498695
-16.6209 -11.855 0.411725
-16.0408 -10.6286 -1.19999
-15.2285 -11.3243 0.412201
-15.6743 -11.2412 -0.144344
-16.8544 -11.4926 1.28553
-16.6187 -10.7178 -1.11528
-16.5004 -12.3017 -3.26142
-16.3599 -10.8831 -1.44512
-14.928 -10.5671 -3.51738
-15.5666 -11.8969 -3.01729
-17.3631 -10.7953 -0.303547
-16.8615 -11.882 0.682925
-13.8934 -12.8179 -2.82174
-15.6508 -13.3273 -3.11817
-19.4688 -9.84129 -1.9994
-19.8438 -8.98997 -0.164811
-15.0269 -11.0414 -1.09154
-15.7118 -11.4193 -2.46456
-18.5602 -10.949 0.685987
-16.1528 -12.225 -0.194366
-16.6525 -12.0475 -2.47242
-16.6788 -10.1175 -0.488549
-16.2193 -11.2098 0.645307
-15.6402 -10.8336 -1.49597
-20.7418 -10.1431 1.11754
-19.9811 -9.27715 1.34358
-18.7657 -11.6849 -5.8777
-18.0344 -10.9519 -5.00899
-17.082 -11.813 -1.28709
-16.19 -9.52128 -2.09739
-16.9019 -10.2598 -1.1814
-17.32 -11.0546 1.2327
-15.5226 -11.8098 1.36837
-16.0155 -11.748 0.561956
-15.8504 -11.0117 0.681703
-21.0515 -9.19816 -0.140446
-15.9623 -11.7773 -1.18309
-14.3122 -10.4265 -0.520604
-15.151 -13.3034 -3.84643
-20.1863 -11.2076 -2.71429
-17.5223 -9.6561 -0.957536
-17.0331 -11.0319 -0.681187
-15.687 -12.1573 -1.67304
-15.7981 -10.0465 -1.67522
-16.5651 -8.29855 -2.62487
-16.4427 -10.431 -2.41905
-16.5165 -11.8696 -2.24739
-16.8551 -12.3234 -0.67195
-21.5519 -10.1398 -0.0903119
-20.4642 -10.6411 -0.536259
-21.8703 -11.0784 0.167846
-19.7132 -11.1955 1.20178
-20.0794 -11.1057 -1.18583
-19.611 -9.68386 0.366938
-23.3146 -9.53905 -3.7347
-15.4333 -10.6342 -1.32371
-16.3566 -10.8535 -0.555086
-15.5041 -10.8897 -1.32049
-17.0424 -13.7591 -3.81846
-16.6375 -9.6764 -0.19542
-16.9019 -10.5795 -2.30577
-17.2304 -10.3746 -4.81178
-16.1665 -10.4648 -3.36598
-21.1293 -9.49785 -0.117747
-18.9173 -10.7488 -1.49311
-16.9042 -11.6697 1.03301
-15.7576 -13.1508 -0.00349462
-17.4355 -11.8987 -1.06778
-18.0722 -7.70868 -1.33776
-15.7844 -10.2596 -0.715104
-16.509 -11.259 0.437766
-13.7116 -10.7092 2.30624
-15.6878 -11.21 -1.62436
-15.936 -12.6935 0.149548
-19.9926 -9.12628 1.00369
-16.3869 -10.004 0.716681
-14.5283 -11.5134 -2.79192
-21.2615 -9.02085 -3.92612
-16.9859 -11.5669 -2.67825
-15.6257 -11.1648 -0.372659
-15.4926 -11.9082 -2.57073
-14.6112 -11.2034 -1.20764
-15.5866 -13.479 -3.66466
-14.7783 -11.7068 -4.36705
-16.9833 -10.9375 -0.45448
-16.5792 -11.8247 0.74441
-17.6574 -10.4721 -2.75751
-16.6892 -11.6187 -1.30579
-17.7946 -9.90995 -2.69212
-16.3529 -10.3179 -0.336283
-16.8855 -11.6934 -4.47628
-15.8289 -10.2743 -0.42431
-14.1682 -11.6447 -2.73474
-14.8966 -11.2204 -2.08282
-16.9291 -11.8496 -1.65846
-19.226 -9.23988 -2.26986
-17.1617 -10.8602 1.53336
-16.4541 -10.5021 1.81889
-16.9901 -10.5764 -1.67973
-16.5339 -10.9954 -0.00464635
-17.2362 -11.2496 -0.495768
-17.222 -12.1606 1.64067
-18.5195 -9.43912 -5.14078
-19.3763 -11.3564 -3.72417
-17.4954 -13.1185 -4.39704
-16.642 -11.6007 -3.15325
-15.0913 -10.0393 -4.09346
-20.6218 -10.4583 -1.88779
-20.1022 -10.5937 -1.97319
-16.8892 -14.006 0.200917
-17.4207 -9.52872 0.186824
-19.1942 -11.4836 -1.42439
-15.3382 -11.4236 -0.733117
-19.7511 -9.80217 -3.87467
-16.2586 -11.1817 -0.457256
-20.8424 -11.2531 1.69302
-17.5258 -10.5682 -0.0608027
-15.0456 -11.8845 -2.84554
-18.4868 -12.6943 -0.710283
-17.034 -10.254 -1.75963
-16.8718 -11.0133 -1.86461
-17.0202 -10.1142 -0.509008
-17.0499 -10.03 -2.86103
-14.6122 -10.4321 -0.728949
-22.6178 -9.85438 1.89539
-17.3891 -14.5596 -1.09982
-16.671 -11.9716 0.138337
-20.1409 -10.0792 1.38268
-16.4348 -10.1208 -1.03964
-20.8092 -11.9885 -1.81813
-19.5762 -12.3554 -1.58639
-16.0056 -9.29996 0.668264
-18.1889 -10.1762 -0.145027
-19.9816 -10.2789 -3.40754
-17.0668 -10.9291 0.372298
-15.6096 -11.6956 -1.37752
-16.8891 -10.337 -1.40501
-18.3066 -9.60846 -5.26665
-18.4762 -11.9122 -5.2124
-14.6847 -10.1721 -1.95943
-18.6265 -9.84593 -4.94228
-18.6694 -9.75271 -1.52278
-18.099 -11.0805 -6.22041
-14.9259 -10.8235 -2.94868
-17.8734 -11.8078 -4.99745
-15.7895 -8.89091 -2.6316
-15.1084 -12.3283 -3.00039
-13.4612 -9.62912 -3.83384
-13.6707 -11.7263 -2.72438
-18.5702 -10.2178 0.883119
-17.8636 -10.7008 -1.39564
-15.1896 -9.51881 0.0223381
-18.3414 -10.3463 -1.34313
-20.6543 -11.3055 -0.945056
-18.2498 -10.2169 -1.14789
-17.2614 -11.1076 -1.36001
-17.1595 -11.4263 -1.41069
-16.8089 -11.2538 -0.243504
-16.048 -13.1363 0.355579
-16.9267 -9.89993 -0.586558
-17.3651 -10.1772 -2.62583
-14.8262 -11.5615 -0.81987
-14.5519 -12.5514 -0.467573
-17.5042 -11.8296 -1.12005
-19.2942 -11.5033 -4.49532
-18.3436 -10.5407 -1.84925
-16.74 -10.2303 0.0880663
-16.6609 -12.0382 1.05052
-17.3643 -9.5897 -0.124046
-16.3711 -11.9168 1.12137
-18.9713 -13.1195 -1.80579
-18.003 -9.24482 -1.34177
-16.6666 -10.6478 -0.311796
-14.3587 -11.0185 -3.26547
-16.4257 -11.9492 -1.54373
-16.169 -15.0213 -2.3133
-18.8322 -10.8037 0.266362
-19.3093 -10.2102 -1.86279
-17.9811 -10.9047 0.229259
-15.5122 -10.2932 -0.500596
-15.745 -11.9318 0.766782
-17.5763 -12.5563 0.362397
-14.5544 -11.2143 -1.68072
-18.2485 -10.7055 0.991823
-15.19 -10.8055 -1.81392
-14.8087 -12.1995 -2.29907
-17.9912 -12.0753 -4.03019
-15.112 -10.8986 -1.03143
-15.4435 -11.7942 -0.552751
-15.6589 -9.10719 -0.0455264
-20.9685 -8.67722 0.844689
-18.4052 -10.7186 1.77476
-17.1051 -12.7422 -1.87763
-18.0092 -9.92263 -0.728088
-16.6112 -10.0445 0.954953
-17.2839 -10.7591 0.635515
-16.0964 -9.32007 0.167123
-15.2235 -11.002 1.29116
-20.3979 -10.9159 0.268195
-18.8196 -11.5456 -1.32399
-18.4975 -9.5682 0.0102709
-21.594 -12.6966 -1.64292
-20.3117 -9.42117 -2.73499
-20.8888 -10.1339 -1.70848
-16.5567 -9.54739 -3.3655
-15.9674 -8.77995 -2.31678
-13.9584 -10.6971 -2.30035
-15.4355 -10.2927 -4.63261
-20.7795 -10.864 -3.17614
-14.7408 -11.8253 -1.33039
-16.7017 -10.6751 -1.14373
-15.7471 -11.8138 -3.60159
-17.7442 -10.7649 -5.27222
-17.0643 -12.8921 -3.81513
-15.1729 -11.3169 -3.01366
-15.3655 -10.1392 -0.565362
-16.6241 -10.7924 2.063
-16.6624 -9.85422 -0.712335
-16.382 -10.3505 0.482697
-15.3818 -11.6383 1.06519
-16.1597 -11.0588 -0.117364
-16.904 -9.73778 -1.36331
-18.7745 -9.60232 -1.25086
-14.8099 -12.1829 -1.95242
-17.2107 -13.1513 -0.0467906
-16.1565 -10.1646 -1.51924
-17.1309 -10.6022 -0.671221
-15.849 -12.4329 -0.513863
-15.3027 -12.692 -2.65069
-15.6705 -10.8449 -1.38556
-14.8209 -11.2441 -2.40079
-15.5123 -12.9567 -2.93076
-18.0746 -8.83278 -4.67682
-14.8042 -12.4439 -4.40167
-17.4331 -10.0166 0.945539
-20.026 -9.46709 -2.61156
-17.0102 -11.027 0.854893
-20.6935 -9.28839 -0.289589
-16.3562 -9.41296 0.655544
-16.3567 -10.349 -0.947216
-16.0494 -11.1597 0.14879
-16.3546 -10.1772 -1.5492
-16.6504 -10.06 0.453293
-15.8868 -11.2884 -1.91391
-20.3082 -11.0408 -1.09329
-15.0037 -11.2006 -1.94914
-18.8153 -11.1031 -2.1245
-15.8338 -11.1331 -3.04792
-15.9864 -12.1149 -3.57217
-14.2639 -13.3424 -3.19379
-15.8211 -8.3964 1.24713
-18.5026 -9.64712 -1.9713
-17.1461 -9.32916 -0.0357438
-17.6295 -12.8531 -1.68834
-17.7837 -11.0778 1.1827
-18.0127 -10.0773 -2.58853
-15.767 -11.8149 -1.85317
-16.5062 -11.4694 -4.58116
-15.447 -13.3722 -3.61031
-15.9272 -11.185 -2.22512
-17.2079 -10.3956 -0.457515
-18.4329 -12.1732 -1.16884
-15.8224 -10.4485 -1.14067
-17.301 -11.7913 0.357224
-16.7216 -10.5649 -0.87884
-13.9587 -13.8147 -2.36559
-18.193 -10.7987 0.579861
-17.9308 -10.1865 0.745041
-16.1249 -12.5346 0.374833
-16.589 -11.5303 -1.87143
-15.3711 -11.9721 -2.19734
-16.5192 -10.8333 -1.36701
-14.4331 -12.1356 -2.86155
-20.1355 -9.14888 1.02224
-19.3932 -11.0224 0.372237
-20.1946 -10.6802 0.53391
-16.5102 -10.9376 -2.00194
-16.3733 -13.7527 -4.17945
-15.4406 -10.7363 -1.70763
-16.2215 -10.3577 -2.82929
-16.2769 -10.5492 -1.95503
-15.5187 -11.0491 -1.69854
-14.9378 -11.9402 -2.49628
-15.3423 -10.1716 -1.25111
-16.859 -8.94725 -3.77312
-15.9856 -11.5233 -0.509266
-16.3854 -14.1298 -2.5815
-15.656 -12.1121 -1.20931
-13.8292 -9.40334 0.40504
-19.3921 -9.51023 -0.677544
-14.9631 -11.2134 -0.997446
-21.6179 -11.3363 -1.15613
-15.4758 -10.7006 -3.15856
-18.2089 -11.1415 -1.75912
-16.2422 -10.5684 0.704767
-16.6874 -12.6518 -1.54556
-16.8043 -10.417 0.632413
-22.2307 -11.2051 -1.33459
-14.7835 -13.6062 -2.04542
-15.9022 -12.7855 -0.884833
-18.3263 -11.7317 -0.16662
-16.6196 -11.4198 0.853039
-15.2552 -12.0242 0.724744
-18.5616 -11.3943 0.0623028
-21.19 -8.76043 -0.750056
-19.6193 -9.25876 0.664998
-19.2909 -10.1832 1.87198
-16.6339 -12.0142 0.419603
-20.5876 -9.87096 2.4193
-21.7284 -9.95431 0.962148
-19.1591 -9.40143 1.77467
-15.2155 -6.5667 1.1885
-14.4915 -9.23764 0.371055
-18.5301 -10.2398 -2.50356
-18.4799 -10.0351 -3.36613
-17.8938 -12.2621 -1.57556
-15.1306 -11.8208 -0.675358
-15.742 -12.6557 -0.246924
-20.6027 -10.4115 -2.08208
-17.6776 -10.1369 -0.132881
-16.8526 -9.56523 0.182061
-16.6161 -11.0271 -0.809696
-15.3454 -11.412 -0.119315
-17.8329 -12.9117 -0.494805
-15.281 -11.8762 -4.08542
-16.0655 -12.2451 -3.08704
-17.1059 -10.4197 -0.544798
-18.1097 -11.6238 -0.946033
-16.0885 -10.2486 -1.2767
-14.8778 -12.0894 -0.952603
-17.781 -11.0947 -2.85762
-15.8696 -9.97043 0.771269
-20.717 -10.0677 0.657506
-19.2468 -11.6042 -2.2232
-19.0575 -8.21486 -0.0485289
-19.5666 -10.6808 -1.37103
-19.373 -11.1873 0.124666
-16.0301 -10.4066 -0.680637
-19.4518 -11.197 -0.530923
-17.2008 -8.88405 1.21725
-14.0339 -11.7712 -2.14887
-15.6022 -9.1967 -1.57424
-16.1262 -12.0837 1.66492
-16.4233 -12.8096 1.47963
-14.8092 -12.4244 1.05198
-17.6954 -12.5724 0.678637
-19.8066 -10.2636 1.68573
-15.5783 -9.02058 -2.4806
-15.9601 -12.8853 -2.73317
-17.117 -11.8771 -1.99489
-16.2861 -12.9007 -0.992677
-17.0927 -11.4745 -6.61512
-13.7838 -12.2033 -3.80932
-13.9269 -11.5628 -1.42705
-19.5998 -9.42801 -3.72688
-14.6967 -11.7655 -3.63061
-20.0442 -10.6714 -2.68194
-23.1025 -11.1023 -2.67095
-16.2449 -12.0716 -3.29459
-14.9305 -12.7275 -1.79171
-20.0399 -9.63655 -1.98757
-15.4031 -11.7347 -2.37745
-13.7432 -10.7238 -2.75429
-16.8468 -10.7625 -4.50027
-16.8724 -12.2174 -2.32531
-16.8957 -11.3893 -1.37163
-14.9994 -9.39765 -1.58227
-17.2843 -9.67523 -1.24736
-16.5319 -13.2013 -2.57781
-22.25 -12.1719 -0.952322
-22.8792 -10.3937 0.419073
-21.5517 -8.73099 3.37916
-17.7958 -8.32307 1.72333
-20.9083 -8.03352 1.10066
-20.1655 -10.4526 -3.60438
-17.1511 -11.5105 -3.9829
-15.3721 -11.1865 -2.71159
-19.2183 -11.6272 -2.81925
-18.5406 -11.0464 -3.57797
-17.0247 -11.3808 -1.64401
-20.362 -11.289 -1.14427
-17.5637 -11.2481 -3.73962
-19.7017 -10.1603 -2.80683
-17.5956 -10.4713 -3.92283
-19.6398 -8.71571 -2.47813
-17.2861 -9.99263 -0.491381
-15.8247 -9.97035 -0.302595
-19.4067 -9.82155 -1.73567
-20.7041 -9.63755 -2.57286
-19.0512 -10.848 -0.889897
-15.5924 -11.1248 -1.88503
-16.3902 -11.5459 -0.851814
-20.2794 -10.385 1.07277
-15.2017 -11.0529 1.44764
-17.6712 -10.849 -3.88196
-17.3745 -11.3415 -3.99316
-18.8512 -11.5808 -3.80353
-17.6717 -9.63264 -3.95917
-18.1334 -9.72529 -2.80174
-20.8475 -9.88343 -3.98321
-18.0736 -11.399 -5.14764
-15.4743 -11.5952 -3.21343
-19.6698 -9.55525 -1.06985
-16.294 -10.8037 0.215362
-17.7181 -12.0142 0.619014
-14.6783 -8.87177 1.87119
-13.3542 -10.9368 -3.06847
-17.4097 -10.8323 -2.43475
-18.1038 -10.0246 -1.53434
-14.9408 -11.6425 -2.58363
-15.3001 -11.1003 -0.559189
-14.6374 -11.1657 -2.23327
-15.8137 -10.2304 -0.704137
-13.9752 -11.8041 -4.03911
-18.0258 -8.83172 -3.3088
-15.4761 -9.86984 -4.50422
-16.8598 -10.5922 -2.48231
-17.0537 -12.7446 -2.30161
-18.4328 -12.2861 -2.0682
-15.2815 -9.0413 -3.23402
-17.5003 -9.90714 -2.10094
-18.4156 -9.67111 -0.133637
-14.2081 -12.1642 -3.10647
-16.4604 -9.96736 -0.94764
-16.5861 -11.734 -1.13567
-17.7608 -11.9035 -3.36195
-18.385 -9.41299 -4.33487
-20.714 -11.4971 -3.01919
-19.4963 -9.83759 -1.85897
-20.4385 -8.95408 -2.29154
-14.0138 -11.9484 -4.70372
-14.5365 -10.1071 -4.47081
-17.2948 -10.821 -1.87664
-20.3056 -10.2397 -0.714
-16.4672 -10.2062 -1.90887
-17.0209 -11.5371 -2.6595
-14.4473 -12.4369 -2.56744
-16.1535 -10.4014 -3.26748
-15.1728 -10.9534 -4.19534
-14.0664 -12.8353 -3.02247
-21.4439 -10.5435 -0.323481
-15.2189 -12.1807 0.198235
-17.449 -11.1473 1.55337
-18.9316 -11.1602 3.12641
-15.0761 -7.05375 1.63336
-21.3583 -11.1038 -4.26537
-18.2375 -11.8339 -4.35429
-19.3783 -9.79415 -4.64312
-21.6089 -10.3491 -4.34057
-14.8883 -11.0143 -3.73166
-16.967 -11.3567 -2.4319
-16.9691 -12.8908 -2.27573
-18.0526 -11.0078 -3.93782
-16.7763 -12.3117 -1.51419
-16.9798 -11.0672 -3.3804
-18.0308 -11.1826 1.41187
-16.2052 -11.4295 -2.26524
-17.1749 -9.79263 -0.669787
-16.1412 -10.5332 1.7439
-15.8911 -12.4653 1.49225
-14.9637 -12.4847 -2.60897
-17.9031 -11.5781 -3.31593
-17.827 -11.1103 -2.75242
-15.5743 -11.1189 -1.1765
-19.7138 -11.4279 -2.45857
-17.1603 -13.4462 -4.1419
-14.8707 -11.4306 -2.72174
-13.959 -9.33309 -2.41479
-17.3037 -12.7788 1.64129
-14.8598 -12.9832 -1.54751
-15.0815 -10.5779 -1.52844
-13.7159 -10.5538 -3.08977
-15.1396 -10.5713 -4.17927
-17.5552 -13.3461 -2.89048
-17.1284 -10.252 -1.44072
-17.5681 -10.439 -1.31201
-18.3878 -10.914 -1.89111
-16.2391 -11.9761 -1.05126
-16.8552 -11.963 -2.18022
-15.1849 -9.62164 -1.37542
-14.9473 -10.8956 0.607038
-14.9952 -12.6929 -2.24537
-17.7047 -9.93964 -2.72828
-17.646 -10.0866 -0.775611
-17.7632 -11.673 0.189849
-20.393 -10.8789 -4.17363
-18.2975 -9.47935 -4.02201
-18.5603 -13.8204 -2.96111
-16.0336 -10.1497 -2.87218
-16.1272 -11.7617 -1.77693
-15.5706 -10.2172 -2.03445
-16.3956 -10.0454 -2.70261
-13.7423 -12.7345 -5.27454
-14.9564 -12.1004 -3.91099
-15.547 -12.1699 -1.71486
-14.6034 -11.4089 -1.91637
-18.5746 -10.4598 -2.11665
-16.8641 -12.508 -2.3003
-14.4637 -11.0571 -3.98723
-21.3795 -9.82675 -0.282399
-19.8357 -9.59 1.27891
-15.0822 -12.0602 -2.9579
-17.455 -9.23269 0.4398
-16.927 -9.0121 -1.1497
-18.7698 -9.71728 -4.59853
-17.438 -10.5627 -2.42768
-17.276 -10.0763 -1.78413
-14.93 -11.1539 -1.81032
-16.4811 -12.1699 -1.02667
-19.7121 -10.6161 -1.08557
-20.0866 -8.71993 1.07204
-20.2026 -10.7466 -0.833265
-15.9932 -9.67086 -2.93595
-18.5771 -10.8253 -0.346802
-16.7909 -11.231 0.555071
-16.0711 -11.7637 0.749344
-16.7543 -12.3783 1.01604
-18.846 -10.5051 -2.26724
-21.1605 -10.2988 -2.60241
-15.4436 -10.5195 -1.2537
-15.9896 -12.0069 -0.272575
-16.5743 -11.2104 0.53325
-19.8855 -9.31331 -2.22433
-17.2877 -12.1492 -1.80177
-18.5972 -10.3909 0.0716885
-17.474 -10.0054 -2.13838
-16.6323 -11.282 -1.89542
-18.8934 -11.7221 0.461806
-17.0026 -10.4651 -3.29989
-16.9268 -11.8345 -3.42918
-18.44 -10.4608 -2.32001
-16.3132 -11.4982 0.655211
-17.9557 -10.9532 -5.61946
-18.2354 -11.7397 -1.96611
-17.239 -11.1914 -3.72525
-17.2309 -11.2141 -1.3283
-21.1929 -10.1679 -0.544358
-14.4526 -11.7269 -1.41595
-17.4622 -11.0486 -2.52962
-17.2881 -10.6051 -0.830164
-16.5327 -12.2938 0.0721302
-14.4573 -10.6126 0.354199
-17.7048 -12.3738 -5.381
-18.4759 -10.4001 -3.18664
-19.5122 -9.92896 -4.984
-19.0233 -9.74926 0.169002
-17.3323 -11.0355 -0.841723
-14.5798 -12.0792 -5.39054
-14.4058 -12.2849 -1.15614
-13.701 -13.179 -2.70253
-18.7954 -10.3737 1.59415
-16.0356 -10.9237 0.161974
-14.9981 -11.5218 -0.330819
-16.1475 -11.6867 -1.22838
-13.8735 -12.6523 0.748667
-16.8854 -11.293 1.36532
-18.6893 -9.80036 2.13217
-17.2522 -10.235 -0.350134
-18.5022 -12.846 0.777435
-17.3243 -11.0371 -1.40338
-16.5283 -11.2645 0.727745
-15.7713 -11.2318 -1.78288
-16.4487 -10.3385 -1.29495
-17.6769 -11.078 -0.0617962
-17.6917 -8.58668 -1.77374
-20.1368 -11.0907 0.840626
-20.1807 -11.9967 0.588277
-22.7315 -11.0581 0.214504
-21.1841 -11.2195 0.650035
-18.4264 -10.739 0.700535
-20.0716 -10.1598 -0.0372351
-16.7729 -8.13555 2.16277
-15.2193 -11.4584 -4.01161
-16.0116 -11.2031 -1.82353
-18.0412 -11.0565 -0.424096
-16.6859 -11.6575 -1.83109
-16.9065 -11.1047 1.19955
-14.8917 -13.2695 -3.88391
-17.2017 -10.6303 -0.275698
-15.5613 -12.4684 -0.531194
-15.9159 -11.5621 -2.72145
-17.0119 -10.0376 1.70726
-16.1926 -10.2032 1.57138
-17.3886 -10.4179 -0.906766
-16.5927 -10.3335 -0.887569
-15.3401 -10.8407 -1.80753
-20.574 -9.52879 -0.779044
-20.1627 -10.4049 0.565787
-19.6964 -10.4275 -0.781492
-20.7156 -8.47963 0.0149189
-21.8699 -10.4621 -0.393475
-19.2429 -10.2168 -3.36825
-15.3257 -11.4351 -2.5321
-17.0727 -11.1062 0.278836
-14.5123 -8.88533 -2.19993
-16.3254 -8.97235 -0.526925
-16.4621 -11.4988 -0.0749457
-20.4892 -10.3607 1.02619
-18.2301 -10.6943 -0.208995
-16.9966 -10.9518 -0.280994
-15.8313 -9.95756 -1.74033
-15.7941 -11.8027 -0.622263
-16.8973 -10.809 -1.43329
-15.0618 -10.9366 -1.31395
-15.6588 -9.88106 -0.511642
-15.8496 -11.3699 -4.50249
-16.5764 -12.3663 -1.34283
-14.512 -10.619 -1.82787
-16.3159 -10.747 0.410958
-15.9163 -10.3692 -2.05665
-19.3026 -11.9405 -1.7673
-15.5058 -11.3846 -2.84944
-15.9823 -10.8889 -3.14251
-19.2331 -10.2088 -0.158424
-15.9237 -12.6428 -1.00905
-23.046 -10.0442 0.164567
-19.4321 -10.452 0.73746
-18.387 -12.2659 -3.14597
-16.9424 -10.4755 -3.80508
-17.7203 -8.31729 0.695152
-16.97 -11.3488 0.382163
-16.1156 -10.8468 -1.20283
-16.95 -9.23901 -1.69452
-19.7697 -8.7021 -1.48661
-19.7457 -9.34553 0.446373
-19.3488 -10.0264 0.170847
-18.9342 -11.7038 -3.70843
-14.9216 -12.0481 -3.2042
-15.7074 -10.1103 -0.403988
-17.6971 -10.9307 -1.91928
-15.2541 -10.1471 -4.19404
-16.1281 -12.2294 -0.00580782
-17.2891 -10.5373 -4.88863
-16.1606 -11.7458 -2.92441
-18.7897 -8.77518 -4.55516
-16.7438 -10.949 0.0887819
-18.4959 -10.5833 0.419455
-17.3591 -11.3623 -1.29518
-16.2462 -12.4544 -3.6419
-18.3386 -11.1035 -1.55329
-16.6352 -13.0274 -2.2612
-13.5932 -9.81259 -1.14228
-17.6574 -11.7891 -0.324094
-16.012 -10.792 -1.75001
-16.4086 -10.9729 -1.98354
-16.7618 -10.3387 -2.5515
-18.3033 -9.54628 -0.236832
-17.1949 -11.362 -2.06413
-16.2115 -10.5919 -0.583018
-19.4815 -12.7099 -1.46273
-15.132 -11.8391 -0.717542
-22.5285 -9.48441 1.20125
-20.9641 -8.46452 -3.81494
-20.5785 -10.406 -3.11056
-20.2974 -10.1997 -3.83423
-17.8052 -12.3118 -2.25221
-16.53 -8.96745 -4.56215
-17.8246 -11.0874 0.532567
-16.9334 -11.5182 0.643782
-17.1763 -7.9329 -1.14788
-15.7771 -10.4796 -0.776775
-14.9131 -11.6904 -2.72093
-17.6448 -11.8729 -3.07852
-15.2473 -10.9433 -2.68956
-20.4686 -10.5006 0.877058
-20.5534 -10.5525 -0.200953
-18.3257 -10.6094 -0.142281
-18.2112 -12.3442 -2.06771
-15.5378 -9.13206 -0.71244
-15.3245 -12.4099 -2.40144
-15.4952 -12.2794 -3.49602
-15.9169 -10.5065 -1.37055
-22.3826 -9.34309 2.53112
-17.0174 -9.68657 -2.23253
-15.7305 -10.7705 -1.60847
-18.0494 -9.60821 -0.627469
-15.5116 -12.7354 -1.77927
-23.4322 -10.8212 1.47759
-17.0857 -10.4353 -0.897333
-17.3799 -9.57709 -0.897066
-17.551 -10.5612 -2.51862
-18.083 -10.7524 -1.53474
-15.9021 -11.5228 -1.24358
-14.9254 -9.72093 -0.515529
-15.1102 -9.93626 0.00857124
-15.4323 -10.403 -2.42578
-17.5979 -12.962 -3.57279
-21.621 -10.2799 0.486652
-21.6429 -9.49508 0.656959
-20.139 -12.8319 -4.44346
-16.6471 -9.11953 1.15477
-17.5035 -9.45861 -0.54301
-16.5684 -11.3478 -0.638215
-17.2154 -12.7333 1.00603
-15.7427 -12.6825 -0.132487
-14.1772 -11.6532 -1.34057
-22.2159 -8.84443 2.27229
-21.0397 -11.1037 -0.200552
-15.3266 -10.9011 -3.71662
-15.1404 -11.728 -0.147712
-17.3137 -12.2401 -3.16902
-17.4344 -10.8107 -1.38115
-16.8245 -11.064 -3.58278
-16.7832 -12.5065 -3.25444
-15.0636 -11.1647 -1.99259
-14.0283 -9.51091 -1.31025
-17.0377 -10.9434 -1.44234
-15.5826 -10.5111 -1.93664
-15.908 -11.3516 0.204849
-17.9064 -11.1648 -2.66204
-17.835 -11.1693 -0.971836
-15.4334 -9.9915 -4.17502
-19.3128 -9.34039 0.467885
-20.005 -10.25 -0.0894855
-20.1683 -9.89506 -0.500203
-16.507 -10.8007 0.397277
-17.7355 -9.75131 -1.76028
-17.2842 -11.0946 -4.01891
-13.6328 -11.3334 -0.371352
-20.4172 -10.9484 -0.0422958
-17.6243 -9.83357 0.383015
-15.9516 -11.1326 0.563401
-16.8564 -10.9453 -1.71163
-16.0979 -11.0249 -1.92143
-16.3028 -11.2157 -0.500826
-14.6513 -11.1184 -3.80388
-14.861 -10.8676 -3.49602
-15.0549 -12.1045 -5.89996
-16.1715 -11.9992 -3.90531
-14.8725 -12.278 -1.52781
-16.6085 -10.3456 -2.68394
-17.158 -9.68712 1.29817
-16.484 -11.7105 -1.13269
-15.2248 -10.1359 -2.67115
-16.5507 -12.6541 -1.42532
-17.0692 -11.5601 -1.65262
-17.4032 -13.6344 0.860517
-15.0582 -11.8882 -1.56643
-16.3789 -10.7909 -2.17729
-17.1459 -9.69926 -2.62445
-17.9544 -9.69746 -0.374586
-20.4529 -10.9244 0.631643
-16.4468 -10.4298 1.38048
-16.6535 -10.7832 0.0960847
-16.9493 -11.6208 -0.988825
-15.0903 -11.5263 -0.429144
-16.0196 -12.4876 -2.53139
-17.5198 -11.3111 -3.05885
-15.7532 -13.0517 -2.11994
-16.3349 -9.24234 -2.21061
-17.137 -10.6654 -0.320241
-16.1432 -11.3456 -2.01634
-18.0911 -12.7378 -2.99842
-18.9928 -10.9489 -2.08715
-16.8919 -13.0561 -1.84692
-19.2295 -10.8506 -1.35646
-16.272 -12.883 -4.04017
-15.4105 -12.6405 -3.71336
-18.0046 -12.7373 0.498465
-16.8777 -10.5673 -1.14571
-17.1463 -10.7594 -3.85477
-12.9395 -12.0239 -3.83384
-16.7219 -11.1546 -3.07926
-14.7322 -13.1527 -1.29689
-17.7842 -9.91593 -2.71426
-15.4987 -11.1103 -3.33974
-16.2263 -11.3467 0.429846
-16.1168 -13.2766 -5.17501
-17.1439 -11.385 -0.364895
-17.4514 -11.6571 -1.34655
-15.5995 -10.6717 -3.53807
-19.7965 -9.21472 1.09488
-18.0814 -9.98962 1.79926
-15.9528 -11.2903 -0.415735
-16.1477 -9.85533 -1.52524
-13.9059 -12.4078 -3.7101
-15.9892 -12.7655 -4.24786
-18.3474 -11.1042 -4.6048
-16.2609 -12.2584 -3.68944
-20.804 -11.5035 0.0849461
-17.9234 -11.7211 0.344668
-16.0314 -11.8924 -2.17063
-16.3891 -11.5441 -2.48116
-16.7365 -11.3802 -2.93837
-16.2663 -10.9611 -2.40394
-15.5148 -10.4211 -1.91732
-19.391 -11.389 -1.26535
-15.5425 -10.357 -0.303127
-15.2984 -12.0031 0.907943
-14.9801 -12.6169 -3.34388
-16.3797 -10.0036 -3.32541
-18.4903 -10.0377 -3.27076
-16.597 -9.83193 -0.853948
-16.1414 -12.3392 -4.4928
-14.2411 -9.4395 -3.05367
-16.5212 -9.76721 0.103206
-17.9763 -10.9337 0.394014
-17.8048 -11.9383 -3.10937
-17.8144 -11.7838 0.862528
-15.8703 -9.09859 -1.62358
-18.2718 -11.8507 -3.41637
-15.461 -10.2334 -0.432031
-16.0901 -12.698 -0.601364
-19.8029 -11.1578 0.231137
-18.8096 -11.9588 -0.525264
-17.1702 -11.2905 1.48478
-15.6887 -11.7997 -2.3561
-19.4838 -10.2439 -1.94631
-14.4453 -9.96477 -2.98324
-16.0494 -10.4879 -2.14005
-15.6109 -12.4302 -2.67775
-17.3845 -11.4822 0.747477
-17.6856 -11.9111 0.00648604
-16.4959 -10.9324 0.000379795
-14.2442 -12.872 -2.77531
-16.0941 -10.2971 -1.71553
-16.4728 -11.1081 -1.20882
-17.1431 -11.335 -1.70713
-16.2537 -9.90932 -3.02698
-16.2368 -11.2398 -4.07386
-17.5684 -10.0099 -1.07596
-16.541 -11.4149 -1.89971
-17.7343 -10.5723 -1.70908
-15.7187 -11.8867 -1.73205
-16.2838 -10.7619 -2.50686
-15.4093 -12.8326 -1.91728
-15.515 -14.4395 -2.29992
-15.9486 -9.62619 0.29392
-16.851 -10.5899 -2.07068
-17.4291 -10.7777 -0.31603
-15.7578 -8.64516 -1.32177
-15.6758 -10.2108 -0.648253
-15.3263 -11.3825 -2.03826
-15.8509 -10.8851 0.900818
-17.6818 -9.97303 -0.731578
-14.7761 -11.8683 -3.25161
-17.2808 -9.54107 1.1548
-16.1025 -8.8791 1.52477
-16.6107 -8.60058 1.38391
-20.9813 -9.90796 0.839326
-16.39 -10.6429 1.18552
-16.7145 -9.91323 0.395281
-18.7345 -10.3186 0.0831565
-17.1411 -10.6514 0.0769832
-18.5175 -12.547 0.878748
-16.3543 -10.5428 0.383903
-15.5027 -10.1478 1.59053
-21.5835 -9.80298 0.408845
-17.9063 -12.9404 -0.685172
-19.0905 -11.2824 -0.670539
-21.0055 -9.85139 -0.639682
-16.1767 -11.2 -1.00666
-15.929 -10.9493 -0.715219
-21.2153 -10.5485 -0.193114
-20.3843 -10.5133 -1.62983
-16.1512 -10.3293 -0.59192
-19.924 -12.5569 -1.61903
-16.9558 -11.2504 -0.944783
-14.2763 -11.803 -1.79391
-16.075 -12.1774 -2.04925
-15.8025 -11.8415 -2.43343
-18.8915 -10.2781 0.293
-15.8401 -9.38612 -2.23135
-15.7753 -10.486 -2.17941
-15.7516 -11.1819 -3.02118
-19.2308 -11.078 -2.88891
-19.7215 -10.3247 -3.82704
-16.4322 -10.3825 -2.78911
-19.3868 -13.0937 -4.51657
-19.4225 -11.2716 -4.24761
-20.7049 -10.7226 -3.06486
-15.7351 -8.46279 -3.80272
-20.0715 -12.2984 -4.65239
-13.217 -10.4323 -2.30468
-13.4247 -11.5105 -2.9313
-17.6893 -10.9079 -4.06111
-15.8623 -10.7557 -1.4247
-16.1679 -12.9157 -4.72228
-15.3821 -9.94188 0.213797
-17.7857 -10.9918 0.711581
-17.111 -10.8212 0.0530326
-17.3225 -12.1975 -0.121736
-16.4209 -8.99707 0.129919
-18.393 -10.1741 -0.992521
-20.6573 -9.16872 -1.28367
-16.5749 -11.4833 0.108873
-19.1139 -11.2099 0.0944809
-17.1752 -13.6882 -0.920603
-18.1216 -12.5489 -2.09842
-15.2481 -11.9702 -0.580786
-16.1111 -12.3636 -1.56076
-14.6936 -11.8618 -0.325261
-20.5942 -11.7236 -2.30915
-20.8311 -11.1023 -0.992131
-21.6989 -11.3227 -3.9405
-17.6951 -10.8018 -2.07509
-15.6512 -9.89882 -0.61315
-17.1249 -10.7109 -1.9477
-18.6184 -10.5136 -1.99713
-17.978 -10.5839 -1.21699
-15.7079 -12.7724 -1.51959
-19.5398 -10.9417 -3.64739
-17.3396 -8.2216 -1.34747
-14.2756 -12.9694 -3.90688
-16.5637 -11.5826 -3.48287
-15.5357 -8.12108 0.368618
-16.3971 -12.643 -0.156182
-19.8583 -10.8743 0.488237
-15.9912 -10.5838 0.863205
-19.1421 -8.73295 -0.873251
-21.469 -9.97198 -0.30639
-16.647 -12.4992 0.466605
-17.1382 -12.1043 -2.03053
-16.5958 -10.7061 -2.1374
-17.4367 -11.2498 -1.94827
-15.9387 -9.38257 -1.64058
-16.6567 -9.95059 -2.18441
-20.1619 -9.63163 -2.83233
-17.6225 -10.0462 -1.69864
-18.0479 -10.5051 -2.98799
-15.9946 -13.0279 -1.76149
-17.535 -10.9531 -3.46598
-17.7161 -10.0756 -4.50214
-15.4267 -9.69309 -3.63762
-16.1673 -12.1616 3.23685
-19.8881 -10.5489 0.224866
-16.4145 -10.4102 -1.84525
-13.9944 -12.082 -1.41651
-18.7059 -10.7991 -1.76785
-20.2084 -11.7063 -1.59721
-16.515 -8.80662 -3.06955
-17.4341 -11.1356 -3.39778
-15.4751 -10.5224 -2.31746
-18.3909 -12.4015 -3.96136
-16.1993 -11.6949 0.69814
-16.0739 -10.8129 -0.29591
-20.1995 -11.9113 -1.23307
-16.1258 -12.0396 -1.85983
-16.2589 -11.8658 -1.88885
-17.5175 -10.2397 -2.24698
-14.7196 -11.4321 -0.922839
-15.403 -11.2003 -0.799341
-16.1765 -13.1477 -1.13496
-16.2694 -11.6169 -0.271621
-13.5414 -12.8302 -6.12993
-16.6781 -13.2998 -3.80241
-13.7001 -11.8366 -2.54062
-14.8484 -14.2638 -3.65018
-15.3196 -13.0923 -4.02616
-15.7795 -11.8312 -2.67966
-16.7819 -12.544 -3.79094
-14.5944 -12.7995 -4.07184
-14.5153 -13.581 -3.22582
-16.1808 -13.7065 -2.65981
-16.6255 -11.5709 -3.59734
-15.9541 -10.6084 -3.51127
-15.3266 -12.306 -3.74671
-15.2513 -11.0802 -3.21184
-15.3249 -12.2323 -4.19385
-15.355 -11.3064 -2.47062
-13.2662 -11.6212 -1.69134
-14.415 -11.4339 -4.40761
-15.6891 -10.8235 -2.94076
-18.4425 -10.9302 -1.66973
-15.1265 -11.9557 -0.809979
-16.1539 -11.479 -4.12228
-16.0353 -9.62508 -2.262
-17.1903 -11.5597 -3.82954
-16.7738 -13.0744 -2.52128
-15.5611 -12.3852 -2.37074
-15.5941 -12.295 -2.33491
-18.7701 -12.0995 -4.61341
-15.7972 -12.0981 -1.66622
-16.523 -12.4446 -2.99887
-14.5004 -12.9048 -1.07351
-13.8601 -12.2483 -1.39018
-21.2544 -12.2442 -3.89494
-19.1246 -11.2337 -1.61164
-20.5204 -8.80533 -2.96758
-17.7535 -11.5565 -2.13106
-17.6614 -11.937 -2.04365
-20.4 -10.3177 -4.10666
-17.4566 -12.1007 -1.92909
-19.1558 -10.3103 -2.37963
-16.424 -11.8974 -1.87808
-13.5051 -12.3737 -3.13556
-15.7114 -12.5978 -2.61191
-19.0761 -10.4605 -3.0742
-14.7386 -11.9792 -2.18191
-18.4651 -10.6886 -3.85133
-14.4864 -11.9234 -3.28788
-15.6605 -11.7369 -0.498076
-21.6807 -10.7024 -3.76153
-21.0969 -9.67221 -3.02417
-22.1579 -9.80371 -2.66466
-16.1875 -10.8977 -1.03402
-14.6576 -12.6023 -2.4019
-14.7125 -10.8597 -1.35549
-19.0104 -8.35832 -2.23911
-21.2428 -10.7882 -2.43511
-20.1285 -7.98369 -3.43706
-18.5201 -10.6143 -4.19515
-19.4007 -10.9421 -1.79503
-19.9101 -9.87693 -1.51286
-18.9009 -11.3285 -1.21438
-17.3701 -10.6591 -0.961277
-18.5469 -11.2154 -2.67897
-16.3926 -11.4034 -1.91741
-16.5875 -10.1417 -2.69474
-19.1765 -11.3447 -2.25845
-19.8834 -10.0906 -0.625702
-20.7791 -10.3383 -1.48574
-17.5938 -10.6832 -4.14749
-16.863 -11.4582 -1.55186
-18.8404 -8.13223 -1.76065
-15.4837 -10.5772 -1.08486
-16.1553 -12.4112 -1.45611
-17.9413 -10.8488 -0.775902
-20.3981 -9.42505 -2.11819
-18.692 -11.3141 -1.63371
-16.5642 -12.8209 -0.993538
-16.241 -11.7102 1.36728
-16.674 -9.87711 -0.645274
-15.5043 -10.2724 -0.204772
-17.1696 -9.63114 -0.743681
-14.9388 -11.4829 -0.249756
-19.7574 -10.1031 -0.268579
-14.7543 -12.5035 -0.718188
-17.6095 -12.9176 -0.00964793
-19.3508 -11.0494 -1.28555
-20.81 -11.6442 -2.51172
-18.0175 -12.7174 -1.33138
-17.819 -11.5165 0.397013
-18.8197 -12.8065 -1.30453
-17.4918 -9.49487 -0.769243
-17.3573 -11.4111 0.0315685
-20.6569 -10.2697 -2.26047
-16.8649 -10.1626 -2.4506
-17.5668 -10.7881 -0.0263096
-21.4382 -11.8415 0.0538912
-14.7679 -10.1557 -0.646283
-14.9803 -10.0998 -0.814548
-16.6805 -9.6012 0.79823
-17.2138 -9.92588 -0.410928
-18.0915 -10.023 -1.15451
-18.8814 -12.6782 1.49727
-19.5991 -9.71662 0.420086
-19.6961 -11.1116 1.24246
-18.3624 -11.2142 0.241919
-21.5477 -10.6195 -0.256501
-20.0035 -8.73001 0.190455
-20.1642 -9.45186 -2.24371
-20.5657 -8.22528 -0.808349
-17.1083 -10.0757 2.33568
-16.6306 -9.24328 1.42185
-16.6647 -10.8773 0.690581
-18.3874 -11.5486 1.46503
-18.0851 -9.4338 -0.953019
-14.9073 -11.6569 0.458509
-22.0356 -9.69023 -0.316856
-15.9726 -9.26411 2.03719
-17.6814 -9.38927 -0.646126
-19.1399 -10.6612 0.808682
-18.5886 -11.0181 0.846382
-15.5242 -12.8994 1.24937
-17.7956 -10.1061 2.06301
-15.4233 -10.837 1.80218
-20.1399 -8.81943 1.06096
-19.7379 -9.67502 1.9461
-19.9615 -9.61218 2.12542
-18.5236 -11.5441 0.254647
-20.8538 -8.91298 2.83905
-21.9795 -8.91805 1.34592
-17.3037 -7.5782 1.23941
-16.9571 -9.49531 2.32002
-16.7514 -9.49475 -4.37481
-14.9753 -13.4735 -2.69361
-14.743 -11.3969 -1.20791
-13.4897 -12.3424 -2.43597
-16.3996 -10.5959 -5.17363
-13.4005 -12.1034 -2.71937
-14.6277 -10.2262 -4.085
-14.719 -14.1766 -2.94003
-16.9196 -13.2247 -4.32786
-15.3942 -13.9916 -3.18899
-12.3348 -12.7675 -2.9894
-14.8137 -14.0455 -1.29074
-18.875 -11.3946 -2.97721
-19.2518 -11.5278 -1.98236
-14.2571 -13.496 -2.39428
-16.0526 -12.2953 -1.52585
-13.4654 -11.2724 -2.82145
-19.0525 -10.0714 -0.781817
-19.4901 -10.6594 -2.62513
-21.0105 -11.6948 -2.73504
-19.1929 -10.1794 -2.51135
-19.9119 -9.17611 -5.09869
-21.286 -11.0927 -0.950178
-13.9372 -10.4928 -2.61204
-17.3506 -10.5621 -3.03746
-20.036 -10.521 -5.00083
-16.6845 -10.086 -2.67753
-16.6284 -11.2277 -2.01882
-19.8233 -11.0327 -3.3845
-19.1228 -9.33072 -3.4802
-18.8474 -9.54377 -2.32994
-19.5084 -10.7885 -2.37569
-17.1093 -9.96167 -0.706974
-20.7111 -9.91897 -1.55527
-18.1711 -10.3494 -0.396009
-18.2631 -11.3983 -1.87019
-19.6194 -10.4028 -2.56021
-21.268 -10.014 -2.54775
-19.5116 -10.2814 -1.65491
-15.0295 -9.89937 -3.16055
-19.3299 -12.5281 -1.88377
-15.8628 -11.431 -1.28297
-17.1642 -12.3101 -0.222438
-17.5559 -10.7218 -3.62474
-17.4158 -10.2518 -1.04825
-20.505 -10.2135 -0.533639
-21.5217 -10.106 0.766756
-17.5027 -12.784 -1.67228
-16.0882 -10.0226 -0.937759
-16.2553 -12.025 0.360624
-17.7208 -12.0326 -1.06357
-17.2599 -12.2729 -0.821143
-22.1815 -9.77415 -2.35795
-19.986 -9.50279 -0.804115
-17.0968 -11.1208 -0.135489
-20.4299 -10.3091 -0.354444
-21.021 -10.9622 0.362714
-20.1578 -10.3673 0.372756
-17.4579 -11.521 -0.115776
-20.825 -9.76417 -3.4142
-19.2984 -10.5352 0.409493
-15.7375 -12.0862 -1.64029
-16.2067 -11.3737 -1.02882
-17.3588 -11.2975 -1.59077
-15.4128 -10.1184 -0.916206
-15.6168 -10.6212 1.23319
-15.794 -10.3941 0.0212915
-16.3328 -12.6472 -1.46894
-16.8093 -12.2058 -0.681983
-17.6805 -10.5267 -0.37405
-15.1631 -12.313 -0.234224
-15.1733 -10.7383 0.238586
-19.7926 -10.3482 -0.334414
-15.3384 -11.9308 -0.587704
-17.9911 -9.72873 0.371075
-16.5564 -11.5354 1.55091
-20.1281 -11.5341 1.00573
-16.0348 -11.5442 -0.196918
-18.488 -10.6199 -0.39289
-18.7965 -10.2309 -1.25204
-17.8136 -9.13721 -0.592606
-20.9107 -10.7467 -0.956924
-19.6541 -10.6303 -1.66856
-20.025 -9.79864 0.627155
-18.7301 -9.07272 1.25139
-22.6795 -8.15462 1.73782
-20.2081 -12.3321 -0.413574
-20.5891 -10.5901 0.369389
-15.6087 -12.6548 -0.589452
-16.6821 -11.9201 2.0397
-15.9348 -11.3491 0.419319
-19.1542 -10.7912 -0.184343
-15.5058 -11.2436 0.394893
-16.914 -12.4882 -1.26522
-18.8357 -10.7071 1.91346
-18.5848 -9.91955 -0.402949
-18.8896 -11.5348 1.16711
-20.8091 -10.8259 1.22031
-20.4299 -11.0966 0.0881824
-17.563 -12.9325 1.78095
-19.6393 -10.4158 1.41489
-21.8285 -11.2623 2.35877
-17.464 -8.19863 0.653521
-15.0206 -10.5785 0.201819
-20.7675 -9.85815 1.94698
-14.4698 -10.1556 0.752585
-17.3111 -9.58127 1.67298
-14.0996 -13.338 -4.35135
-15.266 -12.1268 -2.50222
-15.7322 -10.2432 -4.21875
-13.879 -11.8628 -3.29109
-14.6193 -13.0946 -2.15068
-15.4299 -12.0592 -3.73247
-15.4999 -12.4244 -3.25509
-15.2929 -12.0269 -3.88846
-14.0227 -13.6492 -2.24606
-13.3783 -12.3971 -2.57587
-15.1715 -10.4061 -2.67907
