-16.3744 -10.6286 0.31887
-18.5631 -9.78817 2.0794
-15.0524 -11.8873 -2.09205
-13.7671 -12.69 -1.59843
-15.9101 -12.5722 -2.60821
-15.3737 -13.2515 -0.461212
-20.5609 -10.0253 0.290937
-20.1545 -14.2989 -0.247941
-19.5492 -10.033 -0.419889
-19.8071 -9.542 0.107348
-20.8844 -12.1084 0.515502
-17.2819 -11.3049 -0.375256
-17.4807 -11.7646 -0.808591
-20.303 -11.3437 -1.49766
-18.4181 -10.8133 -0.577682
-19.183 -8.88708 -2.1913
-18.3329 -12.8426 -3.13862
-19.3806 -9.2916 -3.00368
-17.0502 -12.9852 -3.97198
-17.0153 -7.92454 -0.383039
-16.2631 -11.4575 -3.13117
-15.6768 -14.2539 -0.787151
-16.4856 -12.1861 -1.21036
-15.1059 -11.188 -2.72337
-16.3494 -10.9196 -1.25488
-23.1211 -11.6659 0.35224
-20.0304 -9.78407 1.4837
-20.3178 -10.4582 -2.10349
-18.7345 -11.3377 -1.55005
-17.9194 -10.7331 -0.393495
-19.3889 -10.0673 -1.63434
-18.1103 -12.8843 -4.05772
-19.8318 -10.8802 -0.0243432
-16.4318 -10.3831 -1.18572
-16.8789 -8.72584 -2.36977
-17.5894 -11.4169 -0.366925
-17.0156 -11.6587 -0.834404
-16.2195 -12.0127 0.270804
-14.3533 -9.67997 -0.0897818
-16.3511 -11.7893 -1.36236
-19.1372 -9.63884 -0.435733
-20.1965 -10.1576 -0.431793
-20.0384 -8.94878 -1.29503
-19.2094 -7.95446 -3.26806
-17.9338 -10.8205 -0.765844
-18.8235 -11.7105 -0.386438
-19.3583 -10.6672 -1.60404
-17.8898 -11.0942 -4.59667
-17.4892 -11.6825 -1.11016
-18.1315 -13.1631 -4.11778
-16.1304 -11.1128 -0.581457
-16.5598 -11.5575 1.26957
-16.4955 -11.4839 0.114577
-18.0798 -10.6303 -0.523727
-17.6183 -10.293 -0.0602839
-16.5523 -10.4429 -1.02708
-16.2392 -11.6209 -2.20968
-16.0408 -10.6248 0.559308
-15.4495 -10.5709 -1.74032
-18.1451 -10.2776 -0.934649
-17.3803 -9.9821 0.562622
-14.9451 -12.7432 -0.609247
-18.7681 -9.81339 -2.3196
-17.8731 -10.0285 -1.00231
-19.9229 -10.6246 -1.61617
-20.4849 -10.4073 -2.72541
-17.6785 -11.6276 -3.06863
-16.9351 -11.6583 0.437016
-16.3405 -9.94024 -0.0204504
-16.8133 -9.26795 -1.70578
-18.0549 -9.58568 -0.553514
-16.2428 -9.70725 0.367149
-15.8791 -12.922 1.85118
-17.2069 -12.639 -1.51717
-16.5828 -9.40569 2.08592
-14.2852 -11.3977 -0.913512
-22.8555 -11.8103 -1.39292
-19.6238 -10.5763 0.59238
-20.1298 -10.6749 -1.27797
-20.0511 -11.1068 -1.46792
-20.019 -11.9234 -1.07684
-17.9474 -12.3749 0.315128
-15.3454 -12.3972 0.310408
-13.9901 -10.7218 -0.655245
-17.1311 -10.5237 -3.06208
-17.4553 -11.6793 -0.189421
-14.3004 -12.0004 -1.13061
-18.0535 -12.1092 -0.55665
-15.3359 -12.8742 -1.33442
-18.7267 -11.7225 0.186112
-15.7468 -11.7563 -0.0391215
-16.4711 -10.4239 -2.20557
-18.6631 -12.147 1.15523
-19.4165 -12.0059 2.6152
-21.8962 -10.2539 -1.58735
-17.9755 -11.1256 0.794439
-20.01 -9.70644 -3.74049
-17.7998 -10.742 -2.75224
-18.7723 -9.35615 -2.07268
-17.8914 -10.7027 -2.83674
-17.3427 -11.7774 -0.296957
-16.7423 -11.5901 -2.29681
-19.4233 -11.6394 -1.49428
-18.8992 -11.7907 -1.49548
-16.3637 -11.7001 -0.735592
-15.656 -10.9153 1.1372
-19.4527 -10.3076 -0.417246
-18.2559 -11.0704 1.54112
-19.5756 -10.3595 -1.43133
-18.8901 -11.3004 -0.90775
-18.8567 -10.0286 -2.06467
-17.6078 -10.1157 0.417345
-17.3579 -12.0252 0.152313
-15.3091 -10.3428 -0.805559
-21.1107 -10.8275 2.56385
-19.1337 -10.3051 2.54834
-19.852 -12.1051 -0.165669
-19.896 -10.7733 0.845143
-18.9914 -9.18848 1.29253
-19.19 -9.43921 -0.307015
-18.4816 -10.8461 -1.96747
-19.2782 -10.2798 0.584414
-17.1165 -10.3404 1.49422
-16.5321 -8.85604 0.32716
-17.7942 -8.5262 2.03691
-16.4621 -11.4518 -0.779391
-18.7301 -12.0547 -2.14424
-17.3095 -12.9141 -1.01826
-16.96 -11.1139 -0.638231
-17.0592 -11.9554 -0.914356
-14.8746 -11.4824 -0.827981
-19.5053 -11.6051 -0.582047
-20.8153 -10.7767 -0.822628
-18.81 -10.8172 0.0499176
-19.3272 -12.7497 -2.58609
-18.3136 -10.6663 1.87795
-18.3724 -11.8929 0.950547
-18.3104 -11.8072 -1.54584
-18.4094 -13.7334 -0.219966
-15.0786 -11.0703 -1.06387
-15.267 -10.848 0.144586
-16.7817 -11.7028 -2.81599
-20.3532 -11.219 1.23048
-21.4467 -11.2483 1.59412
-19.6187 -10.289 -2.39292
-17.2846 -10.1773 -0.0795847
-16.6698 -10.4914 -1.50774
-18.2759 -10.1805 0.282929
-16.196 -11.0217 -1.95462
-15.8061 -11.9301 -2.98832
-18.7727 -11.0566 1.75803
-17.0629 -9.65673 1.23629
-14.4202 -11.5617 -1.9299
-15.887 -11.8884 -2.85257
-17.3006 -12.3271 1.72383
-18.4249 -10.6644 1.39598
-18.3514 -11.5268 1.93514
-18.7187 -11.5674 -1.18185
-19.1972 -11.3167 -0.213111
-20.9326 -11.5915 -0.0366172
-20.0482 -10.9675 -0.751204
-20.8843 -11.4805 1.61035
-19.5967 -9.96349 0.242059
-19.5038 -9.39114 0.254445
-18.2467 -10.7827 0.503988
-19.1063 -9.97922 -0.196073
-21.0821 -11.4646 -0.825862
-18.784 -10.4353 0.860788
-18.6052 -11.1722 -1.56293
-21.7811 -12.3894 0.176495
-20.1783 -11.6298 -1.08166
-21.3072 -11.0573 0.786908
-17.193 -10.047 -0.195834
-20.766 -10.5426 -0.719244
-17.7491 -11.1146 -0.457689
-20.2413 -9.20124 -1.47319
-18.2809 -10.8291 -2.82505
-20.7602 -10.2687 -3.15615
-19.3566 -9.61049 -0.456564
-17.0257 -10.6445 -2.75276
-20.0564 -9.12747 0.318787
-18.057 -9.98477 -0.027827
-18.5224 -12.5631 -2.20038
-19.6713 -11.1258 -1.48545
-17.3808 -11.0059 -0.759651
-18.4124 -11.1076 -2.00864
-20.5053 -10.2697 -0.557651
-19.0467 -10.6613 -1.0489
-21.2844 -10.6221 -3.17257
-17.76 -9.08517 -2.02534
-17.0059 -11.408 -1.63854
-17.9699 -9.94064 -1.26801
-14.6998 -10.666 0.584821
-19.5128 -12.3739 -3.69396
-20.6598 -10.8922 0.102056
-22.1264 -10.3972 -0.358698
-17.5738 -11.467 -0.519691
-17.5843 -10.7528 0.244225
-17.2656 -8.12069 0.919473
-20.5941 -9.95554 -0.917865
-17.9817 -11.3153 -0.180697
-19.321 -10.3283 -1.46266
-18.6285 -10.4885 -0.950015
-20.301 -11.2752 -1.36796
-19.5043 -11.0139 -1.52683
-19.9315 -10.4662 -2.36406
-18.8262 -11.978 -1.70935
-17.8794 -11.079 -1.39076
-18.4961 -10.8592 -1.35979
-16.5986 -11.4119 -0.510653
-18.0651 -11.3019 0.206006
-18.1703 -8.84065 -1.49734
-16.1248 -11.3412 -2.11741
-16.02 -9.89963 -0.507096
-16.1577 -9.69102 -0.953619
-16.8737 -11.5447 -2.66718
-17.9723 -11.1051 -3.3361
-22.417 -10.3049 2.1046
-20.2746 -10.9328 -1.32881
-18.2568 -11.1647 1.88995
-17.6686 -9.18441 2.65376
-17.6048 -8.73773 0.474458
-18.9257 -11.154 0.762601
-18.6175 -10.7744 -1.56807
-19.0229 -11.0731 -2.08749
-18.8837 -12.8279 0.644742
-20.8815 -10.2066 -1.84033
-16.0518 -12.2662 -0.00363718
-16.912 -11.5279 -0.435338
-17.1013 -14.0839 0.011146
-17.6184 -11.4324 -0.469025
-19.2404 -11.2619 -1.86791
-18.2095 -10.5358 4.21594
-20.3402 -10.2522 2.64498
-21.7931 -8.24442 0.995153
-19.95 -12.1616 -0.861565
-20.6597 -12.2223 0.601952
-17.3431 -12.5319 -3.28374
-18.3045 -10.7842 -3.64564
-15.5434 -12.6188 -1.81685
-20.5657 -11.2864 1.74006
-21.704 -10.4576 -0.0957523
-19.7194 -10.3215 -0.351557
-16.5707 -8.76069 1.34539
-18.8588 -11.2151 0.130245
-18.3181 -11.1915 -0.903589
-17.4816 -11.3226 -2.02253
-17.7889 -11.0103 -2.86877
-16.7601 -12.0272 -2.22086
-17.3582 -10.7891 2.84154
-20.9118 -12.6248 -0.255658
-15.712 -11.8826 -0.340312
-19.6448 -12.1157 -3.51327
-17.9989 -9.16863 -1.98398
-18.3408 -11.9581 -0.711529
-17.7636 -10.5308 1.53872
-16.8481 -8.91204 2.75998
-18.1328 -11.2712 1.11641
-19.3586 -9.29007 -0.748977
-17.6619 -13.5444 0.128778
-20.4032 -10.0534 -1.33165
-20.2675 -11.0217 -1.03185
-19.7445 -11.031 -0.735477
-18.2797 -11.1773 2.90263
-20.0799 -11.931 1.39929
-18.5902 -12.2533 0.280142
-20.8027 -11.4257 -1.3086
-18.729 -11.2252 -1.67666
-18.9367 -9.80615 -1.4231
-21.1405 -10.6259 -0.5711
-21.1084 -9.77695 0.357147
-19.124 -9.0992 -0.2693
-20.1484 -9.86119 -1.54096
-19.1894 -12.1441 -0.738228
-20.4188 -9.91313 -0.623128
-18.0001 -9.61737 0.327242
-21.2568 -10.8896 0.529483
-21.0619 -9.45665 -1.84789
-20.6935 -9.90805 -2.33594
-21.0536 -9.92928 -0.754949
-20.4551 -12.032 -1.51673
-18.4041 -12.1855 -1.97823
-21.4488 -10.6783 -0.625474
-20.1593 -12.4397 -1.32766
-19.9556 -9.7666 -2.7676
-18.1705 -11.7487 0.486018
-16.0298 -11.9395 -0.657489
-18.4976 -13.0906 -0.0486895
-18.9232 -11.8438 -1.97531
-17.4107 -11.442 -0.495954
-15.2525 -11.5395 -1.07173
-19.6224 -11.6498 -1.50304
-15.0535 -10.3896 -0.593516
-18.2288 -10.4659 -1.91301
-22.2627 -11.3673 -1.83197
-18.4511 -11.0416 -0.596999
-18.2146 -9.96661 -2.0646
-19.2266 -10.1335 -3.05738
-18.9366 -10.7381 -2.86183
-19.9363 -12.4911 -0.0634088
-18.8203 -10.8526 -0.64634
-19.0393 -10.4358 -2.11412
-19.4059 -8.66502 -1.69404
-19.7451 -10.7924 -1.60503
-20.5483 -10.5656 -3.29148
-18.2718 -11.0168 -2.46724
-19.0947 -10.4863 -1.48868
-19.2846 -10.2807 -4.12026
-19.5158 -10.5292 -1.55004
-19.3613 -10.7279 -1.19394
-17.9119 -10.3397 -2.56136
-17.5912 -11.1181 -1.3993
-15.6158 -11.0962 -1.13391
-22.3791 -11.7719 -1.17062
-16.7122 -10.2696 -0.70084
-17.3793 -11.3696 -2.29168
-16.7403 -11.2225 -1.04809
-16.5189 -9.05175 0.558439
-20.2501 -10.6109 0.19336
-21.3167 -8.62231 2.8367
-20.5435 -10.0623 -0.26689
-18.1887 -11.2425 1.7469
-19.4201 -11.0198 -0.0944818
-18.5482 -11.2321 1.77412
-19.1123 -12.5822 -0.979797
-19.8022 -11.1729 -1.29726
-17.9115 -9.72725 2.58766
-20.823 -10.0777 1.44559
-20.2488 -11.4473 2.13652
-21.352 -10.2337 -0.703736
-18.4092 -12.0562 0.0786185
-14.4145 -9.8387 -0.16658
-19.8645 -11.202 -0.0114881
-20.3704 -9.3836 -0.818227
-21.085 -10.8596 -0.654466
-20.2371 -11.6178 -1.63565
-18.2614 -9.53179 -2.78894
-18.4627 -12.6746 -1.96073
-18.734 -11.1092 -1.86322
-18.1134 -11.2066 -2.61696
-19.1268 -10.1232 -1.3189
-20.547 -11.7498 0.557121
-17.9026 -10.9838 -1.79719
-16.499 -13.6523 1.03732
-20.4697 -10.7646 -3.57528
-17.9481 -11.3054 -0.817662
-19.3519 -11.5964 -1.37622
-17.8023 -10.689 -1.56364
-16.8787 -10.5968 -4.35684
-16.1508 -11.6811 -2.59844
-18.2378 -8.43628 -0.627822
-18.9277 -9.84669 -0.379673
-19.4517 -9.93694 -1.03377
-21.1461 -13.5186 0.715778
-19.7927 -9.63708 -1.36916
-20.611 -10.0405 -0.327943
-17.1687 -11.9089 -2.1451
-18.7405 -10.7076 1.10663
-19.1248 -7.73674 -0.543526
-19.3197 -10.7237 0.175011
-20.5294 -11.5685 -0.355413
-19.7968 -10.8003 -1.61797
-17.8933 -9.6179 -0.890725
-16.9626 -13.2473 -2.02251
-18.7688 -10.4108 -1.87765
-15.7718 -12.8296 0.356914
-17.741 -11.1909 -1.54033
-21.0269 -8.36852 -1.98971
-17.6903 -11.3338 -2.41866
-18.4329 -10.5602 -1.371
-15.7028 -11.7531 -2.53581
-15.4 -11.1196 -2.68476
-16.9196 -13.1793 -2.10796
-15.4646 -11.6812 -2.05293
-18.8522 -11.9767 -0.443613
-17.687 -9.5161 -0.259132
-21.2509 -11.1548 0.815036
-21.2196 -10.8124 0.882662
-17.1582 -11.7188 0.00387843
-18.4193 -11.2471 -2.48926
-16.1543 -12.2317 0.185215
-20.4416 -8.89582 -3.81024
-19.666 -10.536 -1.52186
-19.64 -12.0767 0.482226
-16.9622 -10.1261 -0.470601
-17.8153 -11.6953 -1.34942
-20.7932 -12.7429 -0.857121
-17.1402 -11.6242 0.630723
-14.8498 -10.1322 -1.87819
-18.0628 -12.2267 -1.82588
-17.5022 -10.6411 -2.17649
-19.791 -8.33384 1.79747
-19.1596 -10.7964 1.67589
-18.0032 -11.3995 0.556823
-15.1121 -11.7945 1.63985
-18.1073 -10.5075 -3.20048
-17.5185 -10.7114 -0.261167
-15.3087 -9.99612 -2.08814
-17.7045 -11.2545 0.417457
-19.6457 -10.2234 0.487577
-15.4349 -11.1913 -2.72312
-15.8091 -12.6402 -1.30113
-15.1319 -11.7023 -1.60865
-15.3425 -11.038 0.102295
-15.7165 -11.6176 -3.54868
-16.4456 -10.593 -1.09836
-19.2752 -11.7642 -2.70065
-15.594 -10.9813 -2.40252
-18.6748 -11.1152 3.30611
-17.695 -10.6362 -1.33816
-18.4925 -12.8347 -1.30309
-20.5121 -10.7648 -1.23313
-19.9154 -12.0325 -3.25649
-17.9072 -10.8184 -0.791659
-17.449 -11.7862 0.280938
-20.1023 -12.6473 -1.34948
-20.6282 -10.4946 -1.77938
-19.525 -11.9303 -2.78814
-20.1082 -12.0224 -0.658046
-18.1397 -12.2036 -2.21217
-19.3057 -12.2981 0.258802
-21.2166 -11.6097 -1.55071
-19.1931 -12.0898 0.608272
-19.35 -11.5671 0.819475
-19.7208 -10.815 0.58093
-18.2132 -9.33727 -0.0977659
-19.3753 -10.4176 -0.937244
-20.4087 -10.886 1.1953
-19.5805 -11.237 -0.308845
-18.4719 -11.3672 0.909796
-14.5073 -10.4876 0.820974
-20.3749 -9.29375 1.8214
-22.425 -10.0298 0.756229
-19.4778 -11.111 -0.0826419
-20.1581 -12.0641 0.882988
-20.7987 -11.755 1.35489
-20.6845 -9.58561 1.59113
-16.1996 -11.0602 -4.17021
-16.9478 -10.4198 -0.885913
-18.2491 -10.5672 -1.58595
-18.412 -11.0309 -1.73406
-16.5445 -11.6001 -0.311906
-19.1561 -11.5914 -0.37513
-20.7342 -11.1534 -0.0682106
-18.0651 -10.8678 -2.12341
-18.5611 -12.0812 -0.404603
-18.3806 -12.1991 -0.896511
-17.4277 -10.78 0.172718
-20.8544 -9.98121 0.0400087
-15.7191 -12.8971 0.771848
-16.9103 -11.3183 0.788439
-19.7433 -9.37391 -0.812595
-15.765 -9.67789 0.183828
-15.4131 -8.5783 0.982074
-17.4159 -10.3612 -0.63418
-16.6799 -11.8412 -2.60392
-18.8586 -11.0761 -0.582524
-17.7539 -9.07862 -0.13432
-19.1998 -11.2782 -1.8794
-18.6988 -11.941 -0.66692
-18.6918 -11.4798 -1.75622
-14.0118 -11.6252 -0.2022
-19.3342 -11.4374 0.279057
-18.0044 -11.6005 -0.408689
-18.4738 -12.327 -0.68869
-17.9037 -12.0708 -2.28015
-16.3747 -10.5851 0.77328
-17.7893 -10.6537 -1.93355
-19.3647 -10.6944 1.05227
-19.7251 -11.2074 -0.209852
-18.3954 -11.4972 1.71719
-20.1603 -9.45624 0.955804
-18.3018 -12.5015 0.872426
-19.0349 -9.3912 0.25373
-17.8615 -9.42799 -0.228655
-18.3099 -11.6445 -2.65278
-19.9606 -12.8368 -1.87535
-17.6202 -11.6082 -0.880731
-17.5573 -9.3037 -0.745228
-19.1231 -10.8103 -0.474973
-19.8134 -9.70956 -0.893837
-16.6485 -10.9348 0.981708
-20.255 -9.09625 -0.900153
-18.4609 -10.5174 -0.523542
-18.7544 -11.3344 1.17193
-18.1289 -10.8863 1.04633
-20.2085 -11.5866 1.63233
-19.6095 -10.3341 -0.576377
-17.3681 -11.771 0.852877
-17.0704 -9.43008 -1.479
-16.3119 -11.8038 -0.0754148
-17.612 -8.95345 1.93121
-21.2729 -11.2509 -1.17864
-18.1182 -11.8677 0.395577
-17.5984 -13.7423 -0.781724
-18.6021 -11.1967 -1.08074
-19.2019 -11.4473 -0.972194
-15.1483 -11.5367 -2.51869
-18.7462 -9.57912 -1.49667
-18.8857 -11.9039 -1.41907
-19.826 -12.8952 -1.34553
-19.7073 -11.4726 0.389554
-19.5355 -10.7922 -1.73984
-18.5882 -10.3062 1.82984
-18.4413 -11.0567 -0.0523665
-17.8428 -12.0806 -0.925397
-19.9677 -10.3161 -1.13303
-19.0529 -11.5194 2.03629
-19.8855 -9.82603 0.465021
-20.0877 -10.7905 0.611627
-17.9911 -10.1721 0.148904
-17.8313 -10.5811 0.87957
-18.447 -9.79827 -0.943166
-20.2494 -11.2417 0.975436
-17.8619 -9.70164 -0.127126
-20.1487 -9.14114 1.73953
-20.2243 -10.625 0.677592
-21.8667 -9.25198 -0.668917
-17.2327 -11.5101 -0.106954
-19.5167 -12.0491 1.4389
-18.6818 -9.97933 -1.08795
-18.608 -11.7662 0.200434
-19.7459 -10.2638 0.331158
-17.5966 -10.2948 1.93561
-18.9135 -11.6549 -2.90707
-17.4826 -11.2023 -0.583626
-16.904 -10.0734 -1.7447
-18.0309 -12.0069 -0.773351
-18.8666 -9.63036 1.5866
-16.7041 -11.4583 1.25325
-18.8352 -10.7772 2.5593
-18.9468 -11.3181 0.828149
-18.1357 -10.2624 -2.58029
-19.9455 -11.9401 -2.25219
-18.4362 -11.2978 -0.997018
-18.3009 -10.5372 0.217724
-20.9557 -10.053 -0.404269
-16.4021 -9.19466 -0.038176
-19.9537 -10.0261 2.10056
-18.9031 -11.1524 1.50026
-18.3866 -9.66137 0.988925
-15.2494 -10.7448 -0.834046
-15.8852 -10.8856 -0.0742243
-17.2498 -11.5716 0.550321
-15.1125 -10.5578 -0.172083
-19.2611 -12.4372 1.00975
-18.3732 -11.8178 2.05684
-16.9124 -12.2999 -1.96863
-17.1637 -10.9785 2.1294
-19.6767 -10.4422 -0.961293
-18.2798 -11.5069 0.369863
-18.5658 -10.9767 0.788524
-17.3486 -10.4316 -0.932496
-19.0853 -10.3632 -1.74051
-18.9165 -10.7157 0.359114
-19.2917 -10.9101 0.743551
-17.1289 -9.85262 -1.4167
-17.0573 -12.3973 -1.92182
-19.8422 -10.1182 -1.31047
-17.7656 -9.47944 2.07093
-19.5824 -10.8684 0.858468
-19.201 -10.7229 0.717485
-18.446 -10.7437 1.85187
-14.8846 -10.223 -1.53494
-16.1725 -11.1206 0.652489
-18.999 -10.7727 -0.187878
-18.4909 -9.77199 -2.11265
-20.7863 -11.3155 -0.116436
-19.104 -11.1691 -1.12356
-14.8929 -11.4745 0.0896221
-19.4102 -10.8435 0.393955
-17.2 -11.5108 -3.64708
-19.0538 -11.3785 -2.41426
-16.9177 -9.92919 2.36361
-17.7926 -10.6778 -1.42251
-16.7985 -10.74 -0.950674
-19.5675 -10.1092 0.495146
-18.5337 -10.0492 1.21749
-17.776 -11.7697 -0.607593
-20.017 -10.3121 1.96798
-15.5504 -12.394 1.00545
-17.7755 -9.6641 1.02827
-16.8883 -12.0176 -0.0210589
-16.111 -11.6981 0.369036
-20.1998 -10.9964 1.0332
-18.9816 -11.898 0.351056
-16.4891 -11.4627 -1.18139
-14.9297 -10.7086 1.88377
-15.7952 -9.78942 -0.530407
-16.8004 -11.9757 -2.17145
-18.9261 -11.4396 -0.15519
-18.2199 -9.49512 -2.92717
-14.7355 -11.2598 0.739946
-15.2611 -11.1351 -1.40087
-17.2902 -10.3802 -1.04814
-16.8069 -9.88577 -1.5626
-16.4838 -10.5489 -0.495368
-18.7044 -12.0559 -0.312614
-17.3471 -8.9489 -1.51026
-20.4848 -11.6665 -0.599069
-15.6847 -11.9876 -0.940126
-19.9166 -12.4352 -0.651018
-18.4645 -11.3268 -0.0913329
-18.3103 -11.5035 0.192186
-17.4131 -13.2092 0.371167
-18.0405 -9.92008 -0.0689366
-17.4436 -11.3376 -2.17942
-20.9402 -11.566 -0.0653459
-19.5638 -11.453 2.33981
-20.4688 -10.6609 -1.12893
-17.7284 -10.0658 1.5164
-16.5647 -12.1741 0.392738
-15.6779 -11.46 -0.260681
-16.7475 -11.7547 -2.62848
-20.8407 -11.3474 -1.00443
-17.7804 -12.1359 -0.712804
-18.0969 -10.499 0.583985
-19.566 -10.4785 0.816934
-17.107 -10.6101 0.168547
-18.8336 -11.3817 -1.41221
-15.1022 -11.5172 1.22743
-18.4823 -12.426 -1.89833
-15.2178 -11.8188 0.187545
-20.161 -11.9327 -0.778994
-15.4417 -10.4853 -2.60801
-15.2343 -11.8695 -1.68757
-16.2591 -11.2502 -1.73168
-20.6437 -10.6651 -1.8729
-18.2169 -12.2406 -0.401267
-15.1665 -12.7279 -1.79089
-20.2088 -12.0224 0.736268
-19.3858 -9.23369 -1.98523
-17.9081 -10.9439 -1.34069
-17.5857 -11.0404 -2.04501
-20.6148 -10.7482 -2.83109
-17.7211 -11.6514 -0.115351
-16.3524 -11.0916 -0.626345
-17.8948 -12.3282 -2.43573
-16.8008 -10.2324 -1.59287
-17.2708 -12.3928 -0.878797
-18.343 -9.92145 -1.73207
-20.6616 -9.78177 -0.460158
-17.2333 -11.4896 -0.303729
-21.2547 -11.4311 -2.26581
-18.2922 -9.86245 -0.46435
-18.4488 -13.0164 -0.980364
-17.8467 -10.6312 -1.07937
-17.3887 -10.6366 -2.77196
-17.8847 -10.7803 0.852538
-17.7011 -10.1653 -0.0234851
-15.884 -10.468 -0.614174
-19.9503 -10.1651 0.0745698
-18.0928 -10.906 -2.04667
-21.4084 -10.9937 -1.24222
-17.0632 -10.123 -2.41612
-18.529 -12.9612 -1.99097
-18.4927 -10.2102 -1.7219
-18.9858 -9.52178 -1.93987
-19.3512 -11.8873 -3.22339
-15.4836 -10.0261 0.451984
-18.6083 -11.6708 -0.117128
-19.3937 -10.998 -0.924257
-15.1475 -13.9115 0.35372
-15.6504 -9.86933 1.23792
-19.7355 -10.7538 1.05584
-21.1351 -11.3053 0.477086
-20.3843 -11.0588 -2.94816
-16.766 -11.6138 -1.67897
-16.8368 -12.2386 0.181018
-13.9686 -11.247 -1.1149
-17.1715 -11.5211 -1.74913
-19.3175 -9.85028 -0.0983975
-19.9312 -12.0325 -0.299136
-21.808 -9.6963 -0.89546
-20.0709 -10.4813 -1.81937
-20.568 -11.4594 0.464524
-20.118 -10.7191 -3.12868
-19.8682 -11.0468 -2.12889
-19.5474 -9.9447 -1.98778
-19.9875 -11.5263 -0.887729
-19.431 -12.1738 -1.16643
-19.7214 -10.3408 -0.807344
-19.3864 -11.7439 -0.39374
-19.7174 -13.7636 -1.15673
-17.7331 -11.302 -0.634271
-16.5631 -10.4997 -2.39043
-18.611 -10.8221 -1.60552
-19.9264 -11.6221 -2.19312
-15.4247 -11.4433 -1.11635
-15.4628 -13.0968 -1.36391
-21.0716 -9.40682 -1.69831
-19.3667 -10.3322 0.108092
-19.8578 -10.7398 -0.93744
-14.8514 -10.9813 -2.63115
-14.1431 -12.0114 -0.296994
-15.6034 -11.0674 -1.67292
-16.3195 -11.4111 0.561045
-16.3989 -10.0205 0.0325745
-17.0152 -10.4084 3.48207
-17.1697 -12.4586 -0.91459
-18.0142 -12.2361 -1.3326
-15.937 -11.2305 -0.398518
-18.156 -11.5059 0.123603
-17.1642 -9.75502 -1.14319
-15.9897 -11.4009 -3.72321
-17.4602 -9.94098 -0.60779
-18.8698 -11.3444 1.98626
-18.8538 -9.23128 -0.635761
-20.05 -11.6471 -0.884345
-20.0654 -11.8114 -0.896607
-18.8125 -10.5926 0.171672
-19.7963 -11.3835 -2.63168
-19.0778 -13.386 -3.25029
-17.4678 -11.7908 -4.28125
-19.1018 -10.4873 0.899356
-17.7957 -10.4397 -1.21911
-17.9215 -11.9452 -3.8413
-18.0418 -10.7849 -3.45185
-16.7668 -12.7861 0.92393
-16.5298 -11.1608 -2.64213
-16.7029 -11.1604 0.168017
-20.9682 -10.3919 0.47405
-18.8746 -10.6017 1.09427
-18.2773 -10.3328 0.829652
-19.9522 -8.42996 1.17169
-18.5114 -12.9152 -2.49526
-18.6647 -10.8353 -1.87209
-18.5775 -10.5228 -3.25566
-16.33 -10.6637 1.30206
-18.5714 -11.2556 -1.49707
-17.0275 -13.174 -0.766083
-17.7225 -10.6111 0.308585
-17.2035 -9.926 0.663364
-17.0061 -11.6286 0.57266
-16.9464 -11.7813 -1.53959
-15.3151 -10.8181 -1.73198
-15.3382 -12.1442 -0.271031
-15.441 -12.1521 -1.56076
-17.2557 -12.0072 -1.79654
-16.2262 -12.5724 -0.162195
-14.7799 -9.70313 -0.730592
-21.1686 -11.3379 -0.676284
-20.7115 -9.27543 -0.881257
-22.5954 -12.0128 -0.115964
-18.5262 -9.86948 -1.82983
-18.1317 -10.7427 -2.76227
-18.2223 -12.4859 -2.65317
-18.3022 -11.9147 -1.22872
-16.8484 -12.2156 -0.381953
-17.0903 -11.8877 -1.50084
-15.6728 -10.9661 1.85854
-16.1584 -12.6394 -1.69057
-18.5631 -11.265 -0.0816658
-16.3024 -12.5523 0.301696
-15.628 -11.1704 -0.887213
-14.1127 -10.6161 1.38978
-16.4371 -12.9247 -3.34912
-20.1594 -11.207 -1.00801
-20.2296 -11.8663 -1.29642
-20.9992 -11.676 -2.63564
-19.3877 -10.582 -0.485023
-18.2919 -11.5019 -0.243981
-17.7334 -11.6813 -0.346541
-18.0228 -12.0879 -2.16808
-20.1997 -10.3432 -0.776458
-16.2066 -11.687 0.292746
-17.8116 -10.1981 -2.71484
-18.7846 -10.4799 -4.34715
-17.795 -12.7011 -2.2722
-21.7938 -8.85687 0.00980678
-20.575 -11.7704 -1.902
-17.0203 -11.2364 -1.28285
-20.9315 -9.67923 -3.0958
-19.1567 -10.1214 -0.759929
-18.9634 -12.3609 -1.22201
-18.6353 -11.5975 -0.131107
-19.608 -11.0116 -3.1519
-18.3553 -11.0433 0.964618
-19.4372 -12.1957 -3.55223
-18.4523 -10.5375 -1.86228
-18.9472 -10.2184 -1.88876
-18.8814 -13.4466 -3.87791
-16.1518 -10.3104 -0.903004
-16.7702 -10.4824 -0.644102
-16.552 -11.5373 -2.55113
-17.0394 -9.93826 -2.56519
-18.4019 -11.8298 -1.69253
-20.0245 -11.4566 -1.74649
-20.1005 -10.0278 3.19051
-19.8727 -10.4827 -0.247492
-18.8884 -10.2259 -0.690032
-21.0132 -10.2824 0.0791537
-19.8078 -10.2227 -3.79601
-17.6327 -12.5685 -3.43843
-18.1071 -12.4812 -2.31061
-16.9598 -11.1729 -0.721952
-17.4018 -11.3027 -2.15404
-16.2666 -9.24365 -0.805418
-17.5538 -11.5445 -2.17845
-16.4413 -9.40241 -1.27102
-20.9075 -10.1053 0.750879
-18.382 -9.51795 -1.0103
-20.091 -11.2868 -0.462941
-19.1043 -11.2075 0.511504
-19.5423 -11.8191 -1.65302
-19.4383 -10.9251 -2.34581
-20.8709 -9.5791 -0.170897
-17.8611 -11.1175 1.17193
-19.2647 -11.1788 -1.16472
-19.6465 -12.8184 -3.48058
-16.7696 -12.333 -0.256154
-14.9725 -9.58672 -0.665421
-17.0458 -10.8195 -0.136716
-16.7084 -10.4902 1.05091
-14.9431 -11.6496 -0.693927
-15.6943 -11.2804 0.148364
-17.7826 -13.0096 -1.86003
-20.2805 -10.4947 0.67705
-18.5603 -13.0234 -0.437238
-18.5914 -12.5539 0.125023
-19.2568 -10.804 -0.0227131
-18.7446 -11.7416 -2.29651
-19.3522 -11.5862 0.376073
-16.8799 -10.7809 -0.533409
-18.9393 -12.4214 -3.5107
-16.1183 -11.1003 1.19961
-18.3225 -10.6635 -1.18657
-13.3946 -11.786 -3.20413
-17.9187 -9.29788 -0.895967
-13.2833 -10.3517 -1.1054
-18.7541 -9.5176 -1.58921
-19.6406 -9.97994 -0.212232
-20.1247 -10.6744 -0.996231
-18.5188 -11.4256 0.452267
-17.5415 -9.66077 -2.01283
-18.852 -10.2939 -0.152126
-17.987 -10.0186 -1.80793
-17.8302 -12.494 -1.30224
-18.8419 -10.2835 -2.83601
-18.251 -12.5582 1.62499
-17.3135 -10.7712 -1.50552
-19.3051 -10.1555 -0.583609
-15.484 -12.4309 -2.24814
-19.7458 -9.69185 -3.03347
-18.7602 -10.8445 -0.080501
-18.2999 -9.29838 -0.927493
-18.8912 -11.4971 -1.76361
-16.38 -11.8978 0.999698
-16.1887 -11.0311 0.74812
-14.9892 -11.1409 0.546438
-16.0631 -11.7776 -2.51267
-20.6059 -10.6249 -1.00118
-20.163 -11.7634 2.27636
-18.5809 -10.1939 -2.17528
-15.7595 -10.8577 2.13154
-17.4344 -9.88135 1.10449
-18.6792 -10.3015 0.0413038
-17.7575 -12.4716 -2.20893
-22.6681 -9.26846 -0.928394
-18.9565 -10.4064 -0.688527
-18.6635 -11.2364 0.95392
-15.3547 -11.9205 0.308763
-19.8303 -11.7689 -0.964007
-15.6712 -8.84148 -0.425598
-18.1192 -10.3221 -0.327362
-21.1714 -12.1807 -1.2025
-17.476 -9.86891 0.106027
-16.8751 -9.98987 0.140495
-21.2428 -12.0007 -0.803902
-21.0719 -10.6793 -0.420097
-19.7248 -9.93156 1.20284
-20.1214 -11.4599 0.160221
-18.5586 -9.75898 -1.78972
-19.7267 -10.5494 -1.35214
-20.7937 -10.946 0.0975186
-17.6783 -9.94211 -0.884036
-17.6985 -10.2901 -0.148706
-15.2291 -10.6855 -0.00220622
-19.5505 -10.0386 -2.01652
-17.2863 -12.0385 1.35996
-18.4376 -11.3242 1.41947
-21.0804 -10.7828 0.371169
-20.5811 -10.5355 -0.807548
-17.1777 -8.0741 1.59906
-16.0855 -11.4171 0.111969
-15.943 -10.4317 0.726563
-17.9852 -11.4852 -0.407479
-15.8356 -11.2052 0.116945
-16.5697 -10.0699 0.341528
-18.7694 -14.1007 -1.19515
-14.823 -10.2027 -0.788221
-15.6387 -11.0204 -2.00266
-20.1622 -12.3695 0.821978
-19.9466 -8.58645 -1.64337
-19.0951 -10.8521 0.808724
-18.6202 -9.78579 -0.458955
-20.7058 -11.5979 0.622619
-16.8139 -11.4618 -1.9428
-17.9339 -10.6267 -1.05998
-18.0784 -11.004 -1.5162
-17.1495 -11.1119 2.34621
-16.2442 -10.8503 -0.503955
-16.6854 -12.3507 -2.00378
-18.3219 -12.3993 -1.12146
-16.2772 -10.3878 -1.91085
-17.0449 -12.0732 -0.420765
-18.2482 -11.1558 0.779102
-18.5753 -10.7204 0.138962
-20.0747 -11.3794 1.32243
-17.2077 -12.0199 -0.126614
-19.3086 -9.08399 -1.37123
-19.3721 -9.06215 -0.261033
-19.4615 -10.5087 3.72594
-20.5088 -9.88306 -1.21654
-21.1312 -11.5014 1.85823
-19.642 -11.4011 -0.0282696
-17.5771 -12.6398 0.530733
-19.7383 -10.9463 -1.74036
-19.8354 -10.8817 -0.791042
-22.2715 -10.9655 -1.83138
-18.7778 -11.0946 -1.65225
-18.9621 -12.1389 -0.853726
-16.4965 -10.6213 1.67011
-16.8097 -11.1718 -0.195672
-14.7633 -12.2566 1.25616
-17.0793 -11.1512 0.659099
-18.9649 -9.95209 -1.43671
-19.3331 -11.1007 -2.22289
-18.928 -12.4129 -2.74434
-16.1465 -12.0715 -0.798748
-13.345 -11.2121 -2.80472
-18.0814 -10.1376 2.24176
-17.5984 -10.9156 -0.0744559
-18.2602 -11.4536 -0.564773
-19.3454 -10.8693 -1.86681
-19.4092 -11.0749 -1.28666
-21.4895 -9.41503 -1.03754
-18.539 -12.2563 -1.61684
-21.1686 -10.3606 -1.85252
-18.5778 -9.74374 -1.99214
-20.5031 -11.8424 -1.13414
-15.3865 -10.9175 -3.12587
-20.0677 -11.0789 -0.986213
-21.2706 -10.8268 -1.55577
-19.6657 -11.0079 -0.46421
-17.9394 -10.9306 0.675786
-19.7152 -10.6387 -0.827535
-18.9906 -11.4806 -0.335034
-18.9435 -10.577 -0.913721
-16.9945 -12.0586 1.0674
-19.2087 -11.2448 -0.577126
-18.8378 -10.4429 -0.631068
-18.7448 -9.82182 -0.702742
-20.4349 -10.8944 -2.06526
-17.4769 -11.8033 -2.56906
-16.715 -11.4631 -3.14591
-16.1099 -10.9541 -3.83254
-16.6056 -9.92824 -1.28518
-17.1022 -11.3619 2.58984
-18.9844 -11.3612 -1.94569
-15.8893 -11.7513 0.231529
-18.5782 -10.4504 -0.703113
-17.5095 -12.9027 -1.2293
-18.1359 -11.5903 -2.31788
-18.2915 -11.3209 -1.95081
-16.6502 -12.9772 -3.46322
-19.3016 -11.3944 -0.382075
-20.6591 -9.67145 -0.754171
-18.3181 -12.1772 -0.504309
-20.5268 -9.66804 -0.412142
-16.5313 -10.678 0.0230781
-18.5965 -11.4197 -1.28839
-17.9838 -11.0054 -0.297967
-19.9754 -10.9119 1.00518
-20.6968 -11.662 -1.5646
-20.2964 -10.7556 0.524062
-19.7621 -11.6777 -0.704851
-18.8066 -11.2145 -1.4959
-20.2474 -10.6371 -0.953237
-19.0355 -11.8657 -2.26897
-19.3831 -11.4776 -1.34549
-18.9134 -9.19903 -0.379954
-20.6224 -10.7516 -1.1079
-20.1152 -10.7933 -0.633066
-20.052 -9.8907 -0.750136
-19.8411 -11.1067 -0.846239
-20.0172 -10.1017 -1.69466
-18.0444 -9.8019 -2.63234
-18.4976 -11.1966 -2.38313
-19.103 -9.31777 -0.868698
-18.7461 -10.4225 -1.01992
-18.7084 -11.5885 -2.23156
-18.2748 -9.81559 -3.12286
-18.6222 -10.5944 -2.99366
-20.0663 -11.068 -2.28901
-17.4114 -9.91608 -1.16471
-17.1562 -12.0197 -3.44088
-19.7304 -11.2233 -3.3141
-18.7522 -11.1848 -2.90597
-16.6996 -10.9237 -2.96618
-17.3012 -10.9217 -2.46681
-16.4981 -9.1485 -0.74656
-13.9514 -12.0671 -4.36327
-15.6544 -11.6528 -3.42478
-14.7945 -12.6732 -3.3983
-18.3992 -8.30185 2.41022
-19.5096 -9.74127 0.111104
-18.4978 -9.49986 -0.478273
-18.9684 -9.50525 -0.172179
-19.184 -8.35399 0.420398
-22.4248 -10.6431 0.212481
-18.3744 -10.5285 -1.19447
-20.9219 -11.111 -0.813974
-17.5299 -10.4566 0.293045
-16.6909 -11.1457 -1.4808
-20.2799 -11.5493 -0.920246
-19.6175 -10.7926 -2.70729
-17.4968 -12.0207 -2.19783
-19.0147 -11.2235 -2.50531
-19.8516 -13.6773 -1.98906
-18.4198 -11.2238 -3.33626
-17.1289 -11.007 -1.62978
-18.1265 -11.2382 -2.09859
-18.0128 -11.1434 -2.32426
-15.7693 -11.257 -2.60598
-20.772 -11.5644 1.52298
-19.1109 -12.6825 -0.0841054
-19.6583 -10.4184 -1.09259
-19.905 -9.91093 0.47316
-17.331 -10.3909 -1.33849
-19.8075 -11.4417 -1.17137
-16.7725 -11.5053 -0.747695
-18.7972 -9.15246 -0.382551
-17.8225 -8.69907 -0.077846
-20.0295 -9.39328 -1.28091
-20.2355 -10.0351 0.48723
-20.4454 -10.014 -3.11095
-18.1169 -11.6797 -2.32423
-16.1676 -11.8802 -2.5016
-18.4013 -10.6999 -0.764344
-19.0587 -11.6915 -0.884859
-17.3511 -9.37817 0.0710967
-19.2211 -10.4902 0.0935206
-19.6141 -8.94889 -1.18171
-15.4107 -10.9618 -0.773182
-18.3111 -12.5854 -1.53724
-17.3469 -10.5425 -1.59789
-18.5398 -9.96197 -0.787057
-15.521 -11.212 -2.29855
-18.6263 -10.915 -0.643992
-18.356 -10.8267 -0.640939
-20.7275 -10.6373 0.109562
-17.6409 -10.1936 -0.528287
-16.5664 -12.3068 -0.502118
-18.964 -10.0203 -2.56888
-18.8071 -9.64573 -4.18307
-17.1337 -10.3637 -2.25139
-18.5316 -11.4837 0.971376
-19.6026 -9.63571 -0.221318
-20.7468 -9.86635 -0.270349
-19.5361 -11.5086 -3.07083
-18.6092 -12.0624 -1.72302
-19.6232 -10.9685 0.330502
-18.359 -11.2361 0.260138
-19.2149 -9.4716 0.0904142
-15.6509 -12.1913 -1.74346
-16.4573 -10.837 -2.59624
-16.2235 -10.8954 0.313284
-21.726 -10.4387 1.35357
-16.6313 -10.4446 0.725368
-15.6918 -11.5526 -2.59046
-20.7101 -11.6582 1.97381
-19.3864 -11.2775 -0.824372
-19.3248 -10.3823 1.40782
-19.4601 -10.6971 -0.0380194
-20.8938 -11.6179 0.532686
-20.8662 -11.4852 -1.1584
-19.1646 -10.8667 0.760485
-17.266 -9.2678 -0.489944
-20.4548 -9.57905 0.0908028
-19.1691 -11.5667 -1.03961
-21.925 -13.0385 -0.21822
-20.3009 -10.7324 1.47901
-20.7945 -10.4078 -0.076882
-18.3809 -10.253 -0.189675
-21.9117 -12.589 0.427465
-19.0012 -13.0538 1.20669
-17.5268 -12.2121 -1.34705
-18.0082 -11.0292 2.51196
-18.1951 -11.6029 0.682512
-20.485 -9.409 -0.0618812
-20.441 -10.2672 0.692866
-17.3004 -11.223 -0.280415
-19.6544 -10.5577 -1.37911
-16.2991 -12.9115 -0.291721
-20.2228 -10.7843 -0.654101
-20.3861 -10.1031 0.133457
-16.5517 -12.6409 -1.06085
-17.4557 -10.7006 -2.53535
-19.7878 -11.6668 -1.24308
-20.1723 -10.3655 -1.09247
-19.3096 -11.8181 -0.970986
-19.0661 -10.7537 0.0990762
-19.0806 -12.3995 -1.68587
-19.1631 -11.336 -2.10392
-21.1413 -10.7888 -2.26882
-17.7185 -11.1012 -0.731591
-19.22 -10.2109 -1.64763
-18.4006 -11.6616 -0.665226
-18.2914 -10.9513 -0.697653
-18.8666 -9.3182 -1.60634
-19.1676 -13.2508 -2.1951
-17.6996 -11.8548 0.116967
-18.1625 -12.4668 -1.8533
-18.8601 -9.57155 -2.37336
-18.6533 -10.7315 -2.2462
-20.4054 -11.8096 -3.05024
-20.5519 -11.3008 -2.81431
-20.0979 -10.4188 -2.05936
-18.2665 -12.4999 -1.83875
-17.4721 -11.8392 -3.29738
-18.7586 -11.2277 -0.749267
-18.9204 -12.7603 -3.27217
-19.4279 -10.0795 -2.76568
-18.4806 -8.81333 -1.51278
-19.6539 -11.3105 -3.4585
-20.1861 -9.55182 2.48881
-17.0534 -8.70867 0.567166
-17.5774 -10.1305 1.2682
-16.8991 -11.0484 -0.264187
-19.9697 -10.551 0.0116713
-16.9929 -11.9645 0.807847
-16.256 -11.3736 -0.660339
-18.0043 -10.419 -1.55258
-19.79 -11.282 -0.0452258
-18.9951 -11.454 -1.26452
-16.2272 -11.9356 0.74001
-20.0678 -10.0331 -2.17427
-18.5743 -12.1786 -1.44438
-18.4191 -9.76855 -2.1362
-16.7645 -9.88097 -2.20293
-15.9531 -12.1324 -0.272147
-18.2925 -8.88859 -3.85253
-19.1356 -10.1225 -2.47791
-18.7068 -10.9109 -4.07193
-17.0538 -11.095 -1.56078
-19.1499 -10.915 -3.08873
-19.016 -9.83317 1.22319
-17.2729 -10.3774 2.71354
-17.5657 -9.82744 0.0589548
-21.1042 -10.688 0.106859
-18.9204 -11.298 0.0245432
-21.8393 -13.3036 2.70173
-18.2801 -11.7378 -0.100233
-19.1488 -9.82747 -0.196886
-16.8441 -9.91909 -0.190339
-17.2036 -10.8607 -0.168932
-19.1652 -9.67454 -0.662173
-19.132 -11.2939 1.30439
-19.6201 -11.1149 -0.595622
-20.4246 -10.4491 0.717137
-16.8884 -10.9561 -0.409946
-16.9811 -11.2811 -2.61042
-18.2918 -11.6003 -0.938332
-17.3537 -11.0972 -0.780536
-17.6776 -11.7073 0.876763
-17.1561 -10.8532 0.325267
-17.2005 -10.8908 1.79134
-18.4202 -11.0768 0.723436
-16.0034 -12.671 -0.168984
-17.2375 -9.24129 -0.120095
-18.4975 -10.8063 -2.08976
-19.1731 -12.0718 0.391896
-19.2984 -12.586 -3.471
-16.7876 -11.1169 -1.9261
-18.4404 -10.56 2.83213
-15.8228 -12.4449 -0.403743
-15.939 -11.9832 -1.04797
-15.7087 -9.74625 0.810754
-18.5892 -12.541 -1.13722
-20.0146 -11.736 -1.76233
-18.5613 -10.7214 -0.459514
-15.8556 -12.6835 -2.8094
-16.2158 -10.828 -2.49034
-15.5011 -9.37255 0.932491
-16.615 -10.5026 1.47015
-18.1144 -10.0302 0.0375965
-16.7652 -9.78041 -1.63244
-20.4526 -12.4763 -0.992445
-16.5843 -10.0576 1.35531
-17.4422 -10.2844 2.15193
-19.0872 -10.3342 -0.219311
-17.5993 -10.9169 -1.6523
-17.8159 -8.62926 -0.442627
-19.1362 -10.8809 -0.460858
-19.0965 -12.2572 -0.855052
-16.1661 -9.48175 -0.382334
-18.6537 -10.9095 -2.74153
-19.2902 -13.1179 -2.52424
-18.1481 -12.7079 -4.7761
-17.7795 -10.7533 -2.04511
-19.5697 -10.6 -2.18957
-19.0502 -11.0364 -1.68828
-18.8347 -10.0705 -2.869
-20.7862 -10.2137 -0.704356
-18.5962 -12.7271 -1.74758
-20.4705 -10.4014 -3.38388
-19.3915 -10.3321 -2.07864
-17.8385 -9.85945 -0.970452
-17.7251 -11.3876 -2.07046
-21.6203 -11.1455 -1.315
-18.52 -10.0266 -2.02692
-19.8919 -10.1328 -4.16254
-18.7905 -12.8247 -2.62702
-18.6379 -10.6189 -0.366677
-19.3331 -9.54614 -3.31513
-18.6214 -12.9945 -0.0503645
-20.5354 -10.8975 2.21549
-20.3944 -10.7878 -0.452738
-21.169 -11.4479 0.640591
-18.3662 -9.04236 -1.34844
-18.6982 -10.3254 -0.00624209
-18.9661 -8.75311 -1.38423
-20.4002 -10.8452 -1.1348
-18.4883 -10.6064 -0.894181
-21.2579 -12.4464 -0.985381
-19.8898 -10.8965 -1.5316
-18.9416 -13.066 -0.409584
-19.4929 -11.5603 0.703132
-20.6079 -9.59011 -0.859721
-16.2972 -11.1337 -0.305552
-15.9946 -11.2147 -1.62555
-17.9576 -10.7389 0.284234
-19.8877 -11.1892 -1.42799
-19.1341 -10.4288 -1.1052
-17.482 -11.9626 -1.39653
-17.8959 -10.5382 -0.228796
-19.6559 -11.8483 -0.522531
-20.1211 -9.81596 -0.215101
-15.6158 -12.3059 -0.684578
-18.299 -9.5004 -0.402982
-21.233 -10.503 0.378353
-21.1825 -9.07961 -0.836216
-20.25 -11.2756 1.04245
-17.4178 -12.6486 -0.00838625
-19.6353 -11.6963 3.15061
-19.8626 -10.7218 -0.882528
-16.3689 -11.1401 -0.365121
-20.0639 -10.7353 -0.00568241
-19.6285 -11.1182 0.816849
-18.6002 -10.7212 -0.826329
-20.7762 -9.51833 0.0804654
-17.5018 -11.3552 -0.733216
-18.0947 -11.4644 -1.18028
-20.4059 -9.65904 -0.924476
-19.513 -14.0236 0.914198
-19.9071 -9.78376 -0.321081
-20.9623 -11.356 0.58753
-19.5027 -10.1208 0.332255
-19.6979 -10.5916 -0.456163
-18.722 -10.5771 1.22892
-15.2156 -10.0611 -1.89721
-18.7861 -12.6809 -3.0338
-19.2899 -11.549 -3.66333
-17.9805 -12.2201 -3.483
-18.5401 -11.3792 -2.95687
-14.6846 -12.3533 -3.08063
-20.551 -11.3694 -2.79808
-17.5173 -12.5724 -2.95449
-19.1355 -11.8565 -1.71917
-18.7684 -10.9627 -1.11616
-18.8093 -9.78418 -0.594253
-18.6142 -10.6532 -0.95628
-18.8437 -11.9522 -0.471653
-19.4306 -10.9142 -0.797091
-18.4356 -10.62 -1.86328
-19.9771 -8.37101 -1.43434
-19.6752 -10.9139 -1.41517
-20.4831 -11.8943 -1.99467
-20.4879 -11.3129 -0.0428573
-18.9951 -10.6699 -1.65751
-16.704 -10.8377 -2.34334
-18.6465 -11.0396 -0.757252
-20.9539 -10.5017 -0.313005
-18.7894 -10.0492 -1.10853
-20.2455 -10.292 -0.313529
-21.1623 -10.8995 0.815187
-18.4261 -10.1144 -1.71239
-16.6196 -10.913 -0.290023
-21.658 -10.0862 0.826111
-19.0916 -11.2672 -0.584748
-19.3581 -10.3165 -1.45452
-19.0656 -12.6207 -1.36799
-18.8953 -12.6899 -1.00368
-18.4696 -10.5761 -0.991869
-19.5326 -11.3819 -2.76523
-18.0525 -10.4502 -0.185875
-17.2393 -10.3657 -0.957584
-18.8867 -11.8647 -0.193201
-14.3768 -11.1158 0.799734
-19.8518 -11.333 0.646924
-14.8366 -10.6676 -1.60649
-19.5654 -11.4457 0.394083
-15.0898 -11.8879 -0.0570039
-19.3497 -10.295 -1.14768
-17.202 -10.7641 0.230151
-19.357 -8.62269 -0.222275
-17.838 -10.7856 0.198197
-15.9823 -11.8845 0.903328
-19.4882 -10.4408 0.128344
-15.7836 -9.71857 0.230512
-19.0102 -10.0702 0.543652
-16.7698 -10.3151 0.584186
-16.8941 -11.6605 -1.24804
-19.7244 -10.0702 -1.39802
-19.7102 -10.195 -0.845582
-20.3763 -10.0486 -0.296973
-19.1115 -13.8736 0.778732
-20.0794 -9.89986 -0.992888
-19.1058 -12.6164 -0.37933
-19.4086 -11.5478 1.24017
-17.5922 -10.4458 1.03758
-15.3163 -10.1301 1.87158
-19.2282 -9.96762 1.65516
-19.4307 -10.2895 1.21324
-20.2759 -11.8648 -1.1325
-22.3788 -13.1299 1.02927
-19.9616 -11.6353 -0.270542
-16.8908 -11.0287 1.51169
-14.5915 -9.55305 -1.29944
-19.7417 -9.38076 -2.50834
-18.4626 -13.4155 -1.82989
-18.2579 -8.93354 -2.0963
-19.7358 -11.813 0.938389
-15.9529 -10.8875 0.288113
-16.4091 -11.5619 -1.73803
-19.1329 -11.3276 -2.38192
-20.4428 -9.74652 -1.90719
-20.6987 -10.3795 -0.137597
-16.4764 -12.3378 -0.213609
-16.1799 -10.5386 -0.0801172
-19.9147 -11.5098 -0.670469
-21.3314 -12.3635 -0.307894
-18.6056 -11.6319 -2.25956
-19.3105 -11.9602 -1.31261
-16.9708 -11.7551 -1.2432
-20.1241 -11.7476 -1.44118
-19.9118 -9.38155 -1.16357
-20.8059 -12.2724 -2.35092
-17.4676 -11.703 0.223968
-17.063 -10.5148 -0.636528
-20.6475 -10.7195 -0.918336
-17.2701 -11.4482 0.315862
-16.3637 -12.6215 0.22175
-17.4459 -11.0966 1.029
-15.2691 -12.1283 1.83158
-15.8689 -11.0238 -0.129236
-20.406 -10.5002 -0.0644175
-15.1182 -10.7616 -0.817926
-18.0885 -10.2537 0.674927
-17.536 -11.3899 1.24208
-19.3018 -11.1854 -0.182517
-21.093 -12.2227 -0.796348
-17.795 -11.0893 1.35074
-21.1366 -11.4238 -1.81325
-20.4921 -10.7286 -0.087543
-17.2635 -8.43984 -0.531959
-17.9418 -9.45902 -0.169223
-19.2125 -11.0419 -0.67286
-19.2102 -11.594 0.516878
-18.9985 -9.90832 -1.31454
-17.9509 -10.9502 1.15077
-18.4699 -11.3251 0.512481
-14.3043 -10.4734 -1.2408
-18.2123 -8.06378 1.56916
-19.4306 -9.96662 1.8094
-19.0354 -10.8373 -1.38759
-17.5137 -10.0881 -3.95104
-18.5398 -11.5703 -1.98621
-20.7546 -10.1067 -2.71079
-18.2058 -10.9141 -3.53149
-21.01 -11.9162 0.0272525
-18.1203 -10.8057 0.341004
-19.8102 -11.9131 -1.95672
-20.0303 -10.6966 -1.4141
-19.7801 -10.564 -2.64928
-18.455 -11.3583 -2.87326
-19.2052 -10.8143 -1.38912
-20.2833 -12.0299 -1.71843
-19.906 -12.1718 -0.469324
-19.2661 -9.89246 -1.45047
-19.1671 -10.1185 -2.01135
-20.5722 -10.2768 -1.06457
-16.4497 -11.2206 -0.339328
-17.1132 -11.7216 -1.17793
-16.2723 -11.5399 1.12678
-16.4431 -10.564 -0.974644
-16.6785 -9.63916 0.972842
-18.8321 -11.5884 -2.52778
-21.3597 -10.556 -1.18229
-16.175 -11.4732 -0.0473617
-18.8609 -9.96334 0.728053
-16.8152 -11.8768 0.692644
-18.9677 -10.9198 -0.320938
-18.7645 -9.28318 0.410482
-19.9955 -10.7777 -0.22192
-20.5585 -11.8842 0.969429
-20.4582 -11.6533 0.793894
-19.1019 -13.3005 0.694591
-19.2536 -10.1604 0.0776525
-20.1203 -9.59682 1.98353
-21.3709 -9.79115 2.08737
-18.6579 -11.2416 1.83209
-19.1504 -10.2144 2.22001
-20.6742 -11.4116 0.214957
-20.0598 -9.80073 0.983011
-18.9043 -13.2512 -1.92509
-16.1266 -8.78329 1.47905
-17.8783 -12.1739 2.13624
-22.5017 -9.0556 1.91111
-19.7803 -13.2267 -2.32007
-17.2634 -11.0108 -0.978747
-16.7879 -11.0145 -3.53127
-18.3565 -10.3859 -3.12756
-20.7053 -11.5609 -4.83569
-18.8176 -11.4618 -1.37687
-18.1664 -10.6797 -1.41297
-16.4843 -11.4985 -0.60864
-14.8188 -11.3769 -0.815767
-17.9291 -12.4983 -0.920285
-17.9845 -11.9843 -0.795616
-20.0503 -11.6175 -0.857779
-18.4237 -12.3999 -1.3638
-17.8407 -11.7531 -1.5114
-20.0399 -11.1318 -1.24047
-19.6491 -10.2853 -1.05838
-17.3858 -10.1622 -1.80333
-17.1582 -10.5431 -1.32292
-14.7364 -9.0519 -1.22145
-15.4899 -10.4613 -0.707209
-18.3436 -10.5225 0.505369
-20.2318 -10.3215 0.708139
-16.5494 -10.3045 1.13001
-18.7026 -9.79377 1.89434
-15.8346 -10.4105 -0.837453
-19.247 -10.8717 -0.313282
-17.6335 -11.6139 1.67765
-18.1773 -11.3676 2.18534
-19.3379 -9.56504 1.46414
-18.6111 -10.8643 2.53365
-18.036 -9.79187 -0.338505
-21.0039 -11.9355 0.82809
-18.2811 -11.8725 1.06533
-16.0907 -9.8829 2.30137
-19.4639 -11.22 0.595829
-18.918 -10.5688 0.790331
-16.6474 -8.10339 0.771917
-18.0904 -10.2401 -2.88449
-19.849 -11.0175 -2.14436
-18.4609 -10.6244 -0.382972
-17.1478 -10.0191 -1.36592
-16.2626 -9.15025 -1.07999
-18.6645 -11.7344 -0.224785
-16.4789 -11.2082 -1.96878
-17.474 -12.888 0.678535
-15.501 -11.5421 -0.51932
-18.0588 -10.5782 0.740037
-16.1698 -8.59776 0.31035
-16.5662 -10.6533 0.189261
-18.8131 -11.7342 1.10833
-20.9621 -12.2542 0.893616
-19.9725 -10.977 2.47348
-19.0381 -10.4369 1.23309
-20.4051 -11.4261 2.06869
-16.1574 -10.5724 3.12744
-16.1125 -9.84243 -0.724268
-20.783 -9.34217 -1.50843
-18.5685 -10.8327 0.049152
-19.3518 -10.7846 -1.47719
-20.2656 -10.4988 -0.924985
-17.8687 -13.2041 -0.440949
-17.825 -10.8844 0.208536
-18.4955 -9.87473 1.3218
-18.9978 -11.9918 -1.3449
-17.5944 -10.8333 0.267325
-17.4267 -11.1179 -0.763102
-18.8018 -12.1409 -1.43165
-17.3652 -10.8597 0.644143
-15.6768 -10.8164 2.03615
-17.9081 -10.8216 -0.302183
-19.3036 -10.5196 0.534847
-16.2808 -9.6073 -0.216778
-18.0301 -9.84943 0.25223
-17.1147 -9.65319 -0.168686
-19.0894 -10.3692 1.17509
-17.4349 -10.2188 -0.637178
-18.5465 -10.7566 -2.07832
-20.2428 -10.7586 -0.735407
-21.6946 -10.8836 -0.651909
-20.1758 -9.29996 -0.233572
-20.8059 -9.95005 0.426235
-19.3775 -11.523 0.752643
-19.0645 -12.1439 0.434167
-19.4284 -10.3004 -2.28852
-19.3196 -12.0348 -3.23456
-19.4226 -11.969 -2.13982
-20.2791 -8.9635 0.440806
-19.8022 -11.9235 0.905787
-21.5686 -11.8447 0.555159
-19.7725 -11.6681 -1.26643
-18.3292 -10.881 -1.31754
-20.6872 -10.8515 0.255691
-19.1747 -10.4299 1.7264
-17.4869 -10.7393 0.283338
-19.0956 -11.2069 0.212814
-17.8532 -12.3026 -1.78786
-17.9298 -11.5034 -0.400807
-19.2894 -11.8066 0.340118
-16.5084 -10.8145 0.043642
-14.4017 -10.9041 2.12915
-15.8973 -12.5093 -1.51101
-14.6077 -12.3357 -0.354069
-16.8942 -11.0383 0.768104
-16.6907 -10.7345 0.169573
-15.4631 -10.2021 2.5657
-21.3352 -12.1549 -2.65076
-19.3077 -12.7576 -1.44328
-18.8669 -10.5326 -0.39435
-20.6788 -10.9067 -0.748575
-19.3297 -10.9939 -1.80261
-18.6457 -9.99415 -0.757686
-20.1615 -12.2483 -1.29797
-18.7877 -11.5812 -0.641866
-19.7452 -10.4895 0.218278
-18.6789 -9.96882 -0.783131
-20.136 -10.75 -1.35929
-17.9205 -10.2172 -0.18952
-20.3617 -10.1983 -1.44333
-18.007 -10.5138 0.401236
-18.2346 -10.4515 2.4975
-18.6964 -10.8057 -1.33403
-19.879 -12.1133 -0.147328
-20.1543 -9.09078 0.347005
-18.3504 -8.72027 2.18998
-15.6278 -12.0158 -2.41614
-17.1365 -9.70746 -0.978873
-16.2079 -12.3976 -1.13635
-15.2763 -12.4787 -3.34733
-17.3695 -11.5676 -0.564095
-16.0696 -12.9076 -0.585813
-16.5389 -11.9357 0.811683
-18.5956 -11.4659 2.06675
-18.9461 -9.64031 0.84428
-13.0072 -10.7989 -0.670342
-17.0942 -12.1203 -0.807726
-16.3605 -10.6082 1.60005
-16.8472 -12.74 0.177103
-16.5841 -11.7332 -0.170391
-20.5715 -10.4424 2.14499
-16.7208 -10.6655 0.323136
-16.8349 -11.9695 -0.737984
-16.4601 -12.2166 0.532315
-17.226 -9.72613 0.34465
-15.7649 -12.146 -1.3311
-13.9959 -11.5868 2.20098
-19.6553 -11.034 -2.87609
-20.1751 -11.85 0.313782
-18.7421 -11.3638 -0.839598
-18.9873 -10.9801 -0.699537
-18.8387 -10.5239 -0.809355
-18.8907 -11.029 0.0425145
-19.989 -10.8355 -0.300301
-20.5051 -12.4296 -2.35312
-19.3987 -9.28149 -1.20307
-16.5188 -10.332 -2.11604
-19.5644 -10.4551 -2.18598
-20.1071 -11.432 0.0900584
-17.6071 -10.6543 -2.92176
-19.1912 -11.7481 0.521859
-20.9824 -8.92713 0.893235
-19.1818 -10.9137 -1.51011
-19.0309 -11.5489 2.63497
-20.2205 -10.563 2.78905
-18.1607 -10.3595 -0.505286
-15.9601 -13.1251 -3.52168
-17.2819 -9.1113 -1.67197
-17.5063 -10.9025 -1.73036
-18.001 -12.1549 -1.07445
-16.1776 -11.5661 -3.67057
-17.5616 -12.2595 -0.416391
-18.684 -11.0827 0.25706
-16.522 -10.5679 0.151691
-18.3876 -11.5767 -0.112307
-18.1842 -10.1466 -1.00336
-18.2558 -11.1664 -0.866368
-16.322 -10.5805 -0.787172
-17.4334 -9.83753 0.607503
-17.3086 -12.4084 -1.48181
-17.059 -11.1501 0.414198
-15.6304 -11.1439 -0.80399
-14.529 -12.1222 -0.611032
-16.6596 -11.4197 0.641526
-15.3878 -10.8186 -2.2567
-16.4051 -11.7129 -1.39162
-16.1481 -10.4651 -1.45627
-17.2216 -9.70583 -0.67612
-18.6804 -11.3652 0.915954
-16.8197 -10.2314 0.887071
-15.459 -10.8 1.0996
-16.8732 -10.6202 0.499911
-15.7404 -9.61957 2.53828
-22.3711 -9.53603 -2.50639
-18.4718 -10.5538 -2.4436
-20.3102 -9.29518 1.70169
-17.9388 -10.1846 -0.617766
-22.1617 -10.8191 -1.60726
-17.714 -11.1683 -1.76912
-19.855 -11.6711 -0.669005
-19.6201 -11.8325 -2.11768
-18.2402 -11.6678 -1.95676
-19.649 -9.75717 -0.116265
-21.0076 -10.048 -2.33454
-17.1788 -10.2562 -1.41751
-19.3187 -12.5353 0.768077
-19.4813 -11.4721 0.04307
-19.2197 -10.6479 0.65367
-18.7874 -11.4155 -1.03589
-21.4957 -11.3617 0.491723
-17.6968 -11.0249 -1.49478
-16.1379 -11.7681 -2.30094
-16.9798 -12.4582 -1.15828
-16.8361 -10.9476 -0.296124
-17.9373 -9.249 1.95886
-16.3911 -11.7042 -1.51554
-18.1546 -11.0138 -0.278179
-18.1336 -8.50691 1.32068
-16.6083 -9.70057 -0.711252
-17.8644 -10.773 2.08751
-18.0714 -11.5446 0.352134
-15.7142 -11.0439 -0.061844
-16.7809 -13.3077 -0.523132
-15.686 -12.3347 -1.5131
-14.7273 -11.5294 1.11502
-17.1415 -13.2178 1.04731
-16.5997 -10.52 1.81175
-21.4142 -9.19636 -1.4358
-18.5343 -11.0393 -1.74702
-19.6386 -10.0419 -2.1482
-20.5138 -10.1366 -4.13201
-20.2898 -11.9509 -2.09382
-19.9702 -11.9912 -0.468084
-18.8348 -11.0014 -1.38538
-18.6857 -10.5302 -3.48282
-18.5301 -11.6938 -1.85035
-20.0564 -10.3412 0.124196
-20.2745 -11.7016 -0.94934
-19.3667 -14.2195 0.139837
-16.9484 -10.586 -4.10009
-16.2495 -10.7301 -0.243409
-18.4795 -11.6194 0.443883
-16.0976 -10.604 -2.91606
-18.3021 -12.2102 -3.56717
-16.8229 -11.6877 -2.04622
-19.8106 -12.5576 0.531834
-16.3774 -10.4771 -0.388471
-17.8319 -11.5357 0.138821
-18.8618 -11.7894 -1.59331
-18.3887 -10.6052 -1.23322
-15.0311 -9.89904 -2.68677
-16.2093 -13.5418 -3.30881
-16.9799 -12.0485 -1.24233
-15.7997 -10.6994 -0.966428
-16.1437 -10.3029 2.04984
-16.9954 -10.4181 -0.0255352
-15.2937 -12.5701 -0.981626
-16.0884 -11.2085 0.375535
-17.339 -11.305 0.459634
-15.4006 -12.9764 -1.08656
-17.3895 -11.4264 0.952574
-17.4802 -10.5938 0.720762
-15.1857 -11.7832 1.4333
-19.153 -11.4224 2.73116
-17.3619 -11.7891 1.03152
-15.6788 -11.8423 -0.213772
-20.2243 -11.1552 -2.40488
-17.3863 -11.4983 -2.43231
-19.7661 -13.2784 -1.82989
-19.7959 -11.8405 -2.53702
-19.0132 -11.4186 2.05581
-19.3336 -12.9798 -0.399547
-20.2445 -10.5848 -2.7993
-19.3469 -12.5059 0.425341
-19.335 -11.8773 1.01078
-16.5259 -11.9404 -4.19893
-20.3896 -12.5173 2.23415
-15.9606 -10.8115 -1.66616
-17.5022 -11.5968 -1.57535
-18.8794 -12.1855 -1.62716
-15.0315 -10.4753 0.338232
-14.4103 -10.2083 -3.26302
-16.978 -12.1137 -3.29587
-19.0744 -10.1711 0.659311
-17.0613 -11.8164 -1.46139
-15.891 -9.70097 1.38354
-20.691 -11.3526 -3.58397
-21.2076 -12.2641 -1.19346
-20.4452 -9.72899 -1.31418
-21.8828 -11.4893 -1.4507
-22.5367 -11.3785 -1.19293
-17.718 -9.55619 -1.88937
-20.1367 -9.38958 -1.02521
-20.863 -10.9368 0.0609273
-16.9891 -10.6696 -0.627415
-17.0884 -11.8798 -0.987493
-16.4006 -9.66496 -2.35293
-16.9633 -10.1791 0.265189
-19.0124 -12.4566 0.00777826
-15.8036 -11.6704 -1.06655
-16.4599 -10.419 0.913394
-20.6792 -10.5853 -0.921512
-17.5735 -10.6707 -2.02416
-15.9919 -11.5852 -2.69117
-18.5248 -10.483 0.693716
-17.0715 -12.9995 1.22302
-19.7742 -12.3702 0.0296402
-18.8223 -11.8804 -0.0813345
-16.4932 -11.2219 -2.81623
-15.846 -9.76174 -0.209337
-18.1804 -10.6 -0.961814
-15.9079 -12.0591 -2.04584
-15.9571 -10.5706 -1.47319
-18.818 -9.38968 -0.0667338
-15.8203 -9.00414 1.4092
-17.3668 -9.6785 0.0565115
-16.5228 -9.94721 -0.48867
-17.3448 -11.7459 -0.649027
-17.9584 -8.8036 -1.88582
-19.7595 -11.4378 0.0859814
-20.3036 -10.9371 0.308727
-21.121 -10.2614 -0.520903
-19.391 -11.3257 2.25336
-20.0365 -10.085 0.183048
-20.104 -11.2339 -0.778685
-20.8432 -13.4937 0.965352
-18.6307 -11.1945 -2.1552
-21.3683 -11.1334 -2.89994
-18.6815 -9.70992 -0.91209
-19.7032 -9.86149 -2.83482
-19.2093 -13.701 -2.25832
-20.0175 -10.5949 -1.83427
-17.9512 -8.5333 -0.787072
-17.7856 -10.0346 -2.12073
-18.0043 -11.6172 0.951014
-18.5088 -10.3196 -1.24743
-19.7117 -12.5253 -0.374395
-16.6171 -9.82057 -1.4167
-17.7337 -11.3916 -0.592204
-15.6174 -10.3639 -1.80001
-14.8473 -12.2148 -1.48914
-19.2217 -9.50268 -2.58317
-18.9829 -11.0939 -1.14089
-19.0598 -8.71689 -2.98794
-20.2761 -11.1186 1.9125
-20.4741 -9.58012 -0.474392
-20.7099 -10.2936 -3.15887
-19.6949 -11.474 -0.621773
-22.636 -12.4271 1.04748
-18.9806 -8.87758 0.565352
-18.2637 -11.6323 -0.0145307
-19.9693 -9.86022 0.939555
-19.6751 -12.1801 -1.52446
-20.2438 -9.88915 -0.217578
-19.6337 -11.7074 0.269
-18.4822 -9.91981 1.00942
-20.322 -10.3583 -1.20879
-17.66 -9.65727 -2.93099
-17.2173 -10.7229 -0.856966
-19.5958 -11.7948 -1.86995
-19.9829 -11.5181 0.617837
-19.9504 -12.0481 -2.22834
-19.6174 -10.3805 0.953071
-19.8171 -12.3772 -3.01755
-19.0797 -9.08842 -1.31492
-18.622 -11.0401 -0.271771
-18.4816 -11.996 -2.54288
