-17.1118 -10.9748 0.364603
-17.2152 -10.4853 -0.689621
-17.8574 -10.9869 -1.61746
-16.6738 -13.0134 -0.699089
-17.2084 -11.189 -1.65921
-14.7483 -10.0533 -0.474053
-13.0591 -11.3465 -1.06266
-20.3228 -11.0594 0.214589
-17.2216 -11.6395 1.90453
-19.6365 -10.9996 -0.343513
-17.9316 -11.6635 0.174014
-16.0051 -10.7718 1.21221
-17.7203 -10.4522 -3.15055
-14.3941 -9.01673 1.37134
-16.411 -10.7784 -0.574559
-14.4386 -12.766 -1.06437
-15.8882 -12.9217 -1.58594
-19.4921 -9.83882 -1.1414
-17.5582 -9.59979 -1.49778
-19.2003 -11.9545 -1.0055
-17.7658 -11.0902 -0.350233
-15.9884 -7.87714 2.20789
-16.379 -11.5326 0.465774
-17.3095 -11.4714 -1.29691
-13.9069 -12.4344 -2.06629
-18.1299 -11.8943 0.0571042
-19.1039 -9.97971 -0.0332384
-17.7511 -10.5109 -0.0410373
-18.5629 -12.0008 -1.40961
-15.1074 -11.294 -2.83056
-16.6101 -10.1163 0.350307
-17.6726 -10.18 3.12143
-19.1758 -10.7576 -0.517691
-16.6279 -12.2318 -3.44006
-17.195 -10.1381 -1.20052
-16.4711 -11.9063 -3.24283
-13.876 -12.6561 -1.79826
-18.0625 -11.6215 -0.0894518
-17.7362 -11.1268 1.37928
-19.7767 -12.8848 0.267175
-21.2292 -11.1027 1.3456
-18.816 -10.489 -0.280826
-17.3981 -11.9071 0.064555
-18.872 -8.26366 1.31811
-16.7377 -12.1185 0.289985
-18.7947 -11.858 -0.138177
-20.2222 -9.55967 -2.54288
-20.9025 -12.1733 -0.779009
-18.4684 -10.39 0.142786
-20.7064 -9.57976 0.916508
-19.1538 -10.233 -2.01236
-17.781 -9.50945 0.125585
-19.5359 -10.735 -0.269113
-17.5093 -10.4915 1.70323
-18.7398 -10.5823 -3.41203
-18.9373 -11.2581 -1.90462
-18.2489 -9.76892 -1.71952
-18.8732 -13.294 0.35277
-20.3866 -11.0352 -2.43971
-17.557 -11.7548 -0.950225
-16.7922 -10.7215 -1.56487
-17.231 -10.5215 -1.73397
-20.0167 -9.78885 -1.88023
-18.7205 -10.8127 -0.58265
-18.4659 -11.2203 -2.77725
-16.472 -11.7224 -1.55557
-17.6023 -10.9716 -0.385088
-18.7684 -12.5788 -1.54125
-17.8206 -10.4627 -3.05961
-19.3157 -11.6719 -2.29108
-17.7854 -10.2785 -1.82304
-14.8001 -11.4919 -0.61438
-16.8788 -11.6433 -3.69531
-15.3783 -10.119 -2.1024
-23.0952 -11.3486 2.65965
-20.1271 -11.2845 -0.273073
-17.3975 -10.1056 1.36697
-19.2838 -10.3692 0.912015
-19.6308 -11.3139 0.641538
-20.0318 -10.5893 -1.6313
-18.8706 -10.8885 0.942427
-19.6135 -10.3941 -1.35687
-17.1168 -10.3874 -0.832463
-19.205 -10.044 0.33232
-19.7573 -11.3812 -1.56352
-22.0009 -11.7006 -1.79454
-20.2771 -10.3369 -1.70131
-19.8664 -10.8274 -2.56428
-19.1615 -9.74234 -2.72117
-20.9907 -10.1729 -1.43742
-16.9418 -11.2779 -1.30926
-19.7948 -12.6195 -0.191815
-19.5808 -11.8293 -2.73074
-15.8679 -11.1085 0.940073
-18.0874 -10.4206 -1.93321
-18.0934 -13.314 -2.14187
-15.5748 -9.38479 -0.29666
-19.1713 -10.8686 -1.59247
-15.0146 -10.7493 -0.45354
-17.0199 -12.7905 -1.92986
-17.1732 -9.71414 -2.16963
-17.8891 -12.9327 -0.225011
-17.8414 -10.9748 -2.3081
-17.3891 -12.2075 -2.66248
-17.0499 -10.486 -2.13082
-16.9998 -10.4846 -0.965856
-16.8721 -9.18196 -2.55974
-16.857 -10.8552 -4.40808
-14.3985 -12.2764 -1.93821
-18.4101 -12.0652 -3.67405
-16.483 -9.30837 -2.18858
-16.6272 -11.543 -1.27487
-17.9216 -8.35597 1.257
-20.267 -12.4408 1.33406
-19.7092 -11.2008 1.87841
-18.3236 -10.9975 -1.82968
-19.6187 -11.2824 -0.72758
-18.4471 -11.344 -0.354805
-17.9299 -10.8722 1.02384
-15.6469 -10.5568 1.10511
-16.0086 -11.5732 0.532909
-19.6419 -12.1582 -1.24123
-17.1594 -10.6623 0.239393
-17.2469 -10.8838 -0.76017
-19.47 -10.1042 -2.15878
-17.497 -11.7753 -0.125179
-17.5615 -10.932 -2.85093
-17.6783 -9.63164 -1.17764
-18.635 -9.53474 -0.526029
-15.314 -9.95709 0.659744
-15.7378 -10.8391 -2.17759
-16.6257 -11.2363 -1.88246
-19.8448 -10.3822 2.46617
-21.6172 -10.5062 0.982437
-20.059 -12.5632 -0.161179
-19.5457 -11.7922 -0.570796
-17.9739 -10.6801 -1.73501
-20.8276 -10.9535 -0.429699
-17.911 -10.4491 0.866066
-16.5528 -10.493 -1.3521
-16.8908 -12.0434 -0.498323
-17.2182 -9.74847 0.429395
-16.0306 -10.7334 0.310142
-18.2562 -11.5142 -1.80964
-16.6292 -11.5117 0.915969
-15.8787 -11.1853 -0.621534
-17.0874 -10.8731 -3.89977
-14.7685 -10.2409 -2.01294
-17.72 -10.5775 -2.7492
-14.4817 -11.5283 -4.77866
-17.1759 -10.649 -3.16214
-19.2833 -10.2586 3.17704
-19.5108 -11.499 0.302128
-18.4881 -9.61546 -0.768611
-16.7857 -8.9733 -0.214164
-18.3511 -13.2408 -2.56953
-17.5688 -9.14204 -0.619781
-17.2839 -11.7448 -1.00401
-16.6039 -12.1327 0.288064
-15.4778 -11.0468 -0.888582
-15.6241 -11.1413 -0.36421
-16.5631 -10.4102 1.23926
-18.4969 -11.2104 2.48144
-17.1481 -12.1541 0.204638
-17.5934 -13.3679 -0.775602
-15.6369 -12.9705 -0.111961
-18.8356 -12.6561 -3.12538
-16.2022 -13.7805 -1.08497
-17.7336 -12.6461 1.03967
-17.8805 -11.1993 1.7999
-16.6681 -11.6883 -0.197434
-18.2726 -11.1613 -1.87685
-18.0931 -12.7188 0.835646
-18.4139 -12.8677 -0.414337
-16.2907 -11.469 -1.95965
-18.7095 -11.2454 1.20646
-19.026 -11.3398 -0.620862
-20.8785 -10.406 0.606217
-20.4177 -11.401 1.1979
-19.4642 -12.4038 -0.57517
-15.8905 -8.44005 1.61255
-18.5496 -11.5614 1.07837
-19.0733 -10.0754 0.277008
-15.7053 -9.32417 1.14639
-18.9992 -11.6425 0.169361
-17.2921 -10.95 0.817586
-19.6241 -11.1398 0.6962
-17.552 -11.9424 -1.82172
-19.9079 -10.4958 1.45561
-20.244 -7.97699 1.33252
-18.2763 -12.098 1.54266
-19.3733 -10.1821 0.80792
-19.4806 -10.0184 -1.08538
-20.3787 -9.20133 0.00612447
-19.8659 -11.0953 0.787129
-17.9528 -12.2569 0.894874
-20.503 -10.0633 0.0492393
-19.8929 -11.5932 -2.28853
-17.0547 -10.1131 0.0401712
-18.2858 -9.77656 -0.514972
-16.3423 -11.3599 0.0436622
-21.0738 -11.1534 -0.489125
-18.8686 -10.3296 -2.49326
-21.2599 -12.0583 0.418556
-20.4574 -10.2879 -1.42402
-19.8227 -10.2149 -3.45164
-19.0972 -9.7095 -0.363964
-20.6975 -7.65231 -1.51413
-19.6157 -10.9774 -1.40849
-19.3057 -11.1374 -3.71056
-19.1525 -9.88189 -0.223639
-14.8099 -10.1387 0.692131
-21.3574 -9.14752 -0.997399
-19.1946 -12.5907 0.189784
-18.1345 -11.2605 -1.42872
-17.1086 -11.7059 0.06762
-21.0307 -11.0409 -0.809114
-19.7903 -10.5992 -3.09804
-19.3909 -11.5249 -1.58597
-20.1426 -11.2225 -1.38195
-20.8237 -10.6877 -1.53614
-15.5687 -10.936 -0.420489
-20.8926 -13.0686 -1.7465
-18.995 -11.5685 -0.714152
-19.901 -10.4276 -2.42905
-19.0184 -9.06387 -3.563
-18.2454 -11.1206 -1.88547
-17.2995 -11.786 -1.83559
-18.5605 -8.59691 -2.33305
-20.9068 -9.9326 -1.0014
-20.3445 -9.84176 -1.8868
-20.8895 -10.1561 -1.95778
-16.982 -12.176 0.84028
-22.127 -11.9927 -2.24765
-19.0652 -11.9119 -2.36551
-19.9351 -12.9839 1.5073
-18.5751 -11.7409 -3.25375
-15.1355 -12.2199 -2.48616
-18.9177 -13.296 -2.7236
-14.9414 -11.7942 -1.12854
-16.4646 -11.9891 -0.893625
-19.6497 -9.63929 -0.79912
-18.6993 -10.3952 -0.124862
-18.1292 -9.97605 -2.83561
-19.6394 -10.6777 -2.85881
-17.9337 -10.4181 -2.50782
-19.2846 -11.3164 -0.984293
-15.9417 -11.1739 -0.356971
-16.8812 -11.2119 -4.1141
-19.7619 -11.0446 -2.33212
-20.0869 -11.9091 -1.21852
-19.1128 -11.4475 -2.68798
-20.2855 -11.2033 2.32919
-16.6376 -10.5279 2.86589
-18.4488 -10.4526 1.26828
-19.9998 -11.4533 1.23058
-20.2404 -9.43604 -0.49034
-20.6462 -11.0385 0.270363
-19.3538 -11.7279 2.33945
-20.1855 -11.8783 0.600039
-20.4211 -12.502 -1.50072
-20.7977 -11.3122 -0.321291
-20.2962 -9.92659 1.07372
-20.9102 -10.5096 -0.849994
-16.4258 -11.5283 -0.147149
-17.0894 -12.4782 1.64194
-19.0136 -11.2429 -0.957443
-21.1504 -10.6971 -0.498103
-21.1432 -11.891 -1.47282
-20.8608 -10.7922 -1.2713
-17.7613 -11.665 -0.113618
-18.8515 -9.31971 1.41245
-20.4166 -10.1423 -1.0155
-18.0001 -13.4105 0.00651342
-16.9692 -11.2519 -1.20166
-18.5472 -11.738 0.228007
-16.8055 -10.0119 0.352564
-17.2117 -11.2507 1.31818
-19.1001 -10.5601 -1.90158
-19.0609 -11.1128 -2.1409
-18.6357 -11.8861 -1.66426
-16.4026 -11.8771 -2.21796
-21.2519 -10.7698 -1.17461
-17.4669 -8.66687 -0.75505
-19.4787 -10.9507 -3.0427
-20.372 -11.4161 -2.99826
-18.4727 -10.8471 -1.2255
-18.2189 -10.1307 -2.12805
-20.6203 -9.31027 -0.107816
-17.7554 -10.9241 0.284114
-18.4593 -10.8099 -0.602609
-20.7718 -10.6032 -1.95706
-18.8356 -12.9819 -1.78425
-18.9578 -10.2576 -3.39651
-18.367 -10.1909 -3.01823
-21.0726 -12.1622 -1.8316
-17.1851 -10.7989 -3.9191
-15.162 -11.1891 -2.42107
-17.9107 -11.0288 -2.59803
-16.5825 -10.7011 -2.8735
-18.164 -10.9249 -3.40525
-18.6314 -10.7978 -1.48194
-14.7959 -12.1457 -0.721617
-18.6115 -11.3957 -2.30939
-17.3666 -10.016 -2.23459
-16.7817 -11.0889 -2.00472
-15.1747 -11.4799 -2.07336
-18.8229 -12.6323 1.98337
-18.7074 -10.7363 0.671722
-19.1545 -12.2052 1.78703
-19.5839 -10.6589 2.66539
-17.9397 -10.5462 1.202
-18.3532 -10.5804 -0.796925
-18.3566 -11.3463 -0.643832
-18.3775 -9.98214 -0.973499
-16.7367 -11.7585 0.770839
-19.2415 -12.3358 0.921783
-17.9617 -9.96435 -0.358306
-15.5457 -11.8244 1.04457
-19.2741 -10.7338 -2.39904
-20.4897 -10.9543 0.760075
-20.279 -10.2848 -1.08325
-20.649 -9.6675 0.0556007
-17.219 -10.8045 -1.55578
-18.7696 -11.3711 0.573343
-18.7824 -10.5616 -1.36229
-20.1977 -9.99729 -2.45733
-17.9503 -10.724 -0.0814494
-20.6589 -10.9398 -1.24668
-17.1081 -11.7096 1.02494
-15.577 -13.5055 -0.299909
-21.3089 -10.3802 -0.992255
-16.0656 -11.6376 0.32191
-14.6128 -11.2147 -1.62156
-18.1607 -12.5132 -1.48437
-17.424 -11.9446 -1.10566
-18.5865 -8.61423 -2.32923
-16.6068 -11.8521 -3.82716
-17.7374 -9.99849 -3.73386
-18.8369 -11.0884 2.16413
-17.8869 -10.6456 -0.155285
-18.3906 -9.53239 1.06261
-17.1021 -10.5346 -0.77793
-18.0109 -12.0972 0.206508
-21.2911 -11.0932 -2.78953
-18.2808 -12.7702 0.533799
-18.9133 -10.7038 1.54471
-20.3176 -11.3566 -2.01485
-18.5058 -10.7609 -1.89977
-17.1189 -12.0572 -2.44955
-16.3186 -12.972 -1.48316
-17.4872 -12.3693 -1.21862
-19.3882 -11.9295 1.79407
-20.6106 -11.8307 0.0453751
-19.5473 -11.3524 -1.38892
-19.2329 -10.7316 0.02807
-18.3928 -10.7755 -1.17851
-20.6814 -11.9071 -0.729032
-18.6064 -12.3444 -2.49685
-20.0746 -11.1874 -1.42907
-17.7947 -11.887 -1.29885
-19.1507 -12.4811 -0.91996
-17.426 -13.2729 -0.764051
-18.9084 -10.3421 -2.08867
-16.3568 -10.6752 -0.959208
-17.0198 -11.2191 -2.23129
-15.9274 -12.6808 -1.75436
-12.4202 -12.7997 -4.17417
-15.6941 -8.19038 1.69235
-16.0073 -10.8247 -0.756249
-17.6856 -12.1864 -0.215522
-19.9462 -11.8 -1.67162
-16.6339 -9.70994 -4.25946
-17.925 -10.8072 0.142719
-18.4382 -11.0009 0.743815
-16.7402 -12.2453 -3.62014
-17.0013 -13.2633 -1.57933
-18.3322 -10.7126 -3.85412
-20.3026 -11.7983 0.282007
-18.2911 -12.8271 -1.89685
-17.544 -10.203 1.441
-16.6713 -12.2262 -1.83763
-16.0814 -9.97196 -0.637031
-16.6026 -11.8546 -1.02649
-16.7555 -11.008 -0.885364
-16.2212 -11.4565 -2.7348
-17.2179 -11.7175 -2.25858
-16.1116 -10.482 -0.115737
-17.309 -11.8961 -2.91659
-18.1605 -10.5893 -3.58669
-19.4685 -11.4335 -2.54885
-18.6256 -10.9564 -1.89496
-17.6695 -12.0998 -1.95819
-19.1977 -11.5222 -2.18673
-19.1884 -9.54334 -1.94302
-19.2959 -11.012 -0.0836961
-19.4198 -8.71355 -1.75934
-20.7729 -11.4247 -0.228386
-18.3062 -10.6891 0.961798
-19.3435 -10.2735 -0.36426
-18.8441 -10.3198 -0.87825
-18.7464 -10.5137 -0.30014
-17.955 -10.0234 -0.0939364
-16.4869 -11.0739 0.823419
-17.6337 -8.88519 0.337533
-17.939 -10.5138 -0.789982
-21.507 -10.9877 0.814022
-19.1681 -10.7384 -1.5128
-17.2988 -10.8531 0.941866
-18.843 -10.8175 0.0360511
-18.5133 -10.4651 0.92942
-18.4016 -9.63604 0.567149
-19.8011 -11.6331 0.151413
-19.3906 -12.844 1.18301
-21.7366 -10.059 2.58719
-19.5361 -10.6209 -0.304656
-20.2177 -10.7766 -0.131549
-17.39 -10.5176 0.435746
-18.8319 -9.60636 1.32299
-17.9255 -10.7509 -0.225299
-19.2875 -10.5107 0.173983
-20.9994 -10.1532 2.31592
-19.3991 -11.1205 0.829399
-21.2063 -11.1276 -1.6442
-19.8494 -9.88962 0.970861
-19.6034 -10.3453 1.6185
-21.2376 -11.9059 -0.761317
-19.3909 -10.9863 2.80469
-17.4084 -11.7605 -0.769917
-14.4923 -10.7961 0.404645
-18.6008 -12.1909 0.936279
-17.9041 -10.8631 1.60756
-18.3323 -10.9752 -2.55844
-18.4817 -10.1303 -1.47993
-15.7684 -12.1021 -1.58716
-15.9623 -12.0865 -0.139261
-20.0811 -9.74869 -1.78666
-18.9257 -10.8085 1.12505
-18.0135 -10.4191 -1.03791
-19.8248 -11.0334 -0.659606
-20.7317 -11.1488 0.525379
-20.4281 -11.5748 0.457068
-19.1482 -10.5381 -0.714478
-18.9629 -10.6099 0.432589
-15.6721 -11.0001 -0.185608
-19.4247 -11.2669 -0.894218
-19.5782 -11.1926 0.0438589
-15.7177 -10.1326 1.58401
-15.3614 -11.504 -0.0555819
-22.3507 -9.17027 -0.59202
-19.2334 -13.016 0.37986
-16.115 -8.56056 1.87538
-17.2805 -8.74903 0.978251
-16.9713 -9.82794 0.733854
-18.8632 -9.75513 1.06231
-18.3749 -10.108 -1.89173
-19.062 -11.4566 -0.0947192
-18.6297 -11.9412 -0.804202
-19.7849 -12.5038 0.367485
-19.2142 -10.1597 1.34823
-15.329 -11.2025 -1.01886
-18.8028 -10.9203 0.459544
-20.9438 -11.5967 0.395265
-19.8683 -10.595 1.19703
-18.6076 -11.8161 -1.78816
-17.7761 -9.29419 -0.44613
-17.3967 -10.5715 0.553135
-19.0257 -10.5303 -1.79671
-18.5041 -10.4866 -1.51697
-19.6868 -11.9885 -1.00894
-18.931 -11.5661 -0.161302
-20.1933 -11.4865 -0.388515
-15.4816 -7.94201 0.672141
-18.0207 -8.86917 1.24508
-17.745 -11.5373 -1.6416
-19.7295 -9.31558 -0.41461
-18.0991 -10.5018 0.379261
-18.403 -10.8166 0.0935342
-20.4377 -12.8147 0.786331
-18.1268 -10.7257 1.66655
-17.2054 -10.2626 -0.144431
-16.1292 -11.5091 -3.36604
-17.8045 -11.3876 -3.1187
-20.0248 -10.2339 1.6327
-16.7482 -10.0919 -0.314083
-19.6236 -11.0107 -0.498924
-17.042 -11.342 -0.21543
-19.6898 -10.5104 1.1043
-19.8814 -10.8953 2.67152
-18.9608 -9.60108 0.261449
-19.1037 -10.7352 1.05251
-15.2072 -12.0166 -0.680148
-16.2556 -9.48461 -1.13638
-16.6633 -10.8846 2.56079
-18.0427 -9.96254 0.479084
-19.5303 -11.5483 0.182661
-16.6085 -10.8318 -1.53146
-16.2341 -11.0254 0.0455397
-17.535 -11.0808 0.280845
-19.1242 -7.77382 1.80535
-19.2061 -10.7706 0.284279
-21.3185 -11.7226 -1.76429
-18.8924 -10.9879 -1.85582
-17.7129 -10.9386 -1.89855
-17.0372 -11.3745 -2.49113
-19.5479 -11.7637 -0.896471
-21.164 -10.8022 -0.957365
-19.9642 -12.2858 -1.53648
-18.802 -11.6826 -2.90951
-21.0405 -11.0522 0.899382
-22.3328 -10.1449 0.109638
-19.9158 -11.1823 -0.212084
-19.7684 -11.8451 -1.79114
-20.2857 -11.2809 -2.09109
-19.0033 -12.0859 -1.38648
-17.2059 -11.6056 0.305554
-19.0274 -11.0322 -0.604291
-20.1312 -10.0779 0.943608
-20.0206 -11.8409 0.511846
-19.1714 -10.4853 0.753029
-17.58 -12.6785 -0.249987
-16.9103 -10.2893 1.37647
-19.5377 -11.0229 0.412388
-19.7773 -10.8702 -1.12369
-20.8574 -10.7063 0.97729
-16.1106 -10.4552 0.0063157
-18.6719 -12.7468 1.73178
-19.5611 -11.5344 2.27551
-17.913 -11.496 0.287951
-20.3571 -10.5194 0.681398
-18.5719 -10.006 1.65294
-16.0128 -10.752 0.909488
-16.7875 -11.1471 -1.08369
-16.2024 -11.4643 -0.0506212
-19.3295 -9.04114 0.672368
-17.4446 -8.64155 0.260978
-18.4308 -8.72829 1.7653
-20.3896 -10.4933 -3.89726
-19.8295 -9.61569 -1.75343
-16.2172 -10.4623 -2.55338
-19.0177 -11.2848 0.834888
-19.4285 -11.0992 0.920573
-13.9308 -11.8379 -1.65614
-17.5274 -9.61858 1.02018
-18.0707 -10.2315 0.435478
-18.8492 -11.7984 -0.0245606
-20.0451 -10.124 -0.937759
-18.9702 -9.92159 0.178935
-18.2803 -9.44893 0.448099
-18.8243 -12.116 0.673012
-18.6204 -10.8673 1.10556
-18.9413 -9.58539 0.973754
-17.6352 -10.865 -1.70223
-19.8751 -11.3607 0.308521
-19.5435 -11.0538 1.16266
-17.7675 -11.362 -0.953814
-15.8092 -12.1943 -1.21043
-19.1461 -10.2391 0.959687
-16.5211 -10.6879 0.434981
-18.7364 -10.4966 -1.38091
-18.0446 -9.40616 2.85645
-16.0838 -9.53748 0.453748
-16.2787 -8.97552 -3.86889
-16.6602 -10.975 -2.25643
-18.8139 -10.3073 -2.17025
-16.874 -10.2746 -1.07543
-16.2524 -11.0303 -3.06549
-15.9444 -12.3293 0.527708
-19.6984 -9.59603 0.431662
-20.7218 -12.0457 0.225281
-18.8896 -10.5615 0.26226
-18.6783 -10.0593 2.39987
-16.5028 -8.58076 1.54585
-20.2641 -12.5146 -1.65638
-18.9668 -10.4995 -0.968679
-18.2272 -11.2573 1.90316
-17.1651 -9.3741 0.490302
-20.5658 -10.7305 1.01811
-20.1561 -10.4908 -0.809329
-16.5832 -12.4929 1.64455
-17.2348 -10.3496 0.40445
-16.5967 -11.4198 -2.08179
-18.4183 -12.0549 1.10287
-17.6064 -10.1464 -1.3718
-22.9387 -9.82524 -1.14014
-19.3415 -10.8798 -0.258849
-20.8829 -8.71745 0.525429
-20.0789 -11.4543 1.85621
-19.4411 -10.9454 1.9702
-19.5336 -11.2038 1.10107
-17.8651 -9.51469 0.367201
-18.4766 -11.03 -0.00655764
-20.8664 -10.8179 -2.78814
-20.4522 -11.7473 -0.986531
-19.0333 -9.96798 -0.554559
-19.7821 -10.7379 0.380278
-18.268 -12.2223 -1.29505
-15.3997 -10.1837 -0.228113
-18.3075 -12.5433 -0.0291461
-19.6686 -11.4891 0.68531
-16.9047 -10.7329 -3.52173
-17.8373 -11.3255 0.657515
-16.363 -9.45011 -0.0940456
-15.3864 -11.5754 -0.021639
-17.792 -11.3153 -0.215018
-18.1896 -10.2274 -0.480893
-19.9746 -9.92153 -0.385002
-18.9028 -9.59962 1.03443
-17.0169 -11.548 -0.854387
-17.5726 -12.7315 -1.1228
-19.4188 -9.82911 -0.788146
-16.5672 -13.0657 -2.57021
-18.22 -11.2595 0.395363
-15.754 -12.0735 -1.51826
-15.8836 -14.0129 0.880205
-20.2532 -10.1478 -0.906888
-21.3504 -13.2594 -2.76271
-18.9231 -10.273 1.34499
-19.7796 -11.4903 0.0967794
-18.3396 -9.43223 1.02526
-19.6468 -8.55593 1.63789
-17.5068 -10.8915 0.597463
-18.0133 -11.2855 -1.99576
-19.5172 -11.2612 0.941645
-19.6909 -11.1364 -1.18331
-18.3821 -10.7999 -0.998165
-19.1257 -10.4815 0.666919
-14.8277 -11.2989 0.206978
-20.0136 -9.82498 -0.900269
-18.6532 -9.93196 0.774336
-17.7588 -11.7811 -0.57616
-16.2391 -10.2553 -0.0888745
-15.1195 -12.1674 -0.168107
-14.8998 -11.1539 -0.322531
-15.0246 -11.2391 -0.414381
-20.2673 -10.5264 -0.620087
-21.0668 -11.3986 0.714363
-17.6458 -10.1432 2.54137
-18.3566 -9.06405 1.60014
-16.4038 -13.5339 -0.504453
-20.4894 -10.9545 -0.202392
-20.9098 -10.1133 -1.38131
-19.4895 -10.5689 0.190339
-20.2749 -11.3804 -2.63372
-20.4764 -10.279 -2.38706
-18.3698 -13.0577 -1.64245
-17.0707 -10.6931 -0.143513
-16.1596 -12.1438 -2.27506
-16.0717 -10.293 -1.58348
-18.4225 -11.6382 -1.34641
-18.772 -12.2588 -1.82572
-19.862 -9.39432 -1.01701
-17.7551 -12.0378 -0.389551
-16.6025 -12.4856 0.200991
-16.5731 -11.4129 0.851807
-16.5938 -12.9529 -0.599472
-18.0115 -12.0719 0.979285
-15.5679 -11.6198 -1.72987
-16.581 -10.9219 -1.32404
-17.6444 -10.6501 -0.690443
-17.5488 -12.9978 -0.539571
-16.342 -10.8753 1.11151
-16.2753 -12.1867 -0.564268
-14.879 -13.3409 0.220656
-16.0522 -11.3419 -1.65155
-18.9945 -10.7577 -1.00251
-18.3882 -11.5018 -2.50404
-20.1575 -10.6089 1.89392
-16.2244 -11.2505 -0.12233
-18.3025 -12.8839 -1.94952
-20.2406 -11.2114 -1.85312
-20.1645 -9.62707 -0.178713
-18.3225 -9.84382 0.0191433
-20.2699 -11.1104 -3.09303
-20.3739 -10.0566 -0.677788
-18.3813 -10.6345 0.802714
-18.401 -11.5694 -0.929217
-15.7756 -11.1649 -0.391402
-15.0611 -11.711 0.382065
-21.4676 -11.1296 -2.18468
-20.853 -12.475 -1.96807
-16.7505 -10.7794 -1.76805
-17.4579 -11.2664 0.0754446
-17.032 -12.086 -0.219215
-15.8652 -8.33907 2.12083
-14.8729 -9.64723 -1.19751
-17.3778 -12.1511 -1.70173
-16.4338 -12.2934 -4.53883
-20.8476 -11.4951 -0.744538
-19.5711 -11.9071 0.0251384
-20.2132 -11.0881 -0.875172
-19.5682 -10.2923 -1.06022
-18.6531 -10.6901 -0.304003
-18.0026 -12.211 -0.864931
-15.9627 -12.2702 -0.818948
-15.4317 -10.6361 -2.32135
-17.6077 -12.268 -2.15022
-15.5577 -11.8835 -1.64701
-15.5434 -10.8939 0.375514
-18.3765 -10.8776 -5.74507
-17.8286 -9.58782 1.92853
-15.5842 -10.4411 -0.0807122
-14.9581 -12.2672 -0.467154
-14.9313 -10.7557 -1.00708
-17.5326 -6.8238 2.13232
-15.7274 -11.1295 -0.451677
-21.1959 -11.6991 -1.4355
-19.8497 -11.4599 -1.14994
-18.1095 -10.5322 -1.17853
-17.8674 -9.69668 -2.10448
-17.9496 -10.976 -4.47269
-17.7205 -11.8229 0.325809
-18.9061 -9.974 -1.89786
-18.1849 -10.7448 2.61274
-16.3311 -12.0421 -1.38409
-17.0886 -9.64432 -1.31447
-20.996 -10.5762 -1.99587
-19.9767 -11.4928 -2.57405
-18.3739 -11.3358 -2.91886
-16.6742 -9.40508 1.68882
-18.581 -10.9566 1.42703
-15.9799 -10.1225 0.0525197
-17.7149 -10.8067 -1.38469
-15.4619 -9.37523 0.458497
-16.1236 -10.6215 -0.465147
-17.4881 -10.4721 0.706913
-15.4246 -11.8083 -0.851306
-15.8221 -12.8 -0.430357
-14.0695 -12.884 -2.57539
-17.041 -10.5682 0.659476
-19.386 -10.5612 -1.6613
-17.8813 -9.94953 -4.10725
-18.1739 -8.65085 -0.903095
-19.5503 -11.1883 0.523638
-17.5093 -10.9234 0.509854
-17.0079 -9.55042 -0.972263
-15.3791 -12.8011 -0.841009
-14.9729 -10.3874 -0.113719
-15.7918 -11.1182 -0.280896
-21.4652 -11.1446 -0.863851
-20.9881 -11.2419 -0.921317
-21.136 -9.81372 0.974167
-18.2754 -11.2474 0.641466
-17.8534 -11.2213 1.83998
-16.3469 -11.7984 1.55424
-19.0482 -11.2408 -2.12331
-17.3411 -10.0434 -2.27788
-15.8782 -10.282 -0.750985
-17.6024 -12.9443 -1.92112
-17.6173 -13.1897 1.50536
-17.6801 -10.032 -2.35281
-14.181 -12.9353 -0.510182
-16.5832 -9.61373 2.08249
-18.6873 -12.3334 1.11762
-16.7797 -10.0893 -2.04756
-15.5075 -11.7927 -0.0237163
-15.8139 -12.7879 -0.57877
-15.4202 -12.0851 -0.959542
-19.0556 -9.6906 2.02422
-19.6602 -10.5585 -2.21039
-19.125 -9.88079 -0.74395
-18.6072 -10.7774 -0.172794
-22.1817 -12.9828 -0.644268
-18.5467 -9.90314 -0.125327
-18.7723 -11.182 1.23234
-17.2212 -11.7058 -1.81104
-17.9743 -12.3993 -0.519974
-19.0222 -11.3662 -2.03408
-17.2526 -8.97403 2.82933
-15.5579 -13.6234 0.509182
-14.6383 -10.7654 0.249717
-15.8138 -12.3885 -0.867802
-16.0316 -11.8903 -1.75711
-15.8034 -11.1448 -3.02989
-21.1499 -10.9411 -2.82454
-19.5663 -11.3396 -0.290715
-20.2735 -10.546 -2.27434
-20.1434 -10.1237 0.799748
-19.3903 -8.8444 -3.01652
-18.9592 -11.5638 -1.77398
-19.3708 -10.36 -3.13158
-19.9809 -12.2933 -2.4263
-18.3023 -10.5544 1.44588
-19.4257 -12.0984 -2.43788
-15.0577 -8.72923 1.03648
-17.5343 -12.0539 -0.204454
-17.9296 -9.89233 -2.41726
-16.6417 -10.9944 0.921025
-18.0767 -11.3496 0.883603
-17.2803 -11.6754 -2.05714
-16.9227 -9.82765 0.252769
-16.5779 -10.9002 -1.79422
-13.1609 -12.1759 -0.0989515
-16.1116 -12.295 -1.57098
-15.3525 -13.2639 -2.72569
-16.5198 -11.2236 -0.460827
-16.6529 -12.0068 -0.898626
-14.9716 -13.0282 -0.322676
-21.5253 -10.2572 -0.349497
-20.4638 -10.5956 0.643679
-19.4492 -10.3983 -2.24391
-18.9991 -10.0235 -0.956739
-20.163 -11.6032 -0.256298
-19.6833 -12.5455 -2.48247
-16.2189 -11.7439 -1.11086
-15.2464 -9.38578 -1.11031
-19.3906 -11.2159 -0.406788
-15.9256 -10.9671 -1.57802
-16.7827 -13.4617 -0.754
-17.0848 -9.7718 1.31314
-16.8353 -11.5662 1.52051
-15.9493 -11.8361 -1.09227
-16.5961 -12.5771 -2.80742
-18.6643 -10.6654 -0.38912
-20.2517 -9.81624 -1.80707
-17.8966 -9.79099 0.610567
-17.2075 -11.7253 -1.24966
-17.2208 -11.8225 -1.05269
-17.4342 -11.8472 -2.34753
-18.1192 -13.1007 -0.4883
-16.2324 -11.5447 -1.35901
-17.4552 -12.0005 -0.195188
-15.665 -11.6505 -0.772332
-17.7409 -11.9351 -0.225209
-17.2841 -10.2099 -1.24736
-15.8705 -13.0915 0.0369684
-18.4102 -9.50378 0.264049
-14.1769 -11.4944 -1.47948
-20.5993 -9.79528 -2.82011
-21.8037 -11.1105 -1.75155
-19.9815 -10.3971 -1.24159
-19.4939 -11.0951 -1.55734
-18.0849 -11.9402 0.309575
-18.9445 -11.3065 -0.612491
-19.2628 -11.7364 -2.92203
-20.4721 -11.6557 -2.26217
-17.7473 -10.5489 0.62842
-19.3557 -11.8423 -3.53413
-20.3616 -11.7932 1.09259
-20.2252 -9.36281 -0.639835
-19.2807 -11.043 -0.581212
-20.0602 -12.8339 -3.06445
-17.7535 -10.3116 -1.28062
-17.9029 -9.84637 1.9946
-17.941 -9.03218 -1.6105
-18.0275 -11.0652 1.0821
-19.6624 -10.5817 -0.961267
-15.7424 -10.2765 -1.34311
-16.5071 -8.73038 3.03536
-17.4539 -10.2693 -0.816027
-15.6631 -12.1216 -0.982911
-15.9691 -11.8017 0.632294
-14.3825 -9.93836 0.00721952
-16.4641 -11.8299 0.881487
-14.3408 -10.7358 -0.0400571
-13.8927 -12.4091 0.971657
-15.5571 -12.1065 -0.621721
-16.2955 -11.5531 1.35789
-15.4085 -10.4357 -3.42743
-15.233 -10.6036 -0.871228
-18.8158 -10.8311 -1.39566
-18.9478 -10.8235 0.407159
-17.8689 -10.8229 0.170655
-17.1386 -9.24198 0.4498
-16.8826 -12.3902 -2.59168
-16.3839 -11.9445 -0.513018
-16.4855 -11.6032 -0.752503
-16.4575 -9.9363 0.174232
-17.0767 -11.8672 1.5742
-14.7342 -12.6737 -1.24432
-21.2229 -10.9301 -0.559436
-17.3261 -11.1346 -2.15682
-17.0856 -12.4245 -0.672707
-16.2016 -12.0117 0.0788568
-18.4976 -10.8508 -2.58333
-17.1571 -10.9127 -1.00692
-16.9575 -14.2824 -2.29718
-19.7827 -10.2275 -0.567233
-17.0324 -12.684 -1.45651
-15.7703 -11.7192 0.274688
-15.1669 -10.284 0.0897758
-17.8715 -11.8265 -1.44276
-16.3981 -12.5346 -0.117104
-16.9546 -11.1676 0.139719
-16.4084 -9.25572 -2.38252
-17.903 -11.9549 -1.59701
-17.0715 -13.5016 -2.37013
-19.4155 -10.0841 0.00431433
-20.6228 -11.5915 -1.64793
-20.7681 -11.3931 -1.02054
-18.7481 -8.99905 -0.659074
-20.0707 -10.2207 -0.0618726
-18.866 -11.2677 -0.831334
-17.3684 -10.7129 -0.792145
-18.6862 -11.6399 -2.9359
-15.1373 -11.8158 0.383798
-16.1862 -12.2383 -2.49601
-18.31 -10.1836 0.321989
-16.8588 -10.1791 -1.95957
-17.981 -9.99724 -3.37693
-15.8738 -9.85074 -3.53148
-20.4536 -9.60277 -0.16945
-20.4847 -12.0334 0.385536
-20.0511 -12.1074 -2.19382
-15.1193 -9.65942 -0.78971
-18.3572 -12.3708 -3.35471
-17.9069 -11.3725 0.173957
-18.0263 -10.0423 1.02709
-18.0515 -11.3591 -2.1011
-14.9633 -9.19946 0.973522
-17.9434 -10.5215 -2.56217
-17.7754 -11.5506 -1.54092
-19.5093 -10.0257 -0.737922
-18.8179 -11.9789 0.0741482
-18.4086 -12.649 -1.2273
-17.1739 -10.4315 -0.140998
-16.0458 -8.78412 0.936102
-16.4051 -9.55266 -0.384415
-15.3451 -11.0696 0.409273
-19.6221 -9.41711 -1.54036
-19.3574 -11.1806 -1.10495
-19.463 -10.3635 -1.13163
-20.8683 -10.9266 -2.93988
-15.0751 -10.771 2.44125
-16.4795 -11.5112 0.319707
-17.3609 -11.5195 -0.236148
-19.2216 -10.5452 -2.66761
-16.9498 -11.5231 -1.46538
-19.2144 -11.608 -0.348456
-16.8317 -11.5724 0.269448
-15.8905 -12.3215 -3.02213
-13.7158 -13.6736 -0.878536
-15.6729 -12.1856 -1.34284
-18.3185 -11.0092 1.36236
-19.4325 -10.2874 -0.311973
-19.5275 -9.30404 -0.730133
-18.9468 -11.2031 0.0367632
-16.6168 -10.9329 -1.9587
-15.3643 -10.5345 -0.182162
-16.188 -11.0815 -0.868461
-16.5716 -11.8655 -1.40888
-19.044 -10.2988 0.470237
-14.7161 -13.4512 1.56864
-17.8312 -12.1366 -0.651639
-16.9444 -10.9253 1.24801
-14.7151 -9.17355 -2.96562
-16.3067 -12.4675 -0.65419
-16.3524 -8.67562 1.9574
-18.8599 -12.6387 0.552946
-17.8322 -12.5776 -0.329292
-16.7968 -11.2775 1.57589
-17.0196 -11.5204 -2.52066
-19.9488 -11.0327 0.712488
-21.0954 -10.0923 -2.55932
-19.3904 -9.95679 -1.35721
-20.7653 -10.928 -0.00670902
-19.9536 -10.9041 -0.768897
-18.7837 -10.8512 -1.55914
-19.5795 -12.0509 -0.148788
-18.5351 -10.8031 0.860313
-19.6124 -9.34681 -0.557892
-18.4548 -11.5003 -1.31685
-18.984 -10.6317 -2.99311
-18.4887 -11.8893 -0.380439
-17.8743 -13.2399 -3.12615
-20.7506 -12.7127 -0.715526
-19.7597 -11.2637 -0.0490789
-19.0067 -11.6763 -2.02831
-17.2621 -10.6083 1.05383
-19.0761 -10.8516 -0.0413518
-20.0567 -11.1435 -1.68279
-21.125 -10.2778 -1.60967
-19.7951 -10.6498 -1.53307
-16.1123 -10.5672 0.00830966
-16.9953 -10.0486 -2.86153
-17.1112 -11.2965 -3.84572
-22.1989 -9.68442 -1.5094
-18.4935 -10.6409 -0.00319112
-20.4093 -11.1198 -0.0370542
-19.469 -10.8323 0.160859
-16.7876 -10.3119 0.821589
-16.0841 -11.6935 -0.28459
-19.2013 -9.77323 -0.377669
-17.6801 -10.1088 -0.0157956
-19.2762 -10.6901 -1.15206
-19.2615 -10.4819 -1.9924
-17.2308 -11.2909 -1.26864
-16.1545 -11.0731 0.744162
-17.6046 -9.84393 0.938408
-18.8035 -11.0879 -1.86221
-16.0803 -9.16007 -0.319183
-20.9599 -7.98127 -2.49839
-16.7393 -12.4017 -1.4129
-19.607 -10.3558 -2.25949
-20.6183 -12.8606 1.58128
-19.2405 -11.652 -2.26694
-20.2215 -10.2342 0.462165
-18.6146 -11.4798 -0.147226
-16.8472 -9.57372 1.58687
-18.334 -11.7959 1.7649
-16.6614 -7.99245 0.899026
-20.6429 -11.9635 -0.00545151
-15.3339 -11.8807 -0.570609
-15.973 -12.2916 1.07671
-16.8313 -11.74 -0.335106
-17.237 -11.8212 0.146972
-20.0668 -10.2183 0.0762001
-18.6938 -11.1665 0.202011
-18.4934 -11.1143 -0.277462
-17.987 -11.3624 -0.528204
-16.962 -10.2719 -0.769089
-16.7204 -11.5213 -3.03298
-17.5422 -12.1069 -1.12364
-14.3897 -9.48676 -0.257052
-16.1313 -11.6645 0.120314
-18.3567 -11.9387 -0.308912
-18.1953 -11.3287 -1.22115
-15.6055 -13.0935 -2.01962
-15.1611 -11.4182 -2.95741
-19.4346 -10.9625 1.04208
-18.5263 -9.46523 -1.78787
-15.7805 -10.5943 -0.994719
-14.7982 -11.2731 -1.40485
-17.6212 -10.2192 -0.823733
-16.9215 -10.7933 -2.13689
-17.9532 -11.4023 -1.45753
-18.4365 -10.0327 0.773736
-19.3495 -11.4021 -0.00489103
-19.4199 -10.5055 0.134946
-18.0734 -10.6073 -0.359903
-20.1449 -11.2193 -0.853096
-18.5239 -10.0758 -1.06011
-19.0821 -10.3676 0.382503
-16.2505 -10.7882 -0.360477
-18.8812 -10.3043 -0.550245
-17.7333 -11.2305 -0.439746
-18.7619 -11.6448 -0.0599587
-21.5622 -12.7232 -1.43027
-20.6476 -10.5591 0.0761352
-18.1842 -10.2598 0.314308
-19.784 -11.9462 -2.14754
-20.4605 -10.9288 -1.91293
-20.2643 -8.92434 -1.86733
-18.8894 -8.93245 -2.82158
-14.2418 -12.5357 -0.284976
-18.6056 -10.74 -2.64709
-19.2407 -11.8917 -2.30932
-18.3792 -9.29245 -1.35137
-19.0002 -12.3079 0.565723
-19.3695 -11.2624 0.151573
-17.6716 -9.0484 -1.35115
-19.9023 -10.8255 -2.6297
-19.6387 -11.8554 0.689786
-21.4114 -10.7188 -0.358573
-18.6609 -11.1436 0.293793
-17.4814 -10.6965 1.47222
-18.069 -11.6752 -1.54329
-19.8443 -11.2879 0.959204
-18.5823 -12.7337 -0.321513
-18.9212 -10.4611 -1.29839
-17.1436 -11.8146 -0.085275
-19.9372 -11.2514 -1.53217
-15.7037 -10.0317 1.22867
-19.3426 -11.237 -0.812124
-16.0695 -11.2043 -1.2059
-19.2161 -9.57593 -0.068322
-19.1097 -10.5424 -1.17192
-15.9757 -11.058 1.54618
-18.5753 -11.4741 -1.7659
-14.8525 -10.5674 -0.353964
-15.7264 -13.6579 0.12484
-15.7066 -13.1259 1.08908
-14.3954 -10.9344 -2.68093
-14.5365 -11.2276 -2.78528
-17.7307 -10.6158 2.48691
-17.658 -11.7112 1.09994
-21.1553 -11.2049 0.334597
-17.9348 -10.6886 0.510362
-17.151 -10.0646 1.16392
-19.5942 -10.6986 -0.155385
-16.8761 -9.73877 1.543
-19.707 -10.0222 -1.44096
-20.1518 -11.1883 0.185329
-20.4755 -11.3995 0.277801
-17.0806 -10.1927 0.143347
-17.7652 -10.5607 -0.0189854
-14.5181 -11.4047 -1.18876
-18.1224 -10.0838 -1.57156
-19.0372 -11.5093 -2.99489
-17.9388 -10.0438 -2.69007
-17.7796 -9.26218 -0.516074
-19.4063 -11.0804 -0.227099
-17.5154 -10.9806 -1.97789
-18.1979 -10.1032 -1.01156
-14.5896 -11.9762 -1.65286
-17.1196 -11.6449 0.537469
-14.6298 -10.3841 -0.389468
-15.6596 -11.0683 -2.09623
-19.5659 -10.4036 1.0331
-18.1212 -11.3182 0.841206
-17.876 -11.1642 -2.48157
-17.3852 -10.4748 -1.37449
-19.6392 -10.1409 -2.71284
-17.3272 -11.0343 -3.95512
-13.5818 -11.7563 -1.91864
-19.8055 -12.2278 0.38698
-18.0182 -10.1308 0.881398
-17.1567 -11.0337 0.0898183
-17.8375 -10.656 -1.64872
-16.2068 -12.5304 -1.02699
-15.9707 -12.3123 -1.07286
-20.2447 -12.6378 1.83892
-18.4027 -10.1659 1.46198
-20.3437 -11.9238 1.89515
-19.6481 -11.3616 0.127149
-19.7731 -10.4917 -0.350036
-19.6433 -11.0316 1.48851
-18.1114 -10.1649 -0.795663
-18.9379 -11.07 0.387982
-19.6282 -10.3395 0.817733
-16.3479 -11.7023 0.533073
-18.7194 -10.0678 -1.78422
-21.3635 -10.5228 -0.550045
-20.0775 -10.7865 0.418486
-14.4214 -9.38114 0.80263
-19.9585 -9.53017 -0.72174
-23.4908 -9.39992 -0.894873
-15.7038 -12.1796 -0.839556
-18.2621 -12.4226 -1.52332
-18.9076 -11.6797 -2.82043
-15.7312 -12.2457 -1.36144
-20.4972 -12.0302 -3.21471
-20.8396 -10.2147 -2.98657
-16.7622 -12.328 -2.02095
-18.8701 -11.1326 -0.119335
-19.6143 -11.3782 -1.89215
-15.9826 -13.1725 -4.21313
-15.1351 -11.4306 -4.03184
-21.2418 -12.0816 -1.48004
-18.7789 -10.7145 0.0638447
-17.6265 -11.6586 0.786789
-19.059 -11.0265 -1.61419
-18.4377 -9.45907 -1.67921
-19.3489 -11.501 -0.678572
-17.7372 -10.1752 -0.812073
-21.5659 -11.9067 -1.92243
-18.7294 -11.418 -1.10001
-16.8544 -13.1537 0.720666
-16.3455 -9.70584 -0.965116
-17.4219 -11.6829 -2.64112
-16.5699 -10.0258 -2.72113
-17.9631 -10.1183 -1.06982
-18.2749 -10.3288 -2.88528
-16.1125 -11.3709 -3.68371
-17.1165 -11.0789 -2.77452
-15.4439 -11.7616 -2.41567
-14.6579 -11.0069 -1.27973
-18.8806 -11.2206 -1.42202
-17.6786 -9.23075 1.41419
-18.9289 -10.1666 1.91199
-19.4371 -11.442 0.398583
-19.7725 -9.83829 0.91487
-18.9368 -10.879 -1.14117
-17.7561 -11.1892 2.63279
-17.7661 -9.39211 -0.117296
-17.4629 -12.6009 -0.172973
-20.2751 -10.6938 -2.01756
-17.1515 -11.4988 -0.518402
-19.2452 -12.1569 -0.555454
-17.8162 -12.1867 -1.20145
-17.1765 -10.3147 -2.03455
-19.4916 -10.1475 -1.37168
-16.6806 -9.12848 -0.544497
-17.664 -11.5102 0.744077
-15.9378 -11.6581 -2.45323
-19.3339 -11.492 0.760287
-16.8171 -9.0768 -4.54198
-17.9553 -9.41395 -1.65716
-19.105 -12.3689 -2.19472
-15.9374 -11.0557 -1.34519
-16.609 -11.9783 -1.21893
-16.3439 -12.2148 1.44358
-17.0194 -9.88179 -0.593484
-15.2328 -12.5899 1.5306
-14.9112 -10.8445 -0.795857
-17.4804 -12.9472 -2.22716
-15.3133 -11.823 -2.70449
-17.7076 -9.70927 -0.059349
-19.1376 -9.85547 -1.628
-16.4258 -10.0677 -2.38491
-20.2179 -11.4117 -1.85394
-17.3973 -11.6703 1.05191
-19.7859 -11.1258 -1.75329
-15.5396 -10.4259 -0.850092
-18.4529 -13.6226 -3.34108
-19.1928 -9.26433 -0.7775
-19.3214 -11.0346 -1.6649
-16.2761 -9.83405 -1.2655
-17.9139 -10.9733 -0.931903
-16.3486 -12.5129 -0.620211
-15.104 -11.8262 -2.13233
-15.7373 -12.2546 -3.32499
-19.4096 -10.4343 2.43168
-19.6411 -10.3394 1.18295
-19.7387 -9.95858 -0.638475
-19.0234 -10.9086 2.24638
-20.3633 -13.0256 -0.808245
-19.6345 -9.63413 1.66403
-16.1679 -10.5561 2.23166
-18.2817 -10.008 0.787044
-18.2732 -11.6831 0.904953
-21.5022 -12.2421 0.0501562
-18.9684 -9.97923 -0.562223
-19.42 -11.8912 -0.0219762
-20.205 -11.9417 -0.460162
-20.4579 -10.1304 0.540807
-20.2773 -9.43858 2.47034
-19.0771 -11.5589 0.00149452
-20.1782 -10.2096 -0.0438338
-17.7279 -10.5663 1.78617
-17.8658 -10.1421 0.0540145
-19.1505 -10.6628 0.818051
-19.8457 -10.5524 -0.749698
-15.8739 -12.0481 0.294656
-18.9409 -9.5438 -1.22271
-20.3319 -10.2674 -0.907822
-19.2231 -10.7115 -1.69138
-16.2675 -12.391 -1.69379
-19.7066 -9.53224 -1.56037
-17.5046 -12.0223 -2.4856
-21.5913 -12.3495 -0.162462
-20.8507 -11.2838 -0.675031
-17.5457 -14.1681 0.34778
-19.7908 -10.8901 -1.44561
-19.5477 -10.4837 -0.356379
-18.0361 -8.56138 -1.21706
-19.0638 -12.5662 -0.36353
-17.365 -10.5708 -2.84626
-20.4582 -10.1228 0.37707
-18.6312 -11.114 -1.78422
-19.1865 -9.96515 -0.871231
-20.351 -11.8507 0.468468
-18.4413 -12.045 -1.55826
-19.1009 -12.1254 -1.26674
-18.0646 -12.1618 -1.13979
-19.7847 -11.4069 -1.03839
-19.6745 -11.1927 -1.7049
-18.7195 -11.3877 -2.09273
-17.9884 -11.9437 -2.57489
-18.8854 -11.4453 -0.577979
-20.4859 -9.20327 -1.31584
-21.0153 -7.5906 -2.25633
-18.7824 -9.28632 -0.685981
-16.7948 -11.9548 -1.8519
-18.0985 -10.2515 -1.43412
-19.0253 -11.0345 -1.50967
-17.2905 -10.9508 -3.53342
-19.889 -10.8526 -1.6851
-17.5302 -10.7831 -2.86947
-14.6334 -10.235 -2.15996
-18.8274 -8.77429 1.31072
-19.5688 -10.4304 0.836143
-22.3451 -10.6085 2.23848
-19.4287 -11.9019 1.64744
-19.7089 -11.2579 1.52374
-15.178 -11.877 0.173834
-19.9071 -11.5081 2.39137
-18.027 -11.7537 0.156141
-17.6489 -10.4168 -2.53068
-19.7881 -11.0937 0.690187
-18.3398 -10.9751 0.825302
-18.5949 -10.2017 0.669335
-18.7688 -9.69722 -0.78657
-20.6809 -10.9989 -0.0668291
-16.3186 -11.664 -0.81118
-20.1021 -9.95604 -0.0977135
-17.8484 -10.979 1.87115
-19.5024 -9.92732 -2.71001
-21.1966 -11.061 -1.55481
-15.5632 -12.5954 0.197558
-19.3177 -12.3928 -1.93846
-19.9564 -10.3326 0.0747225
-19.8687 -12.2675 -0.498504
-17.3412 -10.5852 -1.76339
-18.7401 -12.1983 -2.39473
-14.9517 -13.2101 0.353013
-16.7306 -10.6589 1.10685
-18.4534 -12.2159 -0.14792
-19.3781 -9.28469 -1.63878
-19.439 -11.7479 0.597885
-17.5445 -12.3325 -4.45143
-18.8475 -11.5341 -0.88136
-19.0012 -9.81627 -3.4686
-17.4786 -12.0011 -3.88408
-20.931 -9.60473 0.677369
-19.8571 -11.393 1.0395
-16.9464 -10.1532 2.57278
-20.0609 -12.3462 0.973334
-20.6122 -9.21894 0.639717
-16.4628 -10.7846 -1.42042
-17.4953 -10.6963 0.00899537
-18.8114 -10.1582 -1.1788
-20.327 -9.88829 0.738084
-20.1133 -9.82231 0.441778
-19.5369 -10.9779 -1.29252
-20.4471 -12.1897 -1.05744
-15.0703 -11.7468 -2.16838
-15.3265 -11.009 -3.13166
-18.1831 -11.6146 -1.45211
-17.8314 -12.579 -3.58952
-13.4205 -13.2418 -5.88611
-16.3556 -11.5669 -4.1622
-16.6671 -10.5761 -1.90672
-16.3746 -12.0371 -1.61845
-17.1373 -9.80085 3.38502
-16.9099 -10.702 2.03585
-16.9286 -10.2601 0.688697
-19.6204 -12.2503 0.494212
-19.9932 -9.09708 0.525054
-17.2542 -9.76057 -1.68434
-18.7337 -9.71916 -0.844368
-19.551 -10.5384 -2.13559
-17.971 -10.8285 -1.4391
-19.5628 -11.3549 -1.55383
-21.1898 -11.8273 -2.17846
-17.7946 -11.3071 -1.67292
-18.4915 -10.5072 -1.51083
-14.4022 -12.8311 -2.70531
-18.2876 -9.98539 3.45058
-19.6527 -11.1185 0.977385
-19.0752 -11.9997 1.05697
-19.9377 -10.8401 0.545859
-19.5003 -9.11518 -0.0651932
-16.8584 -10.6202 -3.59867
-19.2037 -8.75658 -1.90276
-14.9543 -13.3147 -2.50111
-16.8992 -10.0748 -1.32059
-18.5808 -9.91896 1.31818
-16.89 -10.4945 0.533675
-20.7011 -9.45608 1.78303
-18.4538 -13.2442 1.95445
-13.8698 -11.2965 -5.0868
-16.5846 -10.3084 0.884958
-20.3164 -9.57837 -0.32587
-20.0216 -11.1435 -0.542917
-16.7963 -11.1803 -3.41589
-16.1844 -11.8108 -1.34787
-16.6723 -11.9433 -0.722179
-18.4016 -10.298 -1.92333
-16.953 -11.4675 -1.01587
-18.1182 -10.5517 0.0151019
-18.9068 -11.1018 -1.28216
-18.4254 -10.6619 -4.0242
-19.6894 -10.4925 -2.39192
-18.4247 -11.9488 -0.502055
-20.9094 -11.2756 -4.01509
-17.5598 -9.91577 -2.10245
-15.6654 -12.6291 -4.22381
-19.9292 -11.4344 -2.63079
-19.2157 -10.3698 -0.49959
-19.5775 -11.4131 -3.32563
-19.1935 -9.90583 -1.34051
-20.4868 -10.836 -1.68076
-18.1403 -10.3309 -1.76617
-15.4833 -10.2602 -2.90443
-22.5291 -10.586 -2.45185
-15.2432 -11.5868 -4.42824
-18.4751 -11.0341 -2.02943
-20.6942 -13.8058 -2.10276
-20.184 -11.3837 -3.95713
-20.6141 -9.30151 -1.47993
-19.1081 -10.9582 -2.67225
-21.0153 -9.40207 -2.17454
-21.0234 -8.43462 -0.703453
-18.1271 -11.2325 -2.89887
-18.1055 -10.5133 0.687854
-17.638 -11.2856 -1.91981
-20.5565 -10.4662 -2.78975
-17.5433 -9.56004 -1.38059
-19.9583 -10.465 0.411312
-19.9232 -11.5425 -1.53638
-20.8635 -11.3845 -1.95608
-20.044 -10.5657 -0.442998
-20.1084 -11.1144 -1.68832
-20.2126 -11.2808 -0.0341146
-19.6032 -12.4273 -0.177396
-18.1153 -11.4916 -1.94386
-20.7552 -11.8444 -0.200269
-21.584 -9.67814 1.03578
-19.7193 -12.4501 0.188991
-19.051 -11.2438 -0.943012
-19.294 -12.2844 -0.383879
-20.9267 -11.7525 -2.5927
-18.3111 -10.3387 -0.907532
-19.4774 -13.3226 -1.9038
-19.8265 -10.7259 0.459702
-18.7981 -12.3754 -2.33993
-20.5363 -10.3455 -1.90769
-20.22 -12.6612 -1.59468
-19.8546 -11.4331 -1.89066
-20.388 -9.80752 -1.62649
-20.8195 -11.224 -1.25443
-17.6262 -12.2498 -1.40429
-19.3127 -9.5949 -1.39912
-19.4693 -11.5611 -1.26476
-18.5216 -10.129 -1.30241
-18.8049 -12.6215 -0.591309
-21.2997 -10.6105 -1.13273
-18.7666 -10.3167 -0.825085
-21.0072 -11.0255 -0.702387
-19.4419 -11.5544 -0.935526
-17.6029 -11.8271 -1.21432
-14.7445 -13.0631 -1.05442
-21.0894 -9.6148 -0.686205
-20.9716 -12.2514 0.225148
-20.5748 -9.28509 -2.11961
-20.1314 -11.591 -1.38867
-20.6744 -10.3431 -0.211159
-18.9359 -12.1663 0.681908
-16.1911 -10.1724 1.51977
-18.3917 -11.1421 0.451161
-16.7884 -10.4889 -0.472924
-19.748 -11.0543 -2.01898
-19.2313 -10.1281 -2.24951
-17.9889 -10.6272 -0.226534
-19.5147 -9.21058 -0.680512
-19.84 -11.1787 -0.929471
-21.3177 -11.3641 -0.232637
-19.8315 -12.4905 -1.88959
-19.3404 -10.445 -1.47857
-21.142 -10.5243 -1.10003
-18.8723 -10.017 -1.04306
-20.7147 -10.9725 -0.741668
-16.3285 -12.1583 -0.796714
-20.1932 -9.04916 0.639226
-19.6582 -10.5621 -0.446049
-18.4692 -10.5136 -0.572953
-20.1147 -11.7593 0.796176
-20.4085 -9.19438 2.43493
-20.6098 -10.8859 -0.571125
-20.0181 -11.2949 -0.740816
-17.5598 -12.2393 0.0755872
-19.268 -10.5216 0.0844254
-17.8314 -11.2575 0.275196
-19.1718 -10.7106 -0.0559969
-19.4588 -10.1719 0.0895954
-17.6516 -11.3083 1.24753
-19.6413 -9.82813 -0.79128
-20.9168 -10.0808 -0.510641
-16.0189 -11.1407 -2.25026
-19.9792 -9.09332 -1.00229
-20.7651 -10.0023 -1.76989
-17.2983 -9.99549 -2.74525
-19.7255 -11.0023 -2.81571
-15.1731 -13.2934 -2.5442
-19.0947 -12.0095 -1.92387
-19.4034 -10.0865 -2.5664
-20.0998 -13.3743 -0.466172
-17.9313 -10.1186 -1.35281
-19.8436 -11.3541 -2.12583
-18.9564 -9.7202 -2.64995
-19.8089 -10.1822 -4.22899
-19.6807 -11.4274 -1.9302
-19.9569 -10.7487 -1.4259
-19.0756 -11.8951 -1.25216
-18.9558 -10.8294 -0.258498
-18.1193 -9.43763 -3.09715
-20.1433 -10.5317 -1.45851
-17.7667 -11.1579 -2.04587
-19.6173 -11.395 -0.757013
-20.7201 -9.92814 -1.18281
-15.7172 -13.7777 -2.95562
-18.7188 -12.8008 -1.36046
-18.8994 -11.6616 -2.4859
-19.8081 -8.93324 -1.05318
-20.1001 -11.2344 -0.837552
-18.97 -12.1007 -2.19182
-19.3374 -10.6309 -1.62736
-20.6367 -11.4077 -0.80973
-19.9873 -11.6514 -0.444937
-20.0689 -10.2457 -1.27403
-19.2297 -11.7158 -0.322892
-19.6203 -10.8533 -1.15289
-19.3051 -10.4758 -1.5841
-18.4058 -11.7166 -1.47377
-19.226 -10.8033 0.506401
-16.7026 -8.49957 0.620976
-20.165 -10.0352 -2.70525
-19.4343 -10.2953 0.19944
-17.6957 -10.8709 0.348528
-15.7621 -10.9379 -0.310138
-14.9958 -11.3536 0.605372
-16.7862 -11.3052 -0.42868
-17.214 -11.568 -1.86944
-16.7288 -11.4616 0.951636
-17.4582 -10.7471 -1.76362
-17.7929 -11.9719 0.278163
-16.352 -12.1919 -0.667928
-14.9513 -11.893 -0.193259
-18.9874 -10.6576 0.194042
-18.2671 -10.9295 -1.20595
-20.0387 -11.7746 -1.40458
-19.7783 -10.0041 -0.485636
-18.8752 -10.7808 -0.23138
-16.6407 -11.7941 -0.0944885
-16.8615 -11.1582 0.669214
-15.7931 -12.3274 -0.942593
-18.9031 -9.64064 0.435767
-19.369 -11.6339 -1.28122
-18.2167 -9.94264 0.821488
-20.7808 -9.20786 1.03924
-20.4193 -13.7605 -0.297711
-20.6107 -9.61083 -0.539453
-19.6707 -11.4155 -0.0895159
-17.0121 -9.83396 -0.218865
-16.0926 -12.1428 1.90359
-16.396 -10.5626 -0.527705
-17.4182 -10.5112 -0.257532
-16.0388 -10.8326 -1.51066
-18.3459 -10.5145 -0.323708
-18.4795 -10.9256 1.85225
-20.4742 -11.1856 0.516122
-19.708 -11.5424 1.22603
-18.9498 -10.4302 -1.07584
-18.9864 -8.26695 0.55979
-16.4125 -8.63762 1.48242
-17.6678 -10.7345 0.387801
-16.5955 -10.3093 -3.46042
-19.0109 -10.002 -1.56665
-16.3826 -10.6155 -1.42033
-17.3697 -11.2117 -0.0785256
-19.1924 -12.5566 0.927775
-19.3279 -9.80444 -1.82458
-19.1642 -10.8982 -1.86216
-17.3594 -10.5895 -1.8806
-20.1635 -9.71633 -2.96306
-17.9779 -11.396 -2.13083
-19.953 -10.395 -0.791716
-20.2148 -10.7622 -0.908963
-20.7201 -9.79075 -0.301717
-17.7714 -13.0325 -0.152549
-20.8142 -11.3973 -1.95852
-18.2054 -10.6538 -0.481935
-20.5854 -10.9424 -0.0812717
-19.3876 -11.3581 0.0176044
-20.9156 -11.9385 -0.342115
-19.7886 -10.8992 -1.38947
-16.1938 -10.5477 -0.676465
-21.1418 -11.4161 0.301811
-20.964 -11.2031 -1.59858
-19.1154 -10.8213 -2.73504
-20.3947 -12.5303 -0.0938429
-20.9543 -9.31215 -1.08803
-19.7719 -9.23622 -1.08525
-17.6857 -10.0246 0.50647
-16.4435 -11.4082 -2.54529
-19.4552 -8.562 0.0813731
-17.0013 -11.5652 -1.29844
-17.4721 -11.2278 1.584
-15.7856 -11.9571 0.0634604
-16.3323 -12.0249 0.249875
-16.8797 -13.0771 -3.3917
-16.5423 -12.0978 0.916117
-16.9466 -10.491 0.963588
-18.3859 -13.9401 1.69129
-18.245 -11.2669 -0.0757462
-18.6974 -10.6419 -1.49279
-15.646 -12.4088 1.25549
-20.1332 -10.3425 2.65508
-20.5018 -12.7081 -0.434713
-21.2935 -10.1629 0.52651
-19.3903 -10.9588 0.828993
-19.3317 -11.8111 0.200294
-18.3315 -11.3971 2.04444
-18.5961 -8.8165 0.426714
-19.2988 -10.8542 0.865987
-16.9357 -11.7158 -0.814777
-17.9458 -10.8342 0.241191
-18.1132 -8.42106 0.800611
-19.4745 -9.36981 -0.172487
-19.1663 -8.42667 0.904415
-20.2908 -11.8076 0.346004
-21.5421 -11.0512 1.01742
-21.288 -10.133 0.656503
-19.3952 -10.5284 0.522179
-19.1332 -10.9611 1.75129
-20.6765 -11.1991 1.23503
-16.2009 -8.94605 0.923113
-17.295 -11.4707 2.92719
-17.4977 -7.75415 1.38868
-20.213 -10.1371 2.49643
-16.0628 -8.2948 1.56547
-15.8712 -8.74123 -1.23877
-16.545 -9.02064 2.61537
-17.9866 -10.8699 -1.93839
-20.1705 -11.3312 -1.84409
-17.6603 -10.4256 -1.74464
-18.7693 -10.5303 -0.690011
-20.1853 -10.5913 -1.66496
-18.3899 -11.1686 -2.69007
-18.7803 -11.8022 -3.42926
-17.2764 -9.86549 -3.1049
-17.9428 -10.3076 -2.1533
-16.8374 -11.4104 -0.0996906
-17.6961 -10.187 -0.512016
-17.7279 -12.6433 -1.88805
-18.9781 -12.733 -2.48352
-16.5938 -10.0229 0.102912
-20.0104 -10.647 -3.5685
-19.1689 -11.9175 -1.13273
-18.8167 -10.521 -2.3172
-20.7301 -10.9319 -2.22048
-16.4568 -10.2406 -2.18194
-16.0736 -12.1002 1.0029
-20.0313 -11.2243 -0.464293
-18.8952 -12.309 -1.25765
-21.0109 -11.8743 -1.04132
-19.3737 -10.9309 -2.466
-20.7748 -11.7975 -1.12374
-20.1898 -12.1383 -1.34716
-15.196 -12.1773 -1.32527
-19.8514 -11.5421 -0.14579
-16.0522 -12.0795 -3.4357
-18.5223 -10.7462 -0.920481
-16.6892 -12.8495 -0.505795
-18.5862 -10.3437 -1.03807
-17.2768 -10.2504 -3.07861
-19.6563 -10.4765 -0.0115494
-18.1089 -11.5095 -3.14998
-19.1667 -11.7222 -2.18752
-17.3985 -11.6755 0.195157
-18.0266 -12.6215 -1.10727
-17.5905 -10.7494 -1.68623
-18.4562 -8.2386 -0.630887
-16.1222 -10.8665 -0.496581
-17.1091 -13.0932 -0.628453
-19.3305 -11.5254 1.89154
-16.5305 -10.032 0.334705
-17.9642 -11.7525 -0.754279
-21.0586 -9.7216 0.234642
-14.1324 -13.6494 -0.506706
-15.7236 -12.2761 -0.236335
-15.6173 -11.519 -0.835903
-18.605 -9.61453 0.809181
-16.5144 -11.5881 0.94341
-17.5729 -9.90281 1.10428
-19.1975 -10.5899 1.93556
-16.3537 -10.1733 -1.3641
-19.2642 -8.71597 0.371681
-20.3545 -11.4332 1.28118
-19.015 -10.7446 -0.444786
-18.9719 -10.5585 0.96868
-20.6994 -10.9527 1.66333
-19.1371 -12.5501 2.9324
-20.3069 -11.5281 1.0767
-19.3061 -9.92659 2.735
-19.257 -9.95728 0.887526
-16.7213 -11.7579 0.00337069
-19.7734 -10.9168 1.94401
-22.05 -10.8889 1.11033
-19.0957 -9.74345 3.06976
-19.0788 -9.41051 0.469249
-18.506 -9.96799 1.12779
-18.9589 -9.96763 0.982157
-20.1221 -9.58249 -0.0410055
-20.7736 -10.0361 2.55648
-17.547 -9.16699 -0.0495894
-17.4379 -11.4072 -2.16677
-15.4468 -11.5247 -0.900822
-16.4832 -12.2214 -2.44258
-17.4828 -9.982 -1.72714
-18.676 -10.3606 -2.18529
-17.4412 -11.5214 -3.62876
-20.854 -11.6078 -0.199255
-17.6006 -10.7499 -0.711921
-20.5592 -11.4969 -1.40718
-19.3263 -11.6178 -3.18564
-16.6547 -9.57036 -1.55657
-18.1556 -9.07872 -3.97608
-17.0292 -9.99192 -2.0157
-15.0584 -12.1796 -0.527411
-19.1855 -11.1905 -0.505497
-14.8362 -10.9701 -1.92085
-18.1332 -12.4485 0.850916
-19.9883 -12.421 -0.982716
-17.2329 -11.4665 -1.50989
-21.7548 -10.7468 -0.289987
-20.1116 -10.8527 -0.750631
-18.9593 -11.0334 -2.26549
-15.9796 -11.8934 -0.366696
-15.2857 -10.8043 0.0565424
-15.3158 -10.4875 0.517723
-16.6153 -11.5457 0.79419
-17.6849 -11.8752 -1.03417
-17.9674 -12.6804 0.227948
-16.439 -10.4531 -1.85295
-16.1197 -9.94028 -0.29684
-17.1674 -11.2228 -0.925029
-19.9308 -11.2949 0.578018
-19.9265 -10.2719 -0.146767
-20.4095 -9.65992 -0.208309
-18.8431 -10.9119 0.631
-16.6301 -12.1493 -0.156919
-18.8851 -12.1861 -0.0424428
-18.2298 -11.2182 -1.18715
-17.4626 -11.6033 -2.05602
-19.3318 -9.58857 -0.499607
-19.9653 -11.7391 0.0805115
-18.5546 -10.1283 -1.06406
-21.9587 -10.1843 0.0757594
-16.6436 -10.6954 1.21468
-17.9396 -12.3918 0.656436
-20.7962 -10.7439 0.591732
-22.5468 -11.1799 1.83827
-19.8659 -9.95646 2.213
-20.7734 -10.5808 -0.206311
-21.88 -10.4761 1.89259
-20.6384 -10.7357 0.463268
-20.6735 -10.0088 -0.0969664
-20.9413 -11.9067 0.0879869
-17.9229 -11.2884 0.778822
-16.9983 -8.17361 0.181196
-17.8629 -7.00898 1.44356
-15.1673 -11.6056 -2.31666
-16.5939 -11.3892 -2.01939
-17.556 -11.9969 -1.52655
-16.3051 -11.6692 -2.05148
-16.9264 -9.58581 -0.290223
-14.9506 -10.3199 -1.64116
-19.2293 -11.886 -1.15931
-20.3782 -9.22082 -1.89119
-16.8015 -11.0115 -2.12449
-17.2347 -12.9739 0.101903
-16.1874 -13.5875 -0.00198533
-17.4141 -11.0021 -0.0912447
-18.9373 -10.1956 0.300148
-17.9528 -13.6061 -0.775946
-17.5342 -10.9166 -1.81868
-19.3363 -10.0985 -0.320909
-16.6142 -11.3979 0.0232693
-20.5943 -9.73101 1.06908
-19.1675 -9.88299 1.54862
-18.7188 -12.4913 0.0727788
-18.698 -8.81551 0.950815
-17.2243 -10.6346 -0.658628
-21.2657 -10.6029 -0.870052
-17.8978 -12.3565 0.791807
-21.1191 -8.94614 1.49725
-17.2451 -10.3282 0.847628
-16.7281 -10.8297 -1.19499
-17.8957 -11.3761 -0.153938
-18.8859 -13.1785 -2.44554
-19.344 -11.3326 -3.87085
-19.9094 -10.2534 -1.43141
-15.3296 -12.1256 -0.132899
-21.4685 -10.8881 -1.58725
-19.1662 -12.0303 -0.270054
-16.8188 -9.93597 0.299984
-18.1308 -10.5484 0.335576
-19.7664 -14.3339 0.827779
-15.9603 -9.19493 0.970027
-18.7418 -11.922 -0.673728
-21.6254 -8.68884 -0.1306
-20.6412 -11.6369 0.643756
-19.6227 -10.0728 0.750045
-19.5162 -11.0627 1.78737
-18.3923 -8.70156 -0.674083
-19.6355 -12.5919 0.80277
-19.4244 -10.9602 -0.637523
-17.7261 -13.2348 -1.73357
-20.6692 -12.683 -2.60587
-15.0818 -12.8489 -0.311048
-19.4475 -12.6689 1.51086
-16.0856 -10.695 -0.0171505
-19.6514 -10.7427 1.85007
-17.2762 -9.31103 1.62049
-17.7813 -10.4248 -2.87173
-17.6074 -11.9451 -1.76534
-15.6815 -11.6782 -1.50964
-17.4697 -11.4466 -0.0397986
-16.188 -12.9837 -1.19979
-19.0927 -13.1107 -0.63677
-18.3305 -11.0568 0.524347
-17.2929 -9.91499 0.0965091
-17.4094 -10.3389 -0.863918
