-17.4694 -10.5593 0.992538
-19.9262 -11.2269 -0.861019
-17.3357 -11.9796 -0.0142412
-21.7269 -10.1105 -2.79019
-16.7885 -11.0569 0.0226461
-19.3991 -12.2294 0.805602
-16.6572 -9.45577 -2.07743
-19.5628 -12.3545 -3.69231
-16.4365 -9.90045 -0.616689
-17.5532 -10.7298 -0.683002
-17.3711 -11.7838 -1.84051
-19.427 -9.64686 -1.86402
-19.841 -9.50264 -2.46947
-18.2656 -11.5472 -1.62319
-15.2048 -14.3898 -1.54096
-19.7265 -10.3418 -1.18102
-17.3073 -11.1674 -0.972713
-18.1995 -12.196 -1.31294
-15.4427 -12.2832 1.18602
-19.663 -10.1953 -3.90044
-19.7712 -11.9837 -2.94784
-18.9846 -10.4763 -2.94926
-15.4751 -11.7892 -0.737568
-17.5152 -10.5618 -0.811511
-15.1729 -12.3502 -1.88893
-17.6826 -9.14366 -4.72324
-18.1525 -12.955 -1.65041
-18.4668 -12.5022 -2.79573
-16.8621 -11.4456 -4.28731
-16.1629 -11.9311 -3.54885
-18.0796 -11.8345 -2.21952
-17.6351 -11.2004 -4.30585
-14.8783 -8.49576 -2.15417
-15.0417 -10.9727 -2.70243
-15.8162 -12.0379 -0.380621
-16.8917 -12.3404 -2.66597
-16.0068 -12.307 -1.4872
-16.4427 -10.2822 -1.43681
-20.1693 -11.0725 3.6214
-20.3836 -10.7404 0.244546
-20.6241 -11.3833 0.799942
-15.6099 -10.9058 0.489026
-17.1631 -11.1637 -0.391065
-18.3914 -10.2789 -1.40534
-15.5694 -11.5905 -1.01715
-21.8355 -11.0943 -2.21661
-16.744 -9.64091 -2.05947
-21.1624 -9.88062 -3.91503
-20.0797 -12.1615 -4.37794
-17.2711 -11.5498 -1.08539
-21.1115 -10.8651 -3.43999
-16.8378 -10.2972 -3.87596
-16.0815 -9.52322 -1.53501
-17.919 -11.6421 -1.42516
-17.4191 -11.5304 -2.9448
-16.0204 -10.2794 -1.29202
-14.8159 -11.1027 -2.85583
-15.3266 -10.8443 -2.58678
-15.1259 -12.202 -2.30437
-16.4051 -11.7671 -1.461
-15.3789 -11.3607 -3.77792
-17.6488 -9.2223 1.20242
-20.1367 -11.1263 1.65227
-16.3459 -11.0512 1.19366
-15.567 -10.8812 1.31804
-15.6015 -10.9684 -1.61672
-16.9591 -11.0254 -0.131156
-19.9837 -12.1035 -0.901046
-15.0491 -10.4411 -0.154525
-17.972 -11.4859 0.258262
-14.7839 -13.2639 -1.44809
-14.7387 -11.4761 0.536029
-17.9736 -13.1313 -0.499056
-17.3413 -10.378 -2.42641
-18.4083 -11.143 -2.41151
-14.9706 -13.2606 -2.2455
-16.5433 -10.8357 -2.42517
-13.405 -10.7883 -2.12986
-16.5512 -10.5573 0.476082
-15.3029 -12.0181 -0.93815
-19.9765 -11.3095 -0.916578
-15.902 -11.7182 -0.883992
-15.4685 -12.8502 0.479777
-15.5539 -9.54308 -1.81417
-14.9441 -10.6011 -2.75572
-16.2012 -11.2783 -1.4308
-17.4264 -11.4238 -1.32445
-17.0989 -13.068 -1.76957
-14.2314 -12.5042 -4.15366
-15.1406 -12.317 -0.281057
-19.2687 -10.4085 -0.528607
-17.2435 -10.5139 0.608842
-15.8927 -12.5736 -3.80384
-15.2837 -11.0046 -4.08041
-14.4098 -11.9646 -2.02838
-18.7441 -10.6924 1.31403
-15.5321 -9.81896 -0.981433
-15.9622 -10.8694 -0.477708
-15.6255 -11.2091 -1.83064
-14.633 -10.5419 -2.1848
-13.8018 -11.8188 -1.79761
-15.1197 -12.408 -1.42955
-15.5355 -9.49865 0.535613
-20.1497 -11.7343 2.38401
-16.0366 -9.19157 1.14948
-15.1906 -10.3778 3.46199
-14.9929 -8.44366 1.61307
-17.029 -8.77661 1.7317
-16.5595 -8.95437 2.07228
-15.6941 -8.96525 1.87349
-15.8307 -8.52914 0.932207
-16.4895 -7.62291 0.196266
-19.4813 -12.3617 2.27525
-20.7398 -10.8082 1.05761
-20.3048 -11.7153 1.46287
-19.3935 -8.41184 1.1894
-20.635 -10.4669 0.781378
-20.9226 -8.58993 2.97907
-20.7247 -10.2437 2.04003
-21.3415 -10.4292 0.654691
-17.5667 -10.5715 0.522192
-17.2342 -10.8182 0.29112
-15.9959 -11.8851 -0.275773
-20.6734 -13.2567 1.37892
-18.2723 -11.6679 1.26813
-16.8676 -11.9785 1.82727
-17.6878 -12.1523 0.614882
-17.5394 -10.074 0.23243
-17.7377 -10.9306 0.935291
-16.5347 -10.1604 2.48252
-17.8202 -9.50682 0.835179
-20.4066 -10.2562 -0.475196
-15.3864 -8.96134 0.847124
-16.8547 -11.4708 1.93457
-19.877 -9.89592 0.351437
-20.9716 -9.91946 1.64821
-21.1079 -11.5364 0.159816
-16.2338 -8.19626 -0.267333
-19.1826 -9.05035 0.266723
-18.6285 -11.2023 0.990561
-22.014 -11.8736 2.5768
-16.79 -8.49792 -0.279782
-19.5688 -11.1473 -0.509972
-18.7443 -10.3739 -0.329431
-19.7792 -10.4504 0.362453
-20.6525 -11.112 -0.731818
-19.6261 -11.7382 -1.1973
-19.6228 -10.5085 0.688362
-20.1951 -11.5745 0.555703
-19.6315 -10.0018 0.610993
-20.7709 -10.8619 0.283027
-19.0915 -9.1582 -0.959805
-18.9896 -10.4672 -0.944302
-18.77 -9.15417 -3.22116
-16.6953 -9.13628 -0.675347
-19.9459 -9.76155 2.35322
-15.6973 -11.2303 1.51073
-18.6407 -11.1664 1.3602
-20.0248 -11.2502 -1.17715
-20.4475 -10.9584 1.65677
-16.5779 -9.88272 -2.48224
-19.4576 -12.8293 -1.26079
-17.1002 -9.97093 -0.723399
-17.7474 -9.65463 1.46777
-18.1503 -10.837 0.701521
-18.4869 -11.6771 1.738
-17.5553 -9.82476 0.91901
-17.1135 -11.5683 2.82047
-18.9097 -11.4523 0.08806
-15.7998 -11.8155 -0.45391
-16.4998 -10.188 -0.855737
-15.9434 -10.5636 -0.811477
-16.5282 -11.8785 -0.531648
-16.826 -12.0968 -1.31287
-20.0315 -10.8133 -1.1471
-15.1469 -11.2 -1.88849
-16.3824 -11.1186 -0.953969
-15.9374 -11.2765 1.36967
-17.1272 -10.6988 -0.447594
-19.4637 -9.8321 1.61014
-17.8733 -11.643 -0.0128771
-17.3739 -11.5838 -0.670165
-20.3536 -11.6876 -0.49127
-17.2474 -10.9206 -4.16295
-20.0732 -11.5635 0.918935
-19.0799 -10.2759 0.0392165
-19.9217 -11.3967 -1.05216
-20.9998 -10.2664 -1.16995
-20.6003 -10.9504 1.37441
-20.4564 -12.2049 -0.902193
-16.6234 -12.5956 1.00759
-19.6372 -10.9446 -1.86215
-18.988 -11.416 -1.47435
-21.6361 -11.9442 -2.60898
-22.3386 -11.0753 -1.69185
-21.0118 -10.2275 -1.55125
-20.0515 -12.578 -1.29373
-17.2885 -9.93858 -1.66841
-20.0129 -10.8938 -1.61676
-18.5163 -10.2564 -1.66898
-16.2887 -12.0956 -1.10062
-20.3918 -9.87143 -1.79741
-18.939 -10.516 -3.14728
-16.9701 -12.613 -2.6875
-20.0858 -12.6258 -3.15756
-18.1438 -10.8576 0.39347
-18.2308 -11.0852 0.0102614
-21.5387 -11.9042 -2.96735
-18.4588 -11.2984 -1.97387
-20.6894 -11.1082 -2.04013
-19.132 -10.0438 -1.71725
-17.8501 -10.2638 -2.33219
-18.1681 -11.93 -2.89891
-19.655 -10.3861 -2.86331
-21.191 -8.75668 -1.81379
-20.4589 -12.0047 -2.90583
-18.6503 -11.7135 -1.65838
-19.9454 -12.0631 -3.19562
-20.5228 -10.6907 -2.74493
-17.2092 -10.0149 -3.30226
-17.8359 -10.356 -2.43668
-20.4884 -10.5103 -2.16406
-19.8766 -10.3425 -3.31648
-18.527 -10.4979 -2.89441
-18.7505 -12.008 -2.32
-16.085 -10.4522 -2.07647
-18.3211 -10.7133 -2.29346
-16.7749 -9.80028 -3.85885
-19.0043 -9.611 -3.54204
-17.4425 -12.3322 -2.09178
-19.821 -12.1396 -3.02456
-15.2832 -11.9662 -2.20511
-21.0038 -8.21095 -3.19535
-21.4372 -8.55987 -2.37159
-20.8405 -10.0848 -2.26023
-19.2514 -10.3663 -2.42824
-19.9933 -11.7453 -2.8599
-19.9464 -11.281 -2.01963
-19.4659 -11.7153 -2.16592
-18.4211 -13.64 -1.01918
-19.2536 -10.9469 -3.01981
-20.488 -10.8147 -3.95412
-17.8595 -11.4421 -3.17588
-18.8033 -10.9951 -1.77818
-18.8282 -11.5785 -2.2769
-21.0631 -11.579 -2.91252
-20.3668 -11.6175 -3.7589
-19.4039 -9.82853 -3.27953
-19.4519 -10.7241 -4.96954
-21.0077 -10.2749 -1.56942
-18.7355 -9.51503 -1.7462
-16.4899 -11.0007 -2.45251
-15.4519 -13.1179 -2.7744
-19.4276 -12.3341 -2.38985
-14.4733 -11.9316 -3.75247
-14.2707 -12.2793 -0.924819
-15.1275 -12.1051 -3.28347
-16.1977 -12.3926 -4.15585
-14.3224 -13.0908 -2.84657
-15.974 -7.88671 -0.145118
-15.5812 -7.46829 1.89948
-19.7695 -8.01121 1.73472
-20.7727 -10.2437 1.1361
-15.6836 -7.96148 0.0249752
-19.5875 -9.68016 0.809582
-15.8295 -8.74641 0.402771
-19.1408 -8.48721 2.57682
-21.6497 -9.82881 -0.917423
-20.3077 -10.5434 -1.26751
-18.9564 -9.64562 0.512817
-21.2794 -11.2747 2.48995
-20.0069 -11.2374 1.06264
-18.9889 -10.1288 -0.525808
-18.2342 -10.8479 1.44067
-16.0952 -12.5968 -0.179338
-21.748 -9.74012 -0.264088
-19.6157 -10.6443 0.877205
-20.2357 -10.4836 -0.253143
-18.3172 -10.0298 1.26829
-16.6142 -11.0243 -0.141233
-20.0136 -11.3075 1.61542
-20.2067 -11.3431 0.184867
-17.0795 -10.1692 -0.336997
-16.5956 -12.0319 -1.98389
-15.4212 -11.0928 0.463598
-19.141 -10.9548 -0.590247
-17.3206 -10.5801 -0.125154
-17.2113 -11.8419 -1.99829
-16.8263 -10.7307 -1.42686
-21.195 -10.9656 -0.328987
-16.1729 -11.7837 -0.768603
-17.1181 -9.56683 -0.542628
-18.2896 -11.1284 -1.53086
-18.8156 -12.073 -1.19709
-16.1004 -9.46483 -1.07237
-18.799 -9.1164 -1.7733
-17.0997 -11.8831 -0.792785
-15.509 -11.5016 -1.10842
-16.7742 -11.5058 -0.99652
-16.2296 -10.8502 -0.0850595
-18.2203 -9.97216 -0.93633
-19.5045 -8.93468 -0.103445
-18.4916 -12.092 -0.513671
-18.2826 -11.0151 -0.472536
-18.3425 -11.3392 -2.34067
-16.7368 -11.5007 -0.721849
-20.1489 -11.6522 -1.25451
-20.1948 -11.121 -1.49312
-18.2571 -12.6141 -2.09132
-17.0438 -10.1358 -2.4289
-18.999 -11.921 -0.422156
-19.7244 -10.3554 -0.0813963
-22.1825 -11.6306 -2.81652
-17.7838 -10.9331 -2.29663
-16.223 -10.5765 -2.76615
-16.6391 -11.5063 -1.46407
-16.7107 -12.1217 -0.549698
-19.1606 -12.6566 -3.15352
-20.3406 -10.8346 -2.15828
-16.7537 -10.5089 -2.25571
-17.5668 -11.0006 -1.76925
-17.5306 -11.4485 -0.926603
-15.4491 -10.7751 -0.809178
-14.0264 -11.6897 -2.06531
-16.0345 -9.60347 -1.48623
-19.3999 -9.86333 -1.90997
-18.1797 -11.05 -3.41503
-18.1796 -9.39511 -3.37617
-19.0166 -12.7373 -2.35519
-18.8058 -9.35034 -3.11607
-19.5311 -10.6728 -1.83383
-17.6843 -10.8887 -2.66072
-14.0826 -13.2356 -3.13349
-16.4572 -10.9891 -2.22999
-15.4353 -11.7164 -3.18237
-14.5327 -14.6002 -3.92791
-16.1256 -10.5361 -3.1427
-14.8068 -11.0407 -2.08836
-13.2745 -13.7254 -3.27154
-15.9658 -9.75809 0.913316
-17.951 -7.9114 1.5301
-15.845 -9.48711 3.70152
-19.2057 -12.031 1.92126
-20.5344 -11.5654 1.27047
-17.2158 -11.6582 0.885079
-18.7061 -8.72022 0.0468199
-16.4182 -10.9364 -0.266348
-18.5562 -9.08524 0.128727
-16.9387 -13.8784 1.30327
-15.3382 -11.263 -1.40179
-17.0373 -11.4932 -1.0147
-16.7806 -12.0348 0.339193
-17.3149 -8.46078 -0.0241202
-17.6908 -11.4005 -0.861582
-18.1811 -11.828 0.171914
-17.0712 -8.959 0.188603
-18.896 -12.6463 -0.859232
-17.8722 -11.1574 -1.02498
-17.9768 -11.1588 -1.65964
-18.5886 -10.3994 0.149405
-18.3991 -11.9028 -1.15316
-20.871 -11.5567 -1.63693
-17.5211 -11.0671 -1.91041
-17.7702 -10.5642 -1.06236
-18.1419 -9.73975 -0.6506
-17.1596 -12.3881 -3.00758
-20.0561 -11.3556 -3.25761
-16.7281 -10.5722 -2.0818
-18.247 -10.451 -3.80232
-19.8803 -10.9657 -3.5632
-17.4921 -10.2333 -4.37165
-18.2344 -12.196 -2.84762
-19.7982 -9.39009 -4.12216
-15.6653 -9.75351 -2.71309
-16.7082 -11.1276 -1.45121
-17.2025 -12.6017 -1.79024
-17.4499 -10.4973 -4.70244
-16.1814 -12.3344 -2.0377
-16.2193 -13.0621 -2.85282
-15.9152 -12.8308 -2.78944
-18.8898 -7.4395 1.69721
-20.2688 -10.3761 0.597809
-18.8613 -9.10781 -0.066752
-18.8482 -11.3245 1.67728
-19.3844 -9.74261 0.670102
-14.5749 -10.0032 1.93019
-15.9901 -10.2331 -0.0913417
-19.0443 -9.88643 -0.00253462
-19.0324 -11.1407 -1.63287
-20.7645 -11.5904 -0.69882
-20.8078 -11.4771 -1.93953
-16.1563 -12.6359 -1.15929
-18.2615 -11.7054 0.0343956
-14.9124 -9.70373 -0.526186
-18.1063 -10.1297 -1.60536
-17.0454 -11.0256 -0.728808
-18.6891 -10.7561 -0.963964
-15.9086 -11.4108 -1.18508
-18.3922 -12.2954 -1.44047
-14.9387 -12.1683 0.150898
-19.4102 -11.9626 -1.52386
-16.6779 -12.1394 -2.60255
-17.8139 -9.98861 -2.30357
-16.4943 -11.425 -1.54378
-18.2834 -10.4319 -2.75759
-16.6757 -11.3965 -2.22731
-14.3987 -10.5252 -2.06493
-13.9212 -11.3495 -2.49099
-17.7801 -11.4869 -1.71347
-17.0288 -11.5367 -3.38143
-13.4756 -10.3586 -1.87622
-16.5375 -10.746 -2.12976
-18.4697 -11.5004 -3.92282
-15.3377 -11.4635 -4.42336
-14.937 -11.9645 -0.40696
-20.5289 -13.3395 2.04482
-16.3899 -10.2261 0.934177
-15.9626 -10.6941 0.806426
-18.7262 -10.3653 -0.95347
-14.5065 -9.87588 -0.924953
-19.6072 -11.5148 -1.24025
-17.8817 -9.04349 -0.814374
-14.9821 -9.48163 -0.988165
-17.2037 -10.6503 -0.770889
-17.6498 -11.7435 -0.606109
-17.8806 -10.2126 -1.78024
-14.9538 -10.8168 -1.60515
-19.2468 -9.85494 -3.45139
-16.9637 -13.1328 -0.551623
-15.7068 -10.5408 -2.13831
-17.8867 -9.88081 -1.9013
-14.5433 -9.53841 -2.87583
-13.8746 -11.1041 -1.25901
-18.6369 -12.233 2.72511
-18.8581 -11.2117 1.24768
-19.4541 -10.5114 -0.494106
-16.467 -10.4771 0.239466
-20.5934 -9.07311 -0.634017
-16.2732 -11.4705 -1.03292
-21.7083 -11.657 0.729377
-15.7642 -11.6918 -0.818093
-16.4919 -12.3345 -0.204637
-18.0233 -10.8752 -2.79286
-15.3846 -12.6035 -1.97461
-17.993 -9.92563 -2.08093
-16.0303 -9.98274 -2.5192
-15.9949 -10.3023 -1.67353
-20.1946 -10.4352 0.648764
-20.0105 -10.6056 -0.899415
-17.4542 -9.30576 -0.782157
-18.5932 -11.3763 -0.0829433
-15.692 -10.7495 -2.13522
-17.86 -9.2704 -1.70396
-15.7898 -12.2617 -3.07648
-14.027 -9.90719 -2.57502
-18.284 -11.1491 -1.24467
-19.1627 -9.12182 -1.85602
-17.5991 -9.32709 0.316362
-17.7769 -11.114 -1.56473
-15.1931 -10.5424 -2.19345
-17.3073 -12.5504 -1.25269
-18.208 -11.1805 -1.24026
-16.7703 -8.96506 2.59291
-17.1089 -11.5888 -1.41027
-14.7403 -10.4362 -0.911824
-17.1752 -10.3555 -0.816118
-16.7646 -11.1078 -1.82371
-15.3813 -11.7658 -1.61126
-16.5586 -11.272 -1.52999
-17.8817 -11.8175 1.66483
-19.4746 -10.7701 -1.07055
-17.0283 -11.8251 -3.6507
-13.3877 -11.9389 -2.47648
-15.5703 -13.0634 -3.4088
-13.41 -12.3335 -0.630975
-16.0418 -11.5864 -3.31296
-18.9257 -10.3435 -3.34724
-18.7976 -9.61924 -4.03646
-15.2399 -9.52499 -1.95124
-20.8128 -10.7089 -4.73843
-15.6284 -11.9474 -2.81603
-20.2803 -11.4813 -3.24716
-18.4201 -11.0906 -2.49397
-18.2808 -11.7669 -0.13813
-20.3597 -10.8662 -1.38914
-18.6542 -11.3389 -3.22768
-16.6781 -9.99057 -2.84624
-18.8938 -11.6013 -2.86897
-14.1338 -10.0858 -2.86637
-18.1952 -10.0761 -4.07776
-17.0922 -12.2018 -1.26492
-19.1166 -10.2906 -2.47901
-17.501 -12.2832 -3.13529
-16.8831 -9.44272 -1.38336
-16.4907 -9.65585 -2.49512
-19.8639 -9.63964 0.668933
-15.8841 -9.60783 -1.89507
-21.1063 -9.06542 -3.51038
-21.939 -11.6932 -1.92363
-19.553 -11.2639 -2.64608
-14.2525 -9.73179 -3.09045
-18.1509 -10.0021 -2.19888
-18.7145 -10.7963 -1.91294
-17.2646 -11.0408 -2.38318
-18.2266 -10.5807 -0.964131
-19.3298 -11.5319 -0.495878
-15.6861 -10.028 -0.726934
-21.6039 -10.8583 -1.90727
-15.3046 -11.6731 -0.747977
-21.4889 -10.1407 -1.12715
-19.7817 -10.9232 -1.1022
-19.9883 -11.2987 -0.246541
-21.577 -11.1019 -0.319792
-20.1177 -9.45518 -0.0857964
-21.3946 -9.50685 0.583003
-17.5592 -11.5305 -2.21186
-20.4935 -10.244 -0.103616
-20.0034 -10.1445 0.723118
-16.379 -12.4604 0.085893
-19.4249 -11.5701 -1.02823
-19.658 -10.457 -0.591785
-21.4976 -9.84291 0.455566
-15.6659 -10.9117 1.01238
-17.1683 -10.2497 2.08338
-16.0748 -9.43312 0.367221
-20.1584 -10.4845 -0.536117
-18.311 -11.4358 0.555889
-17.8855 -9.33568 -0.942261
-17.203 -9.77799 1.40234
-19.647 -10.2153 0.468322
-20.4827 -11.2348 1.67949
-20.3754 -11.2057 2.10537
-20.2063 -10.1317 0.945111
-16.3222 -10.6729 2.40734
-14.0952 -10.2312 -1.69138
-13.8729 -11.7959 -3.37178
-15.1836 -13.1174 -2.36911
-17.3795 -10.268 -3.81031
-15.9353 -10.0896 -2.07364
-19.9271 -9.77044 -2.32976
-19.4489 -9.94766 -2.3328
-17.9414 -12.5161 0.114296
-17.605 -11.3104 -0.38167
-19.0065 -11.6765 -0.539749
-16.7457 -12.7064 1.00206
-16.957 -10.8597 0.498099
-17.4259 -10.8404 -0.351661
-20.4717 -10.1227 -0.858278
-16.653 -8.05532 0.443028
-16.1629 -12.261 -3.96092
-13.2275 -13.4669 -1.7955
-18.2201 -13.2982 -3.74003
-17.6795 -11.4127 -3.32663
-17.1694 -11.5193 -0.754655
-15.4742 -11.5366 -2.63832
-14.2331 -12.7548 -0.26933
-16.4973 -11.3984 -1.71391
-18.1687 -9.38431 -0.760439
-15.726 -12.3389 -0.166405
-17.8653 -9.53347 1.90699
-20.0974 -10.4409 -2.395
-16.1568 -11.098 0.240056
-17.1984 -11.4993 1.46446
-16.8338 -7.59005 2.42615
-15.0504 -9.96781 -2.32009
-16.3655 -10.1771 -4.5245
-18.1344 -10.8134 -0.511679
-17.8224 -10.0065 -3.79656
-17.8363 -8.75487 -0.747314
-13.4622 -11.173 -0.013773
-16.2905 -11.3591 0.729965
-14.9515 -12.6445 0.511648
-19.8496 -10.4477 2.16452
-16.1331 -12.472 -2.2337
-20.4787 -12.1687 1.16877
-15.8585 -8.40157 1.10043
-15.521 -10.4189 -2.17054
-16.7072 -11.1581 -1.94943
-16.8334 -10.2755 -1.3477
-15.779 -10.5419 -2.37074
-17.1361 -11.2037 -3.34331
-19.3791 -12.22 -1.50303
-18.773 -8.7987 -0.0172853
-19.0107 -10.4492 0.0964746
-18.2906 -11.1774 -0.181933
-15.2724 -10.0344 -0.949168
-14.3647 -11.1443 -2.53625
-15.4971 -8.50399 -1.1934
-17.5903 -9.67313 1.56419
-18.555 -11.1072 0.25037
-20.837 -12.4047 -0.0408219
-17.0856 -10.2001 -0.650648
-17.4916 -10.9069 0.359906
-16.3701 -11.2733 -1.54008
-15.9806 -11.7201 -0.220885
-17.8521 -11.7478 -0.782926
-17.2408 -10.2168 0.342333
-16.0863 -12.2096 -2.32167
-16.9384 -11.1413 0.82606
-15.3338 -11.6636 -1.73235
-15.7838 -11.5657 0.602965
-15.1293 -12.1876 -0.113321
-15.2234 -10.8629 0.413623
-20.163 -13.2074 -3.18784
-19.7701 -10.7935 -3.37555
-16.5116 -12.8141 -1.92246
-16.8943 -12.7522 -4.02619
-18.1181 -11.5441 -2.88774
-19.5452 -9.66482 -3.03672
-16.4456 -12.2064 -2.18922
-16.9846 -10.53 -2.36108
-19.3526 -9.80708 -1.65146
-14.6593 -12.7963 -3.87516
-16.9139 -10.9182 -5.35753
-12.828 -13.0084 -2.51276
-15.5441 -10.3629 -4.16364
-16.2404 -11.0489 -3.62493
-16.3167 -11.8523 -1.26037
-18.3638 -10.5459 -1.60946
-15.6656 -12.8195 -2.19048
-16.143 -11.8277 -2.34558
-17.0915 -10.0538 -1.31032
-19.9831 -8.82422 -0.331405
-16.2715 -11.847 -1.41455
-19.7548 -10.5889 0.159199
-18.6891 -11.4072 2.61946
-18.3189 -10.1812 -2.41841
-15.8484 -10.6157 -2.22036
-15.4437 -11.976 -0.535786
-18.1523 -12.0444 1.19745
-19.6711 -10.719 0.812901
-19.5927 -10.1777 1.64993
-19.6787 -11.6496 0.0540443
-20.5618 -10.3561 2.58721
-20.7895 -9.54803 1.10406
-21.3127 -10.4704 0.32232
-15.9454 -10.6083 0.288551
-20.0481 -10.8588 0.0141547
-20.2407 -10.1501 1.03365
-20.4055 -8.96568 1.07135
-17.5342 -10.4572 1.30504
-15.7414 -9.23375 -0.545781
-17.8585 -9.12217 -0.00919862
-16.535 -9.44768 -0.290728
-15.749 -7.57481 -0.286412
-15.598 -9.88606 -0.270003
-17.189 -11.1882 -4.03868
-20.1666 -10.544 -2.33328
-19.1483 -11.2461 -4.09893
-19.1168 -12.9348 -2.79811
-17.9393 -11.1686 -3.66721
-18.5209 -11.8451 -2.71469
-18.198 -10.2578 -3.59521
-15.1687 -13.0234 -2.72906
-15.9295 -13.7358 -4.01803
-16.5238 -10.5987 -1.95131
-19.2183 -11.4861 -1.16725
-14.163 -10.2572 -0.645961
-18.1735 -9.70983 -0.511825
-16.7071 -12.4246 0.695885
-15.0249 -11.7639 -0.879068
-16.2638 -11.7885 2.08244
-18.8503 -10.4146 0.0944606
-18.7267 -10.2415 -0.272123
-18.4297 -10.0232 -0.57159
-18.651 -9.90813 -0.860653
-15.9843 -9.7802 0.586089
-15.6862 -9.75978 2.54576
-17.7419 -12.3786 -4.29679
-16.2231 -10.426 -1.22543
-15.7459 -10.747 -2.02283
-19.5733 -12.01 -1.91841
-14.218 -12.9689 -3.17705
-17.9182 -10.882 -1.20817
-17.1893 -9.7781 -0.42437
-13.781 -9.87937 -1.1419
-19.5762 -11.2054 0.674289
-19.4939 -12.8157 0.944479
-19.0711 -11.3678 -0.440051
-19.3495 -11.6354 -1.56297
-16.046 -9.81526 -0.435249
-17.5055 -10.4036 -0.140691
-19.1194 -10.938 -3.23382
-14.9449 -11.1809 -2.50125
-19.0636 -11.9589 0.459489
-19.6299 -10.3061 0.0144039
-14.5993 -11.057 -1.42761
-17.4812 -9.92947 0.805019
-16.9513 -10.3481 0.427859
-17.2421 -9.96342 -2.83327
-19.1913 -11.3412 -0.229473
-17.7004 -9.75027 0.998746
-17.5907 -11.5891 -3.32883
-17.6353 -11.7108 -0.615812
-18.7889 -10.4823 -1.57324
-16.9696 -8.00008 0.729433
-15.2287 -11.4239 -1.30943
-16.3285 -10.057 -0.851093
-17.8703 -11.6241 -3.2689
-15.389 -10.4022 -1.93419
-16.019 -11.0976 -0.738299
-15.6894 -11.8143 -2.29081
-19.4806 -10.6578 -0.63837
-20.328 -11.7876 -3.56188
-20.3991 -11.3255 -3.31672
-18.1984 -11.7239 -0.889327
-14.4336 -10.7384 -2.19448
-20.5042 -10.3525 -1.78555
-14.0641 -9.9821 -1.77776
-18.6764 -12.8682 0.34984
-18.513 -11.4969 -2.96445
-16.2698 -8.91269 -2.29016
-16.6571 -9.96483 -1.24681
-15.1335 -12.6544 -2.50733
-16.0826 -11.3874 -0.869924
-16.4906 -10.8343 -2.11359
-15.7287 -11.4358 -1.61381
-18.9633 -8.67536 0.352833
-15.1152 -11.0995 -1.75143
-16.5061 -10.0722 -2.45325
-17.5136 -12.7055 -1.21214
-17.573 -9.3873 0.0156855
-14.7461 -12.2852 -2.77716
-18.4626 -12.4769 0.78895
-15.2637 -11.7964 -2.73953
-15.5296 -11.5547 -2.48722
-16.363 -11.2364 0.152452
-14.8044 -12.6933 -2.66099
-17.4346 -11.5707 -1.02546
-16.6724 -11.7385 -0.137893
-19.1461 -12.3919 -0.930121
-16.7845 -10.6761 -1.86309
-17.5866 -8.70029 -0.0408699
-15.6667 -12.3131 -0.318681
-18.0476 -11.1382 -0.129802
-16.6776 -12.2364 0.67094
-15.2738 -10.648 1.21715
-17.8769 -11.59 -0.655255
-14.2925 -13.2347 0.0677584
-13.2007 -11.6285 0.64163
-16.3367 -10.3758 1.06496
-15.1374 -12.8391 -2.15067
-18.5357 -11.1358 -1.57311
-16.7449 -10.1115 -1.52279
-17.1877 -10.2601 -1.36222
-17.1989 -12.1499 -3.31544
-21.0187 -10.4369 0.0879562
-21.1907 -12.4857 -0.00735656
-16.0538 -11.3552 -2.84418
-16.9347 -10.0371 0.0745708
-18.8375 -9.80474 1.8228
-19.3324 -10.0663 0.719874
-15.2809 -11.3749 -3.59928
-14.9416 -12.083 -3.23771
-16.093 -11.55 0.76686
-16.4805 -10.8881 -1.90798
-17.9411 -10.6705 0.947289
-16.9906 -10.569 -1.25509
-15.4612 -11.7098 -1.37902
-15.6981 -11.3061 -2.126
-15.8704 -11.7625 0.459288
-15.0515 -13.3044 -0.434
-15.569 -10.565 -1.96583
-15.6003 -9.27842 -3.35966
-17.9916 -10.9302 -1.25814
-17.9569 -8.97225 -2.76882
-19.6174 -9.99155 -0.153023
-20.5175 -9.60257 -0.639812
-14.2492 -12.0753 -2.85055
-20.4157 -11.5877 -0.410413
-17.354 -11.4832 1.16592
-20.525 -11.4062 -0.411705
-18.8433 -9.75672 0.992983
-17.7615 -10.1402 1.73251
-18.1826 -11.136 -0.464711
-16.6513 -11.0465 0.771607
-17.418 -10.3368 -1.19915
-17.6068 -8.41479 2.17737
-15.0613 -11.834 -4.03197
-16.5067 -13.1665 -1.4742
-18.1959 -9.55281 1.22088
-16.7297 -11.0476 -2.35871
-18.2432 -10.475 -2.34841
-17.0078 -10.3653 -1.66926
-15.8463 -9.91939 0.723304
-17.3683 -13.3572 0.882231
-17.0334 -9.65586 0.406534
-16.6299 -11.0722 -1.57691
-17.2413 -11.4386 -0.0573781
-15.1184 -14.141 0.235989
-16.1249 -12.1869 -3.28917
-17.9766 -9.51115 0.331249
-16.9252 -10.8208 -2.02598
-20.4115 -9.9562 0.567727
-16.5528 -11.4724 -2.97065
-18.712 -11.8094 -2.2861
-15.7899 -11.2063 -0.218594
-15.5725 -10.3099 0.549789
-16.2518 -10.2781 -2.46321
-16.5052 -11.0469 -1.78476
-18.4096 -10.4519 -0.858302
-16.3557 -11.0081 0.17175
-16.5212 -11.6832 -1.08928
-17.2519 -11.9099 0.401731
-21.3656 -10.1221 -0.166669
-19.3102 -10.5306 1.79421
-17.8107 -10.4093 -2.51032
-21.7917 -11.2074 2.07464
-17.3791 -8.99651 0.35539
-16.9705 -13.4204 -2.01529
-18.4849 -10.195 -1.18304
-16.3877 -11.2817 -0.454758
-17.2544 -11.0502 -2.98193
-17.2862 -9.73445 -0.209744
-16.0673 -11.6279 -0.865042
-15.852 -11.2556 0.240755
-18.1711 -13.4634 0.522227
-18.4642 -10.1248 -0.423288
-16.4351 -12.5682 -2.466
-16.1809 -11.0196 -1.7923
-16.3521 -12.6512 -1.88966
-15.1689 -10.9693 2.10393
-20.029 -9.08223 -2.56609
-20.0594 -10.7355 -2.97418
-20.8493 -11.287 0.0771121
-20.9862 -11.3341 0.76041
-17.3565 -10.4846 -2.21044
-15.5919 -11.4014 -1.96309
-20.0008 -9.73533 1.39562
-15.9981 -9.80138 -1.65784
-14.6515 -10.5982 -3.70834
-14.5503 -9.80289 2.98842
-14.6665 -10.9505 -0.975812
-13.0241 -12.0645 -2.60062
-16.4393 -10.7887 1.31213
-14.8529 -12.137 -0.433779
-17.7775 -10.1899 0.667254
-14.5546 -11.1442 -1.27029
-20.8553 -11.1589 -0.940187
-17.9324 -10.1486 -2.14637
-16.6017 -9.54704 -0.124423
-18.0244 -12.2732 1.52403
-16.3962 -12.1477 0.952868
-16.3968 -12.2573 0.715522
-16.7138 -12.6317 -4.07234
-18.1598 -9.59411 -1.93553
-14.9252 -12.2875 -1.56238
-17.317 -10.3379 -1.35428
-16.1844 -10.8226 2.72475
-16.4184 -10.6182 0.473492
-15.8821 -11.3978 -1.33646
-19.958 -10.0628 -2.26953
-20.021 -10.2579 0.184177
-17.4433 -11.7724 -1.18256
-16.7134 -11.453 -1.0362
-15.7038 -11.411 -0.17458
-14.5881 -12.5534 -1.61959
-17.021 -10.6602 -3.80341
-14.3753 -13.5799 -1.88022
-15.9871 -10.3585 0.878586
-16.8323 -9.35381 -1.89662
-19.9944 -10.0293 -2.86685
-19.4601 -9.97608 -1.38897
-20.3907 -10.9965 -0.503346
-19.6269 -9.99722 0.812158
-19.7981 -10.609 -3.41692
-18.1567 -12.114 -2.28192
-17.6138 -10.6605 -4.41099
-17.0182 -11.8977 -0.161543
-15.686 -10.0341 -2.67288
-18.0338 -11.4637 -1.09311
-16.612 -9.65792 0.782289
-14.2417 -11.9306 -2.00774
-16.7557 -10.9717 -3.0769
-13.907 -9.51796 -1.60084
-15.3532 -11.984 -0.562999
-14.6226 -12.4861 -2.38638
-14.9413 -10.2373 -4.26728
-19.7087 -10.9192 -0.337887
-18.6 -11.022 -0.618874
-18.4437 -13.5862 0.00952085
-18.6246 -13.075 -0.79741
-18.3868 -11.5755 -0.605638
-16.7208 -11.9024 -1.18245
-14.9882 -11.2981 -0.0571584
-20.9474 -11.9148 -1.04234
-19.8726 -12.0969 -0.259027
-17.1664 -11.7749 -1.11373
-17.2282 -12.4595 -2.71359
-18.3385 -12.0483 -1.41675
-16.8208 -11.2168 -0.174524
-16.3714 -10.9807 -1.03142
-16.4576 -10.0936 -2.18959
-17.0666 -10.464 -1.85677
-16.3203 -10.775 -0.216107
-17.2764 -10.6647 1.02833
-16.8122 -11.4889 -1.2541
-20.7666 -11.3191 0.309682
-18.5577 -8.9977 2.50498
-18.3865 -10.7052 -2.0723
-16.782 -11.0608 0.661137
-19.1231 -12.9536 -1.6138
-19.2902 -11.0134 -3.27787
-16.261 -10.0261 -0.544668
-16.4017 -12.0481 -0.817015
-15.6908 -10.3511 0.392454
-20.4104 -11.559 -2.75955
-20.018 -10.4491 1.14931
-20.2777 -10.3282 -4.18086
-20.4231 -10.4203 -0.986976
-17.9902 -8.99125 -1.12687
-19.1749 -11.0144 -1.82985
-15.5364 -11.8041 -2.13976
-18.7456 -11.7871 0.186113
-18.5093 -10.7896 -0.00952006
-16.4875 -11.6365 -0.0507569
-16.7742 -13.2553 0.289019
-17.3542 -12.2923 -2.53223
-16.0268 -9.90454 -0.0571138
-15.6312 -12.734 -2.63266
-16.9368 -11.4471 -2.47384
-16.4823 -11.768 -1.59035
-20.7942 -9.41022 0.0973655
-19.3537 -9.84132 -3.9743
-21.0773 -12.0422 0.778448
-16.6556 -9.32815 -1.8403
-15.2643 -11.2128 0.415224
-14.7233 -12.7994 -1.27673
-20.2459 -11.4649 0.513342
-18.0532 -11.7012 -0.158322
-17.7797 -10.9657 -4.84445
-17.7851 -9.81258 -0.994532
-20.6887 -10.7673 -0.843905
-19.4566 -10.7433 1.90334
-18.2906 -12.1601 -1.24869
-18.6685 -10.2509 -1.34002
-19.1839 -9.66208 -1.30301
-17.22 -11.6386 0.431593
-15.7854 -11.2876 -0.54559
-16.307 -10.9436 -4.27631
-17.8518 -9.69944 -2.12067
-21.2073 -9.46354 0.0800148
-19.9741 -11.2956 -3.03657
-17.3561 -11.3464 -1.39316
-16.4554 -12.656 -1.32928
-17.2014 -11.5848 -1.62798
-18.8337 -9.581 -3.19132
-15.2194 -10.2812 0.250549
-17.7503 -12.8568 -0.0146431
-17.1092 -10.5554 -0.261796
-17.751 -11.4944 0.168081
-19.9136 -11.5931 -3.88541
-17.1113 -12.0219 -1.36385
-15.3338 -10.9655 -0.143269
-17.6147 -10.549 -1.82745
-15.6669 -10.2095 -0.00844619
-17.0312 -10.2529 -1.59528
-15.6601 -11.6388 -0.340662
-14.3143 -11.6708 -1.10835
-18.1464 -10.0618 0.712047
-17.6591 -11.1819 -1.67232
-18.5556 -11.1142 -0.0543735
-15.4954 -11.4115 -2.40722
-17.4938 -9.66222 -2.41947
-16.2852 -10.7901 -0.35749
-16.005 -11.8746 -1.04493
-15.7654 -11.4838 0.780273
-16.5768 -10.3389 1.42595
-16.5864 -11.2092 -1.13823
-16.3533 -11.0827 0.681699
-15.6938 -10.7093 1.04738
-17.5846 -10.1622 -3.83457
-16.7823 -10.8045 -3.18589
-18.7022 -12.5361 1.87557
-17.1129 -11.687 -1.48679
-17.1016 -10.373 -0.417728
-15.9981 -10.2165 -0.967045
-16.7228 -11.4731 -1.23701
-16.3821 -11.7278 -0.81903
-14.1309 -12.4117 -0.918257
-16.6808 -11.2806 -0.417657
-18.5992 -11.6057 -1.09885
-15.4593 -11.2236 -0.77657
-16.997 -11.4345 -1.26432
-15.4302 -11.1729 -2.11004
-16.3779 -10.7928 1.14323
-13.8425 -10.2688 -1.41301
-15.002 -12.0498 -0.891216
-16.7269 -10.777 -1.3467
-16.3964 -8.02591 1.15018
-19.8373 -9.58373 -2.0931
-21.2651 -10.9623 -4.2256
-17.994 -10.5337 -0.403083
-16.0692 -12.1728 -0.591091
-14.4842 -10.7159 -1.4828
-15.6295 -12.776 -3.69517
-19.8653 -9.96248 -0.768167
-18.077 -11.4001 -2.4884
-17.2135 -11.0333 -0.561705
-16.3904 -14.631 -0.714729
-17.8103 -10.6851 -0.654201
-17.8298 -9.59897 -1.43239
-14.2256 -12.4377 -0.103504
-19.4379 -10.8294 -2.38097
-17.133 -11.2828 0.499483
-15.6576 -10.3416 -2.03746
-17.3354 -12.3772 0.153988
-15.3661 -11.9243 -0.685904
-18.698 -11.7881 -2.12699
-15.5624 -11.326 -0.870273
-15.9975 -11.9535 -1.2138
-14.9442 -9.78615 0.66878
-14.2234 -9.22095 1.5281
-16.0819 -10.7151 -2.80679
-15.2704 -11.8391 -2.63794
-14.4967 -10.9475 -2.79864
-20.8907 -8.8792 0.784569
-20.7815 -9.65376 -0.833498
-17.3084 -8.50384 0.158416
-18.6107 -10.6942 -0.00094541
-17.9142 -11.0656 0.24942
-17.283 -10.0433 0.903342
-19.1182 -11.4578 0.0674947
-18.7861 -10.9229 -1.16307
-17.0313 -11.2507 0.315088
-16.2905 -9.14749 -1.25476
-15.5586 -11.1381 -0.116464
-18.8816 -11.947 -3.29615
-16.2655 -12.717 -1.86751
-16.3325 -10.8928 -2.52982
-18.2281 -10.151 -1.43933
-19.168 -12.2414 -1.1485
-18.4312 -11.0843 -0.25559
-16.9071 -12.2587 0.146606
-16.7725 -12.4936 -2.01512
-17.9576 -10.6125 1.71677
-17.9895 -11.2148 1.79293
-15.273 -11.1088 -1.20519
-17.9516 -11.883 -1.56091
-17.3052 -12.0371 -1.82795
-15.0911 -11.0709 -0.430802
-15.6758 -11.3948 -3.91114
-15.9513 -12.0651 -1.94702
-20.9278 -10.4914 1.77149
-15.7279 -8.135 1.5849
-16.9716 -9.32453 2.65068
-18.1374 -10.7305 0.58006
-19.7298 -11.6141 -2.39
-20.3978 -11.2015 -1.4169
-20.6684 -11.3503 -2.13476
-20.5697 -12.2095 -1.34622
-19.5648 -10.1859 -1.63362
-17.9665 -11.8786 -0.8999
-17.6917 -11.489 0.272176
-16.2323 -10.3679 -1.71733
-18.6048 -9.35237 0.926622
-16.3735 -10.5302 0.680537
-16.2808 -12.2442 0.435427
-18.2677 -12.4803 0.538184
-17.6989 -11.7696 0.270903
-15.7834 -10.418 0.0360478
-18.8942 -10.3523 -2.00175
-17.1893 -10.9025 -1.68411
-16.6047 -11.4496 -0.731177
-17.7097 -11.9152 -3.88409
-20.2098 -12.3484 -3.67543
-16.3393 -11.4544 -0.569874
-16.4729 -11.5895 -0.863166
-15.7581 -12.131 0.815448
-19.6391 -10.9362 -5.10268
-17.1328 -11.7176 -1.9864
-18.9698 -10.8953 -3.70095
-16.3694 -10.7787 -2.67105
-18.8751 -11.1279 -1.60964
-15.7699 -10.6857 0.278205
-16.6685 -10.0339 -1.95307
-16.7946 -11.8061 -1.2311
-17.5466 -9.96098 -3.12576
-17.8841 -10.6553 -3.82295
-16.7306 -11.9702 -1.8095
-15.4603 -12.3099 -1.75342
-18.8235 -10.7128 1.43167
-15.9364 -11.2158 -0.0810625
-16.5257 -10.7854 -0.823384
-18.141 -10.5379 2.16799
-16.8761 -11.6662 -0.858649
-15.2061 -11.0624 0.690209
-19.4859 -11.4227 -2.05128
-16.5078 -8.2816 -0.946274
-15.4407 -12.0417 -1.17742
-18.7012 -10.7216 -2.99621
-17.0698 -12.2863 -1.41291
-16.8656 -11.5604 -1.6758
-17.4114 -12.295 -2.40421
-14.5157 -12.0089 -2.63347
-15.6406 -13.0487 -3.97913
-18.9034 -10.0565 0.809031
-20.1831 -11.0543 -0.742184
-19.4332 -10.3554 1.7431
-19.21 -8.90909 0.231687
-21.3315 -11.2927 -1.54765
-17.0126 -11.7744 1.79977
-15.7251 -12.4113 -0.595637
-14.4347 -11.8506 -0.883068
-17.596 -11.8485 1.63401
-15.9241 -12.8041 -1.23561
-16.3626 -10.4904 -0.686047
-18.2611 -12.4713 -0.543368
-15.5917 -13.1688 -1.54324
-17.3359 -10.2826 -4.80151
-18.2463 -12.3468 -1.8905
-18.6759 -10.02 -3.6231
-15.1911 -11.8038 -3.75029
-19.1446 -10.9405 -0.18033
-15.0093 -10.7792 0.186269
-16.0813 -11.7564 -0.639071
-13.8072 -13.3946 0.405534
-16.9434 -12.7951 -3.08786
-18.0808 -9.66834 -0.851774
-18.1251 -10.694 0.519412
-17.7153 -12.1222 0.743344
-17.1453 -11.129 -0.993146
-15.93 -10.0169 1.02559
-19.0126 -10.035 -1.10159
-17.2704 -12.8652 1.30925
-15.597 -12.0417 -1.57229
-17.0266 -11.7693 -0.295963
-13.7006 -12.593 -0.173595
-16.6698 -12.9082 -1.47096
-14.8428 -12.3073 -1.56861
-16.1983 -9.45447 1.12075
-13.187 -10.6822 0.704484
-15.932 -12.7463 -2.29397
-15.8506 -12.5575 -0.864492
-17.5634 -10.5051 0.23378
-15.5541 -9.44949 0.613012
-20.4222 -10.2017 0.911394
-18.8042 -10.0377 0.371155
-17.3981 -10.4297 2.23284
-20.8836 -12.2056 -0.124875
-16.3967 -10.9882 1.00388
-15.09 -9.51362 0.362178
-19.24 -9.57549 -0.796307
-21.2089 -10.5496 -3.83416
-19.0152 -9.37876 -0.57524
-19.4077 -10.1619 -1.58933
-15.6069 -11.7656 -1.45093
-15.704 -9.09811 -1.7927
-17.3309 -10.0961 1.65481
-19.9468 -11.452 -2.65832
-17.2478 -12.1863 -0.0301495
-19.2116 -10.7861 -2.63373
-17.1769 -9.13898 -0.737605
-20.2272 -9.47463 -0.770392
-18.2989 -12.6888 -1.37763
-19.0571 -11.1597 -2.61493
-17.0037 -9.86146 0.150728
-18.5725 -12.9557 -0.694363
-17.118 -13.6231 -2.21488
-18.3001 -12.2764 -0.767709
-17.4767 -10.7857 -2.8515
-18.5386 -11.3142 -4.04623
-17.0965 -10.1308 -2.55002
-19.3752 -10.7432 -3.48527
-17.9839 -9.76246 -2.04421
-13.8616 -13.0067 0.894087
-18.4598 -10.2441 -3.32398
-17.8577 -12.4616 -1.82327
-16.4491 -11.3257 -2.02101
-18.9374 -12.6747 -3.80158
-16.189 -11.5838 -0.283048
-19.8399 -12.3072 -3.60721
-18.8262 -9.18605 -3.40306
-18.1037 -9.4425 -3.24279
-17.6469 -9.2177 -3.42767
-19.6154 -11.3895 -3.18384
-19.4034 -12.2841 -2.07675
-16.1753 -10.5986 -1.92663
-16.731 -11.7163 -1.70014
-15.9642 -9.95719 -2.52619
-18.1245 -9.31543 -1.47296
-16.4651 -11.8778 -0.695144
-16.46 -10.6785 -3.59769
-14.2027 -10.146 -2.08466
-16.7976 -11.5298 -2.04519
-19.9421 -11.9504 1.84356
-20.4497 -9.31787 0.594045
-21.4824 -9.80765 1.62044
-17.973 -11.1564 -0.734507
-18.2252 -10.8338 -0.682683
-20.4006 -12.2839 -2.2262
-16.6207 -11.9021 2.74319
-17.2004 -10.8592 -0.563346
-17.4506 -10.6784 -1.83797
-17.4037 -10.1362 -0.0947325
-16.0091 -10.3679 0.441725
-20.9641 -12.1085 -1.95442
-19.6092 -9.90167 -2.61615
-21.007 -10.7022 -2.98657
-17.7269 -10.9515 -0.834607
-19.4428 -13.1447 -3.67741
-17.8045 -11.4732 -2.79573
-16.878 -11.6871 -1.08569
-14.5997 -11.6329 -1.98606
-14.7131 -12.1071 -1.96678
-15.3948 -11.7141 -4.88741
-14.3545 -13.4209 -4.15873
-18.3732 -8.55128 0.221294
-18.8944 -10.6125 1.41094
-15.8814 -11.53 0.587919
-19.3395 -10.7163 -1.54449
-13.8166 -11.2081 -0.117906
-16.5893 -12.1392 -0.583263
-16.5967 -12.1776 0.350375
-14.2817 -11.1287 -1.11125
-16.9783 -11.4406 -3.24211
-14.5563 -10.8166 -2.68988
-17.5616 -11.6493 -2.90082
-17.0215 -10.3562 -1.99062
-16.6845 -9.94239 -2.97453
-16.6608 -10.4831 -4.0648
-15.5918 -8.0195 3.70692
-16.688 -11.7689 -1.9449
-16.824 -11.7736 -1.86062
-13.5601 -11.3206 -0.447379
-17.03 -11.9752 -5.17286
-16.2881 -11.2244 -2.51184
-17.3005 -13.1735 -0.867194
-16.4007 -11.7128 -2.87146
-19.1454 -11.3082 -2.16314
-15.5198 -11.2314 -1.19535
-17.5706 -10.0049 -3.7957
-18.8062 -12.45 1.0194
-16.3966 -11.0039 -1.37032
-17.4782 -11.2449 -3.35826
-15.9641 -10.5276 -2.13662
-17.2522 -12.1454 -0.749284
-15.3687 -11.8841 -2.56311
-14.0149 -12.4136 -2.73137
-20.1195 -11.2124 0.526991
-17.1809 -10.7462 -1.20019
-17.6009 -11.2834 -1.59847
-16.4685 -10.4014 1.65243
-16.6023 -11.9177 -1.39413
-16.2802 -11.043 -3.56885
-16.1767 -10.8241 -0.761522
-15.0537 -9.92413 -0.733458
-16.6475 -12.0344 -2.14452
-17.3892 -12.8012 -2.43635
-17.7002 -9.52259 -1.63804
-12.7231 -12.154 -3.62816
-20.7852 -12.3658 -2.97138
-20.5141 -8.56576 -2.98328
-13.3243 -12.2114 -3.16473
-19.0595 -11.8168 -3.62145
-18.9541 -12.0815 -1.13964
-15.0879 -10.3205 -3.02765
-19.6811 -11.626 -1.27225
-15.9645 -10.9466 -1.40061
-21.2048 -10.4635 -2.29663
-20.029 -9.69677 -3.11377
-16.4246 -12.2341 -4.18653
-16.2368 -11.5498 -3.70949
-16.3665 -10.9333 -1.25993
-18.4027 -9.73831 -0.856756
-16.3743 -10.7179 -1.63675
-18.3479 -12.4936 -1.57087
-17.9827 -11.5662 -1.67683
-17.0216 -10.8012 -0.805266
-20.1827 -10.3422 -0.941054
-17.9613 -10.5803 -1.91287
-19.0584 -12.501 -2.3317
-18.403 -10.9423 -1.51688
-15.5506 -12.0586 0.853921
-14.9082 -11.2501 -0.513385
-16.645 -10.3732 -1.55912
-16.7921 -9.30413 -2.88781
-16.839 -11.2627 0.870788
-16.6267 -11.9088 -0.648847
-19.8349 -12.052 -0.379213
-18.2237 -9.74519 0.0533084
-20.3297 -9.48524 0.231285
-20.2992 -11.4393 -0.94648
-20.5051 -11.5304 -0.201585
-18.9709 -12.5122 -1.79678
-21.803 -9.26725 0.54953
-19.6326 -11.0604 0.489939
-20.5436 -11.5338 -0.141357
-16.9903 -10.2323 -1.22465
-18.0589 -10.7912 -0.364532
-19.9611 -13.6877 -0.0160946
-21.2047 -9.21255 1.47458
-18.2165 -10.5343 0.450528
-17.0936 -12.3499 1.40167
-15.1541 -10.9634 1.80713
-18.4006 -11.7297 1.66888
-17.3363 -10.5639 -2.87488
-18.6992 -12.6485 -2.88957
-16.8127 -12.1041 -2.57422
-16.834 -10.855 -2.26016
-18.7737 -10.801 -2.91502
-17.8288 -10.8841 -1.20681
-19.7729 -10.7625 -2.7236
-17.5413 -9.72891 -2.67077
-20.4166 -11.9872 -2.48211
-15.9927 -10.1292 -1.1059
-13.1679 -11.9104 -1.88469
-16.1291 -10.8853 -1.21653
-20.8733 -11.2785 -0.22574
-19.8765 -9.7074 -2.1906
-16.8426 -12.9609 0.675322
-16.4105 -9.92617 -0.286422
-16.161 -11.6417 0.246178
-19.1452 -12.0799 0.79204
-18.5521 -12.5259 0.491523
-19.3355 -10.0645 0.876097
-18.0442 -10.9766 0.825338
-20.7101 -10.6663 0.760079
-15.5286 -10.2352 -2.5905
-18.2031 -9.97791 -0.273632
-13.8579 -10.4554 -0.778543
-16.225 -10.2035 0.620661
-18.5016 -8.9775 -0.846081
-15.3422 -11.1683 -0.564274
-13.8405 -11.7307 -2.3566
-18.696 -10.2487 -0.425156
-16.9457 -9.51434 -3.32529
-16.2497 -11.1718 -0.570974
-19.5447 -10.7593 -0.841765
-17.5481 -10.8036 1.54699
-18.5964 -10.7812 2.06296
-16.7864 -9.35528 1.55396
-19.7962 -10.9028 2.20239
-16.0898 -8.96149 -0.457659
-15.4249 -11.2103 -0.508786
-17.3761 -11.4507 -2.15121
-17.4664 -12.1626 -3.48237
-18.371 -10.0377 -2.70077
-18.7341 -10.0862 -1.91871
-19.7766 -10.7238 0.775448
-16.0025 -11.8776 -0.114513
-20.9569 -9.69908 0.149333
-17.161 -8.222 1.39336
-16.6317 -9.33671 -0.216935
-19.6694 -9.56647 0.713552
-16.3856 -7.62398 2.58833
-15.7186 -10.9464 -1.46315
-18.3311 -10.1436 -1.51162
-16.3612 -10.411 -0.0123126
-16.54 -11.2757 0.244373
-15.9963 -9.62838 0.017745
-15.2932 -10.7402 0.166108
-15.0129 -11.7291 -1.09207
-16.432 -7.63703 1.07442
-16.5972 -12.6394 -1.38409
-15.8743 -11.293 -3.72194
-19.312 -9.34603 -2.41769
-15.7913 -11.6115 -3.72516
-14.9049 -11.2099 -2.11437
-15.8404 -12.231 -3.83007
-14.8244 -13.1281 -1.70912
-16.2064 -9.76778 -0.60975
-17.6527 -12.14 0.474702
-17.746 -12.5288 -0.111228
-19.1781 -10.9708 -0.373453
-17.2671 -11.3689 -0.766657
-15.7756 -12.2247 -1.2485
-19.7266 -10.8174 -2.32279
-18.9957 -10.7623 -0.33001
-16.0077 -11.0514 -0.42599
-18.4737 -9.95951 0.381885
-19.9702 -9.39277 0.957604
-20.0468 -9.80316 0.338194
-17.2126 -11.296 0.612425
-19.5458 -12.4655 0.381463
-15.2866 -8.5411 1.0527
-16.9028 -9.37378 3.4541
-14.6757 -12.1013 -3.23589
-14.6434 -11.1534 -0.252387
-16.542 -10.7626 -1.40084
-16.8463 -12.7365 -0.15053
-21.5491 -9.49076 -1.18015
-18.2417 -9.11698 -1.01367
-14.7886 -14.0812 -0.974792
-17.3772 -9.54251 0.609439
-17.2484 -11.8522 -2.17539
-22.1257 -9.79196 0.367235
-20.0635 -12.6257 -2.68058
-18.395 -11.6112 -1.20288
-20.3046 -10.2684 -1.94329
-20.462 -8.91242 -1.42679
-21.0925 -10.1774 1.04823
-15.6319 -11.349 1.8497
-13.1774 -11.3933 -2.78229
-17.2372 -10.9723 -2.96895
-16.9204 -12.1057 -2.04071
-17.4644 -11.0354 -0.989195
-18.1404 -11.2337 -1.197
-19.158 -9.96885 -1.95732
-18.59 -9.79354 0.203976
-17.4102 -10.2815 -1.03693
-16.9413 -11.7725 1.29681
-15.9571 -10.2962 -0.356862
-17.3107 -12.3531 0.492789
-14.2023 -11.5199 -1.36609
-18.5792 -9.49269 -1.55032
-20.1508 -10.9666 -0.658562
-16.3703 -10.0361 -1.13485
-17.6232 -9.59934 -2.85349
-15.2715 -10.9847 0.569866
-19.8961 -9.45559 -1.6096
-14.7583 -12.1109 -3.32055
-15.8099 -12.3525 -1.98836
-19.9454 -10.6517 -1.26362
-14.6281 -12.0609 -3.2688
-18.5804 -10.6101 0.6031
-16.9595 -9.94984 -2.44819
-16.9146 -9.44084 0.435497
-18.0419 -11.9488 0.436549
-15.9948 -11.4679 1.02812
-17.0113 -12.725 -2.81542
-16.0292 -10.6604 -3.09375
-14.5551 -11.7868 -1.21929
-15.4743 -11.9323 -2.30064
-17.2771 -9.74927 -2.58435
-16.6808 -11.8592 -0.771136
-14.9709 -12.0787 -1.79851
-18.3183 -10.2644 -1.5838
-16.2852 -10.9437 -0.632451
-17.5064 -9.43233 -0.466909
-15.362 -12.6485 -1.88145
-15.8797 -10.2987 -2.15892
-18.4889 -11.2707 0.354954
-16.1928 -12.5875 -0.37151
-15.6895 -13.082 -0.0605132
-16.0466 -10.7268 0.269963
-18.079 -10.0598 2.15514
-18.9868 -9.92415 -1.40309
-17.5722 -11.0635 0.699768
-14.1643 -10.3546 -3.54848
-16.5549 -11.1943 1.51486
-17.5291 -11.0412 -1.15044
-14.2202 -11.7602 -0.633501
-16.9427 -9.47049 -0.303489
-18.4027 -11.9039 0.373473
-17.0331 -9.76577 0.242596
-17.7916 -13.8801 -2.51554
-19.9588 -9.60966 -1.4028
-19.2195 -12.6806 -0.375068
-17.2275 -8.3427 -2.40725
-17.1374 -10.2062 -3.54308
-16.0895 -9.08611 -1.17716
-18.3676 -10.0116 1.29504
-18.0997 -10.8003 -2.77841
-19.1715 -10.7085 2.48453
-21.4272 -12.0211 1.41467
-18.2696 -8.9973 -0.533808
-18.5293 -10.1606 1.27606
-16.1953 -11.1811 -1.10041
-16.7118 -8.80359 -1.22955
-16.3719 -11.5244 0.688499
-14.8028 -10.6244 -0.842194
-17.22 -12.0334 0.475606
-14.5543 -8.50288 0.0944822
-16.516 -12.478 -3.72025
-17.1508 -11.0949 -2.01741
-16.2865 -13.1499 -2.91842
-16.3852 -10.3705 -0.299981
-14.2233 -10.5221 -2.86971
-18.4633 -10.7999 -1.4448
-16.4332 -10.7869 -1.15722
-15.4979 -9.75768 0.449225
-13.5521 -11.5748 -1.83008
-14.9937 -11.7726 0.0626083
-17.747 -11.508 -1.69485
-16.1413 -9.24454 -1.5177
-16.7654 -10.149 -1.23962
-18.6469 -13.283 0.508755
-15.3935 -12.248 0.400731
-16.9248 -9.53624 0.807923
-15.3042 -11.3349 -0.806238
-16.8979 -10.6832 -1.44926
-14.5866 -11.0515 1.76574
-16.5886 -10.8832 -0.487163
-16.4884 -10.1393 1.37138
-16.551 -11.902 1.11369
-20.5447 -9.16156 -0.66649
-15.9534 -9.85924 1.75927
-16.6562 -9.68684 -2.17056
-18.3045 -10.2391 -0.743616
-14.5464 -9.57599 -1.55973
-18.742 -9.26147 1.74669
-18.4716 -9.45777 -0.551721
-17.1393 -11.0657 0.0280588
-16.9124 -11.9287 -0.711388
-19.2814 -9.94004 -0.545561
-21.6509 -11.1917 -0.12607
-17.7042 -9.86311 -2.49982
-19.3235 -9.84106 0.181559
-16.7696 -9.65265 -1.01958
-16.8782 -8.53566 1.83938
-17.3371 -10.1701 0.636062
-17.212 -10.2407 -1.93024
-16.6016 -9.93826 1.01816
-19.9379 -9.75681 -0.0522533
-14.7972 -12.2666 -1.37031
-18.824 -10.4623 0.1992
-15.7742 -11.3306 0.207117
-17.5478 -9.10132 -0.798863
-18.401 -9.97539 -3.22948
-15.9531 -10.4872 -3.24388
-19.5204 -11.0634 2.03347
-15.3849 -11.3252 -0.237186
-17.1987 -12.014 -2.5107
-17.0592 -11.9446 -1.45134
-15.5159 -12.7469 -0.982335
-14.7593 -12.1821 -1.34202
-17.8125 -11.427 -4.94811
-21.023 -10.9566 -1.41803
-18.6252 -10.7605 -1.3417
-17.4191 -11.7012 -1.6846
-15.7851 -14.2287 -1.13014
-16.2814 -11.3116 -0.108958
-18.6324 -11.341 -1.8457
-18.9735 -9.25042 -0.184394
-21.1676 -10.1996 1.19048
-17.1254 -10.8317 -0.578435
-15.0202 -11.5367 -0.759721
-18.9445 -11.3255 -3.60169
-17.5229 -11.8978 -0.680148
-19.1413 -11.2789 -1.90941
-15.7054 -11.0614 -0.5884
-16.4558 -7.4365 -2.96195
-15.8093 -9.62499 -0.585485
-15.8837 -12.1082 -2.12473
-19.47 -9.64261 0.599469
-20.1357 -10.0642 0.392703
-19.3728 -10.6314 1.49574
-18.2354 -12.9701 0.325321
-15.5854 -12.2911 -0.448194
-19.6579 -10.4589 -0.144259
-20.3877 -10.7233 -0.610166
-15.5193 -9.4417 -0.578713
-21.5121 -11.4714 1.02781
-18.9096 -11.0454 -1.85496
-18.1037 -10.4331 1.6713
-18.8417 -10.2615 -1.03252
-16.4974 -11.8354 -1.98937
-16.1432 -12.1517 -0.0669839
-16.6644 -10.55 0.749669
-16.1717 -12.4345 -0.160417
-15.8734 -10.67 -2.1427
-15.9403 -12.6546 -1.8179
-16.6803 -10.9844 -1.04217
-18.8368 -10.2964 -1.18162
-17.3454 -10.3247 -1.37229
-20.3806 -9.8442 1.9828
-16.5178 -11.8576 -0.742927
-21.1682 -9.55942 1.57525
-17.3131 -11.8257 -1.81231
-14.8255 -11.4888 -1.30858
-17.2465 -8.75912 0.498009
-19.2858 -10.9244 1.80274
-16.7439 -11.0999 1.05128
-13.8279 -11.9444 -3.56922
-19.4171 -11.331 -1.91846
-16.7869 -10.3531 -0.0486048
-18.4499 -12.5595 0.564442
-17.8299 -12.0073 -1.09648
-15.7305 -10.757 -3.13409
-16.2108 -10.9337 -0.195272
-14.1794 -11.5193 -1.99149
-20.1513 -10.2304 1.56543
-20.1317 -11.4122 -2.25099
-16.629 -10.6162 1.41584
-17.304 -12.8743 -3.95349
-15.5432 -11.6372 -3.2959
-14.8796 -11.5314 0.0209307
-15.8985 -11.3221 -0.186617
-15.8293 -11.652 -1.3007
-18.6442 -11.1875 -2.73411
-15.9776 -9.97992 -1.50497
-14.8391 -10.3275 -2.30531
-19.6182 -11.4782 -1.91778
-15.047 -12.8144 -2.75833
-14.3771 -12.8896 -3.58361
-16.2531 -11.7505 -1.06504
-18.2172 -12.1797 -2.27275
-15.49 -12.0286 0.600623
-15.6431 -11.0238 -2.1239
-18.1347 -10.6992 -1.15121
-17.7363 -9.95841 -2.24393
-14.6483 -8.15461 0.579447
-15.5703 -10.7673 -0.35882
-17.3519 -9.38157 -1.43019
-18.3774 -10.7571 -2.11814
-14.6734 -12.2198 -0.578832
-16.7609 -10.8166 0.699535
-15.0334 -12.1647 -1.22852
-17.8146 -10.5951 -2.48232
-15.1642 -13.8596 -3.47842
-16.2331 -10.2636 1.21636
-18.0312 -11.6195 -1.33015
-17.3405 -10.6412 0.160233
-14.6268 -13.3196 -1.54761
-19.3684 -12.1251 -0.427723
-16.8828 -10.2031 -2.74168
-14.4179 -11.6116 -0.832548
-15.7659 -10.8458 -2.16266
-15.9757 -9.49549 1.02214
-18.3205 -8.17645 -0.406392
-16.318 -10.7735 -0.15502
-16.0977 -10.3458 -1.08884
-20.8216 -10.1919 -0.712736
-19.7135 -10.1703 1.64357
-19.8242 -10.0904 -1.43554
-17.3778 -10.4717 -0.987256
-18.5508 -10.0458 -2.30831
-20.1732 -11.4675 -3.47277
-16.2783 -10.3713 0.590834
-18.4936 -11.4652 1.67821
-17.4724 -11.4422 -1.99965
-15.0997 -10.2242 -2.06894
-15.1822 -11.8502 -0.821541
-21.5199 -11.6226 1.52597
-22.0829 -10.2854 0.705137
-18.0973 -9.54769 1.93417
-15.3192 -9.98734 -0.75611
-18.0153 -10.6848 -4.232
-16.5968 -10.6615 -0.757907
-15.2716 -12.0134 -1.95931
-21.729 -10.8671 -2.00319
-16.2387 -11.1039 -0.93663
-16.0898 -11.8122 0.00238325
-16.9687 -11.5442 1.38573
-15.8244 -12.3738 -1.1491
-16.2556 -9.79111 -1.04555
-18.5865 -9.59506 -0.743396
-15.5641 -12.2909 -1.90409
-15.3542 -10.9473 -0.967101
-19.3318 -11.0079 0.621736
-17.8594 -11.1261 -1.54395
-19.9081 -11.0507 -3.29836
-17.3207 -11.326 -0.513177
-18.6707 -12.3643 -2.68109
-18.9872 -12.4981 -2.10241
-18.4936 -10.8123 -1.71769
-16.5345 -11.3017 -0.311205
-17.1978 -11.6122 -0.261592
-15.9842 -11.5623 -0.46483
-19.4323 -10.7412 -2.81771
-16.7173 -10.7532 -2.17883
-16.6263 -12.0656 0.0440381
-14.9996 -11.2131 0.953387
-22.022 -11.3642 -2.58366
-16.867 -9.49399 -0.552898
-16.4901 -12.4024 2.22912
-20.2377 -9.76629 -1.78868
-16.6259 -10.1484 -1.15934
-16.97 -10.8266 -1.2536
-14.0714 -12.0744 -0.297235
-16.8178 -11.0538 0.161061
-15.4207 -11.5386 0.0272464
-16.72 -12.1502 -3.03793
-13.5751 -12.413 -2.8193
-22.2249 -8.39339 -1.1693
-19.5934 -10.7528 -0.496579
-15.0813 -10.6956 -0.225495
-16.0011 -14.2445 0.91022
-15.0407 -10.8063 -1.52252
-16.6174 -10.5013 0.405236
-15.734 -9.76586 0.134825
-14.9603 -9.10222 -2.46256
-16.631 -11.1537 -0.595962
-18.7178 -8.35548 -2.84275
-16.1679 -12.5337 -1.28204
-16.7321 -11.5802 -1.87518
-16.7844 -9.83606 -1.93691
-16.0537 -11.3203 -0.616495
-16.4093 -12.8298 1.20782
-15.3625 -11.9886 -1.96532
-17.5273 -10.1091 0.483535
-17.7425 -9.9834 0.175239
-19.2701 -10.8582 -1.66924
-15.8365 -10.0599 -0.915528
-19.5886 -10.8249 -1.30711
-18.6709 -10.1156 -3.1811
-14.5266 -13.7794 -2.23007
-15.2085 -11.8638 -3.02414
-16.6482 -10.2121 -3.35949
-17.1555 -10.7758 -2.80934
-15.977 -10.9479 -2.51161
-15.924 -12.1921 0.866149
-15.8739 -10.371 2.1292
-16.7398 -9.1943 -1.47259
-15.9069 -11.9917 -0.537834
-17.5879 -9.54834 -0.211414
-16.5037 -13.4415 -1.5499
-17.5494 -12.4722 -0.524612
-15.595 -11.4161 1.25595
-17.5961 -11.109 -2.70223
-17.4293 -11.1458 1.20793
-16.6714 -10.4077 -1.50819
-16.076 -7.85551 -1.09553
-14.8608 -13.4834 -3.58451
-15.4385 -13.1774 -2.18831
-18.1665 -10.8533 -3.51845
-15.7921 -10.0972 -0.976951
-15.2951 -10.7577 0.591929
-16.655 -10.8956 -3.93254
-15.3122 -13.4911 -3.98999
-16.7999 -11.0992 -0.355115
-16.7377 -12.8616 -1.00795
-17.7049 -12.328 -2.4182
-18.3953 -10.8683 -3.14241
-16.7065 -10.622 -2.49876
-17.5162 -12.7698 -2.49905
-15.044 -13.271 -1.99414
-18.6205 -11.2643 -1.29669
-13.3681 -11.9671 -0.928043
-17.6798 -10.5016 -0.98585
-16.365 -11.6307 -1.53172
-16.7259 -11.3362 -1.6907
-16.9068 -11.7925 0.798629
-15.7945 -10.3722 -0.194027
-22.0879 -10.9456 2.56694
-15.1548 -12.0044 0.600417
-15.2893 -10.173 0.533152
-15.1179 -11.9036 -0.837259
-16.3195 -11.367 0.656704
-16.7235 -10.4444 -1.45467
-16.1673 -11.0778 -0.837364
-16.5853 -11.5071 -0.859135
-18.994 -9.85338 -0.696597
-21.9311 -12.8722 -3.14251
-20.3068 -9.91427 -3.80359
-16.6151 -10.9103 -1.06115
-19.7536 -9.81842 -0.613342
-20.2679 -10.3642 -2.92247
-21.1226 -9.72897 -4.27065
-19.1158 -11.5094 -2.52125
-19.8348 -12.0195 -0.492107
-18.5731 -10.5554 -2.21659
-19.8983 -11.4346 -2.40737
-17.7317 -11.5329 -0.895932
-19.2261 -9.2741 -2.36601
-19.8851 -10.4052 -2.2565
-14.226 -11.5553 -1.24936
-19.1046 -11.6446 -1.70517
-15.7335 -9.29465 -2.456
-13.3767 -11.7771 -2.1
-14.6613 -13.1964 -2.60442
-14.9489 -9.5631 -1.54606
-20.4573 -9.92603 2.24256
-20.096 -9.0078 -1.36667
-18.0409 -11.1813 -0.994982
-16.3904 -11.1481 -1.54217
-18.8007 -10.929 -0.498268
-20.4984 -9.87783 -3.3084
-19.0064 -9.93198 -0.491889
-16.2626 -12.5787 0.18809
-17.8204 -10.1164 -1.82547
-17.2875 -10.0597 -2.43447
-17.0504 -10.7724 -1.37899
-14.3384 -11.1134 -1.92759
-16.3932 -12.0647 -0.692692
-14.4049 -11.0202 -1.76736
-15.1827 -10.3965 -3.34732
-15.852 -10.4247 -1.28053
-19.8058 -9.24593 -0.825142
-19.0487 -11.5534 -0.868429
-14.6757 -10.2878 -3.68265
-17.5443 -11.9792 -0.371801
-16.9105 -10.1185 -0.881733
-16.1612 -11.2154 -2.55181
-17.6648 -9.84449 1.72233
-18.963 -10.5814 -0.065496
-16.2127 -13.3492 -2.6175
-20.3486 -10.6258 1.07468
-15.702 -11.6343 0.356583
-14.848 -11.0591 1.07666
-17.6354 -9.79861 -0.171294
-20.9427 -10.3522 0.440162
-22.2648 -9.96408 1.03284
-19.4855 -10.2118 -0.877574
-19.8834 -10.9713 0.868748
-17.4484 -11.0725 0.939443
-16.7181 -10.41 0.452717
-20.7638 -8.41358 0.00847749
-19.7721 -10.4157 -1.21496
-19.1111 -11.2409 -0.398635
