-19.9296 -10.5792 -3.28241
-19.1491 -10.7828 -3.30188
-18.1732 -11.5253 -3.06349
-18.0971 -11.3976 -3.06186
-19.3543 -10.7641 -3.18485
-20.571 -10.4076 -3.37613
-18.5964 -11.0502 -3.03197
-20.333 -10.2802 -3.25199
-18.7399 -11.0687 -3.01497
-18.5866 -11.2821 -3.11133
-20.5713 -10.2948 -3.39808
-20.3366 -10.5589 -3.22885
-20.3323 -10.4773 -3.13413
-20.2161 -10.5109 -3.16318
-20.1556 -10.6226 -3.25087
-19.5271 -10.8468 -2.87668
-19.5029 -10.8101 -3.00421
-18.5935 -11.3281 -2.90022
-18.5471 -11.262 -2.69946
-18.7081 -11.385 -2.8179
-19.5865 -11.0529 -2.99227
-19.3102 -11.1525 -2.80363
-19.5357 -10.9889 -2.92594
-16.2788 -11.5444 -2.19713
-16.4375 -11.5445 -2.05575
-19.3971 -11.0734 -2.80619
-19.3929 -11.0211 -2.96901
-20.9256 -10.2914 -3.02554
-20.6328 -10.4792 -2.81773
-18.9662 -11.2066 -2.55143
-20.1829 -10.686 -2.74616
-16.0999 -12.075 -2.02131
-19.3094 -11.2146 -2.54325
-15.9873 -12.0499 -1.9592
-17.7995 -11.5487 -2.04029
-17.8215 -11.6402 -2.24059
-19.3167 -11.1702 -2.30111
-20.028 -10.744 -2.38363
-18.0265 -11.1302 -2.09588
-17.9553 -11.6225 -1.92083
-15.4287 -12.8844 -2.10007
-16.9002 -11.6202 -1.81525
-15.4688 -12.5961 -1.93838
-19.762 -10.9083 -2.61235
-19.4087 -11.3812 -2.23526
-18.0053 -11.2885 -2.0249
-17.7042 -11.2775 -2.16282
-17.8745 -11.3634 -1.76432
-18.8005 -11.4965 -2.13933
-18.7415 -11.43 -1.98151
-19.406 -11.0305 -2.34186
-19.501 -11.0821 -2.32172
-20.8766 -10.7203 -2.16364
-18.9542 -11.3983 -2.02191
-19.0722 -11.4349 -2.09407
-19.6445 -11.0972 -2.10315
-15.9794 -12.2802 -1.57798
-19.7435 -11.0993 -2.33681
-19.4564 -11.1938 -1.93777
-15.8979 -12.5146 -1.36175
-18.7938 -11.4202 -1.87953
-18.3232 -11.478 -1.77003
-17.0674 -11.9515 -1.3519
-16.9671 -11.8387 -1.33041
-20.6124 -10.8503 -2.05718
-18.2829 -11.3665 -1.48189
-18.357 -11.5077 -1.4418
-18.37 -11.3951 -1.5119
-19.1909 -11.4396 -1.97479
-19.0673 -11.5278 -1.84501
-20.63 -10.805 -1.77642
-18.4995 -11.3313 -1.38355
-18.4422 -11.6512 -1.34573
-19.8541 -11.2223 -1.58636
-18.6967 -11.3179 -1.23047
-21.1206 -10.9495 -1.54351
-20.0163 -11.5557 -1.44674
-20.4761 -11.1812 -1.64644
-20.1645 -11.3008 -1.38241
-20.448 -10.9882 -1.28389
-17.1401 -11.9928 -1.07401
-18.4885 -11.7083 -1.13066
-16.5483 -12.0593 -1.00463
-17.109 -12.3607 -0.766257
-16.1793 -12.5941 -0.766384
-20.5801 -11.233 -1.01853
-17.1297 -12.0823 -0.695489
-20.5803 -11.1139 -1.13502
-20.1743 -11.2538 -1.18011
-20.4032 -11.1246 -1.14719
-17.7611 -12.0606 -0.598527
-18.4182 -11.5642 -0.69672
-16.9432 -12.0613 -0.476446
-18.2937 -11.6291 -0.54017
-18.3162 -11.7154 -0.645786
-19.0937 -11.3327 -0.723855
-20.1912 -11.1884 -0.88985
-16.844 -12.152 -0.400684
-16.8796 -12.0954 -0.482748
-20.4564 -11.2762 -0.813822
-20.7966 -11.0849 -0.881449
-16.88 -12.2796 -0.353524
-17.5443 -11.9811 -0.254446
-17.5988 -11.9636 -0.271486
-16.8642 -12.2032 -0.390151
-20.947 -11.0258 -0.91612
-19.9906 -11.5784 -0.658405
-17.8415 -12.0053 -0.18764
-16.6899 -12.3416 -0.0601638
-17.843 -11.9968 -0.443325
-21.263 -11.1192 -0.562626
-20.9141 -11.182 -0.758419
-20.4678 -11.4053 -0.677491
-21.0597 -11.1641 -0.519752
-20.3119 -11.4298 -0.393976
-20.5187 -11.2441 -0.428163
-20.5467 -11.3933 -0.416512
-19.2378 -11.343 0.153659
-20.639 -11.5215 -0.284864
-21 -11.1818 -0.137765
-19.2474 -11.1807 0.421736
-21.0567 -11.1512 -0.00958266
-18.2902 -11.7317 0.294393
-20.2363 -11.6158 0.232421
-21.4775 -11.2912 0.172478
-21.1169 -11.5718 0.318038
-20.457 -11.6915 0.303032
-20.8378 -11.5688 0.634024
-16.5973 -10.7176 1.5809
-16.745 -10.7022 1.5564
-15.2933 -12.3984 -3.37409
-15.14 -12.3537 -3.18704
-14.8838 -12.7758 -3.20315
-14.9175 -12.8391 -3.27106
-15.2247 -12.5497 -3.01842
-15.1974 -12.6151 -3.26295
-15.3005 -12.5642 -3.15697
-15.3797 -12.3514 -3
-15.1231 -12.5459 -2.90596
-15.0447 -12.6701 -2.75119
-15.4757 -12.4774 -2.88192
-15.3347 -12.4333 -2.92014
-17.5006 -10.7529 -2.97099
-15.2589 -12.5975 -2.82738
-15.33 -12.6627 -2.71007
-20.2309 -10.5427 -3.46605
-20.0617 -10.6682 -3.48171
-18.6393 -11.3515 -3.36097
-18.9674 -11.0976 -3.3313
-17.1197 -11.1353 -2.7256
-15.5743 -12.6031 -2.60929
-20.3929 -10.4517 -3.16581
-20.532 -10.1735 -3.0983
-20.2683 -10.4869 -3.07404
-16.2271 -11.6484 -2.16373
-16.3729 -11.6913 -2.2215
-16.1013 -11.5815 -2.1727
-16.0243 -11.5647 -2.16952
-17.4833 -11.1013 -2.25718
-16.3972 -11.7041 -2.2986
-17.3099 -11.4359 -2.29804
-20.2449 -10.5098 -3.1307
-16.2908 -11.7581 -2.04721
-20.1837 -10.4951 -3.00815
-19.0496 -11.1861 -2.70861
-17.2438 -11.4171 -2.27246
-18.6101 -11.3122 -2.75455
-19.0366 -11.47 -2.65896
-20.7497 -10.3858 -2.83733
-15.1371 -12.7764 -2.02689
-20.3854 -10.6724 -2.69055
-20.421 -10.6907 -2.67693
-18.8449 -11.2749 -2.37603
-18.9044 -11.3324 -2.48308
-20.3487 -10.7655 -2.57292
-15.9774 -12.2191 -1.86821
-19.2235 -10.9787 -2.63563
-15.9265 -12.3827 -1.84255
-17.9117 -11.5989 -2.00421
-19.4317 -11.2356 -2.41063
-18.5323 -11.5111 -2.3237
-19.3565 -11.1115 -2.16852
-19.5898 -11.2471 -2.33185
-19.6748 -11.2064 -2.32068
-20.1952 -10.8555 -2.23732
-20.4034 -10.8172 -2.2894
-20.0297 -11.143 -2.22831
-20.3599 -10.7697 -2.02502
-19.059 -11.2121 -2.13273
-20.4614 -10.9572 -2.01273
-20.7922 -10.6166 -2.04753
-19.7082 -11.2791 -1.86419
-18.1335 -11.6251 -1.44902
-18.2024 -11.408 -1.53537
-19.5047 -11.4504 -1.656
-19.1636 -11.4015 -1.66127
-19.654 -11.3983 -1.56102
-18.6522 -11.3838 -1.48556
-18.5787 -11.5682 -1.21767
-20.9519 -10.8322 -1.80011
-20.8862 -10.7603 -1.6814
-20.8338 -10.8058 -1.65642
-20.4442 -11.1745 -1.40441
-20.1057 -11.3148 -1.44656
-20.5549 -11.1459 -1.45421
-19.9335 -11.2691 -1.29394
-16.583 -12.2272 -0.890398
-19.8521 -11.3716 -1.28908
-18.1344 -11.7499 -0.903611
-19.8458 -11.4902 -1.08913
-18.853 -11.5634 -0.884984
-16.131 -12.5444 -0.754579
-20.1305 -11.5202 -1.02464
-18.3855 -11.4165 -0.719562
-17.782 -11.8986 -0.890755
-17.7285 -12.0232 -0.825678
-16.6174 -12.3067 -0.574637
-16.9451 -11.7364 -0.413174
-18.8526 -11.6589 -0.604261
-17.0996 -12.0767 -0.454086
-16.3882 -12.8839 -0.323276
-18.2749 -11.8796 -0.60403
-16.4071 -12.7169 -0.596553
-18.4994 -11.7416 -0.607074
-17.0766 -11.9744 -0.33046
-19.9716 -11.4367 -0.862715
-19.6803 -11.6157 -0.79346
-19.7318 -11.6642 -0.701795
-19.7527 -11.6572 -0.727424
-17.2983 -11.9376 -0.432744
-16.925 -12.3601 -0.468807
-16.7704 -12.4945 -0.179902
-19.9384 -11.6981 -0.624794
-18.2426 -11.9957 -0.399732
-18.0003 -11.7831 -0.386931
-16.7128 -12.4547 -0.471173
-17.6787 -11.7508 -0.323526
-18.3775 -11.8211 -0.634335
-18.3047 -12.0404 -0.615516
-20.0053 -11.4392 -0.831844
-19.17 -11.3476 -0.347965
-20.0192 -11.33 -0.560034
-20.0619 -11.4317 -0.614634
-18.7086 -11.865 -0.453805
-18.9228 -11.5504 -0.432358
-18.9121 -11.4374 -0.166242
-20.3976 -11.6117 -0.590507
-18.8829 -11.4477 0.0687676
-17.6603 -11.8344 0.164695
-18.473 -11.4566 0.314422
-18.3098 -11.4312 0.226189
-17.745 -11.949 0.257734
-18.4764 -11.7154 0.126042
-16.4515 -12.3666 0.244753
-17.2594 -12.0469 0.153085
-18.569 -11.2932 0.235712
-16.6316 -12.2204 0.32995
-21.1593 -11.1004 -0.184464
-20.69 -11.4671 -0.152678
-17.5118 -12.0247 0.316174
-18.9669 -11.4282 0.151135
-19.2887 -11.3458 0.0304556
-18.5713 -11.5531 0.238195
-20.8481 -11.2698 0.111049
-18.9034 -11.2908 0.307168
-18.0004 -11.7802 0.291308
-18.7832 -11.5487 0.402924
-18.1188 -11.7139 0.432937
-17.7079 -11.7191 0.250099
-20.2077 -11.576 0.0197719
-18.1744 -11.8805 0.437897
-17.186 -12.4563 0.435516
-18.0476 -11.7353 0.340855
-17.3902 -12.0098 0.500663
-20.3771 -11.8615 0.0678449
-16.9318 -12.128 0.473756
-20.4774 -11.7616 0.062331
-16.9127 -12.3647 0.58737
-21.2144 -11.3947 0.104257
-20.6784 -11.5781 0.212966
-20.1897 -11.7178 0.454894
-20.3527 -11.6837 0.625738
-20.8765 -11.6392 0.614018
-20.7033 -11.5867 0.59433
-20.8325 -11.6931 0.584642
-20.9121 -11.5859 0.57695
-20.2833 -11.7692 0.691549
-20.4287 -11.8109 0.602182
-17.5271 -10.2032 1.27745
-17.3348 -10.4761 1.27739
-17.0056 -10.3944 1.39526
-17.2365 -10.6928 1.4294
-16.6566 -11.006 1.37168
-16.754 -10.6423 1.4232
-17.373 -10.359 1.68173
-16.7163 -10.6709 1.37648
-16.9801 -10.8319 1.59061
-16.7502 -10.6977 1.69339
-17.4793 -10.2673 1.5712
-17.3144 -10.6485 1.6671
-17.6417 -10.3755 1.94432
-15.4969 -12.6928 -2.79779
-14.9974 -12.7551 -2.78872
-20.0906 -10.4043 -3.34962
-16.5141 -11.5487 -2.59412
-18.3539 -11.1719 -2.74943
-19.8138 -10.9706 -2.96791
-19.1673 -11.0107 -2.96422
-18.7276 -11.3991 -2.72535
-16.3635 -11.7585 -2.13301
-18.9139 -11.3714 -2.63335
-19.9485 -10.663 -2.80431
-15.3396 -12.8203 -2.33196
-19.7522 -10.8761 -2.47563
-19.6285 -11.1834 -2.49668
-20.0259 -10.6966 -2.64074
-19.0528 -11.1704 -2.50663
-18.9722 -11.1689 -2.42923
-17.16 -11.5685 -1.98241
-20.5454 -10.7291 -2.55295
-18.9325 -11.3428 -2.38731
-19.2067 -11.4124 -2.53242
-15.4177 -12.7377 -1.94637
-19.3164 -11.2287 -2.39387
-19.0048 -11.3796 -2.28133
-20.3559 -10.65 -2.48473
-19.0392 -11.4881 -2.09549
-20.2436 -10.9681 -2.26712
-19.9094 -10.9232 -2.21445
-20.1738 -11.0517 -2.23917
-20.3643 -10.6385 -2.20559
-15.9037 -12.436 -1.39851
-20.5253 -10.5737 -2.15926
-19.565 -11.2152 -2.0428
-19.6325 -11.2886 -2.14594
-19.977 -11.1442 -2.16855
-19.0656 -11.5104 -1.75938
-16.0231 -12.3843 -1.31809
-18.068 -11.6554 -1.74742
-19.1431 -11.5553 -1.74381
-19.0765 -11.6577 -1.61747
-20.4931 -11.0921 -1.62744
-20.8209 -10.811 -1.67696
-20.7818 -10.5883 -1.7407
-20.2921 -11.1317 -1.36369
-20.0705 -11.0942 -1.33981
-18.2903 -11.9209 -1.09628
-17.9605 -11.8967 -1.04305
-18.2255 -11.6253 -0.890102
-18.6369 -11.6661 -1.03131
-19.9577 -11.326 -1.02557
-18.0522 -11.7611 -0.828095
-19.8448 -11.2428 -1.16766
-19.6128 -11.6103 -0.869224
-16.787 -12.3577 -0.536206
-19.8323 -11.4735 -0.900556
-16.9676 -12.242 -0.327895
-19.7427 -11.4701 -0.80727
-17.6606 -11.9051 -0.483784
-17.6652 -11.962 -0.41953
-16.5523 -12.3716 -0.243975
-20.7178 -11.2339 -0.783036
-19.9869 -11.4333 -0.563793
-20.3809 -11.4177 -0.447089
-20.5622 -11.4091 -0.591038
-19.1879 -11.4982 -0.191481
-20.5097 -11.2709 -0.483113
-17.8647 -12.0013 -0.0763781
-20.2995 -11.3328 -0.276368
-19.941 -11.5897 -0.486506
-20.56 -11.381 -0.287242
-20.6042 -11.5337 -0.371082
-17.6507 -12.0852 0.217657
-20.6157 -11.4429 -0.0606148
-20.2575 -11.5721 -0.303683
-19.2472 -11.0973 0.0356414
-19.3401 -11.0073 -0.0355053
-19.1688 -11.1629 0.0195998
-18.1982 -11.5188 0.0115736
-18.2829 -11.6513 0.122473
-20.8426 -11.155 -0.182273
-20.7333 -11.2703 -0.131697
-20.2417 -11.4733 -0.089594
-16.838 -12.1929 0.503798
-17.0442 -12.1421 0.476504
-17.3725 -12.0048 0.363701
-17.4815 -12.0659 0.394278
-21.105 -11.3712 0.0420514
-21.3237 -11.4 0.24938
-21.2259 -11.3309 0.284305
-20.3165 -11.8569 0.254456
-20.6162 -11.4397 0.479439
-20.8521 -11.5196 0.380964
-17.1661 -10.3607 1.45843
-16.867 -10.3956 1.46062
-17.6148 -10.3737 1.15736
-17.239 -10.7576 1.41258
-17.556 -10.2742 1.29674
-20.5662 -11.7611 1.0519
-16.7564 -10.7572 1.61689
-17.2901 -10.6388 1.55094
-17.1157 -10.6772 1.80436
-17.3263 -10.6434 1.70378
-17.1661 -10.6565 1.72684
-17.2435 -10.537 1.86542
-14.8696 -12.7096 -3.11326
-15.3833 -12.6267 -3.01932
-15.0816 -12.7988 -2.77601
-18.775 -11.2102 -3.37975
-19.3131 -10.8914 -3.17756
-20.1226 -10.7234 -3.11761
-16.4323 -11.582 -2.06886
-17.3182 -11.438 -2.16434
-17.218 -11.485 -2.19384
-18.9024 -11.2852 -2.78481
-17.5279 -11.289 -2.0732
-20.5357 -10.5584 -2.74143
-20.3552 -10.6292 -2.73051
-20.2056 -10.6736 -2.693
-19.3574 -11.2783 -2.61242
-16.6627 -11.959 -2.06604
-19.3122 -11.1021 -2.4737
-17.1033 -11.6201 -2.10934
-18.0107 -11.1292 -1.93711
-15.3576 -13.0398 -1.96692
-20.2743 -10.7761 -2.25833
-17.2751 -11.6076 -1.75378
-16.8502 -11.7658 -1.7803
-17.938 -11.5921 -1.98393
-19.8461 -11.0084 -2.17008
-18.6407 -11.7956 -2.27428
-16.8993 -12.0139 -1.8713
-20.1166 -10.9909 -2.03719
-19.6942 -11.1521 -1.98735
-18.7684 -11.5372 -1.99441
-19.8098 -11.2788 -2.02296
-19.8384 -11.0141 -2.20593
-17.8787 -11.4115 -1.60769
-20.819 -10.9288 -1.95557
-19.0406 -11.5596 -2.00832
-18.9564 -11.4988 -1.77642
-19.2615 -11.1618 -1.75794
-19.7997 -11.2343 -1.64482
-16.4232 -12.0795 -1.06487
-17.0703 -11.9719 -0.795213
-17.5617 -11.9527 -0.847791
-17.4722 -11.6265 -1.05519
-18.4507 -11.8673 -0.934535
-17.9313 -11.9273 -0.745525
-18.2564 -11.8146 -0.748191
-17.5753 -11.929 -0.98013
-16.6462 -12.5463 -0.529794
-17.6849 -11.925 -0.511763
-18.5654 -11.5559 -0.866819
-18.3904 -11.6335 -0.742495
-19.7158 -11.4846 -0.765592
-20.5768 -11.2135 -0.71755
-17.8187 -11.8472 -0.504368
-19.0537 -11.2084 -0.473678
-16.733 -12.4077 -0.260983
-17.7478 -11.9268 -0.253242
-17.6645 -12.0696 -0.403983
-19.7892 -11.6619 -0.341881
-20.0761 -11.5264 -0.45224
-20.8951 -11.3265 -0.384325
-20.6348 -11.4533 -0.440793
-20.581 -11.4608 0.00551379
-20.5673 -11.3898 -0.191739
-18.7727 -11.4138 0.222334
-17.096 -12.3946 0.456933
-16.819 -12.2806 0.333144
-18.8396 -11.5077 0.245568
-16.9706 -12.1885 0.628912
-20.6825 -11.6006 0.135295
-20.972 -11.4876 0.241583
-20.916 -11.54 0.292638
-21.1721 -11.1935 0.344574
-20.3083 -11.8963 0.586358
-17.36 -10.4161 1.52924
-16.6743 -10.7574 1.68374
-18.3704 -11.2739 -3.17694
-18.6364 -11.3181 -3.09141
-18.2653 -11.235 -3.22666
-18.7868 -11.3579 -3.02282
-20.0265 -10.6003 -2.96365
-17.271 -11.2484 -2.28749
-17.5584 -11.3013 -2.43689
-16.1577 -11.6242 -2.06975
-20.3935 -10.8087 -2.93472
-17.247 -11.2904 -2.17134
-17.3736 -11.2758 -2.2934
-18.6375 -11.5055 -2.16308
-18.4648 -11.6303 -2.25239
-19.9687 -11.0052 -2.29601
-20.0566 -10.7018 -2.29167
-18.9038 -11.5078 -1.97419
-18.3729 -11.5433 -1.3156
-17.4166 -11.736 -1.1977
-20.911 -10.7662 -1.36955
-20.0898 -11.2121 -1.46381
-19.8706 -11.1824 -1.21959
-17.7821 -11.781 -0.816266
-17.6548 -11.9666 -0.813372
-16.4081 -12.5383 -0.56691
-16.6836 -12.481 -0.319935
-17.7494 -11.8362 -0.659717
-17.5433 -11.899 -0.453312
-17.2945 -12.0808 -0.3385
-16.4862 -12.4171 -0.261423
-19.179 -11.4504 -0.406792
-19.9764 -11.7739 -0.314768
-20.2833 -11.425 -0.368912
-20.867 -11.2678 -0.293923
-20.5056 -11.4691 -0.388053
-18.1545 -11.7565 0.0917578
-18.5133 -11.5467 0.164594
-18.2585 -11.4532 0.183759
-17.6307 -11.9105 0.255557
-17.566 -12.1284 0.497334
-17.3549 -11.9921 0.366195
-20.8557 -11.5105 0.322995
-21.2139 -11.4966 0.322544
-17.6611 -10.4945 1.60391
-16.2056 -11.5441 -2.4968
-16.111 -11.5667 -2.11305
-17.1327 -11.2211 -2.14364
-16.367 -11.4777 -2.29835
-16.4152 -11.7448 -2.12105
-18.8571 -11.1525 -2.66087
-17.2646 -11.4656 -2.02215
-16.8751 -11.6755 -2.26947
-18.0704 -11.1523 -2.32529
-20.0831 -11.1036 -2.11605
-17.9853 -11.4915 -1.5739
-17.1812 -11.8208 -1.45269
-19.0919 -11.5929 -1.58335
-17.1424 -11.799 -1.29192
-20.1068 -11.1258 -1.61213
-16.2025 -12.5918 -0.799683
-20.6577 -11.083 -1.23794
-16.825 -12.1854 -0.929773
-19.7516 -11.5981 -1.19234
-16.6358 -12.1735 -0.508197
-19.7579 -11.557 -0.938018
-19.5968 -11.5303 -0.786952
-16.949 -12.0819 -0.258025
-20.4011 -11.3933 -0.791281
-16.9729 -12.1928 -0.100476
-19.2484 -11.3797 -0.398307
-19.9846 -11.5826 -0.226141
-17.7537 -11.8566 0.31676
-16.9287 -12.2692 0.399067
-16.746 -10.7025 1.65292
-20.3479 -10.5484 -2.82177
-16.6434 -11.6556 -1.96957
-16.8931 -11.7469 -1.88438
-19.1609 -11.3672 -2.39152
-20.1172 -11.0085 -2.32512
-18.0406 -11.4182 -1.43811
-17.685 -11.5916 -1.44167
-17.2048 -12.0046 -0.763213
-17.2472 -12.0085 -0.823903
-19.5544 -11.5058 -0.909575
-20.7429 -11.19 -0.838428
-17.4381 -12.0812 0.290514
-19.3296 -11.2926 0.231065
-19.0415 -11.1333 0.393355
-19.3395 -11.2767 0.12632
-20.3773 -11.7285 0.277652
-15.7617 -11.4631 -2.74645
-15.9689 -11.706 -2.55049
-17.2278 -11.3097 -2.53115
-18.5575 -11.3923 -2.99202
-15.6116 -12.3285 -2.01873
-16.432 -12.0549 -1.49215
-16.5942 -12.2386 -0.913402
-17.7697 -11.7551 -0.748046
-19.0737 -11.4547 -0.754148
-17.2318 -11.9945 -0.516465
-19.0341 -11.3826 -0.427633
-19.0971 -11.327 0.217138
-18.8389 -11.638 0.068058
-18.1899 -11.7428 0.453814
-18.5283 -11.4804 0.163424
-20.9151 -11.326 0.104121
-18.7879 -11.4801 0.253491
-20.9812 -11.5512 0.701265
-17.1401 -11.9713 -1.3316
-16.6881 -12.1479 -0.894688
-16.5598 -12.3209 -0.644912
-17.7251 -12.0675 -0.0123016
-18.9606 -11.2905 0.10568
-16.6458 -10.6342 2.0124
-17.9742 -11.589 -1.59373
-17.9046 -11.6444 -1.40535
-20.3231 -11.4634 -0.57762
-20.5442 -11.2533 -0.216598
-19.0337 -11.3425 0.269703
-17.4919 -11.7236 -1.36783
-17.0159 -11.9456 -1.04276
-16.1482 -12.0518 -1.79178
-16.5746 -12.1657 -1.47796
-20.2797 -10.7923 -2.72607
-19.579 -10.6492 -3.13808
-19.5221 -10.7831 -3.31084
-20.0562 -10.8535 -2.38444
-19.4168 -10.8431 -2.88466
-20.0707 -11.0104 -2.31383
-19.7394 -11.2357 -2.12358
-18.5813 -11.3268 -3.19941
-20.527 -10.9688 -1.43718
-18.591 -11.2869 -3.16457
-19.7543 -10.8922 -2.36152
-20.0646 -11.0535 -1.70657
-20.0098 -11.1561 -1.91343
-19.5847 -11.3285 -2.17885
-18.528 -11.2188 -2.95217
-19.028 -11.2479 -2.3185
-18.147 -11.4352 -3.05865
-19.093 -11.1226 -2.26248
-18.2091 -11.4074 -3.15303
-18.1105 -11.3077 -3.00011
-19.6974 -11.3992 -1.49171
-18.1654 -11.5745 -3.18265
-19.6881 -11.1919 -1.52878
-20.4734 -11.3793 -0.836483
-20.3113 -11.4138 -0.811163
-20.2741 -11.3604 -1.0597
-20.5118 -11.258 -1.02488
-20.6162 -11.2723 -0.676802
-20.9278 -11.4471 -0.175039
-20.5539 -11.2755 -0.366665
-20.3776 -11.449 -0.277033
-19.1213 -11.3923 -1.83021
-20.3857 -11.6241 -0.590382
-18.88 -11.3876 -1.59348
-19.035 -11.5092 -1.80296
-18.859 -11.7038 -2.0217
-20.2938 -11.4129 -0.622757
-21.1139 -11.2966 0.435464
-20.1467 -11.3326 -0.53693
-16.8028 -11.1182 -2.90163
-20.083 -11.5361 -0.654109
-20.4302 -11.4471 -0.546948
-20.333 -11.5146 -0.244639
-18.0574 -11.4243 -2.10171
-18.0034 -11.3765 -1.92722
-19.5247 -11.5766 -0.892597
-16.5908 -11.354 -2.76774
-17.6409 -11.4374 -2.18662
-18.3345 -11.5882 -1.35856
-18.5313 -11.4701 -1.37931
-18.0659 -11.5244 -1.75333
-18.4329 -11.4408 -1.27311
-20.2806 -11.7228 -0.112005
-20.4453 -11.6511 0.104053
-17.9194 -11.5233 -1.62016
-18.4274 -11.6054 -1.11518
-18.9205 -11.4332 -0.932869
-18.729 -11.5741 -0.739367
-19.0455 -11.3722 -0.776741
-19.2433 -11.2339 0.226813
-20.3901 -11.8648 0.583542
-18.2037 -11.8 -1.33433
-19.1208 -11.3039 0.0563065
-20.5969 -11.8745 0.963639
-18.9839 -11.3409 0.284545
-18.4882 -11.6085 -0.590905
-18.3133 -11.7702 -0.904416
-18.8095 -11.3447 0.166281
-16.1271 -11.6004 -2.03798
-16.1973 -11.932 -2.13597
-17.0426 -11.7615 -1.43486
-17.0025 -11.8502 -1.41041
-17.3226 -11.7842 -1.06064
-17.3973 -11.859 -0.874173
-18.4809 -11.6264 0.31673
-17.9803 -11.9443 -0.360846
-17.0429 -11.8964 -0.906633
-15.3135 -12.6776 -3.18626
-15.2617 -12.5814 -3.04774
-18.2501 -11.6113 0.478888
-15.1539 -12.5823 -3.01977
-16.037 -11.911 -1.82928
-17.8037 -12.0929 -0.212319
-15.919 -12.1989 -1.79985
-18.3663 -10.6366 1.90234
-17.6703 -11.9929 -0.361812
-15.2244 -12.6356 -3.07265
-15.1135 -12.3753 -2.86841
-17.0801 -11.9655 -0.452632
-17.2087 -11.9012 -0.457615
-17.3047 -12.1645 -0.563976
-17.0179 -11.7835 -0.275367
-17.2024 -11.8878 -0.314637
-15.9325 -12.4677 -1.63283
-16.0092 -12.4355 -1.49697
-16.8562 -12.2583 -0.319347
-16.9437 -12.3678 -0.356589
-17.3647 -11.9818 0.393443
-16.7291 -12.445 -0.36163
-17.1615 -12.2366 0.349719
-16.7234 -10.7733 1.61928
-16.7962 -10.688 1.41218
-16.5088 -12.4021 -0.376832
-16.5393 -12.5262 -0.100138
-16.5044 -10.6742 1.53754
-16.8348 -12.3606 0.312794
-16.5137 -12.3993 0.183744
-20.5783 -10.4114 -2.95492
-20.4006 -10.635 -2.73203
-20.5303 -10.5505 -2.60601
-20.2649 -10.5676 -2.63263
-20.7781 -10.8977 -2.15516
-20.4014 -10.7756 -1.99379
-20.9498 -10.8413 -1.56836
-18.9196 -10.9989 -3.31342
-20.2793 -10.8354 -1.57773
-19.3666 -11.0914 -2.59789
-20.4151 -10.816 -1.44564
-20.2402 -11.0931 -1.82039
-19.7307 -11.2014 -2.06169
-19.1834 -11.1721 -2.32203
-18.6506 -11.2535 -2.83305
-19.3952 -11.1421 -2.22681
-18.6311 -11.4104 -2.93759
-18.8814 -11.1983 -2.40017
-17.6427 -10.8881 -2.84039
-20.1765 -11.3174 -1.66016
-18.8449 -11.3273 -2.55371
-20.1374 -11.1587 -1.03911
-18.0188 -11.4048 -3.1493
-19.2982 -11.3694 -2.02187
-21.2941 -11.132 -0.254
-20.5388 -11.2939 -0.795822
-20.2568 -11.339 -0.805095
-21.3676 -11.3031 0.21443
-19.1458 -11.6015 -1.81556
-16.8834 -11.1096 -3.06921
-19.0307 -11.5573 -1.74025
-17.336 -11.2117 -2.207
-21.1011 -11.4871 0.201803
-20.3297 -11.549 -0.330573
-19.9169 -11.6291 -0.720969
-20.8702 -11.3646 -0.0329087
-17.3871 -11.2522 -2.29116
-19.5639 -11.6176 -0.77905
-19.6114 -11.6621 -0.90699
-19.5708 -11.6126 -0.832273
-16.4291 -11.4614 -2.97402
-17.2242 -11.3849 -2.09039
-20.8197 -11.5397 0.471559
-18.5927 -11.4156 -1.62186
-20.622 -11.5195 0.481071
-20.8669 -11.4296 0.573821
-19.9526 -11.7813 -0.356216
-20.7433 -11.5975 0.465784
-19.8532 -11.6729 -0.42533
-20.3029 -11.6988 0.163743
-20.2849 -11.4493 0.236254
-20.2877 -11.6581 0.141705
-18.8837 -11.5772 -0.691294
-18.6013 -11.403 -1.04364
-19.1433 -11.2321 0.122041
-20.3292 -11.9051 0.273937
-18.9562 -11.5204 -0.518735
-19.3325 -11.0922 0.217437
-16.2555 -11.5174 -2.43413
-18.6734 -11.3212 0.0407451
-19.0188 -11.4867 0.151018
-16.3357 -11.688 -2.19424
-16.309 -11.7159 -2.21615
-16.0234 -11.5955 -2.22446
-17.5721 -11.7385 -0.941427
-17.8161 -11.8218 -1.26317
-16.3866 -11.7991 -1.98492
-16.1764 -11.7734 -2.25036
-17.2101 -12.0379 -1.44047
-18.4107 -12.0545 -0.424822
-17.0462 -11.74 -1.35367
-18.1605 -11.9062 -0.661092
-17.1688 -11.8468 -1.56923
-18.3612 -11.642 0.153323
-18.2179 -10.5915 1.20659
-18.3972 -11.6536 0.18554
-17.1289 -11.9019 -1.24239
-17.1284 -11.955 -1.21559
-18.2684 -11.6929 0.253773
-15.0778 -12.417 -3.28201
-17.4352 -12.1521 -0.946249
-15.3596 -12.3251 -3.20897
-17.5604 -12.0804 -0.674866
-17.7729 -11.8973 -0.403617
-15.2013 -12.464 -3.08448
-15.2072 -12.3462 -3.28139
-15.0983 -12.6765 -3.1653
-15.2542 -12.5008 -2.95279
-15.279 -12.4764 -3.22849
-15.7249 -12.5034 -2.89259
-15.1926 -12.4497 -3.01556
-15.6192 -12.4043 -2.88987
-15.0743 -12.3588 -3.188
-16.0024 -12.1823 -1.97888
-17.5767 -10.3993 1.23771
-17.4395 -10.4342 1.60803
-16.458 -12.1138 -1.204
-15.9828 -12.0822 -1.9418
-15.058 -12.3711 -3.23779
-17.3757 -10.6263 1.58003
-17.4237 -10.4878 2.00801
-14.9245 -12.6611 -2.98803
-15.0184 -12.6311 -2.91721
-17.4639 -12.0671 0.39003
-17.1085 -10.6345 1.36556
-16.6306 -12.1177 -0.91237
-16.6122 -12.0708 -0.814096
-17.0672 -10.5873 1.40647
-16.1773 -12.4333 -1.40266
-16.6704 -12.2224 -0.556302
-16.7893 -12.3002 -0.527335
-15.7828 -12.4555 -1.4713
-17.1077 -10.7003 1.80889
-15.1245 -12.8181 -2.62031
-17.5941 -12.0978 0.436385
-16.2784 -12.3572 -0.771606
-17.1095 -10.6179 1.54485
-16.7234 -12.1331 -0.344591
-17.1395 -12.2907 -0.363354
-15.7074 -12.4711 -1.19734
-15.6779 -12.7007 -1.38741
-16.7742 -12.4585 -0.170138
-16.4748 -12.4417 -0.453462
-16.3714 -12.6948 -0.50961
-16.527 -12.6021 -0.49068
-17.0217 -12.2619 0.425147
-16.551 -12.7304 -0.212758
-16.244 -12.6588 -0.397315
-16.3692 -10.6391 1.38423
-16.8725 -12.2518 0.280309
-16.505 -12.3429 0.289792
-16.7229 -12.4074 0.364354
-20.4957 -10.626 -2.68305
-20.1578 -10.8089 -2.97083
-21.0464 -10.7877 -1.62968
-20.7426 -10.9104 -1.69506
-18.4666 -11.1612 -3.05131
-18.5124 -11.2047 -3.18842
-18.6916 -11.1959 -2.92422
-18.3875 -11.3097 -3.18271
-19.3281 -11.1065 -2.35723
-19.3403 -11.2611 -2.55376
-19.674 -11.196 -1.49634
-20.3215 -11.1998 -1.04198
-19.8189 -11.4001 -1.32724
-21.1533 -11.2387 -0.261911
-21.2261 -11.3054 -0.267199
-19.0826 -11.3748 -2.2367
-20.5281 -11.4425 -0.458837
-20.8346 -11.4092 -0.208891
-19.6621 -11.6443 -1.25692
-21.2868 -11.4864 0.233432
-19.0261 -11.1484 -1.17501
-19.1519 -11.3304 -1.74221
-17.6227 -11.0313 -2.3607
-19.0512 -11.4908 -1.72929
-20.8202 -11.5254 -0.136745
-19.7416 -11.6428 -0.825697
-19.5912 -11.5369 -0.875162
-20.8696 -11.4732 0.34674
-17.4103 -11.2669 -2.18512
-17.1591 -11.2908 -2.32405
-19.7069 -11.5174 -0.53944
-19.8616 -11.5473 -0.448074
-20.0848 -11.6435 -0.0361371
-18.5309 -11.5689 -1.15573
-19.3054 -11.367 -0.0543751
-19.0755 -11.4993 -0.549005
-20.3374 -11.6121 0.543789
-18.5087 -11.5668 -1.22314
-18.5087 -11.5455 -0.799104
-18.4252 -11.7825 -1.11067
-20.3353 -11.7233 0.311576
-17.1413 -11.6792 -1.85341
-20.2352 -11.8312 0.447873
-18.544 -11.6575 -0.755318
-19.1616 -11.2368 0.516477
-16.2949 -11.6577 -2.25311
-17.7855 -11.6681 -1.17587
-17.4593 -11.8128 -1.21426
-16.2099 -11.7135 -2.37297
-16.3816 -11.7025 -1.91698
-18.1699 -11.9336 -0.706798
-17.9886 -12.1441 -0.755183
-18.4865 -11.5451 0.0873277
-17.0828 -11.7541 -1.27488
-17.5418 -11.8169 -0.728365
-18.2565 -11.731 0.0127709
-18.2948 -11.6072 0.356626
-17.7024 -10.3397 1.22256
-17.0524 -11.9001 -1.13838
-15.5218 -12.2554 -2.93451
-17.0944 -11.9115 -0.923452
-14.7035 -12.622 -3.15901
-17.6712 -11.8572 0.21528
-14.9193 -12.746 -3.01876
-16.5408 -12.2293 -1.27953
-16.4294 -12.0903 -1.2187
-16.334 -12.319 -1.09496
-16.3691 -12.3083 -1.19119
-15.0603 -12.6547 -2.511
-16.7378 -12.1396 -0.398727
-17.3045 -12.0205 0.197395
-16.3254 -12.4386 -0.916041
-16.8864 -12.3376 -0.246247
-17.2633 -12.2268 0.420013
-16.5944 -12.2924 -0.365119
-17.3105 -10.6465 1.93537
-16.2139 -12.7258 -0.970229
-15.8885 -12.7107 -1.00517
-16.8085 -12.2884 0.568378
-19.5949 -10.7922 -3.1663
-19.4491 -10.8589 -3.24418
-20.7308 -10.7081 -1.95474
-20.7611 -10.9201 -1.78591
-19.7481 -10.9749 -2.19597
-18.7617 -11.1641 -2.76328
-19.7018 -11.2287 -1.58509
-18.283 -11.345 -2.75947
-18.2497 -11.3089 -2.83358
-19.1605 -11.5489 -1.93001
-21.2825 -11.2958 0.0604825
-18.9033 -11.4287 -1.83938
-18.8872 -11.61 -1.6647
-17.2908 -11.0443 -2.44163
-18.9448 -11.4104 -1.65671
-19.7598 -11.6267 -0.806902
-19.8211 -11.3984 -0.75646
-20.3807 -11.4664 -0.104494
-20.9984 -11.4995 0.451773
-20.9467 -11.7186 0.228539
-20.5889 -11.6584 0.328203
-16.9315 -11.2543 -2.51012
-19.8787 -11.7365 -0.600152
-19.8444 -11.6119 -0.313932
-19.7882 -11.7889 -0.348597
-18.5184 -11.8162 -0.822276
-18.2315 -11.5067 -0.943152
-18.2099 -11.7128 -0.967267
-17.7584 -11.6841 -1.22426
-19.5417 -11.3707 0.777238
-17.541 -11.8426 -1.279
-19.3608 -11.2231 1.01921
-16.4144 -11.7231 -2.07617
-18.1862 -11.7427 -0.1745
-16.2287 -12.3981 -1.85439
-17.6658 -12.0918 -0.320971
-17.124 -10.3959 1.28744
-17.8501 -11.8792 0.375237
-17.2116 -11.9688 -0.0767527
-16.0386 -12.6814 -1.23234
-16.0336 -12.4926 -1.2341
-16.2696 -12.6858 -0.744514
-20.3693 -10.6431 -2.9947
-20.7451 -10.7709 -2.23032
-18.2499 -11.1211 -3.41622
-19.671 -11.2941 -1.43696
-19.296 -11.5847 -1.77773
-19.8673 -11.6285 -1.12558
-18.8694 -11.1518 -1.0872
-19.5274 -11.5924 -1.05233
-20.4466 -11.5142 -0.272447
-17.3377 -11.3682 -2.06407
-19.4822 -11.5711 -0.954247
-16.889 -11.4364 -2.08734
-19.9161 -11.5986 -0.269434
-18.0193 -11.5794 -1.33315
-17.2709 -11.7115 -1.60454
-20.6051 -11.793 1.00429
-17.2446 -11.6952 -1.55023
-20.1045 -11.9585 0.81435
-17.0619 -11.8802 -1.26409
-17.8164 -11.97 -0.606221
-16.5842 -11.8597 -1.53059
-16.6189 -12.0006 -1.42317
-17.7246 -11.8796 -0.491067
-16.3895 -11.9535 -1.2147
-15.2986 -12.5483 -3.01972
-17.5706 -10.4751 1.52565
-16.9789 -12.1518 -0.663871
-17.5747 -11.88 -0.00634111
-15.5721 -12.096 -2.05137
-17.6201 -12.0103 0.359735
-17.0401 -12.0258 -0.372031
-16.2703 -12.5627 -0.55487
-16.2309 -12.6231 -0.461055
-18.4764 -11.0405 -3.43445
-18.456 -11.128 -3.12881
-20.8855 -11.3228 -0.549136
-20.7538 -11.2578 -0.125552
-17.2657 -11.4203 -2.19353
-20.9803 -11.6304 0.690377
-19.4783 -11.3729 0.35544
-18.7249 -11.3685 0.319443
-19.1084 -11.5084 0.267461
-18.2785 -12.0919 -0.343347
-17.5811 -11.8814 -0.367618
-18.3004 -11.8215 0.346249
-17.7015 -11.9745 -0.211858
-17.0602 -11.7324 -0.420189
-16.0727 -12.523 -1.1117
-16.545 -12.4956 -0.25405
-19.579 -10.5884 -3.30732
-20.3435 -10.8428 -2.19626
-17.7365 -10.8847 -2.90255
-20.8118 -11.1372 -0.703801
-19.7766 -11.3996 -1.20572
-21.3321 -11.2173 0.294623
-19.3292 -11.3222 0.0582017
-16.9207 -11.4984 -1.88012
-15.4331 -11.6235 -2.70636
-17.2316 -11.8706 -0.353565
-16.9058 -12.0213 0.490824
-20.3231 -10.4164 -2.82695
-17.5288 -11.0286 -2.75392
-17.907 -11.1976 -2.265
-17.8357 -11.3728 -2.26667
-17.401 -11.453 -2.02995
-16.1632 -11.606 -2.12964
-16.0327 -11.7322 -2.01126
-17.5636 -11.7738 -0.774398
-17.1276 -11.7512 -1.50088
-14.4333 -12.702 -3.32689
-17.7193 -11.7249 -1.56717
-16.5149 -11.9868 -1.2926
-15.3594 -12.408 -1.8985
-18.2688 -11.7355 -0.890994
-16.9619 -12.0101 -1.13219
-16.0521 -12.5511 -1.15521
-16.2041 -12.6871 -0.83863
-16.2361 -12.6783 -0.615821
-17.4556 -11.7131 -1.58707
-17.0204 -11.8604 -1.833
-16.7297 -11.956 -0.881436
-21.1247 -11.3663 0.273734
-21.2503 -11.0696 -0.606781
-20.9657 -11.2385 -0.0909766
-20.7873 -11.346 -0.519959
-20.7147 -11.3732 -0.5351
-20.7734 -11.3497 -0.462624
-20.4962 -11.4532 -0.429388
-20.5252 -11.7618 0.499507
-20.3608 -11.8902 0.543933
-20.4175 -11.7317 0.436658
-20.1698 -10.9037 -1.51512
-20.4175 -11.0434 -1.58036
-20.3216 -11.53 -0.349783
-20.4241 -10.6949 -3.01448
-20.2718 -11.3984 -0.544171
-20.219 -11.3187 -1.08489
-20.2937 -10.7296 -2.40509
-20.2065 -10.5435 -2.63657
-20.1732 -11.5565 -0.526664
-19.8487 -11.2727 -1.37268
-19.0344 -11.1442 0.0793935
-19.9518 -11.1333 -2.22712
-19.7702 -11.3298 -2.04022
-19.644 -11.5408 -0.930926
-18.818 -11.1613 0.0592816
-19.6761 -11.1195 -2.87111
-19.5959 -11.167 -2.29931
-19.5131 -10.8051 -2.90376
-19.6633 -10.8292 -3.13511
-18.9491 -11.3622 0.235945
-18.9273 -11.3629 -0.460445
-19.4481 -11.1523 -2.8157
-18.8226 -11.5294 -0.968197
-19.2362 -11.3903 -2.19352
-19.0143 -11.3258 -2.25124
-19.2487 -11.3834 -2.43368
-18.798 -11.5676 -0.871948
-18.7943 -11.8719 -0.517084
-18.263 -11.6899 0.106222
-19.0255 -11.3861 -1.96761
-18.9302 -11.3952 -2.23074
-18.8862 -11.2491 -2.57034
-19.0615 -11.3374 -2.25795
-18.9143 -11.0565 -3.00141
-18.6483 -11.7016 -0.809091
-18.8431 -11.2384 -2.68482
-18.7612 -11.5145 -2.93365
-18.6508 -11.5442 -1.14441
-18.3095 -11.4946 -1.15662
-18.6333 -11.5338 -1.24067
-18.2247 -11.6489 -0.674338
-18.3396 -11.9515 -0.657959
-18.2277 -11.6603 -0.836615
-17.9742 -11.8887 0.571749
-18.2768 -11.798 -0.703152
-18.7299 -11.19 -2.86568
-18.488 -11.5166 -1.49996
-16.7384 -10.6575 1.52947
-18.3313 -11.5222 -1.58932
-18.0633 -11.4782 -1.36848
-18.5853 -11.3009 -3.02664
-18.4649 -11.133 -3.21188
-17.9682 -11.6309 -1.30212
-18.255 -11.1888 -3.23972
-18.1642 -11.6129 -1.49225
-18.041 -11.5072 -1.67192
-18.1068 -11.3865 -1.92668
-18.2936 -11.3867 -3.22469
-17.8979 -11.4173 -1.94241
-17.8432 -11.9648 0.346822
-17.8921 -11.6507 -2.0336
-18.0942 -11.4375 -2.049
-17.5858 -12.0207 -0.108571
-17.516 -11.5107 -1.03588
-17.8298 -11.8456 -1.13741
-17.4332 -11.9535 -0.858107
-17.5334 -11.8727 -0.404163
-17.2563 -12.1891 0.245519
-17.1111 -12.0848 0.311007
-17.1249 -11.8724 -0.955139
-17.0802 -12.0187 -0.7287
-17.131 -12.0309 -0.66304
-16.8756 -11.6981 -0.889024
-17.1413 -11.894 -0.74932
-16.9581 -11.8245 -0.697695
-16.9987 -11.8619 -1.46882
-17.1483 -11.9279 -1.13078
-16.9454 -11.9148 -0.654015
-17.0226 -11.9799 -1.55845
-16.9356 -11.897 -0.810876
-16.8922 -12.1041 -0.327959
-16.7373 -12.2087 -0.185134
-16.7254 -12.1378 0.2895
-16.9299 -11.5955 -1.815
-16.4519 -12.4142 -0.0920675
-16.684 -12.2426 -1.00979
-16.4742 -11.3812 -3.18674
-16.2224 -11.7271 -2.28644
-16.1416 -11.3701 -2.69518
-15.9494 -12.258 -2.09637
-16.0092 -12.3721 -2.06531
-15.9483 -12.3571 -1.12562
-15.7946 -12.4384 -1.69405
-16.0619 -12.4448 -1.69978
-15.8666 -12.4257 -1.62456
-15.8997 -12.2865 -1.70601
-15.4725 -12.3011 -3.32045
-15.7475 -12.3263 -2.75204
-15.4619 -12.5256 -2.88497
-15.4877 -12.3228 -2.98462
-15.3587 -12.4522 -3.47494
-15.1791 -12.6635 -3.0978
-15.2194 -12.716 -2.48804
-15.1257 -12.5753 -3.08025
-15.1671 -12.5139 -3.18024
-14.9888 -12.8877 -2.75072
-15.2521 -12.7098 -3.00043
-14.7999 -12.7483 -3.12143
-21.5813 -11.2509 0.171689
-21.2019 -11.2366 -0.556161
-20.7756 -11.7673 0.494212
-20.7785 -11.5098 0.273883
-20.5559 -11.4923 -0.291117
-20.4181 -11.2374 -0.679467
-20.3975 -10.7986 -2.25488
-20.5262 -11.3701 -0.712083
-20.1986 -11.6358 0.151403
-20.4563 -10.7508 -2.66823
-20.4535 -10.5251 -2.71754
-20.3435 -10.8701 -2.34266
-20.146 -11.277 -1.19587
-20.1109 -11.5537 -0.59113
-19.3177 -11.1404 0.36899
-19.1444 -11.1681 0.0385801
-19.0736 -11.2801 0.146671
-20.0196 -11.1426 -2.05033
-19.7084 -11.6401 -0.870774
-19.1977 -11.1816 -0.107863
-19.3452 -11.2299 -0.0386247
-19.7698 -11.6211 -0.721398
-19.7056 -11.4289 -0.872211
-19.6052 -11.4207 -0.803589
-17.545 -10.2343 1.57544
-19.611 -11.6701 -0.914752
-19.0295 -11.4884 0.259674
-19.6799 -10.9104 -2.90882
-17.4919 -10.2521 1.48223
-17.4441 -10.4135 1.71337
-17.5502 -10.319 1.54694
-17.5482 -10.4284 1.38339
-18.7493 -11.1844 -1.15394
-19.1163 -11.3475 -0.678794
-19.3244 -11.0869 -2.75928
-18.8917 -11.6441 -0.640051
-18.7962 -11.4181 -0.696907
-17.4098 -10.5045 1.50011
-19.1722 -11.2239 -2.53214
-17.0394 -10.6195 1.67295
-17.0653 -10.4854 1.22553
-17.1203 -10.5174 1.69727
-18.4566 -11.4922 0.125824
-18.6637 -11.5263 -0.904764
-18.4902 -11.5439 0.120324
-18.2928 -11.4207 0.2903
-18.9399 -11.4387 -1.81912
-16.9221 -10.5593 1.28821
-18.6806 -11.203 -2.75124
-18.7308 -11.0241 -3.22253
-18.7409 -11.4006 -2.86166
-18.6028 -11.5502 -1.95274
-18.5528 -11.7949 -0.382691
-17.8752 -10.7986 -2.18014
-16.7901 -10.8347 1.68332
-16.5187 -10.8153 1.51556
-17.9321 -11.2464 -1.89163
-18.3465 -11.5116 -3.07519
-18.4375 -11.3601 -3.35206
-17.9836 -11.7282 -1.37748
-18.0855 -11.2844 -1.97045
-17.5885 -11.0829 -2.78187
-16.4071 -10.7724 1.55598
-16.4163 -10.8517 1.51813
-17.2562 -11.2444 -2.43756
-17.2141 -12.0564 0.439605
-17.0322 -12.1461 0.21476
-17.0168 -12.2116 0.315737
-17.1946 -12.0141 -0.267341
-17.2102 -11.9395 -0.81011
-17.2452 -11.9981 -0.60141
-17.099 -11.7517 -0.384411
-17.0457 -11.9001 -0.97418
-17.1243 -12.1341 -0.787328
-17.0548 -11.9998 -1.15283
-16.987 -12.0735 -1.16259
-16.8887 -12.082 0.575178
-16.6574 -12.2119 -0.24235
-16.582 -12.3962 0.425503
-16.5925 -12.3581 -0.533763
-16.4058 -12.089 -1.1763
-16.5309 -11.524 -2.14874
-16.3016 -11.7296 -2.28632
-16.2059 -12.5461 -0.845195
-16.0142 -12.6431 -0.603253
-16.1101 -12.3312 -1.6858
-15.9436 -12.3526 -1.59351
-16.0236 -12.1858 -1.81868
-15.8798 -12.3767 -1.53836
-15.8417 -12.4536 -1.48823
-15.6908 -12.7128 -1.276
-15.7451 -12.6046 -1.25616
-15.5309 -12.0262 -1.972
-15.5007 -12.5966 -2.93376
-15.5281 -12.3461 -3.33106
-15.455 -12.6059 -2.96427
-15.4286 -12.5139 -2.85107
-15.2747 -12.365 -3.13275
-15.2339 -12.5411 -3.25892
-15.1556 -12.4015 -3.23553
-15.2726 -12.6567 -2.43276
-15.2429 -12.5083 -2.75425
-15.0761 -12.6635 -2.92902
-14.9942 -12.4338 -3.21718
-14.9305 -12.8505 -2.6114
-14.8762 -12.3787 -3.1796
-21.5905 -11.2819 0.616163
-20.6127 -11.5465 0.277468
-20.8579 -11.3957 -0.261328
-20.7462 -11.3897 -0.0529662
-20.7749 -10.589 -2.44281
-20.4747 -11.4957 -0.000681596
-20.5436 -11.3478 -0.500467
-20.5386 -11.086 -1.2479
-20.5661 -11.2504 -0.652488
-20.692 -10.3748 -3.44186
-20.5206 -10.7818 -2.28879
-20.7208 -10.7544 -2.33383
-20.3372 -11.0251 -1.86121
-20.4606 -10.7753 -2.86059
-19.4293 -11.4347 1.21958
-20.2479 -11.6117 -0.000324886
-20.4242 -10.5351 -2.75481
-20.0422 -11.3576 -0.858787
-19.9537 -11.2148 -1.39809
-20.2166 -10.8765 -2.56051
-19.771 -11.7468 -0.36445
-17.8395 -10.7137 1.34622
-20.1059 -10.9745 -2.1103
-19.7916 -11.6381 -0.350882
-20.126 -10.7134 -2.72858
-19.8189 -11.4887 -0.964685
-19.0197 -11.3905 0.332744
-19.7456 -11.299 -1.41907
-19.7534 -10.9827 -2.17542
-19.6879 -11.1906 -2.27434
-19.5536 -11.4686 -1.00288
-19.6604 -10.884 -2.7962
-19.5392 -10.8068 -3.38904
-19.0182 -11.4509 0.000962455
-19.1502 -11.2987 -0.259328
-17.4222 -10.6731 2.1619
-18.5728 -11.4565 0.271815
-19.2985 -11.2157 -2.21103
-17.1999 -10.3742 1.1872
-19.2396 -10.8259 -3.34413
-17.2458 -10.5919 1.70262
-17.0871 -10.3295 1.3904
-19.1324 -11.5788 -1.61621
-18.9795 -11.4763 -1.70306
-17.1026 -10.6317 1.41343
-18.9422 -11.4528 -1.74682
-18.8809 -11.5144 -1.71923
-18.3814 -11.424 -0.873508
-16.7857 -10.6633 1.43633
-16.5698 -10.5625 2.21925
-16.7038 -10.9438 2.21623
-18.446 -11.8559 -0.831679
-18.5274 -11.134 -3.00404
-16.8656 -10.76 1.65632
-16.8393 -10.8663 1.58662
-16.7777 -10.6151 1.38863
-18.4007 -11.8316 -1.14976
-18.2749 -11.8577 -1.12229
-18.2037 -11.7924 -1.05389
-17.6725 -12.003 0.449845
-18.1298 -11.9201 -0.730009
-17.8455 -12.0307 -0.940398
-17.494 -11.7285 -1.05805
-17.2282 -11.9304 -0.246814
-17.3083 -11.2398 -2.18157
-17.2836 -12.1142 -0.239019
-17.0392 -11.8282 -0.675023
-16.988 -12.3773 0.494983
-17.1719 -12.0946 -0.728697
-17.0859 -11.941 -1.00995
-17.1671 -11.6747 -2.11329
-16.8936 -12.2408 -0.999217
-16.7748 -12.2332 -0.536119
-16.7221 -12.4914 -0.518603
-16.7594 -12.2042 -0.976977
-16.5187 -11.8766 -1.51699
-16.6381 -12.3895 -0.384212
-16.3742 -12.165 -1.16499
-16.2972 -11.4223 -2.85642
-16.5603 -12.0105 -1.24191
-16.6755 -12.2045 -0.935305
-16.3543 -12.3172 -1.04744
-16.1603 -11.7601 -2.29783
-16.2492 -11.6723 -1.94575
-16.3147 -12.5465 -0.988751
-15.9841 -12.472 -0.993766
-16.0919 -12.3573 -1.84938
-15.8495 -11.9445 -2.34906
-15.7824 -12.1113 -1.73371
-15.8099 -12.0261 -2.14462
-15.1147 -12.5848 -3.13746
-14.9761 -12.6913 -2.81966
-14.7079 -12.5921 -3.13223
-20.8966 -11.4021 0.141921
-20.7117 -11.4765 -0.161864
-20.671 -11.133 -1.30596
-20.5562 -10.6978 -2.28465
-20.4146 -11.5402 -0.368234
-20.2419 -11.2421 -0.972191
-20.2555 -11.2216 -1.58068
-20.2004 -11.2983 -0.730292
-19.2616 -11.2852 0.867186
-19.8483 -11.8042 -0.433503
-19.8503 -11.6128 -0.303278
-19.212 -11.1938 0.268381
-17.4954 -10.2804 1.7236
-19.6874 -11.6412 -0.804529
-19.6592 -11.671 -0.869383
-18.8845 -11.2459 -0.974494
-19.3956 -10.9637 -3.15387
-19.0616 -10.7184 -3.31595
-19.0678 -11.5439 -1.84367
-18.955 -11.6343 -1.85426
-18.9302 -11.6308 -1.67926
-19.0165 -11.5389 -1.93029
-18.8726 -11.4983 -1.91357
-18.0228 -11.6975 0.111947
-18.6033 -11.857 -0.809446
-18.3134 -11.9428 -0.874795
-18.675 -11.4081 -3.09432
-18.2588 -11.9175 -0.825502
-18.4636 -11.672 -0.999723
-18.3373 -11.7121 -0.714458
-18.1743 -11.7092 -0.742276
-18.2748 -11.8112 -0.852102
-18.1109 -11.9237 -0.850183
-18.3475 -11.2914 -3.28429
-17.9042 -11.6129 -1.76383
-17.6165 -12.0497 0.0325675
-18.0597 -11.3585 -2.96739
-17.8929 -11.8624 -0.982647
-17.477 -11.9706 -0.65105
-17.6775 -11.8385 -1.34787
-17.434 -11.747 -1.37429
-16.849 -12.123 -0.0834155
-16.0291 -11.6352 -2.00687
-16.0889 -11.8334 -2.34432
-16.3239 -12.5846 -0.867341
-16.146 -12.7407 -0.644243
-15.9306 -12.7409 -0.818502
-15.4639 -12.1144 -2.01357
-15.7345 -12.6774 -2.66764
-20.001 -10.7274 1.53332
-20.404 -10.8856 -1.44103
-20.1434 -10.9854 -2.25563
-19.3398 -11.3975 0.914766
-20.127 -11.0172 -2.27577
-19.925 -11.2326 -1.02172
-19.7011 -11.4428 -1.41817
-19.0177 -10.9571 -1.07432
-19.6113 -10.8019 -3.33246
-19.2692 -11.6057 -1.67936
-19.0951 -11.1153 -2.30596
-18.6289 -11.3605 -0.981369
-18.951 -11.186 -2.59989
-18.9224 -10.9904 -3.29296
-18.8994 -11.2895 -2.63075
-18.8694 -11.1843 -2.6798
-18.3223 -12.0791 -0.678972
-18.498 -11.3188 -3.34775
-17.8103 -11.8603 -0.371702
-17.6672 -12.0643 -0.162073
-17.6237 -11.6792 -0.717609
-17.506 -11.6382 -1.16003
-17.5922 -11.9495 -0.219952
-17.0991 -11.9499 -0.302952
-16.9116 -12.406 -0.340739
-16.8185 -12.3446 -0.487092
-16.639 -12.1866 -1.12738
-16.6101 -12.3942 -0.527566
-16.4876 -12.5733 -0.116041
-16.0714 -12.686 -0.623384
-15.9363 -12.4938 -1.11781
-15.499 -12.7226 -1.84951
-15.0732 -12.7381 -2.50694
-21.3309 -11.3201 0.0668123
-21.0699 -11.286 0.196014
-20.446 -10.6291 -2.64169
-19.4085 -11.2865 0.191765
-18.5003 -11.6444 -1.23963
-18.3244 -11.3876 -1.71012
-18.0245 -11.4299 -1.56777
-18.173 -11.1596 -2.15372
-18.2535 -11.1563 -3.15855
-18.2797 -11.202 -3.39359
-17.8741 -11.9173 -0.528313
-17.0444 -12.4078 0.512277
-16.6633 -12.6197 -0.436954
-19.3338 -11.103 0.259091
-19.7549 -10.8423 -2.70817
-18.9355 -11.3701 -0.353164
-17.2297 -10.4795 1.6012
-17.7823 -11.3471 -2.01578
-17.666 -11.898 -0.473874
-17.0224 -12.1009 0.414312
-16.8544 -11.8566 -1.32168
-16.648 -12.2748 -0.285612
-16.1569 -11.5374 -2.38105
-15.3924 -12.4925 -2.96057
-19.156 -11.3022 0.116696
-18.3031 -11.6039 -1.13445
-17.8201 -11.9367 -0.661082
-17.8115 -11.2203 -2.29278
-17.692 -11.6739 -1.20505
-17.4881 -11.1118 -2.21389
-17.3435 -11.3469 -2.09226
-17.2788 -11.6429 -1.54128
-17.0894 -11.9998 -1.5874
-16.5588 -11.7149 -1.98942
-16.6826 -12.2941 -0.616009
-16.2462 -11.7025 -2.12949
-15.8932 -12.1369 -1.62019
-19.405 -11.249 0.360161
-19.5589 -11.4275 -1.07222
-17.256 -11.6636 -1.85926
-16.4433 -11.8348 -1.18956
-16.0338 -12.4851 -0.909963
-19.9752 -11.3195 -1.07225
-16.2314 -12.1782 -1.35527
-16.371 -11.7595 -1.8702
-15.6293 -12.2366 -2.83516
-15.8403 -11.7239 -2.31449
-18.8767 -9.65575 1.93851
-18.2131 -10.6034 1.90104
-20.8778 -11.7316 0.847602
-20.9396 -11.2795 0.266588
-20.4274 -11.8837 0.600177
-20.5603 -11.797 0.780167
-20.748 -11.6463 0.254159
-17.6104 -10.215 1.36155
-21.1474 -11.0809 -0.07175
-20.9883 -11.3138 -0.127304
-20.3397 -11.5977 0.354324
-20.3369 -11.8454 0.35267
-20.3293 -11.7912 0.330162
-20.3128 -11.8699 0.387969
-20.9104 -11.2386 -0.179896
-21.2061 -11.2317 -0.144035
-20.5181 -11.6603 -0.0445074
-16.8844 -10.7693 1.55402
-20.8528 -11.2744 -0.331993
-20.2093 -11.6048 -0.0808895
-20.6247 -11.434 -0.168373
-20.9699 -11.3572 -0.458936
-20.4305 -11.5751 -0.22884
-20.4271 -11.4769 -0.444472
-18.7893 -11.3886 0.249624
-20.3648 -11.5772 -0.37444
-18.8482 -11.5037 0.337834
-18.9578 -11.3394 0.0690539
-19.6954 -11.5157 -0.389242
-20.6399 -11.3679 -0.707433
-18.4442 -11.6654 0.169948
-20.2753 -11.3958 -0.963032
-20.8278 -11.1341 -1.08176
-17.9999 -11.8182 0.408016
-20.357 -11.133 -1.01978
-20.1499 -11.2441 -0.96199
-20.4084 -10.9159 -1.20017
-20.3975 -11.0112 -1.44799
-20.3809 -11.0571 -1.3627
-19.8018 -11.2795 -1.27728
-20.2356 -10.9811 -1.5294
-17.4398 -12.0812 0.295533
-18.9967 -11.5269 -0.772924
-18.9325 -11.6694 -0.821176
-19.5586 -11.4532 -1.15085
-20.3686 -11.0436 -1.65387
-18.436 -11.7367 -0.648963
-20.9806 -10.6423 -2.23627
-19.8339 -11.37 -1.44739
-20.6096 -10.7215 -2.02672
-19.9035 -11.4664 -1.55275
-19.6939 -11.3078 -1.46564
-17.6302 -11.9439 -0.361855
-17.8123 -11.8948 -0.437357
-17.5529 -11.6804 -0.53549
-16.7876 -12.3521 0.192491
-19.6457 -11.2129 -1.80625
-18.1125 -11.7583 -0.797111
-20.6744 -10.7224 -2.41345
-18.2709 -11.6964 -0.747177
-20.4932 -10.831 -2.21451
-19.4692 -11.202 -1.65608
-18.2074 -11.6381 -0.667757
-20.0972 -10.9386 -2.00981
-19.6332 -11.375 -1.60863
-18.5122 -11.5533 -1.2708
-19.8058 -11.023 -1.89759
-19.9322 -11.1311 -2.2802
-19.1859 -11.5441 -1.7555
-18.8656 -11.6177 -1.59963
-19.7907 -11.0231 -2.06496
-19.17 -11.5099 -1.69784
-18.1518 -11.7825 -1.2818
-18.491 -11.579 -1.23993
-20.1381 -10.7802 -2.41751
-18.4069 -11.5259 -1.31843
-20.6063 -10.5461 -3.0261
-20.7787 -10.5647 -2.88648
-18.3845 -11.3236 -1.36428
-16.9105 -12.1751 -0.480746
-16.9904 -12.0157 -0.142093
-16.6118 -12.2289 -0.3824
-17.0639 -11.9266 -0.513463
-18.9643 -11.4314 -1.80375
-17.0582 -11.9568 -0.768936
-19.445 -11.1401 -2.26233
-18.3078 -11.4477 -1.59455
-18.8632 -11.5218 -1.97312
-18.8007 -11.3552 -2.109
-20.1968 -10.6149 -2.90628
-17.1631 -12.0386 -0.945902
-18.9817 -11.3409 -2.13609
-19.3037 -11.2762 -2.2731
-18.2491 -11.7002 -1.70053
-19.1329 -11.2152 -2.1737
-17.9341 -11.5814 -1.63994
-18.2032 -11.6842 -1.60121
-20.4345 -10.5845 -2.99836
-20.6487 -10.4636 -3.31916
-20.295 -10.525 -3.30679
-20.3773 -10.3168 -3.15449
-19.349 -11.0845 -2.71121
-19.0025 -11.2697 -2.4945
-19.0884 -11.1349 -2.67333
-18.0682 -11.5803 -1.86453
-18.0302 -11.4305 -1.91346
-18.8428 -11.1785 -2.45823
-19.0439 -11.2573 -2.41077
-19.4121 -10.9856 -2.86753
-19.5493 -10.9016 -2.87007
-19.6202 -10.7678 -3.1164
-17.9202 -11.4523 -2.06537
-18.091 -11.2566 -2.04532
-16.8549 -11.8667 -1.37556
-19.4932 -10.8321 -3.12895
-17.1172 -11.7397 -1.35605
-19.4661 -10.8527 -3.09771
-19.2662 -10.8937 -3.4072
-17.8743 -11.5082 -2.2789
-18.8081 -10.9154 -3.00758
-19.1211 -11.0169 -3.2833
-18.5846 -11.1736 -2.94195
-18.5545 -11.2826 -2.98002
-18.4784 -11.0374 -3.07555
-18.6838 -10.9564 -3.59045
-18.3487 -11.2896 -3.06951
-18.0756 -11.5507 -3.07127
-18.3298 -11.5028 -3.28605
-15.9543 -12.4305 -1.42705
-16.015 -12.2656 -1.44451
-18.089 -11.4325 -3.04086
-18.1082 -11.4818 -3.15725
-15.8355 -12.5097 -1.58019
-16.1458 -12.2875 -1.48156
-18.0316 -11.4794 -2.99765
-16.9324 -11.2986 -2.08453
-15.8764 -12.3739 -1.88954
-15.9619 -12.0851 -2.08527
-16.0796 -12.2221 -2.04769
-16.1308 -11.7159 -2.12796
-16.1317 -11.6378 -2.22331
-16.7639 -11.16 -3.10826
-16.4226 -11.3894 -2.96448
-16.4923 -11.3117 -2.9906
-16.5906 -11.239 -2.90552
-16.4167 -11.2923 -2.83391
-15.9431 -11.4296 -2.67254
-15.1382 -12.7749 -2.73347
-14.8443 -12.7553 -2.71745
-14.9948 -12.6177 -2.78297
-15.1338 -12.4109 -3.08283
-15.2924 -12.476 -3.12286
-15.2162 -12.3812 -3.30194
-17.7228 -10.4472 1.90173
-20.5879 -11.6848 0.428508
-20.7338 -11.5946 0.492976
-21.0603 -11.5529 0.288777
-20.5089 -11.7221 0.543958
-20.5505 -11.7214 0.489823
-20.4308 -11.7041 0.592448
-17.5358 -10.5215 1.41184
-17.1285 -10.5314 1.72121
-17.5361 -10.4982 1.4471
-17.0106 -10.4414 1.54414
-21.2409 -11.2338 -0.168193
-17.251 -10.5616 1.64169
-20.4077 -11.7931 0.472267
-21.2264 -11.2118 -0.279909
-21.0602 -11.0583 -0.141403
-20.9772 -11.3126 0.174562
-17.0988 -10.5271 1.4591
-17.153 -10.5846 1.36559
-21.1728 -11.1272 -0.401465
-16.883 -10.767 1.70023
-20.328 -11.6245 0.0282265
-16.8337 -10.7066 1.55281
-20.7009 -11.4065 -0.126204
-17.1737 -10.4677 1.25485
-16.6835 -10.6731 1.53352
-16.8945 -10.705 1.55181
-19.3702 -11.2164 0.223071
-20.3363 -11.5724 -0.19345
-19.3035 -11.2566 0.253677
-20.359 -11.5195 -0.423479
-20.422 -11.4134 -0.424209
-18.8829 -11.6352 0.336087
-16.4211 -10.9112 1.26686
-18.8669 -11.3587 0.291744
-19.9869 -11.7555 -0.533121
-19.1999 -11.1922 -0.24706
-19.1484 -11.3012 -0.159676
-18.9069 -11.4665 -0.0969348
-18.4332 -11.6238 0.222136
-18.0484 -11.6701 0.264477
-18.24 -11.7492 0.41975
-18.3037 -11.7799 0.245637
-18.1875 -11.7434 0.337911
-17.8859 -11.8772 0.36467
-18.3629 -11.3903 0.0361387
-19.6585 -11.6388 -0.822031
-19.8448 -11.7082 -0.697905
-20.9574 -10.9334 -1.53638
-20.2006 -11.3882 -0.998446
-20.4276 -10.8188 -1.50142
-20.8895 -10.7533 -1.42246
-17.4695 -11.8832 0.517362
-17.7306 -12.008 0.0886962
-20.6886 -10.8725 -1.4963
-20.6242 -10.9051 -1.66951
-18.7144 -11.8065 -0.22025
-18.7497 -11.7771 -0.480701
-19.0613 -11.5919 -0.481062
-19.8962 -11.2974 -1.23319
-17.008 -12.2932 0.629719
-20.2396 -11.2353 -1.41346
-19.0068 -11.4699 -0.797693
-18.8125 -11.5544 -0.898175
-20.2928 -10.9667 -1.61181
-16.8471 -12.028 0.408721
-16.8046 -12.2785 0.299543
-20.6409 -10.6984 -1.89515
-20.7175 -10.6677 -1.97031
-18.3426 -11.8977 -0.474077
-18.7351 -11.5974 -0.700417
-18.6473 -11.6259 -0.912083
-18.5392 -11.8461 -0.670848
-18.6304 -11.6359 -0.834172
-20.3259 -11.0025 -2.23237
-17.9455 -11.9797 -0.648645
-20.6039 -10.8379 -2.62197
-20.0738 -10.8951 -2.08742
-20.0893 -10.6033 -2.33969
-19.2458 -11.3086 -1.62601
-19.7594 -11.1171 -1.90154
-19.8871 -11.1585 -1.94037
-19.9414 -10.979 -2.32039
-19.0862 -11.6754 -1.82115
-19.746 -11.3165 -1.9762
-17.144 -11.9151 -0.178805
-18.6215 -11.542 -1.1976
-18.9185 -11.4263 -1.85486
-18.913 -11.5306 -1.64832
-20.3149 -10.5817 -2.68723
-20.418 -10.5658 -2.65684
-19.1953 -11.3275 -1.85236
-20.3301 -10.8951 -2.59939
-20.6168 -10.6187 -2.86446
-20.4676 -10.6772 -2.60183
-20.2582 -10.8272 -2.62524
-20.6278 -10.743 -2.54597
-19.6514 -11.2042 -2.44041
-20.422 -10.7533 -2.74033
-20.3253 -10.9508 -2.6328
-17.692 -11.8175 -0.934669
-18.5694 -11.477 -1.30827
-17.2757 -11.8976 -0.817585
-20.5201 -10.3828 -3.18329
-19.0391 -10.8889 -2.20542
-19.5351 -11.0365 -2.52094
-20.33 -10.3469 -3.31728
-19.7209 -10.8878 -2.96155
-19.5764 -10.9664 -2.90597
-19.5567 -10.6951 -2.98771
-16.6756 -12.1615 -0.924529
-19.0461 -11.2785 -2.77428
-16.9907 -11.8761 -1.32747
-19.6628 -10.5796 -3.44951
-19.2866 -11.3525 -2.76945
-18.9867 -11.1947 -2.72399
-17.6924 -11.4801 -2.12762
-18.807 -11.0049 -3.05994
-18.8874 -11.0174 -3.14517
-18.8302 -11.1374 -3.22944
-18.5187 -11.1766 -3.05679
-17.4166 -11.0724 -2.24656
-17.3692 -11.3691 -2.14587
-17.1721 -11.2757 -2.36969
-18.4588 -11.3442 -3.18992
-18.4936 -11.2412 -3.23771
-15.8822 -12.4176 -1.16522
-16.0693 -12.4778 -1.43206
-15.7976 -12.3776 -1.4129
-15.5531 -12.5278 -1.3419
-17.1037 -11.0755 -2.22899
-17.6251 -10.9943 -2.80814
-16.7967 -11.5201 -2.19929
-15.9565 -12.3182 -1.88137
-15.9342 -12.4185 -1.95018
-16.1336 -12.1966 -2.12124
-16.1851 -11.6211 -2.20822
-16.0977 -11.6667 -2.219
-15.6185 -12.2246 -1.90799
-16.036 -11.816 -2.2049
-16.2653 -11.5263 -2.43589
-15.1285 -12.725 -2.28673
