-20.6683 -11.3417 -0.944022
-20.4263 -11.1914 -0.75717
-20.4521 -11.215 -0.985978
-17.2857 -11.921 -0.328
-20.3461 -11.4432 -0.602409
-20.4309 -11.3739 -0.511857
-20.6555 -11.5338 -0.389442
-20.6468 -11.2355 -0.430003
-20.7646 -11.4572 -0.102843
-20.9274 -11.533 -0.236352
-18.6933 -11.4132 0.545042
-20.0968 -11.8134 1.03659
-19.585 -11.1213 -2.39133
-18.5416 -11.5491 -2.15451
-19.8501 -11.0505 -2.03642
-20.5523 -11.0215 -1.66213
-20.5832 -11.0019 -1.42407
-20.0941 -11.095 -1.27444
-16.5883 -12.0586 -1.31517
-19.7814 -11.4376 -1.39636
-19.4943 -11.2981 -1.37037
-19.6115 -11.4031 -1.23779
-20.4249 -11.2954 -1.08869
-20.433 -11.0846 -1.34565
-20.2374 -11.3149 -1.25673
-19.9251 -11.3843 -1.06708
-18.4998 -11.8309 -0.84876
-20.2162 -11.2716 -0.878076
-20.3965 -11.2278 -0.913411
-17.2846 -11.8297 -0.230166
-17.0905 -11.7063 -0.336619
-19.7538 -11.4496 -0.755082
-20.1742 -11.4606 -0.814868
-20.0023 -11.532 -0.746164
-17.3964 -11.9032 -0.418461
-17.4229 -11.9856 -0.457142
-20.1767 -11.5055 -0.521867
-20.8977 -11.2651 -0.229593
-20.1557 -11.8497 0.0393351
-20.8335 -11.7 0.242703
-21.2271 -11.442 0.424741
-20.6346 -10.9217 -1.5151
-19.1222 -11.2825 -0.830983
-20.0737 -11.4287 -1.05697
-17.0567 -11.8629 -0.298594
-20.9045 -11.1244 -0.866886
-17.2788 -11.9453 -0.339772
-17.7241 -12.2039 -0.177033
-20.69 -11.2293 -0.462765
-20.9252 -11.3273 -0.471791
-20.6045 -11.5039 -0.0308579
-20.4083 -11.685 -0.179821
-20.7194 -11.4708 -0.047741
-19.8128 -11.9948 0.654146
-18.5211 -10.7832 1.45722
-20.2785 -11.0233 -1.68757
-19.7255 -11.2086 -1.51767
-16.6015 -12.1189 -1.25327
-19.2552 -11.3571 -1.19114
-18.4953 -11.6972 -0.871867
-17.2402 -11.9184 -0.586353
-17.6915 -11.97 0.00480116
-20.282 -11.938 0.146333
-20.3957 -11.8638 0.634317
-19.1211 -11.4991 1.04399
-20.9997 -11.6355 0.66161
-17.6952 -11.5455 -1.55508
-16.7006 -12.0756 -1.11662
-18.2569 -11.5968 -0.686754
-20.7561 -11.0938 -0.489912
-17.4302 -11.8457 -0.238561
-20.514 -11.25 -0.539817
-17.6623 -11.9664 -0.363256
-20.7959 -11.2727 -0.708828
-17.8954 -11.8586 -0.224013
-20.224 -11.4977 -0.539497
-20.1457 -11.823 -0.281718
-19.5152 -11.227 -1.67547
-19.2731 -11.4078 -1.70042
-17.8762 -12.1859 -0.26384
-20.7662 -11.3097 -0.637951
-20.3401 -11.6672 -0.0459224
-18.2078 -11.8136 0.673142
-20.0776 -11.6342 0.263235
-19.9618 -11.3326 -0.698936
-17.8629 -11.9313 -0.415269
-17.5651 -11.9219 0.0849381
-20.0463 -11.723 -0.0929664
-16.8097 -12.1962 0.118802
-20.5593 -11.4913 0.0255122
-17.72 -10.4333 1.22391
-17.1731 -11.2727 -2.10391
-17.3412 -11.2251 -2.20909
-20.4002 -11.4143 -0.786347
-19.49 -11.4126 0.416477
-19.2803 -11.4061 -0.350109
-19.8095 -11.9112 0.224345
-15.8073 -12.0798 -2.0496
-17.5062 -10.4697 1.95748
-20.678 -10.6807 -1.61122
-20.4228 -10.9065 -1.92506
-20.3802 -10.8504 -1.72419
-20.2317 -11.0781 -1.67486
-19.8727 -11.1934 -1.83866
-20.8227 -11.2003 -1.16798
-19.8179 -11.27 -2.00112
-18.3151 -11.3884 -2.83269
-20.5832 -11.1839 -0.786886
-20.3049 -11.2572 -0.751388
-20.0799 -11.4611 -0.785968
-20.1911 -11.2507 -1.03959
-19.3246 -11.5638 -1.45203
-18.0698 -11.3973 -1.62619
-20.4459 -11.288 -0.575276
-20.2363 -11.267 -0.487068
-20.6455 -11.5777 0.283888
-18.3711 -11.7917 -1.01866
-20.6142 -11.6211 0.106445
-20.599 -11.6882 0.320307
-18.3795 -11.6991 -0.840653
-17.6419 -11.6912 -0.955925
-17.7544 -12.0302 -0.821759
-18.9599 -11.3064 0.157477
-17.3112 -11.9165 -0.422653
-17.2054 -11.8527 -0.547978
-17.2435 -11.9925 -0.563058
-17.4858 -11.9813 -0.234625
-17.2583 -11.8217 -0.548111
-17.2905 -11.8701 -0.485024
-17.3297 -11.8891 -0.444144
-20.6763 -10.782 -1.97485
-20.1241 -10.9736 -1.81309
-20.4486 -11.1136 -1.37332
-20.036 -11.1467 -1.32151
-18.8617 -11.5762 -1.61657
-19.3111 -11.6043 -1.45814
-17.603 -11.2577 -2.48791
-20.6283 -11.3906 -0.328128
-19.7314 -11.5451 -0.896464
-20.4347 -11.3358 -0.421445
-20.8771 -11.5031 -0.175997
-20.5281 -11.413 -0.316879
-17.0746 -11.7751 -1.76474
-20.2439 -11.8149 0.0562321
-20.3073 -11.5359 0.262903
-20.9983 -11.5108 0.517213
-20.0333 -11.7755 0.146701
-19.4464 -11.4736 -0.352502
-19.2834 -11.1979 0.0658944
-19.2368 -11.176 0.0147698
-17.1406 -12.0011 -0.366487
-17.1528 -11.8824 -0.304155
-17.6242 -12.0085 -0.0432106
-17.2701 -12.1079 -0.104052
-20.1928 -11.0267 -2.03046
-20.0253 -10.9004 -1.954
-20.4335 -11.5089 -1.27251
-20.3235 -11.209 -1.1381
-19.4959 -11.5557 -1.32044
-20.8568 -11.336 -0.37528
-17.284 -11.348 -2.12125
-20.5541 -11.5124 -0.694513
-20.8224 -11.3996 -0.179864
-19.9816 -11.6925 -0.41133
-20.8031 -11.5843 -0.18625
-20.9063 -11.5075 0.414243
-18.2696 -11.6562 -1.11022
-18.351 -11.7363 -0.801181
-21.1281 -11.5378 0.508818
-18.2935 -11.836 -0.891216
-19.9482 -11.6253 -0.0560502
-17.7071 -11.8169 -0.583259
-17.3175 -12.0305 -0.652539
-17.2097 -12.258 -0.437494
-17.6045 -11.8413 -0.390373
-17.6015 -12.0569 -0.259618
-17.2652 -11.8505 -0.571382
-17.1241 -11.9523 -0.447596
-17.2758 -11.9421 -0.502623
-16.2365 -12.1615 -0.907803
-17.9799 -11.8882 -0.0217963
-17.6245 -12.0787 -0.0595915
-19.0128 -11.3035 -2.19948
-20.8552 -11.0971 -0.813039
-20.7311 -11.1537 -0.456416
-19.3598 -11.5449 -1.55786
-19.8096 -11.4205 -1.02923
-19.4301 -11.5659 -1.47647
-20.4344 -11.4672 -0.612687
-20.5169 -11.3395 -0.620791
-16.3444 -11.9089 -2.14395
-20.4974 -11.7551 0.211245
-20.4517 -11.8287 0.34384
-17.4633 -11.8993 -0.928788
-19.7463 -11.9378 0.3097
-20.3833 -11.8342 0.573888
-20.0065 -11.7832 0.657583
-16.5528 -12.1121 -0.878117
-19.9087 -11.9323 0.726385
-17.5442 -12.0484 -0.134733
-17.2093 -12.1321 -0.379944
-17.414 -11.9305 -0.0906118
-18.6347 -11.0713 1.23282
-18.9982 -11.2004 -2.64316
-18.2289 -11.3648 -2.83293
-18.1903 -11.0526 -2.43506
-18.9372 -10.9075 -1.08635
-18.8866 -11.0467 -1.11597
-18.2578 -11.4593 -1.37054
-20.1347 -11.6841 -0.106865
-20.2765 -11.4404 0.078712
-20.2673 -11.6455 -0.0025519
-20.1644 -11.9249 0.158701
-16.5534 -11.9633 -1.33604
-16.7988 -11.9014 -1.42634
-16.6353 -12.2165 -0.943813
-17.4107 -11.8303 -0.341209
-17.2096 -11.932 -0.428944
-20.6276 -11.5146 0.134196
-20.8866 -11.3731 0.132997
-17.5786 -11.9084 -0.613539
-17.0752 -12.2298 0.351231
-19.4242 -11.5993 -1.02629
-20.6677 -11.6144 -0.227615
-17.7745 -11.6976 -1.64325
-19.1504 -11.1702 -0.822789
-15.4883 -12.1788 -2.04412
-17.918 -11.7774 -0.842404
-19.8037 -11.8316 0.205304
-17.9866 -11.9381 -0.119573
-18.1991 -11.786 -0.591581
-17.461 -10.5461 1.15149
-19.1211 -11.2128 0.574442
-18.3065 -11.6233 -1.9176
-19.4814 -11.0905 0.504555
-17.9094 -11.3463 -1.98685
-18.2748 -11.4627 -2.2777
-20.9017 -10.9433 -0.79646
-20.9028 -11.2944 -0.407852
-20.0924 -11.4513 -0.984635
-19.1547 -11.1003 -2.55456
-20.3856 -11.5809 0.0650229
-18.8706 -11.4698 -1.84666
-18.1364 -11.433 -2.64067
-19.4954 -11.3187 1.21353
-18.7218 -11.3688 0.100146
-17.3636 -11.9571 -0.894694
-17.3288 -11.9197 -0.358148
-16.087 -12.6814 -0.608795
-18.0279 -10.559 1.11775
-20.7158 -10.9717 -2.00223
-20.2437 -10.8635 -2.29703
-19.7886 -10.8742 -2.51378
-20.815 -11.343 -0.459764
-21.0407 -11.4364 0.0836052
-20.708 -11.457 -0.836374
-20.349 -11.324 -0.412296
-20.6079 -11.3105 -0.203205
-20.9373 -11.5642 0.646378
-20.8717 -11.5638 0.253147
-20.6868 -11.5005 0.442459
-20.5422 -11.6788 0.298956
-20.4727 -11.8307 0.193102
-18.9531 -11.365 -2.55216
-19.8268 -11.6698 -0.688902
-19.4188 -11.3586 -1.57581
-19.3179 -11.2577 0.0446297
-19.4341 -11.3284 -0.351581
-18.1707 -11.624 -1.64357
-18.9623 -11.2671 0.0449097
-18.3864 -11.6242 -0.846736
-18.7886 -11.4028 0.346902
-17.9719 -11.8295 -0.174652
-17.6045 -12.0611 -0.0390251
-18.1093 -11.725 0.0995267
-17.2368 -11.8025 -0.278942
-17.1033 -12.0718 0.38687
-17.9891 -10.3092 0.973084
-19.9924 -10.8204 -2.29559
-20.7682 -11.2816 -0.473444
-20.8628 -11.4237 -0.341085
-20.5431 -11.3961 -0.632337
-20.2103 -11.0691 -1.05519
-20.5851 -11.3134 -0.22331
-19.9266 -11.666 -0.524587
-19.3775 -11.4629 -1.77426
-20.0261 -12.2156 0.600132
-19.2763 -11.2366 -0.0101692
-19.1963 -11.0702 0.0980146
-17.3768 -11.2709 -1.94348
-17.5465 -11.7952 -0.960405
-17.5598 -11.63 -0.826042
-18.2113 -11.7526 -0.0558988
-17.343 -12.0073 -0.989007
-16.3544 -11.8309 -2.07438
-17.3966 -12.2469 -0.620834
-16.6881 -11.9767 -1.59316
-16.2328 -11.8077 -1.90263
-17.3877 -12.0198 -0.346848
-17.2271 -12.011 -0.404766
-17.2801 -11.9355 -0.559187
-17.4628 -11.8735 -0.408827
-17.2291 -11.8805 -0.364682
-16.4668 -12.5434 -0.487438
-16.7134 -12.5954 -0.123335
-17.3739 -10.5143 1.27602
-20.6247 -11.4375 -0.676528
-20.6832 -11.5819 0.0763477
-20.5291 -11.6132 0.130016
-19.3661 -11.3713 -1.82276
-20.2611 -11.4683 -0.0337056
-19.4715 -11.4125 -1.2385
-18.833 -11.554 -1.7795
-18.7774 -11.535 -1.89134
-18.1254 -11.0986 -2.37899
-18.0857 -12.0377 -0.414601
-17.7748 -11.9535 -0.944377
-18.2505 -11.9028 -0.183092
-17.7892 -11.9503 -0.435702
-17.7234 -11.9737 -0.403794
-18.1177 -11.6984 0.25857
-17.4231 -11.942 -0.138136
-17.1871 -11.8857 -0.399944
-16.5438 -12.1263 -1.2434
-16.9874 -12.31 0.342067
-20.2406 -11.4885 -0.403284
-19.7538 -11.6224 -0.269277
-20.0792 -11.7399 0.0172062
-20.1668 -11.9357 0.237511
-19.4003 -11.5054 -1.41992
-18.0094 -11.3006 -2.25157
-18.0453 -11.4209 -1.68722
-18.0693 -11.5149 -1.76942
-19.3395 -11.27 0.890292
-18.2396 -11.7815 -0.831253
-17.4623 -11.2774 -2.19936
-17.7073 -11.5491 -1.38728
-17.7895 -11.7553 0.140875
-16.5542 -12.0524 -1.17193
-15.5692 -12.0959 -2.15914
-16.4284 -12.4525 -0.240435
-17.2311 -10.6322 1.52698
-20.5784 -10.7281 -1.99324
-19.6601 -11.0509 -2.28521
-20.1841 -11.6248 0.387618
-19.0794 -10.9646 -0.979654
-18.7853 -11.5959 0.150501
-19.2772 -11.545 -1.78627
-19.2263 -11.4712 -1.51537
-18.8141 -11.5422 -0.682618
-19.8977 -11.1267 -2.35315
-19.178 -11.3015 -0.691955
-19.4035 -11.0833 -0.0506247
-17.8918 -11.6963 -1.54621
-17.8228 -11.5057 -1.74299
-18.4131 -11.8886 -0.654252
-16.6171 -12.1598 -0.786695
-17.9681 -11.6479 -1.57187
-17.1221 -11.8539 -1.23635
-20.8912 -10.9537 -0.526463
-20.8935 -10.7511 -1.68478
-20.5189 -10.8225 -1.81652
-20.7437 -10.8903 -1.96282
-20.6902 -10.8359 -1.64687
-20.5703 -10.7339 -2.0975
-20.2634 -11.0614 -1.23299
-19.8273 -11.049 -1.87099
-19.6456 -11.1511 -2.2807
-19.5824 -11.4871 -1.5957
-18.972 -11.5847 -1.52165
-18.909 -11.3409 0.077149
-18.831 -11.4902 -1.66622
-18.8104 -11.4557 -1.80368
-18.14 -11.4871 -0.800007
-18.2641 -11.7133 -0.776828
-17.7433 -11.8105 0.517303
-20.8758 -11.4795 0.266406
-20.9454 -11.1362 -0.474166
-20.6007 -11.5206 -0.102314
-20.6068 -11.0637 -1.38591
-20.7023 -10.8814 -1.58524
-20.661 -10.9834 -1.70805
-20.5286 -11.2633 -0.711688
-20.2343 -10.967 -1.79759
-20.3809 -11.2553 -0.960795
-20.1468 -11.3623 -1.10002
-19.9856 -11.4257 -0.847392
-20.1452 -11.6137 -0.837729
-19.9984 -11.6621 -0.70646
-19.8598 -11.3035 -1.66601
-19.6098 -11.3924 -1.18502
-19.6717 -11.2873 -1.45942
-19.6809 -11.4353 -1.13595
-19.4431 -11.4854 -1.84638
-18.8173 -11.2839 -2.69439
-18.8436 -11.506 -2.62009
-18.2411 -11.7672 -0.736792
-18.278 -11.5838 -0.964947
-17.9225 -10.4818 1.4756
-18.0411 -10.4746 1.39042
-17.0273 -12.0416 -0.74304
-17.2383 -11.9273 -0.631741
-17.2129 -12.0068 -0.688774
-17.2935 -10.6043 1.49601
-20.8128 -11.516 0.538759
-21.0571 -11.2294 -0.283957
-20.5668 -11.363 -0.807401
-20.6278 -11.105 -1.05889
-20.3254 -10.9116 -1.8929
-20.2718 -11.3606 -0.931574
-20.1956 -10.9988 -1.63312
-19.6992 -11.5424 -0.860841
-19.7907 -11.1835 -1.71236
-19.8772 -11.5147 -0.565767
-19.6372 -11.5033 -0.698205
-19.7496 -11.3601 -1.25059
-19.4517 -11.5316 -1.24566
-19.4128 -11.3868 -1.376
-19.2151 -11.2688 0.267559
-18.9923 -11.3414 -2.43871
-18.7576 -11.5159 0.472878
-18.844 -11.2686 -2.88426
-17.9308 -10.4977 1.43456
-17.2464 -12.0474 -0.66528
-17.2376 -12.0698 -0.557965
-17.3579 -11.9056 -0.394494
-17.4918 -11.0487 -2.21824
-17.3465 -11.329 -2.19148
-16.7731 -12.1819 0.457103
-17.0356 -11.7105 -1.58461
-16.7338 -11.887 -1.83084
-20.7728 -11.5673 0.369062
-20.9381 -11.1631 0.00565839
-20.8778 -11.1703 -0.333778
-20.4296 -11.3311 -0.00904846
-20.2172 -11.3437 -1.05766
-19.6818 -11.6069 -1.00293
-19.7782 -10.8683 -2.673
-19.4651 -11.5893 -1.24394
-19.4058 -11.1546 0.116069
-19.0175 -11.6668 1.40899
-19.3331 -11.3713 -1.3116
-19.4527 -11.1994 -1.87763
-19.2088 -11.4845 -1.62586
-19.143 -11.1802 -2.7112
-18.5228 -11.3472 -2.85869
-17.2241 -12.0152 -0.213685
-17.0888 -11.7408 -0.415044
-16.8969 -11.7793 -1.37368
-16.9769 -11.7519 -1.67162
-16.7198 -11.8324 -1.8861
-17.2579 -10.4998 1.32311
-20.8477 -11.1194 -0.701253
-20.4367 -11.54 -0.546825
-20.4324 -11.0042 -1.44585
-20.4271 -10.8707 -2.25274
-20.248 -11.6837 0.318774
-20.0677 -11.7689 0.350058
-20.2415 -11.7136 0.250339
-19.9932 -11.4669 -0.233466
-20.0565 -10.6279 -2.40394
-19.8591 -10.9566 -2.08125
-20.1922 -11.0776 -1.7837
-19.9865 -10.8565 -2.275
-19.7001 -11.1813 -2.00038
-19.6508 -11.2448 -2.24187
-19.2861 -11.3707 0.678338
-19.3961 -11.2895 -2.09708
-19.0523 -11.4135 -1.32827
-18.5389 -12.0022 -0.77544
-18.1723 -11.6644 0.312235
-17.7131 -11.8992 0.275511
-17.5108 -11.0825 -2.65885
-16.6396 -12.221 -1.07596
-20.8515 -11.2311 -0.0968079
-20.7075 -11.6211 0.135426
-20.6395 -11.6243 -0.265129
-20.1011 -11.2284 -1.07495
-19.8352 -11.353 -1.21771
-19.8258 -11.3733 -1.27682
-18.7232 -11.4263 0.242241
-17.9521 -11.8121 0.419411
-18.0397 -11.9202 0.183685
-17.8168 -12.0115 -0.476862
-17.6304 -11.9974 -0.508841
-17.7826 -10.4647 1.42395
-17.0148 -10.6515 1.73642
-20.9205 -11.3245 -0.0921031
-20.7589 -11.3212 -0.596743
-20.8189 -11.2187 -0.681762
-20.4331 -11.0219 -1.94557
-20.044 -11.7296 -0.13383
-20.2392 -11.4184 -1.27668
-19.9089 -11.4499 -1.03425
-19.8817 -11.4396 -1.44044
-18.8767 -11.1714 -2.90816
-18.5948 -11.7513 -0.650359
-18.2643 -11.6686 -1.39831
-18.1409 -11.2126 -2.12378
-18.1576 -10.5084 1.27398
-17.4105 -11.2132 -2.09891
-19.323 -11.4346 -1.53167
-19.0613 -11.2365 0.0288104
-17.7627 -11.7168 -1.51493
-19.517 -11.3737 0.695605
-17.474 -11.3386 -1.88721
-18.4413 -11.8875 -1.01986
-18.0831 -11.6419 -1.54212
-19.3908 -11.3211 -0.458249
-21.0495 -11.1504 -0.464747
-20.5593 -11.5604 -0.369985
-20.6708 -11.2847 -0.682791
-20.6876 -11.3949 -0.486732
-20.1438 -11.4862 -0.496461
-20.5192 -11.3692 -0.673312
-20.4656 -11.2537 -0.83777
-20.5828 -11.2057 -0.738692
-20.3771 -11.1968 -1.18125
-20.7109 -10.8232 -1.77647
-20.5075 -10.9946 -1.69351
-20.4238 -11.1144 -1.55138
-20.581 -10.932 -1.78403
-20.1679 -11.1861 -1.37212
-20.4663 -10.9788 -1.76446
-20.3775 -10.8952 -1.8491
-20.5741 -10.7246 -1.65702
-20.3785 -10.9303 -1.80627
-20.3528 -10.9311 -1.67635
-20.3379 -10.9548 -1.65492
-20.2466 -10.94 -1.82141
-20.4062 -11.0442 -1.61954
-19.9165 -11.4117 -1.31565
-19.863 -11.2918 -1.31051
-20.5837 -10.9138 -1.91363
-19.547 -11.5942 -1.23131
-19.5965 -11.4709 -1.55074
-20.528 -10.9617 -2.03148
-19.9987 -10.9099 -2.24422
-19.8956 -11.205 -2.29541
-19.951 -10.8837 -2.27542
-18.7388 -11.5995 -1.75382
-18.3375 -11.8246 -1.04818
-18.8747 -11.5377 -1.69662
-18.861 -11.4655 -1.61829
-19.5675 -11.1376 -2.34167
-19.7531 -11.0879 -2.38929
-17.1724 -11.8246 -0.569009
-17.0814 -12.0475 -0.700121
-18.8668 -11.3102 -2.36086
-17.2181 -11.8726 -0.881996
-18.977 -11.1432 -2.4782
-18.4239 -11.3137 -2.94958
-20.854 -11.5164 0.232653
-20.9112 -11.3403 0.120099
-20.8816 -11.5235 0.277104
-21.0115 -11.1952 -0.279656
-20.2899 -11.7621 0.285507
-20.2672 -11.5184 -0.422932
-20.2249 -11.4142 -0.159392
-20.3786 -11.3455 -0.478157
-20.6428 -11.3232 -0.791305
-20.5511 -11.2969 -1.04326
-20.496 -11.2409 -0.74894
-21.0037 -10.9829 -1.22071
-20.6065 -11.357 -0.843815
-20.6568 -11.0484 -1.30871
-20.488 -11.3714 -1.16585
-20.5348 -11.26 -1.12347
-19.4383 -11.0787 -0.0382842
-20.5665 -10.9861 -1.51755
-20.806 -10.9755 -1.7965
-19.7899 -11.4483 -1.00257
-18.0768 -10.5288 1.25894
-20.4672 -11.056 -1.80895
-19.8678 -11.5023 -1.14734
-18.0209 -10.5447 1.38864
-20.5952 -10.7644 -1.98533
-19.5568 -11.7629 -1.10295
-19.3546 -11.5462 -1.21041
-18.2824 -11.6777 0.287151
-19.799 -11.36 -1.69978
-17.2787 -10.5849 1.44283
-17.6808 -11.9632 -0.039096
-17.6368 -11.8922 -0.00836336
-18.315 -11.6762 -0.745704
-18.4471 -11.8094 -0.67835
-18.2932 -11.6332 -0.871011
-19.1469 -11.4635 -1.74371
-17.8996 -11.8694 -0.2756
-19.4348 -11.4208 -1.91312
-19.1876 -11.5473 -1.70141
-18.293 -11.7707 -1.05895
-17.5343 -12.0324 -0.226237
-17.3086 -12.0693 -0.49864
-17.2057 -11.9185 -0.440098
-17.307 -11.8664 -0.365947
-17.0303 -12.0314 -0.639712
-17.1199 -11.8549 -0.423878
-19.3152 -10.9961 -2.742
-18.8831 -11.3506 -2.80761
-18.7946 -11.2997 -2.63767
-16.6437 -12.0239 -1.57028
-16.7498 -11.8561 -1.7666
-20.8279 -11.3688 0.360843
-20.2729 -11.5719 -0.4241
-19.9534 -11.6615 -0.486085
-20.4603 -11.2931 -1.00183
-20.3952 -11.0988 -1.31763
-20.3824 -10.9081 -1.35481
-20.3414 -10.9364 -0.99255
-19.1699 -11.4065 -0.152334
-20.5831 -11.0297 -1.73468
-18.0348 -10.5491 1.48893
-19.8595 -11.4104 -1.13225
-19.8321 -11.5256 -1.1028
-19.735 -11.4881 -1.04271
-20.4789 -10.771 -1.55726
-19.7281 -11.3163 -1.25061
-19.9633 -11.3333 -1.22135
-20.3224 -10.8684 -2.06748
-20.0168 -11.1274 -1.71246
-17.8516 -11.706 0.262074
-17.9936 -11.854 0.341919
-17.8597 -12.0082 -0.178576
-18.2413 -11.885 -0.138027
-19.2834 -11.6453 -1.59157
-19.2304 -11.6394 -1.66848
-17.6734 -12.1243 -0.154746
-17.5283 -12.0063 0.00513385
-16.8125 -12.3296 0.362535
-16.6728 -12.1026 0.59114
-19.5864 -11.0008 -2.22509
-17.3437 -12.0733 -0.0991515
-17.6969 -12.0684 -0.260257
-19.6153 -11.1021 -2.62135
-19.6555 -11.123 -2.45121
-17.1547 -11.9501 -0.361997
-19.2684 -11.0017 -2.3633
-17.7623 -11.7461 -1.00618
-19.1144 -11.2023 -2.27414
-16.5542 -12.1605 -1.05564
-18.4828 -11.3679 -2.72862
-18.2683 -11.6017 -2.88608
-16.3377 -11.5799 -2.04791
-17.2054 -11.0833 -2.56735
-21.0706 -11.5273 0.307679
-20.2108 -11.9993 0.354468
-20.1524 -11.8298 0.165738
-20.93 -11.0092 -0.896115
-21.0373 -11.077 -0.789993
-19.114 -11.5392 1.11727
-20.8526 -11.0479 -0.754335
-19.9389 -11.7317 -0.111603
-20.3961 -11.2949 -0.923722
-20.3399 -11.5419 -0.87959
-20.0812 -11.8268 -0.376689
-17.8212 -10.4288 1.68393
-20.3953 -10.8887 -1.46462
-19.8684 -11.2372 -1.28613
-20.4625 -10.7166 -1.97282
-19.4929 -11.5084 -1.68719
-19.8445 -11.1239 -2.06599
-17.2308 -12.0333 0.365613
-16.9711 -12.2913 0.403151
-18.8596 -11.4942 -1.6744
-17.1437 -11.9161 -0.36811
-17.0948 -11.946 -0.631097
-17.4723 -11.9647 -0.307489
-17.1525 -11.8818 -0.531851
-18.2435 -10.9413 -2.20236
-17.2272 -11.2899 -2.04144
-20.6204 -11.2986 0.0706023
-20.7557 -11.1709 -0.666347
-20.9741 -11.1827 -0.686655
-19.4679 -11.3631 0.725685
-20.5437 -11.4836 -0.916687
-18.9899 -11.2666 0.0696723
-18.8041 -11.602 -0.811793
-18.4559 -11.7383 -0.685886
-18.5004 -11.6882 -0.880197
-17.2243 -12.0773 -0.365557
-17.5829 -11.9675 -0.426771
-18.1913 -11.8788 -1.05433
-17.7254 -11.6848 -0.556495
-17.2798 -12.0337 -0.339213
-17.1377 -11.8012 -0.336624
-18.1589 -11.4177 -1.7919
-18.2608 -11.4859 -2.8068
-17.5968 -11.3052 -2.58116
-20.9719 -11.7478 0.400378
-20.5308 -11.6426 0.773503
-20.7158 -11.6394 0.308873
-20.7346 -11.4045 -0.096946
-19.4737 -11.1968 0.612343
-20.3664 -11.4216 -0.591397
-19.5303 -11.4781 0.311073
-20.3612 -11.2671 -1.01402
-20.2661 -11.2263 -1.18655
-18.0949 -10.8176 1.21481
-19.8792 -11.3214 -1.34558
-20.1577 -10.9515 -1.77046
-19.6739 -11.3905 -1.35585
-17.7196 -10.2309 1.25909
-20.3429 -10.9445 -2.30046
-17.2203 -11.807 -0.662092
-19.2932 -11.2379 -2.80879
-18.4508 -11.434 -2.47361
-20.0896 -11.866 0.987431
-19.6734 -11.4849 1.09179
-19.996 -11.4125 -0.911542
-17.751 -11.9812 0.226665
-17.1538 -11.7682 -0.223674
-18.1151 -11.0515 -2.22625
-19.091 -11.2952 -0.794866
-17.6482 -11.943 0.361173
-17.6279 -11.5041 -1.21372
-17.6334 -11.0391 -2.50309
-20.0065 -11.7908 -0.157728
-19.9773 -11.2718 -1.35111
-18.9075 -11.8142 -0.430943
-17.389 -12.1515 -0.495376
-17.2412 -11.8072 -0.49254
-17.2983 -12.2506 -0.63126
-18.7557 -11.6336 1.01755
-19.5061 -11.166 -2.36776
-19.6544 -11.1026 -2.65022
-20.1053 -10.9075 -2.56614
-20.4342 -10.7939 -2.16754
-19.9799 -11.1179 -2.02371
-19.7269 -11.1478 -2.08799
-18.4959 -11.7203 -1.78383
-20.6005 -10.9697 -1.80789
-19.4998 -11.2947 -1.53693
-20.6452 -11.159 -1.59787
-20.4853 -10.9368 -1.49542
-20.6839 -11.2018 -1.28887
-19.5253 -11.3504 -1.10927
-20.2074 -11.1425 -1.27632
-20.4561 -11.0135 -1.06679
-16.545 -12.3236 -0.69748
-19.904 -11.4671 -0.967383
-18.5541 -11.8434 -0.817345
-17.3082 -11.8762 -0.522009
-20.4923 -11.4095 -0.801724
-20.2059 -11.2807 -0.925536
-20.6301 -11.3293 -0.975448
-20.6237 -11.1541 -1.05268
-20.7008 -11.3325 -0.828108
-17.4601 -11.987 -0.459527
-18.0532 -12.1466 -0.549508
-19.9715 -11.4391 -0.322415
-20.3805 -11.5794 -0.424115
-20.6593 -11.2979 -0.539528
-20.2709 -11.3806 -0.283081
-17.9783 -11.9711 0.236976
-17.3473 -12.1121 0.438448
-20.5418 -11.57 -0.0496495
-20.6748 -11.5238 -0.0622192
-16.8576 -10.689 1.18406
-20.7313 -11.4686 0.219017
-19.0875 -11.2903 -2.55772
-18.6367 -11.4646 -2.30895
-20.3424 -10.6876 -2.2395
-19.3031 -11.0798 -2.41919
-20.2082 -10.8735 -2.14104
-18.9881 -11.6465 -1.8222
-19.3272 -11.5713 -1.57798
-19.65 -11.3085 -1.56439
-20.0112 -11.4897 -1.08785
-17.655 -11.7101 -0.612742
-20.1306 -11.2645 -0.837544
-17.2731 -11.9098 -0.312569
-20.2306 -11.4712 -0.571857
-20.797 -11.2432 -0.548374
-20.273 -11.6123 -0.503575
-20.6097 -11.5075 -0.361767
-20.5348 -11.5645 -0.355206
-20.8739 -11.3288 -0.162534
-18.1005 -11.7557 0.409413
-20.2484 -11.9484 0.31953
-20.2452 -11.6477 0.387471
-19.393 -11.3645 0.755737
-20.8544 -11.5436 0.509113
-20.1464 -10.8346 -1.96146
-20.5448 -10.9314 -1.77997
-19.0575 -11.4993 -1.94161
-20.2832 -10.9028 -1.72944
-19.0068 -11.4987 -1.84512
-20.5659 -10.8926 -1.49013
-19.9057 -11.3809 -1.36807
-17.2423 -11.8551 -1.1478
-19.8807 -11.4743 -1.21977
-17.8206 -11.7979 -0.750525
-20.6231 -11.3158 -0.901689
-20.8359 -11.2709 -0.682621
-20.8574 -11.151 -0.571946
-20.0648 -11.713 -0.0317828
-20.2782 -11.6747 0.00626781
-20.442 -11.6842 0.11046
-20.4557 -11.4767 0.0371161
-20.933 -11.5755 0.335263
-21.0494 -11.2973 0.380537
-20.1089 -10.9104 -2.16971
-20.1631 -11.1568 -1.49593
-19.6607 -11.3203 -1.29683
-19.646 -11.5802 -1.2827
-19.6756 -11.4138 -1.20778
-17.1368 -11.8868 -0.385207
-20.121 -11.5099 -0.487774
-20.781 -11.1303 -0.547536
-19.8138 -11.5722 -0.564497
-20.0691 -11.6055 -0.167259
-20.3918 -11.3546 -0.413691
-17.3292 -11.9558 0.318841
-19.1709 -11.2983 0.528495
-20.2748 -11.8095 0.457532
-17.8772 -10.3252 1.15852
-18.9415 -11.7509 1.13481
-17.5269 -11.3037 -2.1927
-17.4065 -11.6884 -1.20863
-19.6786 -11.481 -0.805513
-17.2826 -11.9445 -0.0136099
-18.1249 -11.9747 0.0282105
-20.5425 -11.4087 -0.317099
-18.3421 -11.5037 0.182455
-17.3952 -12.0673 0.413068
-19.2692 -11.2085 -1.96985
-17.1598 -11.8029 -1.5539
-16.5487 -12.1428 -0.870394
-20.2182 -11.161 -0.709509
-17.5334 -12.1382 -0.080469
-19.2705 -11.3632 -0.381905
-18.1914 -12.0774 -0.149363
-17.4652 -11.9408 0.0559153
-19.9189 -11.8524 -0.0229668
-17.283 -11.9845 0.507412
-20.4714 -11.2807 -0.862611
-18.9463 -11.2795 0.465843
-18.605 -11.3106 0.429367
-18.8058 -11.2696 0.501361
-18.1755 -11.9304 0.0302637
-20.6739 -11.3365 -0.223303
-17.9836 -12.0101 0.144143
-19.8757 -11.7549 -0.316641
-19.7682 -11.223 -1.479
-18.8813 -11.3815 -0.763469
-16.8703 -12.3463 0.666134
-19.6156 -11.2958 -1.31275
-18.5241 -10.7553 1.60082
-18.822 -11.5444 1.19117
-19.2096 -11.2759 0.551573
-19.3302 -11.0905 -2.55983
-18.6391 -11.247 -2.82736
-18.9711 -11.2623 -2.35324
-20.2685 -11.2049 -1.29392
-20.0445 -11.4819 -1.05229
-19.9055 -11.3534 -1.39383
-19.5214 -11.2313 -1.2949
-20.5231 -11.4203 -0.302453
-18.3687 -11.892 -0.918911
-19.6106 -11.771 -0.461392
-20.3459 -11.3735 -0.159059
-20.4472 -11.5291 -0.12089
-20.5391 -11.4938 0.0470543
-18.5745 -11.856 -0.410463
-20.6791 -11.5134 0.164977
-20.5413 -11.4887 0.369558
-17.3348 -12.1348 -0.590681
-17.4525 -11.8456 -0.529074
-20.3684 -11.6715 0.505152
-18.7196 -11.4853 0.141407
-18.2323 -11.3727 -2.69314
-18.8466 -11.3635 -2.19939
-20.6007 -10.8813 -1.53237
-19.3886 -11.4223 -1.63175
-16.2027 -11.7996 -1.9779
-20.5518 -11.4754 -0.247948
-18.495 -11.6089 -0.884923
-20.418 -11.6066 -0.105035
-18.8876 -11.5346 -0.543547
-19.2155 -11.1225 0.00029599
-17.2527 -11.8716 -0.386644
-20.9812 -11.4037 0.63034
-17.7593 -11.9693 -0.0598228
-17.3675 -11.9714 0.0645922
-17.7275 -12.0257 -0.096898
-17.7153 -12.0656 -0.161551
-19.0916 -11.7465 1.55633
-19.2982 -11.2611 -2.2607
-18.5107 -11.4771 -2.62338
-20.5642 -10.9853 -1.44374
-19.3461 -11.3388 -1.80551
-17.3243 -11.3181 -2.09759
-19.3825 -11.4674 -1.57891
-20.0938 -11.4531 -1.31708
-20.4103 -11.4261 -0.763523
-20.3233 -11.4368 -0.482264
-16.7806 -11.8318 -1.79106
-16.5721 -11.8836 -1.45363
-20.2198 -11.5575 -0.0322178
-20.773 -11.5978 0.331413
-19.2428 -11.1258 0.306456
-17.3848 -11.7434 -0.40211
-18.0005 -11.8147 -0.107674
-17.2801 -11.7952 -0.180576
-17.6193 -12.098 -0.0185132
-17.7171 -12.0605 -0.0390386
-20.1777 -11.8673 0.88285
-19.4879 -11.5563 0.856347
-18.8815 -11.189 -2.30425
-20.4661 -11.0829 -1.35468
-19.277 -11.5533 -1.48284
-19.3332 -11.631 -1.43232
-19.1083 -11.3474 -1.48383
-20.6073 -11.1395 -0.495171
-19.5333 -11.5579 -1.11986
-19.4385 -11.4046 -1.04863
-17.5834 -12.0431 -0.312598
-17.4204 -11.988 -0.351456
-17.2373 -11.9625 -0.325837
-19.6901 -11.0833 -2.2383
-19.1232 -11.3009 -2.27619
-19.723 -11.6127 -0.657536
-18.1453 -11.7001 -1.16323
-17.0989 -11.9985 -1.12522
-19.2991 -11.5008 -0.273733
-20.4713 -11.6507 0.197048
-20.8586 -11.673 0.115621
-20.976 -11.4523 0.463402
-20.9724 -11.3432 0.698841
-17.0316 -11.8793 -0.483559
-19.4713 -10.9779 0.325462
-18.1365 -11.117 -2.54514
-20.4875 -11.2404 -0.861265
-18.4976 -11.6228 -0.887807
-19.3225 -11.3538 -0.290978
-18.8341 -11.3417 0.552228
-19.0819 -11.3818 1.13823
-18.2367 -11.2271 -1.7007
-20.7506 -11.173 -0.501675
-18.5255 -11.9003 -0.141753
-18.9907 -11.0499 -1.43318
-17.4193 -11.4567 -1.75699
-18.2022 -11.434 -2.7183
-20.3233 -11.5045 -0.328365
-20.6002 -11.6735 0.183604
-20.5544 -11.5255 0.227184
-20.4153 -11.6317 0.444416
-18.3045 -11.7077 -1.20114
-16.9305 -11.7162 -1.71199
-17.7012 -11.914 -0.933113
-18.4951 -11.3684 0.0752953
-19.5207 -11.4891 1.10391
-17.2141 -12.1222 -0.640232
-17.36 -12.0671 -0.574756
-20.6728 -11.2451 -0.439334
-20.5974 -11.4015 -0.278258
-18.1194 -11.4686 -1.1302
-19.9401 -11.8699 0.0525679
-16.2512 -11.6983 -2.21173
-17.0792 -11.8675 -0.905546
-17.3018 -11.9133 -0.712565
-17.2852 -11.9025 -0.481245
-16.5858 -12.2239 0.298523
-19.65 -11.0406 -2.28176
-19.9286 -11.0513 -2.09809
-18.9885 -11.2281 -2.65027
-20.2409 -11.2268 -1.04771
-19.402 -11.5644 -1.0809
-19.7106 -11.5156 -0.966275
-20.6281 -11.5489 0.00494004
-20.2265 -11.9041 0.298837
-16.5653 -11.9425 -1.94729
-18.0833 -11.8151 -0.596196
-17.223 -12.2146 -0.692574
-17.2459 -12.0684 -0.493622
-18.0001 -10.4868 1.5514
-20.9099 -11.3271 -0.576312
-20.3742 -11.2228 -0.94835
-19.0118 -11.4375 -2.26929
-20.4266 -11.196 -0.637655
-21.079 -11.4188 0.0643202
-20.0228 -11.6496 -0.38642
-16.6392 -12.4509 -0.544181
-17.7803 -12.0252 0.489007
-17.0646 -12.33 0.29713
-20.5563 -10.9352 -1.50453
-19.9274 -11.5111 -1.38915
-20.6037 -11.5822 -0.0234698
-17.8756 -11.9024 -0.691904
-20.689 -11.1561 -1.07803
-17.4172 -10.6617 1.62147
-19.1101 -11.0292 -1.04213
-20.0825 -11.5397 -0.656441
-16.7898 -11.8269 -1.38403
-18.1519 -12.1233 0.14103
-19.099 -11.0224 -2.44622
-19.08 -11.2449 0.139821
-17.1515 -11.8209 -0.512187
-18.0286 -10.4561 1.15574
-20.562 -10.7165 -1.92986
-20.996 -11.3004 -0.837102
-20.7749 -11.2459 -0.489509
-20.762 -11.2076 -0.560318
-19.704 -11.1071 -2.18356
-20.0986 -11.5581 -0.400919
-19.4773 -11.1861 -2.04768
-19.7758 -11.4674 -0.619127
-18.9101 -11.3666 -2.63188
-19.4518 -11.4808 -1.23598
-19.2823 -11.5023 -1.48372
-18.2074 -12.0066 -0.745118
-17.6787 -12.0735 -0.144871
-17.45 -12.0289 -0.349687
-17.32 -12.164 -0.229486
-16.3912 -11.6651 -2.20154
-17.3478 -12.0107 -0.344698
-16.7702 -12.5733 0.101575
-20.7306 -11.3034 -0.611294
-20.7526 -11.3778 -0.345851
-20.1274 -11.2024 -1.15725
-20.2786 -11.2801 -0.638019
-20.2921 -11.4108 -0.494926
-19.8808 -11.5009 -1.01591
-19.49 -11.622 -1.11476
-18.7849 -11.5468 -1.59181
-17.367 -11.4499 -2.25776
-18.8986 -11.3839 1.57425
-18.2045 -11.4997 0.186101
-16.5939 -12.0118 -1.1425
-20.0964 -10.8065 -1.99438
-20.0639 -10.8928 -2.14955
-20.5381 -11.3554 0.0941738
-19.2388 -11.2404 -2.61648
-20.0426 -11.745 0.24529
-18.9979 -11.3803 -2.0386
-16.8326 -11.2399 -2.4495
-17.6038 -11.8733 -0.904491
-20.8036 -11.0605 -0.590627
-20.7479 -11.4567 -0.434004
-19.8952 -10.9164 -2.45322
-20.3742 -11.3227 -0.889404
-19.551 -11.0088 -2.01096
-20.1427 -11.4863 -0.440565
-19.6687 -11.1592 -1.50297
-20.6753 -11.7645 0.774276
-19.113 -11.3514 -2.42313
-18.8201 -11.15 -2.71247
-17.744 -11.8677 -0.565345
-17.7151 -11.7839 0.575843
-17.6242 -11.6827 -1.00271
-17.0056 -11.8298 -1.33741
-20.0382 -10.903 -2.23276
-20.3764 -11.7466 0.252127
-19.1129 -11.299 -0.839765
-19.4118 -11.0342 0.115671
-17.5364 -12.1212 -0.209763
-17.0882 -11.9913 -0.764351
-20.0772 -11.416 -0.674211
-20.6773 -11.2605 -0.439302
-19.9033 -10.9427 -2.15086
-19.2722 -11.2089 -2.09874
-19.2885 -11.2895 -2.60335
-19.1668 -11.2373 -2.64493
-18.509 -11.3047 -2.40927
-17.1515 -12.0207 -0.563943
-17.3011 -11.884 -0.591327
-17.0563 -11.0698 -2.66487
-20.8997 -11.1614 -0.270032
-20.8482 -11.128 -0.517932
-20.5422 -11.359 -0.468463
-20.4097 -10.8239 -1.9535
-20.1608 -11.5313 -0.60834
-20.0649 -10.7353 -2.5217
-19.9472 -11.3605 -1.84575
-19.8799 -10.8513 -2.37468
-19.7466 -10.9337 -2.62333
-20.0422 -11.5215 -0.977046
-19.5982 -11.5959 -0.712421
-19.6877 -11.3868 -1.70177
-19.6993 -11.6385 -1.24595
-19.4643 -11.4277 -1.7003
-19.0583 -11.4177 -1.61024
-18.8873 -11.2741 -2.72442
-18.7662 -11.2253 0.112392
-18.3654 -11.6113 -0.896011
-17.8135 -12.0133 -0.603676
-17.437 -11.6324 -1.16658
-17.4649 -11.0797 -2.40132
-17.4574 -11.1217 -2.26676
-17.061 -12.0268 -0.245111
-20.9675 -11.373 -0.151997
-20.995 -11.4042 0.00486495
-20.6142 -11.229 -0.609937
-20.5767 -11.362 -0.77887
-20.1064 -11.6653 -0.155493
-20.1231 -11.3457 -0.622211
-19.43 -11.17 0.317162
-19.0975 -11.1013 -2.36087
-18.967 -11.2168 -1.87528
-18.9722 -11.566 -1.89717
-18.1397 -12.0555 -0.48456
-17.3657 -12.1156 -0.328497
-17.3202 -11.3377 -2.0613
-17.1365 -11.5396 -2.11861
-16.3683 -11.815 -1.94626
-16.2117 -11.7773 -1.79466
-20.8102 -11.168 -0.785632
-20.5803 -10.8211 -2.01177
-20.4826 -10.8271 -1.85464
-20.3185 -11.3089 -1.23245
-20.3912 -10.7759 -2.21337
-20.0881 -11.1477 -1.53871
-20.302 -11.7203 0.788357
-19.9995 -11.3673 -0.898892
-19.246 -11.3336 -1.69311
-19.3471 -11.1608 -2.43289
-19.0896 -11.1925 -2.57433
-19.1075 -11.5856 -1.6225
-19.4831 -11.1135 -2.49227
-18.2206 -11.8522 0.128028
-17.6017 -12.0774 -0.320521
-17.1505 -12.4808 -0.211933
-17.0695 -12.1053 0.151233
-20.8462 -11.3004 -0.0985233
-20.8723 -11.3858 -0.153134
-21.0004 -11.184 -0.305526
-20.6992 -11.3031 -0.660733
-20.4433 -11.4419 0.0753656
-20.2101 -10.8491 -2.08851
-19.8483 -11.1596 -1.87352
-19.8811 -10.9511 -2.33646
-19.591 -11.1245 -1.56709
-19.4845 -11.7276 -1.29576
-19.3187 -11.4967 -1.43142
-19.0819 -11.3706 -1.77172
-18.5796 -11.38 0.299651
-18.2444 -11.7678 0.322155
-17.8625 -11.6741 -1.0626
-17.7153 -12.0353 -0.320152
-16.9271 -12.0516 0.355412
-17.5989 -10.3251 1.68207
-16.3006 -11.7529 -1.83444
-20.3539 -11.217 -0.687721
-19.2003 -11.4263 -1.66409
-19.2571 -11.6156 1.10291
-18.806 -11.791 -0.769172
-16.72 -12.0173 -1.24722
-20.8001 -11.3397 -0.0141698
-20.7192 -11.3404 -0.323764
-20.7554 -11.6315 0.0555274
-18.9526 -11.1719 -2.69774
-16.7189 -12.2554 0.30688
-19.1104 -11.1986 -2.78928
-18.0189 -11.0473 -2.32297
-16.594 -11.8405 -1.89084
-20.0664 -11.4186 -0.915607
-19.0686 -10.9704 -1.39384
-17.1727 -11.9606 -1.22763
-19.4376 -11.2989 0.371007
-17.9511 -11.8895 -0.555649
-20.8271 -11.4633 0.450974
-20.5245 -11.3432 -0.817408
-20.6578 -10.6423 -1.81117
-20.7707 -10.8309 -1.62444
-20.4219 -11.0926 -1.26886
-19.8222 -11.5089 -0.640207
-20.5872 -10.9944 -1.70454
-20.4196 -10.9601 -1.73716
-20.3699 -11.0539 -1.69427
-19.8989 -11.2743 -1.23156
-19.5528 -11.3567 -1.04984
-19.6211 -11.4583 -1.24666
-19.4713 -11.3102 -1.32611
-18.8881 -11.251 -0.00612669
-19.6743 -11.2058 -1.40751
-19.9365 -10.9827 -2.20073
-19.5315 -11.0685 -2.06752
-19.7949 -11.1295 -2.25255
-19.0435 -11.5145 -1.56206
-19.3845 -11.5153 -1.66028
-19.237 -11.0882 -1.9768
-19.2119 -11.5298 -1.645
-19.186 -11.4313 -1.85821
-18.075 -10.5429 1.48183
-19.2673 -11.1348 -2.54122
-19.4159 -11.3393 -2.36416
-19.0062 -11.6481 -2.31866
-18.4871 -11.8211 -0.992638
-18.9176 -11.3203 -2.44513
-17.1882 -12.0734 0.102576
-17.3815 -12.0518 -0.966383
-20.8489 -11.1606 -0.466914
-20.471 -11.2305 -0.69925
-20.1415 -11.4485 -0.599405
-20.2924 -11.2097 -0.968133
-20.6853 -10.9917 -1.71361
-20.5503 -10.9001 -1.67768
-20.1513 -11.5333 -0.806219
-20.5028 -10.929 -2.16465
-20.3878 -10.9135 -1.98422
-20.5611 -10.7911 -2.15942
-20.0624 -11.4197 -1.23993
-20.3042 -10.6301 -2.28117
-19.3334 -11.3519 -0.346945
-19.6264 -11.301 -0.982154
-20.0035 -10.8993 -2.26614
-19.6618 -11.1722 -2.22848
-19.7332 -10.9068 -2.47714
-19.3427 -11.3515 -1.91931
-17.7932 -10.5748 1.37524
-17.6932 -10.8123 1.45442
-19.189 -11.2781 -2.26988
-19.4035 -10.9355 -2.51667
-19.0675 -11.25 -2.65157
-18.9786 -11.1344 -2.51994
-18.9813 -11.2261 -2.66209
-17.6849 -11.968 -0.755818
-18.7268 -11.2862 -2.86986
-17.2924 -11.683 -0.490414
-17.4862 -11.3313 -1.97623
-17.0899 -11.2542 -2.25238
-16.943 -11.3161 -2.46622
-16.2147 -11.6522 -2.01842
-16.1926 -11.6358 -2.49174
-21.0308 -11.5548 0.436813
-20.907 -11.3968 0.0511628
-20.5838 -10.9345 -1.36624
-19.8039 -11.6515 -0.923967
-19.6086 -11.3867 -1.09561
-19.9929 -11.2073 -2.02963
-19.3824 -11.3833 -1.52424
-19.2508 -11.3878 -1.90411
-19.373 -11.1218 -2.33478
-18.0955 -11.7403 -0.962994
-17.6838 -12.0416 -0.589136
-17.5906 -11.6127 -0.764772
-17.781 -11.3427 -1.33526
-16.7692 -12.2004 -0.989715
-16.3329 -11.8872 -2.28461
-20.0815 -11.4054 -1.15984
-19.9225 -11.3265 -1.42312
-19.9561 -11.0637 -1.71099
-19.4366 -11.3724 -2.17304
-17.7538 -11.9959 0.498408
-18.9106 -11.216 -2.76525
-17.6407 -11.8423 -0.719325
-17.2302 -11.7149 -0.342156
-17.1383 -12.078 -0.275858
-18.4425 -11.546 -2.77244
-17.1031 -11.3477 -2.49785
-16.903 -11.4138 -2.4038
-20.745 -11.4791 -0.130829
-20.4663 -11.3388 -0.669252
-20.1107 -11.4502 -0.799969
-19.027 -11.357 0.117938
-19.3025 -11.6398 -1.49832
-18.5955 -11.6678 -0.909685
-17.5295 -11.8604 0.206918
-17.3536 -11.9832 -0.351914
-16.9313 -12.1109 0.517248
-16.6488 -12.2449 0.411972
-17.1685 -11.8383 -1.30021
-18.7429 -11.472 0.443321
-18.2095 -11.8152 0.207678
-17.7809 -11.82 -0.503205
-16.8692 -12.2735 0.760359
-20.3014 -11.3468 -0.617144
-19.9867 -11.2712 -1.12628
-19.6457 -11.57 -0.96476
-15.8727 -11.4016 -2.82413
-20.1398 -11.4705 -1.2218
-17.2435 -12.0073 -1.06592
-20.937 -11.2635 -0.582885
-17.2467 -11.9635 -0.585508
-17.7503 -11.8635 -0.00589694
-17.8559 -11.667 -1.588
-17.6602 -11.5834 -1.54846
-20.4021 -11.5252 -0.265681
-18.8544 -11.1665 0.0552069
-20.4685 -10.8655 -1.393
-20.4322 -11.3156 -1.14159
-20.3124 -11.3354 -0.930828
-20.0775 -11.2649 -1.05488
-20.6323 -11.0832 -1.38163
-20.4277 -11.0778 -1.38253
-19.8634 -11.4441 -1.27373
-20.5842 -10.7527 -1.66121
-20.4951 -10.8599 -1.69743
-20.1927 -11.2539 -1.29029
-20.6741 -10.9124 -1.6637
-19.9168 -11.3918 -1.24372
-19.6639 -11.6253 -1.19058
-20.6279 -10.7305 -1.87973
-20.8532 -10.7453 -1.91265
-18.59 -11.7639 -0.660696
-19.5473 -11.3899 -1.39481
-18.295 -11.5987 -0.93828
-19.3196 -11.4157 -1.4712
-17.3826 -11.7314 -0.469031
-19.2369 -11.5608 -1.88682
-17.2134 -11.8149 -0.511305
-19.7435 -10.8547 -2.16144
-19.0083 -11.4152 -1.80238
-19.7976 -10.9583 -2.40733
-19.2282 -11.2041 -2.23392
-19.1081 -11.1228 -2.27338
-19.7887 -10.9578 -2.5638
-18.7663 -11.1667 -2.41986
-18.6905 -11.391 -2.89001
-20.9531 -11.4663 0.508719
-20.7556 -11.5154 0.0322831
-20.901 -11.3118 -0.353592
-20.6094 -11.2859 -0.0831387
-20.8396 -11.3428 -0.573918
-18.2011 -10.6232 1.40538
-17.864 -10.2821 1.37985
-19.8483 -11.309 -1.08907
-18.5358 -11.94 -0.346008
-20.2955 -10.9275 -1.59258
-17.6527 -12.1263 -0.142962
-17.5832 -11.9587 -0.0883116
-17.636 -12.051 -0.121959
-19.7797 -11.3302 -1.895
-18.3683 -11.5306 -0.851776
-17.3014 -11.9414 -0.289368
-19.2658 -11.4539 -1.91731
-19.2025 -11.4146 -2.01733
-17.3149 -11.9869 -0.619021
-17.2258 -11.8285 -0.764128
-18.7864 -11.6326 -2.40864
-19.119 -11.214 -2.31852
-19.5604 -10.9426 -2.64299
-19.3266 -11.1141 -2.65217
-20.204 -11.672 0.638237
-20.4875 -11.3056 -0.194382
-20.3625 -11.3194 -0.317087
-20.2722 -11.6445 -0.383119
-20.5946 -11.3861 -0.758411
-17.9428 -10.393 1.32952
-17.6493 -10.3821 1.57384
-17.4287 -12.0744 -0.0258358
-17.6013 -11.9689 -0.0457316
-19.4511 -11.6199 -1.44153
-17.8688 -11.9285 -0.479358
-19.7048 -11.1569 -2.09278
-17.3215 -11.9316 -0.572889
-19.7211 -10.8536 -2.5213
-18.0741 -11.6402 -1.39474
-20.5042 -11.7868 0.435501
-19.8198 -11.6861 -0.533563
-18.1908 -10.6384 1.15445
-17.8365 -10.4905 1.48035
-16.5752 -10.4295 2.2613
-19.2192 -11.4395 -1.61861
-17.2764 -12.0496 -0.373512
-16.6242 -12.1539 -0.853689
-18.3023 -11.3796 -2.89989
-20.8872 -11.3972 -0.0499029
-20.8402 -11.3133 -0.574227
-19.0657 -11.376 0.0239803
-19.6994 -11.6397 -1.14036
-18.186 -11.9931 -0.697553
-17.1386 -11.9486 -0.437658
-20.1619 -10.9507 -2.3754
-19.1778 -11.3359 -2.22074
-19.2984 -11.1803 -2.44052
-18.0317 -11.6065 -2.9387
-17.4485 -11.1172 -2.02822
-18.1413 -10.887 -2.32266
-19.9599 -11.8272 -0.414937
-20.194 -11.4852 -0.399593
-17.1074 -12.0614 0.179476
-17.1553 -11.1133 -2.35141
-17.5443 -12.0787 -0.392689
-17.8396 -11.8557 -0.448926
-19.2426 -11.6318 -1.70724
-17.538 -12.0494 -0.401596
-18.1221 -11.6137 -1.65485
-19.0567 -11.2113 -0.0284893
-17.7305 -10.5865 1.63777
-18.9762 -11.2523 0.318083
-17.8419 -10.5129 1.89681
-17.882 -10.319 1.23289
-20.707 -11.4679 0.296227
-20.5519 -11.6121 0.270385
-20.4121 -11.5525 -0.014927
-20.1624 -11.6931 0.0950261
-20.2387 -11.7082 0.0797067
-20.8585 -11.5918 -0.0741656
-20.5691 -11.5251 -0.0712457
-20.0997 -11.5872 -0.0844684
-20.7875 -11.3649 -0.374847
-20.3807 -11.5475 -0.397958
-20.3193 -11.5082 -0.380284
-17.3815 -12.2758 0.290808
-20.2111 -11.5791 -0.416304
-18.1176 -11.9223 0.133532
-20.4866 -11.5144 -0.487642
-18.1356 -12.1178 0.0347755
-20.9048 -11.2013 -0.463135
-20.2623 -11.4924 -0.488729
-17.8556 -12.0185 -0.448268
-17.5987 -11.9641 -0.0384474
-17.7255 -12.116 -0.15478
-20.2256 -11.254 -0.59008
-17.6748 -11.9523 -0.46233
-17.5055 -11.9191 -0.306182
-20.0968 -11.4795 -0.889348
-17.5969 -12.0899 -0.303705
-20.6397 -11.0533 -0.845061
-20.4415 -11.2971 -0.924159
-20.7173 -11.2641 -0.949905
-20.4716 -11.3875 -0.882931
-20.5803 -11.3134 -0.874636
-20.0595 -11.2987 -0.916893
-20.1086 -11.5049 -0.908542
-20.0382 -11.3457 -1.05583
-20.3144 -11.2274 -0.946238
-20.1596 -11.3104 -0.983058
-19.9363 -11.3893 -0.88016
-20.1498 -11.2541 -1.08339
-20.1585 -11.2935 -0.770534
-17.0456 -11.9272 -0.516239
-18.5433 -11.6868 -0.800647
-17.2387 -12.1747 -0.939627
-17.2424 -12.1414 -0.833713
-18.3935 -11.7123 -0.922873
-19.8745 -11.4608 -1.26266
-20.3501 -11.217 -1.10619
-17.9558 -11.9088 -0.901496
-20.5308 -11.0651 -1.30399
-19.7239 -11.1165 -1.33101
-19.6001 -11.5715 -1.31897
-20.7699 -11.133 -1.25553
-18.1549 -11.5026 -1.27203
-20.8229 -11.097 -1.3387
-20.3418 -11.008 -1.51514
-19.8077 -11.2903 -1.67176
-20.3374 -11.1267 -1.58634
-20.6169 -11.088 -1.38243
-20.161 -11.088 -1.69199
-20.1754 -11.1879 -1.70815
-20.5883 -11.0052 -1.62998
-18.937 -11.5807 -1.71675
-20.0669 -11.1433 -1.74543
-16.7646 -11.9523 -1.33921
-20.5464 -11.0863 -1.69371
-20.4332 -10.9206 -1.94717
-20.6458 -10.9833 -1.80899
-19.5513 -11.0169 -1.95125
-19.5831 -11.165 -2.09358
-19.6719 -11.3376 -2.00342
-20.5681 -10.8305 -2.0701
-20.3552 -10.8445 -2.14881
-20.5807 -10.8819 -2.35768
-17.0979 -11.473 -2.2491
-18.7414 -11.356 -2.81949
-18.9926 -11.6862 1.49255
-20.8034 -11.7045 0.657758
-18.1612 -10.4443 1.21544
-20.9764 -11.4124 0.265774
-20.1505 -11.9197 0.339584
-20.8825 -11.4078 -0.0224545
-20.6901 -11.2752 0.168762
-19.474 -11.1922 -0.0344173
-20.5715 -11.4005 -0.499928
-20.8288 -11.0859 -0.76273
-20.74 -11.2859 -0.771123
-17.5761 -12.0226 -0.430304
-20.5128 -11.1946 -0.957303
-20.4942 -11.385 -0.964285
-17.2886 -11.9894 -0.353404
-17.3363 -11.9936 -0.529734
-17.4119 -11.9568 -0.523269
-19.821 -11.4285 -0.850504
-17.144 -11.9865 -0.584188
-19.8445 -11.5185 -1.06464
-20.1761 -11.3823 -1.2234
-20.477 -11.1594 -1.19245
-18.2853 -11.7841 -0.96767
-18.3646 -11.6483 -1.10685
-20.184 -11.1314 -1.54927
-20.4567 -11.1541 -1.46249
-19.8912 -11.1837 -1.50615
-19.9327 -11.157 -1.94951
-20.1735 -10.9725 -2.14939
-19.0541 -11.1823 -2.71301
-18.1949 -11.4956 -2.6928
-19.8629 -10.8446 -2.51303
-18.3838 -11.5804 -2.86095
-18.7254 -11.3322 -2.78567
-18.5847 -11.3619 -2.91769
-17.5912 -10.4688 2.03477
-20.9308 -11.5137 0.480501
-20.7867 -11.5136 0.503955
-20.7934 -11.5558 0.255746
-20.7032 -11.5016 0.258
-20.7632 -11.4993 0.197636
-19.3669 -11.2264 0.373386
-19.9553 -11.8717 -0.121098
-19.9622 -11.6436 0.106253
-20.7673 -11.2287 -0.18186
-17.5257 -12.0351 -0.454573
-17.5032 -11.8799 -0.312747
-19.5809 -11.618 -0.751656
-17.236 -12.0515 -0.448444
-17.0121 -11.9126 -0.372412
-17.5853 -11.8332 -0.623264
-19.7571 -11.3026 -1.0963
-19.4007 -11.4078 -1.59455
-20.1861 -11.0415 -1.67758
-17.9016 -11.7159 -1.37882
-16.8666 -11.8047 -1.75659
-17.9666 -11.3654 -2.17151
-16.0694 -11.5897 -2.06445
-16.1389 -11.7041 -2.09232
-18.9811 -11.3185 -2.68499
-19.3199 -11.1494 -2.70075
-16.2841 -11.3124 -2.67312
-18.9636 -11.5443 0.774533
-20.7756 -11.3234 0.138727
-20.4202 -11.4493 -0.34574
-17.4743 -12.0813 0.0989728
-17.6315 -12.0205 0.0165939
-19.9474 -11.5473 -0.576811
-17.0757 -11.9526 -0.267511
-20.1252 -11.129 -1.48737
-19.7275 -11.329 -1.58184
-19.2378 -11.6047 -1.58698
-19.3523 -11.4968 -1.59175
-16.186 -12.1523 -1.32603
-20.2421 -10.9746 -2.27718
-17.8284 -11.1442 -2.12628
-18.3935 -11.4355 -2.49638
-18.5824 -11.5904 -2.7006
-19.0972 -11.2255 1.51872
-20.5853 -11.7712 0.605034
-17.8264 -10.56 1.66775
-19.9913 -11.4137 -0.383292
-18.176 -12.1496 -0.124995
-17.7835 -12.1758 -0.116801
-17.4911 -12.0698 -0.310035
-16.5336 -12.2994 -0.999099
-19.0954 -10.9577 -1.15173
-20.5152 -10.9968 -1.66422
-19.114 -10.8923 -1.23901
-17.1168 -11.8321 -1.14572
-18.2221 -11.6562 -1.33292
-18.1237 -11.184 -2.21946
-17.4396 -11.3857 -1.96898
-18.9335 -11.3231 -2.29927
-18.0063 -10.2817 1.64169
-20.5554 -11.2476 -0.345917
-19.4734 -11.7003 -0.350179
-18.2177 -12.1834 -0.196438
-16.7937 -12.45 -0.113564
-17.238 -11.8857 -0.595356
-18.0762 -11.6609 -1.75746
-19.9027 -11.035 -2.11288
-19.3467 -10.7896 -2.69311
-15.9445 -11.2721 -2.75414
-19.1824 -11.2518 0.608834
-17.6725 -11.9851 -0.299345
-19.101 -11.3625 -0.736825
-20.1347 -11.004 -2.48037
-20.3205 -11.7546 0.0309301
-18.3077 -11.9854 0.115655
-19.0869 -11.1493 -1.29811
-18.8993 -11.0305 -1.14666
-19.0883 -11.1682 -1.42501
-19.6415 -11.5821 -1.10657
-19.7131 -11.5072 -1.27154
-19.3944 -11.5656 -1.42711
-15.8525 -12.0485 -2.0093
-19.2377 -11.2995 0.421735
-18.8518 -11.3997 -0.0488671
-18.191 -11.4406 -2.81814
-18.173 -11.0349 -1.96197
-19.1617 -11.2146 -2.25897
-19.8211 -11.3412 -2.07983
-20.5163 -10.8636 -2.00791
-18.8287 -11.4753 -1.86981
-16.9185 -11.579 -1.56095
-17.737 -11.4113 -1.65273
-20.1096 -11.298 -1.60818
-20.599 -11.1458 -1.26979
-20.6023 -10.987 -1.04861
-20.738 -11.1078 -1.2893
-20.397 -11.18 -1.09014
-17.1836 -12.1951 -0.702964
-20.435 -11.1543 -0.784745
-20.8102 -11.0563 -0.859854
-17.2735 -11.9951 -0.526392
-20.1458 -11.4218 -0.816346
-20.2164 -11.6371 -0.334865
-20.3953 -11.329 -0.337016
-18.8769 -11.3041 0.196405
-19.326 -11.3622 -0.0739367
-20.688 -11.452 -0.227272
-20.8026 -11.356 -0.144017
-18.8951 -11.2459 0.264985
-17.5143 -12.071 0.310867
-17.6654 -11.9959 0.619651
-20.3842 -11.5177 0.179966
-20.5218 -11.8067 0.220348
-20.5568 -11.5057 0.392136
-17.689 -10.5252 1.27594
-18.9707 -11.3475 -2.59439
-20.5194 -10.6537 -2.04435
-19.8929 -11.1275 -2.11417
-20.5727 -11.013 -2.23289
-18.5435 -11.4344 -1.88743
-20.3926 -11.0697 -1.32928
-20.1085 -11.3559 -1.29511
-17.3659 -11.7266 -0.528167
-19.6305 -11.74 -0.391754
-17.7296 -11.958 0.0924396
-20.1692 -11.6979 -0.370927
-21.0026 -11.3409 -0.39775
-20.7893 -11.5766 0.265054
-20.5686 -11.7218 0.471112
-21.0211 -11.3007 0.488469
-21.0777 -11.5529 0.539519
-15.5735 -12.1044 -1.91462
-19.2525 -11.2072 -1.80541
-19.3973 -11.2401 -1.80977
-20.5117 -11.0528 -1.47616
-19.8584 -11.3502 -1.278
-19.8358 -11.4089 -0.975245
-20.5106 -11.3726 -0.621209
-20.3216 -11.4712 -0.148366
-20.1031 -11.7289 -0.168335
-20.0073 -11.4326 -0.23951
-19.1761 -11.4242 0.0118294
-20.073 -11.6915 0.248139
-20.5565 -11.53 0.131418
-20.1572 -11.7702 0.423507
-17.1798 -10.4918 1.50012
-20.9021 -11.7318 0.537645
-17.2902 -11.8634 -0.67155
-18.0707 -12.1323 -0.0515577
-19.8576 -11.6991 -0.0443507
-20.1333 -11.9617 0.858747
-16.5052 -12.0043 -1.2423
-19.6509 -11.1486 -1.5229
-18.2252 -11.8377 -0.858916
-17.5814 -12.0123 0.142823
-19.6703 -11.8993 -0.129971
-18.2881 -11.6347 0.511991
-17.6636 -11.9549 -0.742658
-19.3404 -11.0307 0.203263
-19.674 -11.3959 -1.12037
-19.7517 -11.4494 -1.10287
-15.9435 -11.7163 -2.59327
-17.0714 -11.3716 -2.13806
-17.8893 -12.1656 -0.0603561
-20.5465 -10.8215 -1.73293
-19.8357 -11.0956 -1.81953
-20.9787 -11.1905 -0.908333
-20.5626 -11.3725 -0.777771
-20.0572 -11.4423 -0.64639
-20.6046 -11.531 -0.425112
-20.7018 -11.4902 -0.174195
-17.3528 -12.0647 -0.316996
-20.1143 -11.5811 -0.0878806
-20.2893 -11.5893 0.0719888
-20.4276 -11.6672 0.350144
-20.4432 -11.5239 0.179358
-20.4625 -11.7795 0.555046
-20.0637 -12.0054 0.841022
-20.4768 -11.003 -1.40499
-20.6312 -10.9549 -1.60235
-19.2919 -11.5249 -1.37053
-19.4262 -11.3992 -1.35928
-17.6019 -11.7904 -0.870414
-17.234 -11.9686 -0.928475
-19.1613 -11.322 -0.308859
-17.0273 -11.8623 -0.313992
-21.0913 -11.4709 0.287798
-17.6718 -12.0204 -0.240035
-17.6588 -12.0008 -0.168561
-17.6261 -12.0572 0.15874
-20.2059 -11.8821 1.00552
-16.5318 -10.488 2.15234
-19.5615 -11.1495 -2.34736
-19.4308 -11.5368 -0.942231
-17.2638 -11.9357 -0.439745
-20.626 -11.4925 0.333307
-17.5555 -12.0204 -0.194921
-17.4406 -11.8444 -0.145236
-20.0242 -11.795 0.953388
-18.0349 -10.4403 1.53523
-20.8555 -11.5183 0.246557
-18.6385 -11.6037 -0.680554
-20.165 -11.6496 0.042528
-18.1053 -12.1109 0.103919
-19.0546 -10.9836 -1.28669
-17.8053 -12.212 -0.58613
-19.6628 -11.9879 0.140588
-17.8566 -10.4369 1.70243
-15.9168 -11.8867 -2.60436
-16.7701 -12.7492 0.222286
-19.269 -11.478 -1.04764
-18.5613 -11.6588 -0.305065
-17.4808 -11.8929 -0.814111
-17.2642 -12.0105 -0.614163
-19.9471 -11.3346 -1.24645
-18.0612 -10.8874 -2.13271
-19.2989 -11.5836 -1.30328
-20.7901 -11.4986 -0.39885
-21.0196 -11.1268 -0.157509
-21.0802 -11.3925 0.311249
-17.2234 -11.8432 -0.388118
-19.1421 -11.211 -2.70486
-19.0382 -11.5831 -1.68531
-18.7949 -11.2959 0.0753168
-17.3585 -12.0316 -0.389458
-18.4671 -11.7141 -0.922454
-17.7213 -12.0753 -0.997585
-17.6193 -11.9775 -0.504765
-17.2564 -11.9637 -0.471942
-21.0691 -11.3761 0.276308
-19.0992 -11.7249 -0.619301
-18.5737 -11.9409 -0.652693
-17.427 -11.8758 -0.666439
-18.0539 -11.8446 0.00445487
-17.0298 -11.9539 -0.489423
-17.2347 -11.7719 -0.403319
-17.382 -11.8711 -0.508911
-17.2861 -11.8952 -0.515369
-18.224 -11.4484 -2.86384
-17.2968 -11.6213 -1.22066
-17.8033 -11.8683 -0.493864
-17.6262 -12.0088 -0.56833
-17.3339 -11.7303 -0.375276
-20.7147 -11.1414 -0.65151
-17.6259 -11.7942 -0.788654
-18.1892 -11.8818 0.164767
-16.6982 -12.2136 -0.814332
-18.3286 -11.7574 -0.970313
-17.0271 -11.747 -1.27388
-20.6073 -11.1052 -0.670823
-18.1011 -11.1597 -2.59189
-16.8917 -12.0273 -1.61788
-19.8141 -11.387 -1.31804
-19.5138 -11.362 -1.22487
-18.5264 -11.4206 -2.60544
-17.6624 -11.0771 -2.46367
-16.7117 -11.3838 -2.41113
-16.9302 -11.6675 -1.71493
-17.081 -11.8827 -1.3353
-17.1927 -11.8899 -0.366411
-20.6427 -11.3037 -0.206851
-19.3681 -11.4661 -1.97247
-19.9274 -11.4688 -0.733496
-19.4227 -11.4459 -1.52647
-17.5191 -11.7243 -0.355245
-17.4678 -12.0492 -0.548763
-16.7573 -12.191 -0.892488
-20.0412 -11.0761 -2.03239
-21.0536 -11.425 -0.109519
-19.079 -11.455 -1.80078
-17.4864 -11.7019 -1.14864
-17.5873 -11.8345 -0.6756
-20.6883 -11.2725 -0.442906
-20.5904 -11.2142 -0.399487
-19.5879 -11.2347 -2.42125
-20.2402 -11.6474 0.253544
-18.9699 -11.3404 0.282994
-17.5943 -11.7057 -0.815044
-18.889 -11.1264 -2.58425
