-18.4763 -11.2503 -3.16095
-16.2263 -11.7078 -1.98207
-15.9574 -11.3878 -2.74077
-19.9197 -11.5817 -0.958225
-16.9888 -11.978 -1.17421
-16.3076 -11.7425 -2.20159
-16.1295 -11.6085 -2.349
-15.9387 -11.6611 -2.54151
-15.3523 -12.5165 -2.78352
-15.1727 -12.5732 -2.88865
-20.1071 -11.466 -0.817817
-16.4344 -12.521 -0.557022
-18.1005 -11.6014 -1.55671
-16.6685 -12.0472 -0.847591
-16.5326 -11.6658 -2.15618
-15.3675 -12.3052 -3.27954
-17.0712 -11.8931 -0.863116
-16.8243 -11.9866 -0.746755
-16.7646 -12.0165 -1.40944
-16.8645 -11.9297 -1.94702
-17.3067 -11.409 -1.73125
-15.0443 -12.5181 -2.95779
-19.4096 -10.8566 -3.61033
-20.203 -10.1923 -3.61081
-15.1594 -12.6389 -2.60299
-18.8537 -11.1342 -3.33359
-20.1344 -10.7062 -3.28195
-16.0785 -11.5507 -2.19307
-20.1623 -10.6786 -3.10124
-16.2397 -11.7039 -1.95363
-20.5196 -10.4488 -3.04005
-19.5488 -10.8605 -2.72191
-16.8932 -11.7234 -2.15774
-16.8223 -11.6931 -2.08379
-17.9759 -11.36 -1.79412
-18.9014 -11.3423 -1.86993
-17.011 -11.7421 -1.39163
-20.4834 -10.9395 -2.17756
-17.2167 -11.85 -1.46276
-18.0862 -11.5736 -1.52725
-19.6917 -11.2029 -1.78309
-19.4922 -11.1951 -1.82869
-19.3017 -11.5019 -1.89339
-19.7965 -11.1532 -1.83649
-16.5662 -12.2237 -0.896177
-16.4393 -12.1597 -0.975838
-17.6041 -11.5692 -1.22022
-17.5645 -11.453 -1.30165
-18.8846 -11.2143 -1.07013
-18.0939 -11.7881 -1.20557
-20.558 -11.0925 -1.55529
-18.3329 -11.5745 -1.02163
-20.3282 -11.0289 -1.31842
-20.6017 -11.0711 -1.50824
-18.5958 -11.7677 -0.970631
-18.361 -11.9025 -0.882608
-20.93 -10.9948 -0.847867
-20.3369 -11.3547 -0.800052
-20.0067 -11.5713 -0.736861
-18.8873 -11.3584 -0.528061
-19.1222 -11.3902 -0.437969
-20.6854 -11.5058 -0.721565
-20.7642 -11.2274 -0.230999
-18.4925 -11.5171 0.15899
-16.7935 -12.4054 0.399424
-17.1569 -12.0919 0.479634
-18.8353 -11.561 0.306474
-16.3951 -11.2237 -2.68291
-18.6684 -11.1715 -3.58582
-18.5838 -11.2662 -3.21153
-17.5298 -11.1693 -2.33045
-17.3808 -11.2814 -2.13559
-17.2613 -11.6004 -1.8581
-20.4406 -10.6783 -2.79605
-17.5637 -11.5325 -1.30074
-20.2989 -11.1549 -1.78696
-16.9822 -11.8565 -0.883561
-15.9148 -12.5833 -0.920005
-16.6351 -12.2204 -0.683385
-20.7406 -11.1013 -1.2511
-18.725 -11.5055 -0.932394
-18.1489 -12.0661 -0.615821
-17.1051 -11.7582 -0.315352
-16.9947 -12.0747 -0.316915
-19.9599 -11.604 -0.739426
-17.7232 -12.0757 -0.312913
-20.6628 -11.1829 -0.599041
-19.0353 -11.4629 -0.17525
-21.0693 -11.2727 -0.172584
-15.7775 -11.3361 -2.67856
-17.9627 -11.5143 -1.53883
-16.4309 -12.0462 -0.977739
-16.9957 -11.9606 -0.307262
-20.3019 -11.3055 -0.197287
-17.9264 -11.7015 0.255436
-14.8242 -12.5967 -2.55026
-19.8515 -11.2316 -1.34632
-17.6178 -11.6127 -0.966351
-18.2242 -11.815 -0.661469
-20.0511 -11.4433 -0.740127
-18.7182 -11.4586 0.207063
-18.1832 -11.7244 0.320573
-17.6545 -11.7331 0.376407
-20.8117 -11.4489 0.349678
-17.3382 -10.2858 1.1573
-16.2161 -11.7891 -1.89259
-17.3525 -11.3339 -2.24082
-16.1893 -12.3794 -1.73899
-19.4149 -11.2866 -1.9233
-19.075 -11.1356 -1.10296
-20.1678 -11.2572 -1.0725
-18.4975 -11.7816 -0.769902
-20.2467 -11.2485 -0.888147
-19.0765 -11.1967 -0.066425
-17.0943 -11.9008 0.259242
-21.0221 -11.3984 0.482438
-17.3616 -10.3201 1.68034
-16.2213 -11.7711 -1.96138
-17.2059 -11.7745 -1.17723
-16.9554 -12.0113 -0.285805
-17.2046 -12.0251 -0.295488
-16.8327 -12.0845 -0.207356
-16.6483 -12.3775 -0.1641
-16.8792 -11.9233 -1.8491
-17.4725 -10.27 1.83869
-16.9151 -11.9476 -1.68008
-15.0552 -12.4456 -3.1986
-20.0821 -10.5255 -2.87972
-16.0917 -11.637 -2.58619
-15.3098 -12.4357 -2.7809
-15.1238 -12.6211 -2.87006
-15.2023 -12.833 -2.3833
-16.803 -11.6331 -1.74037
-18.2251 -11.4777 -1.54608
-16.7712 -12.0247 -1.62385
-17.8761 -11.6304 -1.16866
-18.2612 -11.6721 -1.22145
-18.0017 -11.813 -1.25579
-19.9213 -11.3316 -1.24412
-20.2351 -11.3659 -0.646473
-17.0169 -11.8993 -0.48139
-17.9784 -11.7886 -0.327105
-20.7198 -11.2722 -0.0997941
-20.5496 -11.3951 0.017826
-18.3184 -11.6351 0.172897
-20.925 -11.6024 0.157773
-16.6902 -10.619 1.57849
-16.9259 -10.7701 1.84441
-14.7264 -12.6759 -3.16107
-15.9067 -11.7995 -1.96975
-17.4275 -11.2552 -2.00917
-17.1885 -11.8173 -1.78729
-20.7869 -10.8013 -1.61265
-19.7639 -11.1697 -1.21779
-15.8858 -12.739 -1.29007
-19.8039 -11.3494 -0.702374
-17.2915 -11.9758 -0.51333
-21.2811 -11.2605 0.153879
-17.5104 -11.4783 -2.24682
-17.743 -11.7337 -1.20246
-20.1236 -11.1843 -1.32872
-20.0359 -11.1165 -1.21719
-21.299 -11.2335 0.238425
-16.835 -12.2583 0.464268
-15.1514 -12.4912 -2.68119
-17.221 -11.321 -2.1227
-15.8058 -12.2418 -1.90062
-17.0672 -11.8072 -1.37189
-19.7366 -11.4742 -0.992976
-20.5069 -11.1112 -0.85775
-19.2359 -11.3035 -0.287646
-18.0376 -11.4643 -1.62881
-18.9012 -11.4345 0.126522
-17.9989 -11.6336 0.0700506
-17.359 -12.1124 0.173054
-16.0893 -11.8519 -1.9538
-18.3158 -11.1814 -1.67299
-19.2035 -11.2289 -1.02095
-16.8411 -11.9192 -0.898344
-17.1725 -11.3706 -2.15253
-16.5901 -12.1444 -0.95773
-19.7227 -10.9124 -2.26004
-15.26 -12.5051 -2.96789
-16.2312 -11.7606 -2.14073
-19.0276 -11.4152 -1.97604
-15.1953 -12.6534 -2.52419
-20.6704 -11.228 -0.51385
-17.1902 -11.7013 -1.31878
-18.1506 -11.6892 -0.60975
-18.9536 -11.4498 0.0752989
-17.0855 -12.1956 0.482806
-17.0775 -11.4538 -2.41403
-16.9866 -11.2388 -2.33609
-15.2733 -12.3936 -2.95851
-15.9883 -11.7677 -2.18917
-16.3964 -11.5249 -2.06749
-17.1446 -11.7195 -1.81894
-16.666 -11.8464 -1.89927
-18.8867 -11.081 -1.05473
-18.147 -11.7315 -0.899909
-18.3071 -11.5513 -0.827838
-15.9669 -12.5464 -1.35806
-15.9947 -12.2973 -1.29487
-17.9338 -11.9176 -0.421031
-16.3858 -12.6433 -0.780172
-16.1679 -12.7685 -0.650816
-17.5139 -11.9052 0.369897
-17.4513 -10.5715 1.55412
-17.0917 -11.5539 -1.94052
-18.8608 -11.2067 -0.93651
-15.9472 -12.1802 -1.64115
-16.702 -12.3009 -0.439318
-18.7408 -11.4247 0.0903137
-16.0357 -12.6434 -0.66998
-16.7239 -11.7193 -1.53125
-18.3282 -11.7374 -1.22261
-16.7071 -12.1522 0.362192
-16.9322 -12.023 -1.98818
-19.1425 -10.9793 -1.01801
-18.4841 -11.9374 -0.734874
-17.9684 -11.0541 -1.74699
-18.1727 -11.1933 -1.83177
-18.9445 -11.1775 -0.251924
-20.6592 -11.1875 -0.417474
-18.1966 -11.5335 -1.49831
-21.1327 -11.3691 0.349308
-20.6589 -11.6526 -0.149897
-19.1885 -11.0343 0.0582187
-19.2119 -11.1958 0.174233
-17.5285 -11.8013 -0.918819
-17.6563 -11.6882 -0.432989
-17.9466 -11.8297 0.326344
-17.2029 -11.9121 0.19356
-16.951 -12.2725 0.290613
-16.5772 -10.4681 2.06765
-16.3956 -11.4241 -2.98567
-18.8058 -11.1276 -1.23283
-16.3399 -11.7932 -2.22602
-16.8155 -11.7038 -1.74083
-15.3108 -12.3459 -2.83428
-17.3791 -11.7869 -1.26137
-17.5897 -11.7846 -0.783735
-16.1936 -12.4054 -0.688517
-16.0282 -12.5357 -0.876044
-16.3571 -12.6238 -0.462871
-19.0726 -11.1404 -1.37749
-17.5933 -11.5747 -0.908484
-17.6321 -11.7743 -0.618084
-18.0019 -12.1133 -0.417457
-17.6339 -12.0965 -0.274421
-17.2788 -11.7127 -0.259606
-16.4606 -12.2495 -0.766774
-16.7854 -12.2203 -0.40188
-16.5393 -12.4147 -0.0583118
-16.7543 -12.3244 -0.244438
-16.8898 -12.152 0.521843
-16.691 -12.3765 0.398852
-19.2077 -11.1187 0.0323165
-16.9057 -12.1059 0.547179
-17.1807 -10.8365 -2.77432
-18.0404 -11.2474 -2.00243
-16.6073 -11.7479 -1.42908
-19.3308 -11.143 -0.0677327
-18.9077 -11.4198 -0.71869
-18.2924 -11.8505 -0.634887
-16.3477 -12.5815 -0.929096
-20.6721 -11.1792 -0.461192
-20.8312 -11.3442 -0.439546
-18.125 -11.4362 -1.44373
-19.3152 -11.1268 0.0947082
-16.2777 -11.5342 -1.99149
-17.9956 -11.5323 0.409608
-17.8033 -11.886 -0.170706
-16.8771 -12.1448 -0.462842
-16.8278 -12.2002 -0.199757
-20.6195 -11.2369 -0.397325
-15.374 -12.5658 -2.6934
-17.9381 -11.8841 -0.278539
-16.724 -12.3367 -0.247876
-18.8272 -10.9432 -1.0319
-18.1367 -11.5118 -1.45998
-17.7801 -11.1932 -2.23798
-20.6491 -11.4446 -0.338247
-17.0346 -11.8968 -1.15067
-18.6833 -11.4013 -1.18522
-16.4239 -12.3418 -1.36907
-17.3527 -11.6805 -1.72725
-15.8703 -12.2082 -1.91473
-18.3305 -11.0493 -3.77929
-20.8462 -11.1866 -0.78602
-19.6255 -11.222 -1.78392
-17.2021 -11.3792 -2.19696
-16.1055 -12.7052 -1.29615
-16.5393 -12.6222 -0.245209
-18.0024 -11.5414 -1.97899
-19.7222 -11.1046 -1.57034
-20.8461 -11.2451 -0.354304
-18.0458 -11.6904 -1.2528
-16.1652 -12.6072 -0.642871
-17.9137 -11.2323 -2.44412
-18.2371 -11.6995 -1.29592
-18.2769 -11.5971 -1.44081
-16.1489 -12.4994 -0.903514
-17.3119 -10.9339 -2.00539
-17.3405 -11.5563 -1.28963
-16.7733 -12.0128 -1.46319
-20.759 -11.1282 -0.487018
-20.6754 -11.2494 -0.369834
-20.6006 -11.334 -0.304487
-17.8613 -12.1122 -0.41552
-16.6282 -12.3351 -0.656513
-20.7339 -11.2043 -0.569746
-19.8151 -11.2126 -1.74085
-16.57 -12.1708 -0.316141
-20.887 -11.2925 -0.633384
-19.1573 -11.2323 -2.38031
-18.9202 -11.3677 0.277978
-18.2615 -11.4952 -1.36588
-17.2245 -11.7156 -1.70758
-17.2873 -11.8288 -1.40217
-17.7353 -11.9414 -0.148387
-17.2665 -11.9877 -1.03902
-16.1558 -11.6028 -2.1267
-16.5925 -12.044 -1.65632
-16.7302 -12.3356 -0.237359
-17.755 -11.1476 -2.21379
-18.1568 -11.5353 -1.30954
-20.7916 -11.1902 -0.363041
-17.0903 -12.1973 -0.822972
-20.8409 -11.1731 -0.352622
-17.2299 -11.8824 -1.16069
-16.1863 -12.5704 -0.693331
-17.668 -10.295 1.4994
-20.6065 -11.3868 -0.258489
-16.5698 -12.5663 -0.370436
-15.1295 -12.4297 -3.17367
-20.3807 -10.6653 -2.76242
-18.5467 -11.6473 -0.533273
-17.9902 -12.0772 -0.26415
-17.7994 -12.0076 -0.445935
-16.8751 -11.7494 -1.51575
-16.3364 -12.4407 -0.872832
-15.288 -12.478 -2.74763
-20.6734 -11.4691 0.190363
-20.1456 -10.8732 -2.50197
-17.7089 -11.8291 0.663181
-16.6734 -12.0399 -1.78717
-16.2396 -11.6841 -1.97233
-16.4704 -12.2444 -0.779186
-17.2617 -11.8723 -1.0146
-16.6122 -12.0507 -1.27333
-18.9751 -11.22 -2.66749
-16.6686 -12.1477 -0.490492
-16.4986 -11.8135 -1.59657
-19.7292 -11.258 -1.8751
-15.3663 -12.5706 -2.8725
-15.1917 -12.5148 -3.20568
-17.01 -11.8932 -1.32557
-16.184 -12.027 -2.2635
-16.2454 -12.6791 -0.426084
-16.3124 -11.5344 -2.25195
-17.3309 -11.7527 -1.04878
-16.921 -11.7911 -1.28718
-16.9986 -10.4548 1.63601
-17.6237 -11.8532 -0.494935
-17.9498 -10.9143 -2.21227
-17.2791 -11.2161 -2.26733
-16.5408 -12.4952 -0.20018
-16.8476 -12.2118 -0.43046
-16.5659 -12.4024 -0.437094
-16.7918 -11.9805 -1.17967
-16.2981 -12.742 -0.860161
-17.2356 -10.574 1.41844
-16.9031 -12.3689 -0.296229
-16.8149 -12.3098 -0.185134
-15.9988 -12.7183 -1.04371
-20.6016 -11.4251 -0.530722
-17.3781 -11.0857 -2.31829
-15.7471 -12.6008 -1.11019
-16.2886 -11.5597 -2.14109
-16.9947 -11.8529 -0.914331
-17.5541 -10.9894 -1.94971
-16.9006 -12.1041 -0.55807
-17.0371 -11.8875 -1.0012
-21.2051 -11.0045 -0.641459
-20.7755 -11.2777 -0.18887
-20.706 -11.1477 -0.647114
-18.8145 -11.0588 -1.09539
-19.6342 -11.0151 -2.16669
-20.0466 -10.4929 -3.76871
-17.7384 -11.8606 -0.294998
-17.3147 -12.151 0.37844
-18.0982 -11.6252 -1.54754
-16.8423 -11.8437 -0.486147
-16.6411 -12.38 -0.35016
-21.0313 -11.3617 -0.409701
-20.8458 -11.225 -0.548189
-17.9663 -11.7986 -0.0949323
-16.6493 -12.2282 -0.202639
-18.4295 -11.0855 -3.39584
-16.6611 -12.0969 -0.890668
-15.4053 -12.5084 -2.79272
-19.8311 -10.8529 -2.90112
-17.6601 -11.9035 -0.52127
-16.7769 -12.382 -0.279785
-16.829 -12.4268 -0.0962913
-16.9526 -12.0865 -1.18316
-15.9281 -12.3987 -1.15518
-18.5116 -11.6134 -0.716002
-16.2695 -12.6493 -0.750147
-16.8998 -12.0327 -1.02304
-20.2935 -11.3567 -0.810002
-20.3797 -11.0328 -1.51988
-20.2471 -11.0423 -1.82169
-17.6966 -11.8654 0.137937
-19.9047 -11.049 -2.47285
-20.2974 -10.7632 -2.93733
-19.8453 -10.8354 -2.62817
-17.0718 -11.9416 -0.349183
-18.1182 -11.6803 -1.39401
-16.869 -12.1467 -0.382037
-19.347 -10.966 -2.86965
-17.5084 -11.6607 -1.23421
-17.0065 -12.2797 -0.553527
-16.5102 -12.4224 -0.151849
-20.9716 -10.8599 -1.85181
-17.7484 -11.8004 -0.245801
-17.7803 -12.0427 -0.356004
-18.4022 -11.5654 -1.16758
-17.6356 -11.6295 -1.03881
-17.0524 -11.8771 -0.529667
-16.4053 -12.3984 -0.521272
-16.7392 -12.2359 -0.577955
-16.2624 -12.4957 -0.904784
-16.1265 -12.5611 -1.16403
-14.5156 -12.745 -3.12326
-21.2627 -11.0782 0.0474952
-18.6733 -11.7455 -0.623349
-16.7239 -12.1684 0.334579
-16.9654 -12.3721 -0.254836
-16.6194 -12.2917 -0.294403
-17.0828 -11.9185 -0.935127
-16.5814 -12.0712 -0.647995
-16.3561 -12.0145 -0.852275
-18.7053 -11.2265 -1.10833
-17.1746 -11.3201 -2.02271
-16.1071 -12.6362 -1.01726
-16.9347 -11.7487 -1.87983
-15.9433 -12.3538 -1.28732
-15.9689 -12.0729 -1.90036
-16.9187 -12.4673 -0.166792
-15.801 -12.2944 -1.66152
-17.6627 -11.9167 -0.268015
-17.8645 -11.754 -0.490305
-20.6395 -10.6196 -2.43452
-17.1699 -11.8502 -0.324464
-20.0158 -10.9193 -2.31871
-19.9188 -10.4664 -3.40925
-16.3024 -12.3624 -1.22264
-16.8216 -11.7766 -1.88749
-17.1874 -11.2461 -2.18878
-17.3975 -11.1235 -2.33881
-16.1968 -11.7018 -2.03964
-18.8931 -11.4393 0.132986
-17.0248 -12.1053 0.525352
-16.7568 -11.9911 0.173681
-16.7322 -12.4447 -0.207146
-17.1314 -11.7767 -0.373379
-16.5586 -12.4331 -0.92248
-16.7154 -12.3058 -0.85002
-16.4222 -12.5639 -0.549488
-18.0102 -11.255 -2.16741
-16.5414 -12.4021 -0.854874
-16.9786 -11.5985 -1.87282
-15.9702 -12.1605 -1.1468
-14.9904 -12.8022 -2.81993
-15.3134 -12.5896 -3.04408
-18.5579 -11.3288 -1.49804
-16.3285 -12.4989 -0.423817
-15.9468 -12.4926 -1.0456
-16.3476 -11.5374 -2.27824
-15.3942 -12.5836 -3.03098
-16.7796 -12.2244 0.259677
-17.5816 -11.8592 -1.191
-17.6737 -11.7393 -1.39541
-17.2516 -11.5047 -2.17008
-15.6768 -11.5629 -2.70538
-16.996 -11.8073 -2.11357
-15.819 -12.6872 -1.38699
-17.4095 -11.7837 -1.54519
-15.4731 -12.3712 -1.3762
-18.057 -11.5093 -1.54843
-16.7677 -11.9635 -1.23792
-16.7958 -11.7899 -1.80439
-16.9441 -12.3669 -0.382426
-16.9876 -11.9787 -0.21056
-21.4088 -11.2236 -0.0800033
-16.6035 -12.3838 0.390989
-16.627 -12.1799 0.411597
-16.5837 -12.4027 -0.369399
-16.5246 -12.6626 -0.188425
-17.0536 -11.807 -0.531178
-16.6607 -12.2851 -0.371402
-17.0583 -11.9153 -0.536821
-19.6873 -11.1439 -1.7029
-20.8785 -10.7589 -2.67544
-19.4157 -11.0918 -2.2636
-16.6207 -12.057 -1.0701
-18.9316 -11.305 -2.1244
-20.4665 -10.4672 -3.07575
-20.4515 -10.3772 -3.19454
-20.256 -10.6236 -3.04134
-20.0305 -10.8543 -2.86268
-19.5209 -10.8249 -2.91927
-19.2021 -11.1188 -2.83394
-17.0916 -11.7182 -1.85508
-17.5658 -11.0008 -2.28347
-19.3955 -10.7234 -3.5265
-15.4478 -12.742 -1.84457
-18.8988 -11.023 -3.45757
-16.1998 -11.1835 -2.75841
-14.8864 -12.7368 -2.44871
-14.8859 -12.7056 -3.0951
-16.8142 -10.4995 1.10005
-20.4321 -11.4197 -0.244898
-20.1236 -11.0737 -1.20876
-19.7137 -11.3455 -1.40938
-16.9952 -11.9096 -0.524559
-18.5396 -11.6264 -1.07493
-20.3011 -10.519 -2.80623
-18.905 -11.1103 -2.67786
-15.8484 -12.4489 -1.3617
-17.4696 -11.1068 -2.19993
-16.8466 -11.5429 -2.14001
-16.2632 -11.6463 -2.04731
-14.96 -12.6406 -2.56963
-17.0367 -12.1845 0.178032
-15.8327 -12.4543 -1.26649
-15.2087 -12.4188 -2.75522
-16.9302 -11.9401 -0.345706
-19.9431 -10.9849 -1.76658
-17.5727 -11.3122 -2.14497
-15.2618 -12.1193 -2.26663
-18.6069 -11.7738 -0.815693
-17.1261 -11.8987 -1.14543
-15.7796 -12.0782 -1.95837
-19.0722 -11.1963 0.262868
-18.7938 -11.6434 -0.752154
-16.2908 -11.9195 -2.2386
-20.8407 -11.4681 0.236011
-16.8432 -12.2983 0.487798
-17.115 -12.0845 0.413347
-18.4174 -11.4307 0.143817
-20.7213 -11.3 -0.367317
-21.3303 -10.9993 -0.645474
-19.2084 -11.3125 -0.500192
-19.9607 -11.5481 -0.614595
-17.1557 -12.0361 -0.180344
-17.0998 -11.8463 -0.355991
-20.3302 -10.9984 -1.12251
-18.4952 -11.6434 -1.0236
-20.6797 -10.9547 -1.55263
-17.0995 -12.0281 -1.03516
-16.023 -12.6458 -0.783894
-17.7901 -11.7404 -1.22181
-17.6593 -11.7735 -1.07087
-17.5854 -11.7522 -1.25818
-16.421 -12.0564 -1.08868
-18.1312 -11.6309 -1.53911
-18.2417 -11.5603 -1.55604
-17.0698 -11.8548 -1.40347
-20.5624 -10.6346 -2.27109
-20.2925 -10.7116 -2.69395
-20.346 -10.5061 -3.04431
-19.9868 -10.7432 -3.11574
-17.5283 -11.4921 -2.25756
-18.9874 -11.2044 -2.96238
-16.16 -11.8274 -2.07874
-18.3574 -11.1704 -2.83625
-16.2986 -11.6083 -2.11109
-17.3014 -11.193 -2.31797
-20.0562 -10.5286 -3.50909
-18.627 -11.284 -3.2334
-19.522 -10.6439 -3.61927
-19.1126 -10.6031 -3.50054
-15.6295 -12.3906 -2.84327
-15.3928 -12.6612 -2.68862
-15.3264 -12.5326 -2.60586
-17.2528 -10.7792 -2.85875
-15.4752 -12.4425 -3.04887
-16.0037 -11.4635 -2.61282
-15.4713 -12.6461 -2.95496
-15.471 -12.4457 -3.07781
-15.3264 -12.5285 -3.12118
-15.1058 -12.4379 -3.21116
-20.4628 -10.9247 1.00655
-21.2232 -11.3712 0.266663
-20.4088 -11.6572 0.00646279
-21.1157 -11.3086 -0.314356
-18.5866 -11.3241 0.107427
-18.2164 -11.7701 0.0817217
-20.7306 -11.3836 -0.330009
-20.7638 -11.2596 -0.528169
-20.0783 -11.4665 -0.587874
-17.6944 -12.179 -0.269639
-19.8569 -11.2958 -0.934009
-16.8721 -12.2767 -0.218564
-16.909 -12.3125 -0.264935
-17.1959 -11.7455 -0.244689
-18.1864 -11.9706 -0.738555
-20.0736 -11.4081 -0.982203
-17.0857 -12.161 -0.677114
-16.5404 -11.9207 -1.10185
-19.6408 -11.2291 -2.02326
-15.7285 -12.6354 -1.36298
-18.8333 -11.5463 -2.27814
-18.6134 -11.3283 -2.1075
-18.9031 -11.2409 -2.4767
-17.1829 -11.4308 -2.04538
-17.3688 -11.2939 -1.96514
-17.3316 -10.9929 -2.16147
-20.2855 -10.4502 -3.23722
-19.35 -10.5829 -3.22029
-18.7556 -11.368 -3.17787
-15.4696 -12.0774 -2.15432
-19.94 -10.3547 -3.75847
-19.5156 -10.7596 -3.7487
-18.5512 -11.0087 -3.53519
-15.3274 -12.5372 -2.74359
-17.4399 -10.9226 -2.87259
-15.4585 -12.5025 -2.85904
-16.3173 -11.2929 -2.75255
-15.9694 -11.3532 -2.56721
-16.5643 -11.2188 -2.90731
-15.2421 -12.5998 -3.00495
-15.0749 -12.3257 -2.99282
-14.9875 -12.6326 -3.18613
-16.6959 -10.4585 2.20577
-17.3098 -10.5315 1.75885
-21.3283 -11.3995 0.652545
-20.3326 -11.3672 -0.0782632
-18.821 -11.3211 0.088213
-20.8918 -11.1688 -0.274069
-19.8794 -11.4077 -0.675429
-19.1278 -11.4266 -0.289514
-16.7853 -12.0251 -0.204561
-19.8423 -11.5327 -1.17055
-16.2059 -12.5347 -0.636487
-20.0805 -11.2098 -1.46166
-16.6491 -11.9661 -1.05575
-16.2613 -12.1898 -1.10047
-17.3281 -11.3753 -1.93199
-19.1044 -10.9706 -2.96038
-19.4369 -11.0851 -2.87903
-19.0522 -11.0595 -3.09499
-18.6196 -11.275 -2.92133
-17.5442 -11.2458 -2.36412
-20.1 -10.566 -3.77129
-17.3109 -11.0406 -2.66775
-15.3615 -12.4798 -2.76177
-15.9425 -11.6893 -2.56458
-15.1531 -12.5304 -3.10803
-15.1813 -12.4164 -3.39447
-17.4447 -11.8603 0.15675
-18.4495 -11.7313 -0.485999
-20.3691 -11.2257 -1.60696
-16.977 -11.8836 -1.25214
-17.3808 -11.3814 -2.49721
-15.9498 -11.6923 -2.46878
-14.7644 -12.8402 -2.7582
-15.7611 -11.3198 -2.85051
-15.5903 -11.3991 -2.82787
-16.9538 -10.4847 1.65149
-21.0907 -11.4145 0.483831
-21.2665 -11.2916 0.177043
-19.1392 -11.181 -0.289643
-16.7371 -12.394 -0.122017
-20.0918 -11.5217 -0.755255
-18.92 -11.2801 -0.771456
-17.0037 -11.736 -0.722867
-19.911 -11.0521 -1.62334
-16.3349 -12.0462 -1.38158
-16.2545 -12.4603 -1.52823
-19.5918 -10.9185 -3.05368
-17.4895 -10.8842 -2.9172
-16.0326 -11.3787 -2.73679
-17.3355 -11.8964 -0.20084
-16.8124 -12.0822 -0.375809
-18.1114 -11.4734 -1.67914
-16.9088 -11.9449 -1.30046
-17.5193 -11.7501 -1.442
-18.8281 -11.3291 0.102136
-17.2895 -11.9208 -0.396328
-18.4405 -11.5082 0.324391
-16.7935 -12.4099 -0.358983
-16.13 -11.6542 -2.1207
-17.3569 -12.3182 -0.757737
-16.9764 -11.9403 -1.47207
-16.7945 -11.8788 -1.51142
-16.6555 -11.2367 -2.98222
-15.329 -12.5605 -3.16073
-14.9425 -12.574 -2.87027
-15.4091 -12.5109 -2.92387
-15.3696 -12.5192 -2.88232
-18.6833 -10.9293 -3.49855
-18.7235 -11.0886 -3.43796
-19.5399 -10.6544 -3.26678
-15.4157 -12.5141 -2.77169
-18.3718 -11.157 -3.08194
-18.1738 -11.4197 -3.28684
-19.9053 -10.5531 -3.3506
-19.1249 -10.7583 -3.35237
-18.1554 -11.4998 -3.08639
-18.0791 -11.3722 -3.08471
-19.3324 -10.7379 -3.23963
-20.5444 -10.3815 -3.45888
-18.5782 -11.0236 -3.06861
-20.3086 -10.2531 -3.33153
-18.7221 -11.0417 -3.05423
-18.5673 -11.2565 -3.14512
-20.544 -10.2689 -3.48211
-20.3132 -10.5315 -3.30531
-20.3106 -10.4488 -3.21145
-20.1939 -10.483 -3.23782
-20.1319 -10.5958 -3.32303
-19.5114 -10.8169 -2.93401
-19.4846 -10.7817 -3.06144
-18.5785 -11.3 -2.93368
-18.5359 -11.2318 -2.73281
-18.6948 -11.3558 -2.853
-19.5689 -11.0241 -3.04841
-19.2966 -11.1221 -2.85324
-19.5193 -10.9594 -2.98181
-16.2785 -11.5124 -2.18271
-16.4399 -11.5106 -2.04449
-19.3832 -11.0429 -2.8584
-19.3757 -10.9924 -3.0217
-20.9056 -10.2606 -3.11669
-20.6173 -10.4466 -2.90104
-18.9578 -11.1739 -2.59371
-20.1693 -10.6534 -2.81827
-16.1041 -12.0413 -1.99739
-19.3011 -11.1812 -2.5922
-15.9927 -12.0157 -1.93336
-17.802 -11.5122 -2.05583
-17.8203 -11.6059 -2.25547
-19.313 -11.134 -2.35078
-20.0217 -10.7075 -2.45212
-18.027 -11.094 -2.12062
-17.9603 -11.5844 -1.93864
-15.4331 -12.8527 -2.05372
-16.9075 -11.5828 -1.81231
-15.4758 -12.5626 -1.89613
-19.7515 -10.8749 -2.67368
-19.4067 -11.3441 -2.28436
-18.0075 -11.2515 -2.04745
-17.7038 -11.2426 -2.17952
-17.882 -11.3237 -1.7835
-18.8008 -11.4594 -2.17516
-18.7447 -11.3912 -2.01697
-19.4012 -10.9947 -2.39485
-19.4967 -11.0458 -2.37601
-20.8744 -10.6798 -2.24918
-18.9566 -11.3596 -2.06191
-19.0731 -11.3967 -2.13596
-19.6445 -11.0582 -2.16016
-15.9928 -12.2417 -1.54947
-19.7389 -11.0627 -2.39568
-19.4599 -11.1533 -1.99001
-15.9161 -12.4738 -1.32903
-18.7991 -11.3802 -1.91617
-18.3308 -11.4375 -1.79676
-17.0844 -11.9085 -1.34861
-16.9843 -11.7956 -1.32643
-20.6126 -10.8091 -2.13607
-18.2959 -11.3229 -1.50916
-18.3711 -11.4634 -1.46894
-18.3825 -11.3516 -1.54055
-19.1942 -11.3999 -2.019
-19.0734 -11.4869 -1.88582
-20.6357 -10.7605 -1.85624
-18.5144 -11.2861 -1.41551
-18.4585 -11.6057 -1.37296
-19.8645 -11.1771 -1.6462
-18.7145 -11.2706 -1.26652
-21.1311 -10.9015 -1.63142
-20.0301 -11.5085 -1.50604
-20.4851 -11.1355 -1.719
-20.179 -11.2527 -1.44754
-20.4637 -10.9385 -1.35818
-17.1627 -11.9464 -1.07176
-18.5091 -11.6603 -1.1582
-16.5725 -12.0132 -0.989983
-17.1383 -12.3109 -0.759306
-16.2093 -12.5459 -0.738464
-20.6016 -11.18 -1.09271
-17.1599 -12.0317 -0.692122
-20.5992 -11.0622 -1.21053
-20.1927 -11.2034 -1.24602
-20.4219 -11.0734 -1.21908
-17.7931 -12.0077 -0.607876
-18.4471 -11.5114 -0.724623
-16.9777 -12.0085 -0.469698
-18.3258 -11.5747 -0.564923
-18.3464 -11.6622 -0.669977
-19.1214 -11.279 -0.767688
-20.2152 -11.1347 -0.956908
-16.8801 -12.0985 -0.39097
-16.9141 -12.0428 -0.474359
-20.4819 -11.2211 -0.88513
-20.8204 -11.0299 -0.961616
-16.9174 -12.2255 -0.343086
-17.5829 -11.9247 -0.260512
-17.637 -11.9073 -0.27882
-16.9007 -12.1496 -0.38026
-20.97 -10.971 -0.999912
-20.0199 -11.5223 -0.717146
-17.8813 -11.9476 -0.199306
-16.7332 -12.2845 -0.0453526
-17.8779 -11.9421 -0.455051
-21.2931 -11.0598 -0.651678
-20.9405 -11.1255 -0.839831
-20.4963 -11.3486 -0.747595
-21.0907 -11.1045 -0.604299
-20.3461 -11.3701 -0.460804
-20.5518 -11.1845 -0.501164
-20.5803 -11.3335 -0.488374
-19.2828 -11.279 0.106876
-20.6754 -11.46 -0.357127
-21.0386 -11.118 -0.221033
-19.2974 -11.1137 0.372853
-21.0977 -11.0859 -0.0943483
-18.3389 -11.6678 0.270656
-20.2832 -11.5491 0.16903
-21.5223 -11.223 0.0809584
-21.1652 -11.5026 0.23677
-20.5055 -11.6237 0.23613
-20.8924 -11.4965 0.558141
-16.6697 -10.6421 1.5787
-16.8169 -10.6267 1.55112
-15.2717 -12.3815 -3.33025
-15.122 -12.335 -3.14073
-14.8665 -12.7576 -3.147
-14.8989 -12.8217 -3.21484
-15.2105 -12.5289 -2.9716
-15.1785 -12.597 -3.21479
-15.2836 -12.5448 -3.11145
-15.3654 -12.3301 -2.95849
-15.111 -12.5239 -2.85722
-15.0359 -12.6465 -2.69953
-15.4639 -12.4545 -2.84091
-15.3221 -12.4112 -2.87684
-17.4832 -10.7276 -2.98942
-15.2485 -12.5744 -2.78074
-15.322 -12.6381 -2.66413
-20.2028 -10.5182 -3.54055
-20.0336 -10.6442 -3.55144
-18.6152 -11.3286 -3.39496
-18.9433 -11.0737 -3.37463
-17.108 -11.1079 -2.73225
-15.5682 -12.577 -2.56886
-20.3706 -10.4235 -3.2446
-20.5104 -10.1443 -3.18302
-20.2478 -10.4578 -3.15001
-16.2277 -11.6161 -2.14712
-16.3724 -11.6594 -2.20725
-16.1016 -11.5495 -2.15436
-16.0246 -11.5328 -2.14986
-17.4807 -11.0679 -2.2715
-16.3953 -11.673 -2.28467
-17.3072 -11.4033 -2.30514
-20.2234 -10.4814 -3.20593
-16.2939 -11.7244 -2.03063
-20.1646 -10.4654 -3.08237
-19.038 -11.155 -2.75273
-17.2416 -11.3843 -2.27848
-18.5979 -11.2824 -2.78856
-19.0265 -11.4384 -2.69961
-20.7336 -10.3532 -2.92399
-15.1428 -12.7444 -1.97604
-20.3729 -10.6388 -2.76682
-20.4087 -10.6569 -2.7537
-18.8401 -11.2404 -2.41519
-18.8975 -11.299 -2.52273
-20.3386 -10.7306 -2.64744
-15.985 -12.1839 -1.84028
-19.2129 -10.9465 -2.68554
-15.935 -12.3473 -1.81177
-17.915 -11.5618 -2.0214
-19.426 -11.2004 -2.46179
-18.529 -11.4765 -2.35404
-19.3552 -11.0737 -2.21967
-19.5856 -11.2108 -2.38602
-19.6707 -11.1698 -2.37698
-20.192 -10.8171 -2.30788
-20.3991 -10.7789 -2.36449
-20.0272 -11.1047 -2.29236
-20.3606 -10.7286 -2.09986
-19.0588 -11.1744 -2.17689
-20.4628 -10.9158 -2.08745
-20.7921 -10.575 -2.13262
-19.7132 -11.2372 -1.92045
-18.1477 -11.5813 -1.47042
-18.2144 -11.3651 -1.56057
-19.5142 -11.4065 -1.70636
-19.173 -11.3583 -1.70546
-19.6653 -11.3531 -1.61494
-18.6651 -11.3395 -1.51992
-18.5973 -11.521 -1.24855
-20.9571 -10.7874 -1.88597
-20.8936 -10.7143 -1.76681
-20.8418 -10.7596 -1.74029
-20.458 -11.1261 -1.47648
-20.1189 -11.2675 -1.51035
-20.5676 -11.0979 -1.52877
-19.9497 -11.2204 -1.3549
-16.6097 -12.1797 -0.874561
-19.8686 -11.3229 -1.34728
-18.1596 -11.6999 -0.92376
-19.8665 -11.4392 -1.14591
-18.8781 -11.512 -0.921417
-16.1611 -12.4962 -0.726272
-20.1525 -11.4681 -1.08671
-18.4136 -11.3639 -0.748488
-17.8079 -11.849 -0.902278
-17.7559 -11.973 -0.834749
-16.6505 -12.2556 -0.55866
-16.9802 -11.683 -0.410163
-18.8834 -11.6042 -0.639675
-17.1345 -12.0234 -0.450251
-16.4274 -12.8303 -0.2963
-18.3062 -11.8259 -0.625555
-16.4406 -12.6664 -0.571773
-18.5304 -11.6876 -0.634587
-17.1137 -11.9197 -0.327364
-19.9967 -11.383 -0.922637
-19.7071 -11.5617 -0.845628
-19.7605 -11.609 -0.754451
-19.7809 -11.6023 -0.780566
-17.3333 -11.8837 -0.434407
-16.9602 -12.3073 -0.458313
-16.8116 -12.4386 -0.164913
-19.9686 -11.6417 -0.681159
-18.2782 -11.9397 -0.419358
-18.0358 -11.7275 -0.404195
-16.7483 -12.4022 -0.455425
-17.7154 -11.695 -0.334835
-18.4081 -11.7676 -0.658538
-18.3362 -11.9868 -0.635804
-20.031 -11.3851 -0.89241
-19.2052 -11.2894 -0.393232
-20.05 -11.2727 -0.622182
-20.0918 -11.375 -0.676456
-18.7428 -11.8088 -0.484082
-18.9567 -11.4937 -0.47043
-18.951 -11.3776 -0.205453
-20.4282 -11.5541 -0.65691
-18.9265 -11.3853 0.0301877
-17.7068 -11.7731 0.154572
-18.5215 -11.3922 0.283959
-18.3566 -11.3681 0.198676
-17.7936 -11.8865 0.247216
-18.5218 -11.6531 0.0984939
-16.5009 -12.3064 0.264467
-17.3062 -11.9864 0.153275
-18.6156 -11.2295 0.201524
-16.6823 -12.159 0.344435
-21.1968 -11.0369 -0.271782
-20.729 -11.404 -0.226598
-17.5617 -11.9619 0.311096
-19.0121 -11.3647 0.110656
-19.3313 -11.2832 -0.0172672
-18.6185 -11.4893 0.206907
-20.8918 -11.2034 0.031708
-18.9514 -11.2256 0.266343
-18.0493 -11.7168 0.273834
-18.8337 -11.4827 0.367367
-18.1703 -11.6487 0.412341
-17.7559 -11.6567 0.237707
-20.2504 -11.5118 -0.0434529
-18.2263 -11.8151 0.418091
-17.2392 -12.3927 0.441722
-18.0973 -11.6712 0.321929
-17.4437 -11.9451 0.497765
-20.4213 -11.7964 0.00450638
-16.9852 -12.0644 0.481239
-20.5212 -11.6964 -0.00411392
-16.9687 -12.2999 0.597885
-21.2582 -11.3278 0.0191148
-20.7248 -11.5109 0.140439
-20.2412 -11.6487 0.393522
-20.4074 -11.6123 0.560722
-20.9308 -11.5671 0.538177
-20.7572 -11.5151 0.521311
-20.8864 -11.6213 0.510286
-20.9656 -11.5141 0.499812
-20.3396 -11.6972 0.628852
-20.4833 -11.7396 0.537115
-17.5923 -10.1295 1.25117
-17.4006 -10.4027 1.25799
-17.0736 -10.3203 1.38139
-17.3058 -10.6179 1.41436
-16.7255 -10.9328 1.37163
-16.8231 -10.5683 1.4171
-17.4465 -10.281 1.66014
-16.7846 -10.5975 1.37146
-17.0528 -10.7556 1.58216
-16.8247 -10.6207 1.68792
-17.5505 -10.1904 1.54651
-17.3882 -10.5708 1.64996
-17.7204 -10.2941 1.91756
-15.4873 -12.6689 -2.75478
-14.9881 -12.7321 -2.73515
-20.0646 -10.3788 -3.42295
-16.506 -11.5208 -2.58418
-18.3416 -11.1425 -2.77999
-19.7965 -10.9411 -3.02947
-19.1503 -10.9823 -3.01258
-18.7161 -11.3688 -2.7607
-16.3649 -11.7256 -2.11784
-18.9042 -11.3397 -2.67271
-19.9338 -10.6314 -2.87205
-15.3394 -12.7914 -2.28452
-19.7444 -10.8412 -2.53716
-19.6209 -11.1489 -2.55229
-20.0145 -10.6631 -2.70967
-19.0451 -11.1371 -2.55104
-18.9661 -11.1348 -2.47209
-17.1638 -11.5325 -1.98513
-20.5357 -10.6936 -2.63176
-18.9275 -11.3083 -2.42742
-19.199 -11.379 -2.57711
-15.4249 -12.7043 -1.90151
-19.311 -11.1935 -2.44285
-19.002 -11.3438 -2.32248
-20.3474 -10.6141 -2.56073
-19.0402 -11.45 -2.13613
-20.24 -10.9299 -2.33736
-19.9068 -10.885 -2.27862
-20.1709 -11.0134 -2.30709
-20.3612 -10.5994 -2.28196
-15.921 -12.3955 -1.36679
-20.523 -10.5338 -2.23955
-19.5664 -11.1757 -2.09692
-19.6321 -11.2501 -2.20052
-19.9757 -11.1053 -2.23155
-19.0733 -11.4685 -1.80038
-16.0418 -12.3427 -1.28932
-18.0764 -11.6151 -1.76711
-19.1512 -11.5131 -1.78583
-19.0873 -11.6141 -1.65704
-20.5023 -11.0462 -1.70135
-20.8285 -10.7651 -1.7605
-20.7878 -10.5432 -1.82598
-20.3066 -11.0832 -1.43325
-20.0854 -11.0457 -1.40545
-18.3121 -11.8728 -1.11752
-17.9833 -11.8486 -1.05807
-18.2507 -11.575 -0.913462
-18.6593 -11.6166 -1.06228
-19.9793 -11.2742 -1.08643
-18.079 -11.7103 -0.846518
-19.8635 -11.1928 -1.22721
-19.6381 -11.5572 -0.920103
-16.8209 -12.3059 -0.523002
-19.8567 -11.4204 -0.957306
-17.0054 -12.1875 -0.319616
-19.7689 -11.4162 -0.862315
-17.6945 -11.8511 -0.492944
-17.7004 -11.9073 -0.428151
-16.5921 -12.3169 -0.226063
-20.7439 -11.178 -0.859984
-20.0178 -11.3761 -0.624132
-20.414 -11.3586 -0.5154
-20.5924 -11.3512 -0.662983
-19.2265 -11.4383 -0.235433
-20.5418 -11.2119 -0.555619
-17.9068 -11.9423 -0.0885766
-20.3358 -11.2718 -0.344082
-19.9737 -11.5317 -0.544186
-20.5961 -11.3197 -0.35954
-20.639 -11.4733 -0.442499
-17.6987 -12.0232 0.210553
-20.6565 -11.3789 -0.133369
-20.2938 -11.5115 -0.367849
-19.2894 -11.0347 -0.0140822
-19.3807 -10.9453 -0.0880626
-19.2109 -11.1006 -0.0278327
-18.241 -11.4583 -0.0126912
-18.3281 -11.5894 0.0980132
-20.8803 -11.0921 -0.262731
-20.7723 -11.2069 -0.208707
-20.282 -11.4103 -0.154624
-16.8921 -12.1291 0.513858
-17.0976 -12.0783 0.481932
-17.4234 -11.9417 0.36113
-17.5331 -12.0022 0.390243
-21.1475 -11.3051 -0.0411861
-21.3703 -11.3312 0.162107
-21.2731 -11.262 0.198165
-20.3643 -11.7899 0.192213
-20.6676 -11.3696 0.4065
-20.9016 -11.4502 0.304308
-17.2352 -10.2856 1.44101
-16.9363 -10.321 1.44948
-17.678 -10.3012 1.13131
-17.308 -10.6829 1.39823
-17.6217 -10.2003 1.27069
-20.6295 -11.6846 0.983441
-16.8295 -10.681 1.612
-17.3616 -10.5624 1.5342
-17.1923 -10.5983 1.79142
-17.4008 -10.5653 1.68633
-17.2411 -10.5783 1.7127
-17.321 -10.4571 1.84836
-14.8539 -12.6905 -3.05761
-15.3691 -12.6056 -2.97475
-15.0727 -12.7754 -2.72361
-18.7503 -11.1872 -3.41801
-19.2917 -10.8652 -3.23009
-20.1018 -10.6951 -3.18801
-16.4346 -11.5483 -2.05706
-17.3181 -11.4038 -2.17162
-17.2175 -11.4513 -2.1986
-18.8896 -11.2552 -2.82488
-17.5293 -11.2534 -2.08632
-20.5219 -10.5251 -2.82194
-20.3418 -10.5961 -2.80667
-20.193 -10.6403 -2.76571
-19.3478 -11.2455 -2.66158
-16.6657 -11.9248 -2.05451
-19.305 -11.0679 -2.52401
-17.1047 -11.5857 -2.11033
-18.0143 -11.0912 -1.9616
-15.365 -13.0067 -1.91744
-20.2705 -10.7378 -2.33135
-17.2835 -11.5688 -1.75838
-16.8585 -11.728 -1.77473
-17.9416 -11.5547 -2.00172
-19.8445 -10.9698 -2.23205
-18.639 -11.7603 -2.30354
-16.9063 -11.9771 -1.86387
-20.1176 -10.9503 -2.10472
-19.6965 -11.1117 -2.04474
-18.7716 -11.4985 -2.02918
-19.8117 -11.2386 -2.08119
-19.8362 -10.9759 -2.26767
-17.8894 -11.37 -1.62645
-20.8213 -10.886 -2.03767
-19.0435 -11.5206 -2.04821
-18.9638 -11.4573 -1.8154
-19.2685 -11.1195 -1.80675
-19.8089 -11.1898 -1.70345
-16.4462 -12.0343 -1.04752
-17.0983 -11.9225 -0.791901
-17.5886 -11.9031 -0.854369
-17.4943 -11.5793 -1.06365
-18.4755 -11.8171 -0.959578
-17.96 -11.8758 -0.759701
-18.2848 -11.7626 -0.770052
-17.5995 -11.8808 -0.987211
-16.6806 -12.4947 -0.511678
-17.7183 -11.8713 -0.521169
-18.5908 -11.5047 -0.897671
-18.4185 -11.5812 -0.769051
-19.7429 -11.4302 -0.819953
-20.6041 -11.1571 -0.791967
-17.852 -11.7932 -0.517295
-19.0862 -11.1519 -0.518199
-16.7725 -12.3528 -0.246221
-17.7863 -11.8701 -0.263935
-17.7003 -12.0147 -0.411377
-19.825 -11.6026 -0.39579
-20.1094 -11.4678 -0.513311
-20.9292 -11.2657 -0.463822
-20.668 -11.3936 -0.513706
-20.6231 -11.3961 -0.06637
-20.6054 -11.3274 -0.264107
-18.8193 -11.3499 0.185502
-17.1495 -12.3309 0.464207
-16.8698 -12.2188 0.344618
-18.8869 -11.4434 0.208475
-17.0271 -12.1231 0.636277
-20.7274 -11.5342 0.0629617
-21.0187 -11.4195 0.162235
-20.9639 -11.4714 0.214975
-21.2201 -11.124 0.257923
-20.3628 -11.8255 0.524637
-17.4306 -10.3399 1.5086
-16.7488 -10.6806 1.68044
-18.3499 -11.2493 -3.20655
-18.6176 -11.2921 -3.12578
-18.2438 -11.2112 -3.25463
-18.7694 -11.3309 -3.05972
-20.0085 -10.5705 -3.0336
-17.2681 -11.2157 -2.29595
-17.5527 -11.2698 -2.45037
-16.1601 -11.591 -2.05207
-20.3764 -10.7779 -3.00954
-17.2465 -11.2564 -2.17889
-17.3707 -11.243 -2.30358
-18.6374 -11.469 -2.1956
-18.4632 -11.595 -2.28006
-19.9647 -10.9678 -2.3604
-20.052 -10.6643 -2.36123
-18.9073 -11.4686 -2.01198
-18.3895 -11.4975 -1.34268
-17.4361 -11.6906 -1.20378
-20.9245 -10.7166 -1.45546
-20.1026 -11.165 -1.52845
-19.8881 -11.1329 -1.28031
-17.8092 -11.7306 -0.829143
-17.6823 -11.9163 -0.821635
-16.4419 -12.4875 -0.544184
-16.7221 -12.4269 -0.303351
-17.7797 -11.7841 -0.671363
-17.5778 -11.8449 -0.460237
-17.3317 -12.0258 -0.33849
-16.5258 -12.3627 -0.241689
-19.2132 -11.3929 -0.451055
-20.0129 -11.7139 -0.371102
-20.318 -11.3652 -0.435236
-20.9027 -11.206 -0.373554
-20.5399 -11.4091 -0.458253
-18.1993 -11.6952 0.07103
-18.5591 -11.4838 0.134395
-18.3045 -11.3906 0.157518
-17.6792 -11.8482 0.246855
-17.6197 -12.0634 0.492316
-17.4058 -11.929 0.363827
-20.9041 -11.4417 0.246178
-21.2622 -11.4272 0.23851
-17.7333 -10.4169 1.57821
-16.1994 -11.5157 -2.48085
-16.1125 -11.534 -2.09509
-17.1327 -11.187 -2.14972
-16.3646 -11.4467 -2.28639
-16.4168 -11.7117 -2.10706
-18.8464 -11.1212 -2.70158
-17.2674 -11.4298 -2.0281
-16.8735 -11.6432 -2.26529
-18.0665 -11.1187 -2.35058
-20.0827 -11.0639 -2.18162
-17.9969 -11.4493 -1.59387
-17.196 -11.7787 -1.45311
-19.1032 -11.5489 -1.62397
-17.1603 -11.7551 -1.29186
-20.1165 -11.0803 -1.67804
-16.2318 -12.5439 -0.772237
-20.6745 -11.0324 -1.3153
-16.8509 -12.138 -0.91917
-19.7705 -11.5485 -1.24601
-16.6699 -12.1216 -0.494109
-19.7817 -11.5045 -0.992344
-19.6236 -11.4763 -0.838446
-16.9878 -12.0266 -0.251214
-20.4274 -11.338 -0.860178
-17.0151 -12.1356 -0.0929202
-19.2826 -11.322 -0.444741
-20.0225 -11.5216 -0.28483
-17.8032 -11.7934 0.305009
-16.9808 -12.2065 0.408233
-16.8198 -10.626 1.64759
-20.3325 -10.5163 -2.89867
-16.6478 -11.6204 -1.96113
-16.8993 -11.7102 -1.87985
-19.1559 -11.3323 -2.43586
-20.1126 -10.9712 -2.39239
-18.0547 -11.3745 -1.46004
-17.6994 -11.5485 -1.45461
-17.2335 -11.9546 -0.76219
-17.2747 -11.9591 -0.823654
-19.5788 -11.4534 -0.960478
-20.7678 -11.1346 -0.916356
-17.4876 -12.0188 0.287536
-19.376 -11.2275 0.181879
-19.0908 -11.067 0.348001
-19.3838 -11.2128 0.0767859
-20.4253 -11.661 0.212748
-15.7505 -11.4383 -2.72262
-15.9621 -11.6786 -2.52803
-17.2203 -11.2798 -2.538
-18.5408 -11.3653 -3.02402
-15.6165 -12.2956 -1.98231
-16.4466 -12.0146 -1.47513
-16.6205 -12.1914 -0.89765
-17.7981 -11.704 -0.760989
-19.101 -11.4013 -0.796196
-17.2653 -11.9416 -0.516152
-19.0678 -11.3256 -0.469804
-19.1434 -11.2625 0.172929
-18.8828 -11.5757 0.0325041
-18.2418 -11.6773 0.432139
-18.5739 -11.4176 0.132179
-20.9588 -11.2596 0.0240983
-18.8352 -11.4157 0.217102
-21.037 -11.4779 0.622339
-17.1576 -11.9279 -1.32953
-16.7146 -12.1003 -0.881821
-16.5916 -12.2707 -0.62762
-17.7686 -12.0081 -0.0210131
-19.0046 -11.2276 0.0637763
-16.7265 -10.5537 2.00819
-17.9856 -11.5472 -1.61236
-17.9198 -11.6005 -1.42204
-20.3537 -11.4059 -0.644239
-20.5815 -11.1912 -0.290052
-19.081 -11.2776 0.226906
-17.5081 -11.68 -1.3755
-17.039 -11.8991 -1.03861
-16.157 -12.0154 -1.76913
-16.5896 -12.1249 -1.4625
-20.2667 -10.7593 -2.79889
-19.5577 -10.6222 -3.19861
-19.4978 -10.758 -3.36868
-20.0501 -10.817 -2.45225
-19.4009 -10.8134 -2.93985
-20.0663 -10.9731 -2.38017
-19.7393 -11.1967 -2.18088
-18.5604 -11.3022 -3.23257
-20.5397 -10.9206 -1.51321
-18.5707 -11.2619 -3.19838
-19.7488 -10.8559 -2.42295
-20.0722 -11.0093 -1.77245
-20.0136 -11.1142 -1.97701
-19.5836 -11.2905 -2.23203
-18.5117 -11.1914 -2.98557
-19.0242 -11.2124 -2.36159
-18.1291 -11.4097 -3.08206
-19.09 -11.0863 -2.30828
-18.1893 -11.3828 -3.17795
-18.0936 -11.2816 -3.02426
-19.71 -11.3531 -1.54649
-18.1454 -11.5504 -3.20481
-19.6996 -11.1463 -1.58572
-20.4987 -11.3244 -0.906952
-20.3373 -11.3589 -0.878053
-20.295 -11.3084 -1.12639
-20.5332 -11.2052 -1.09743
-20.6444 -11.2154 -0.751339
-20.9662 -11.3839 -0.253865
-20.5883 -11.2151 -0.44002
-20.4141 -11.3879 -0.344967
-19.1273 -11.3512 -1.87362
-20.4164 -11.5665 -0.656411
-18.8907 -11.3441 -1.63225
-19.0419 -11.4679 -1.84336
-18.8619 -11.6652 -2.05637
-20.3234 -11.3559 -0.689359
-21.164 -11.226 0.351104
-20.1779 -11.2748 -0.601567
-16.7877 -11.0933 -2.90218
-20.1123 -11.4798 -0.715153
-20.4614 -11.389 -0.615872
-20.3703 -11.4532 -0.310959
-18.0584 -11.3881 -2.12372
-18.0078 -11.3384 -1.94876
-19.5495 -11.524 -0.942116
-16.5788 -11.328 -2.76148
-17.6403 -11.4029 -2.20026
-18.3504 -11.543 -1.38437
-18.5465 -11.4248 -1.41034
-18.0739 -11.4841 -1.77446
-18.4502 -11.3945 -1.30255
-20.321 -11.66 -0.174968
-20.4897 -11.5856 0.0369766
-17.9301 -11.4818 -1.63845
-18.4481 -11.5572 -1.14269
-18.9443 -11.3821 -0.972095
-18.757 -11.5211 -0.773273
-19.0723 -11.3192 -0.819164
-19.2895 -11.1691 0.178665
-20.4444 -11.7939 0.519852
-18.2206 -11.7548 -1.35517
-19.1638 -11.2412 0.0114096
-20.6586 -11.7988 0.895885
-19.0316 -11.2759 0.242706
-18.5193 -11.5543 -0.619713
-18.3385 -11.7198 -0.92786
-18.8549 -11.2813 0.127953
-16.1301 -11.5669 -2.01997
-16.199 -11.8994 -2.11556
-17.0576 -11.7194 -1.43323
-17.0181 -11.808 -1.40698
-17.3449 -11.7374 -1.06436
-17.4235 -11.8099 -0.878566
-18.5298 -11.5619 0.288036
-18.0167 -11.8884 -0.375895
-17.0685 -11.8483 -0.903608
-15.2961 -12.6585 -3.1397
-15.2469 -12.5608 -3.00129
-18.3022 -11.5454 0.454529
-15.1397 -12.5615 -2.97119
-16.0447 -11.8752 -1.80603
-17.8433 -12.0356 -0.222241
-15.9279 -12.163 -1.77101
-18.4445 -10.5543 1.86427
-17.7067 -11.9375 -0.370199
-15.2092 -12.6154 -3.02484
-15.1019 -12.353 -2.82142
-17.1148 -11.9122 -0.449675
-17.2432 -11.8477 -0.457921
-17.3376 -12.1121 -0.56316
-17.0558 -11.7283 -0.273293
-17.2397 -11.8327 -0.315008
-15.9452 -12.4298 -1.60126
-16.0246 -12.3959 -1.4673
-16.8942 -12.2039 -0.308691
-16.9811 -12.3136 -0.346406
-17.4161 -11.9184 0.390758
-16.7666 -12.3912 -0.34634
-17.2126 -12.174 0.353937
-16.7966 -10.6972 1.61522
-16.8652 -10.614 1.40577
-16.546 -12.3489 -0.357683
-16.5822 -12.4699 -0.0802537
-16.5758 -10.5993 1.53669
-16.8854 -12.299 0.324869
-16.562 -12.3397 0.202618
-20.56 -10.3804 -3.03789
-20.3872 -10.6018 -2.80901
-20.5192 -10.5157 -2.68654
-20.2533 -10.5336 -2.70773
-20.7765 -10.8573 -2.23675
-20.4027 -10.734 -2.06939
-20.9596 -10.7939 -1.65413
-18.8957 -10.9749 -3.35694
-20.289 -10.7893 -1.65035
-19.3569 -11.0585 -2.64936
-20.4273 -10.7681 -1.52119
-20.2457 -11.0499 -1.88926
-19.7317 -11.1617 -2.11922
-19.1793 -11.1364 -2.36904
-18.6367 -11.2245 -2.8685
-19.3929 -11.1049 -2.27836
-18.6155 -11.3827 -2.97085
-18.8759 -11.164 -2.44091
-17.6282 -10.861 -2.86012
-20.1856 -11.2724 -1.72526
-18.8367 -11.2948 -2.59223
-20.1583 -11.1067 -1.1054
-17.9991 -11.3806 -3.17051
-19.3004 -11.33 -2.06898
-21.3303 -11.069 -0.343601
-20.5648 -11.2385 -0.868559
-20.2827 -11.2841 -0.871761
-21.4133 -11.2347 0.125202
-19.1525 -11.5601 -1.85708
-16.865 -11.0864 -3.0714
-19.0389 -11.5152 -1.78003
-17.3346 -11.178 -2.21718
-21.147 -11.4193 0.119917
-20.3653 -11.4886 -0.396417
-19.9451 -11.5738 -0.777667
-20.9113 -11.2998 -0.111574
-17.3842 -11.2194 -2.30187
-19.5911 -11.5636 -0.828907
-19.6361 -11.6096 -0.957244
-19.5969 -11.5593 -0.882308
-16.4133 -11.438 -2.96329
-17.2255 -11.35 -2.09643
-20.871 -11.4693 0.395746
-18.603 -11.3729 -1.65465
-20.6735 -11.4494 0.408923
-20.9201 -11.358 0.495802
-19.9883 -11.7218 -0.411987
-20.7947 -11.5273 0.392132
-19.8873 -11.6144 -0.480353
-20.3486 -11.6328 0.0999994
-20.3315 -11.3825 0.170016
-20.3329 -11.5924 0.0778043
-18.9127 -11.5235 -0.728226
-18.6229 -11.3537 -1.07689
-19.1875 -11.1686 0.0758696
-20.3775 -11.8378 0.211986
-18.9884 -11.4646 -0.557783
-19.3782 -11.0274 0.165927
-16.2505 -11.4881 -2.41948
-18.7163 -11.2595 0.00486717
-19.0641 -11.4231 0.110179
-16.3357 -11.6559 -2.17931
-16.3087 -11.684 -2.20037
-16.0227 -11.5642 -2.20441
-17.5966 -11.69 -0.950613
-17.8345 -11.7764 -1.27614
-16.391 -11.7645 -1.96978
-16.1756 -11.7421 -2.2313
-17.2255 -11.9957 -1.439
-18.4459 -11.9985 -0.447086
-17.0628 -11.697 -1.35237
-18.1908 -11.8534 -0.680046
-17.1813 -11.8061 -1.56908
-18.4069 -11.5795 0.127207
-18.2824 -10.5174 1.17111
-18.4436 -11.5907 0.158837
-17.1479 -11.8575 -1.24091
-17.1481 -11.9103 -1.2135
-18.3163 -11.6294 0.230035
-15.0581 -12.3994 -3.23373
-17.4605 -12.1037 -0.948046
-15.3411 -12.3062 -3.16731
-17.5909 -12.0288 -0.680014
-17.8084 -11.8422 -0.415101
-15.1856 -12.4439 -3.03816
-15.1874 -12.3284 -3.23647
-15.0814 -12.6576 -3.11452
-15.2411 -12.4791 -2.90713
-15.2605 -12.4578 -3.18352
-15.7129 -12.4802 -2.85619
-15.1782 -12.4289 -2.96924
-15.6071 -12.3813 -2.85252
-15.0564 -12.3401 -3.14035
-16.0078 -12.1483 -1.95183
-17.6415 -10.326 1.21268
-17.5117 -10.3569 1.58601
-16.4784 -12.0702 -1.1869
-15.9886 -12.0478 -1.91551
-15.0391 -12.3531 -3.18966
-17.4477 -10.5495 1.56145
-17.5039 -10.406 1.98681
-14.9111 -12.6404 -2.93404
-15.0063 -12.6095 -2.86543
-17.5153 -12.0035 0.386357
-17.1763 -10.5606 1.3524
-16.6567 -12.0704 -0.898708
-16.6401 -12.0224 -0.800628
-17.1358 -10.513 1.39357
-16.1944 -12.3924 -1.37636
-16.7037 -12.171 -0.542329
-16.8233 -12.2482 -0.514831
-15.7987 -12.4161 -1.43695
-17.1845 -10.6213 1.79637
-15.1187 -12.7929 -2.56858
-17.6465 -12.0335 0.430483
-16.3078 -12.309 -0.748323
-17.1809 -10.5419 1.53143
-16.7607 -12.0792 -0.33273
-17.1766 -12.2363 -0.357902
-15.7287 -12.4287 -1.16141
-15.6959 -12.6605 -1.34824
-16.8155 -12.4025 -0.155635
-16.5106 -12.3895 -0.433173
-16.4066 -12.6434 -0.484399
-16.5624 -12.5501 -0.469593
-17.0743 -12.1987 0.432389
-16.5921 -12.6753 -0.190761
-16.2814 -12.6063 -0.370031
-16.4376 -10.5662 1.38568
-16.9223 -12.1905 0.290416
-16.5553 -12.2822 0.308172
-16.7747 -12.3454 0.379151
-20.4832 -10.5921 -2.76202
-20.1401 -10.7789 -3.04099
-21.0548 -10.7409 -1.71794
-20.7501 -10.8648 -1.77593
-18.4483 -11.1351 -3.08413
-18.4914 -11.18 -3.22161
-18.6759 -11.168 -2.96111
-18.367 -11.2852 -3.21225
-19.3232 -11.0709 -2.40783
-19.3318 -11.2278 -2.60279
-19.6861 -11.15 -1.55296
-20.3425 -11.1475 -1.11144
-19.8348 -11.3519 -1.38445
-21.1895 -11.1761 -0.347523
-21.2623 -11.2427 -0.353488
-19.0806 -11.3383 -2.27945
-20.561 -11.3832 -0.529767
-20.8723 -11.3465 -0.286303
-19.6798 -11.5956 -1.30829
-21.3333 -11.4179 0.147868
-19.0446 -11.1 -1.21949
-19.1596 -11.2882 -1.78695
-17.6179 -10.9989 -2.37853
-19.0595 -11.4486 -1.77023
-20.8596 -11.462 -0.212574
-19.7678 -11.5891 -0.878757
-19.6162 -11.484 -0.926446
-20.9183 -11.4042 0.269222
-17.4095 -11.2328 -2.19614
-17.1557 -11.2587 -2.32981
-19.7386 -11.4605 -0.593314
-19.8951 -11.489 -0.504682
-20.1265 -11.5802 -0.0961578
-18.5507 -11.521 -1.18568
-19.3464 -11.3053 -0.102166
-19.107 -11.4436 -0.590636
-20.3904 -11.5418 0.478284
-18.5272 -11.5197 -1.25266
-18.5355 -11.4937 -0.828975
-18.4463 -11.7343 -1.13613
-20.3839 -11.6556 0.247434
-17.1479 -11.6417 -1.85455
-20.2868 -11.7621 0.386891
-18.5718 -11.605 -0.784627
-19.2135 -11.1688 0.469898
-16.2937 -11.6263 -2.2377
-17.8053 -11.6218 -1.19
-17.4787 -11.7675 -1.22031
-16.2065 -11.6836 -2.35523
-16.3871 -11.6671 -1.90286
-18.1994 -11.8813 -0.725616
-18.0175 -12.0926 -0.768027
-18.5307 -11.4832 0.0576601
-17.1009 -11.7101 -1.27416
-17.5707 -11.766 -0.73612
-18.2997 -11.6703 -0.0102371
-18.3445 -11.5426 0.331372
-17.7668 -10.2664 1.19438
-17.0735 -11.8546 -1.13544
-15.5085 -12.2331 -2.89691
-17.1197 -11.8636 -0.921266
-14.6868 -12.6036 -3.10107
-17.7188 -11.7953 0.205186
-14.9055 -12.7257 -2.9637
-16.5599 -12.1863 -1.26274
-16.4495 -12.0469 -1.2013
-16.3569 -12.2743 -1.07313
-16.3901 -12.2647 -1.17014
-15.0563 -12.6284 -2.45989
-16.774 -12.0863 -0.387062
-17.3521 -11.9594 0.196386
-16.3521 -12.3919 -0.892724
-16.926 -12.2822 -0.235306
-17.3157 -12.1632 0.422097
-16.6316 -12.239 -0.348904
-17.3896 -10.5657 1.91821
-16.2401 -12.6799 -0.941443
-15.9141 -12.6658 -0.970131
-16.8641 -12.224 0.580086
-19.5734 -10.7654 -3.22551
-19.4262 -10.8332 -3.29974
-20.7327 -10.6655 -2.0376
-20.7668 -10.8755 -1.86701
-19.746 -10.9368 -2.25638
-18.749 -11.1342 -2.80195
-19.7123 -11.1837 -1.64187
-18.2708 -11.3158 -2.78666
-18.236 -11.2807 -2.8605
-19.1649 -11.5088 -1.9724
-21.3252 -11.2292 -0.0271123
-18.9093 -11.388 -1.87808
-18.897 -11.5673 -1.70107
-17.2845 -11.0133 -2.45275
-18.9543 -11.3676 -1.69649
-19.7863 -11.5727 -0.860508
-19.8482 -11.3438 -0.813877
-20.4206 -11.4033 -0.172338
-21.0493 -11.429 0.371985
-20.9936 -11.6507 0.152313
-20.6378 -11.59 0.258319
-16.9243 -11.2247 -2.51176
-19.9095 -11.68 -0.654909
-19.8806 -11.5522 -0.369501
-19.8241 -11.7296 -0.401043
-18.5453 -11.7646 -0.849263
-18.2555 -11.457 -0.967963
-18.2338 -11.6634 -0.989309
-17.7772 -11.6384 -1.23766
-19.599 -11.2991 0.724617
-17.5591 -11.7979 -1.28631
-19.4226 -11.1491 0.968417
-16.4169 -11.6895 -2.06242
-18.2258 -11.6843 -0.195941
-16.2368 -12.3622 -1.82939
-17.7033 -12.036 -0.328159
-17.1898 -10.3228 1.27129
-17.9008 -11.8152 0.361826
-17.2537 -11.911 -0.0764472
-16.0597 -12.6387 -1.20053
-16.0542 -12.45 -1.20434
-16.3002 -12.6373 -0.717338
-20.3507 -10.613 -3.07091
-20.7417 -10.7315 -2.31269
-18.2244 -11.0995 -3.44513
-19.6845 -11.2474 -1.49242
-19.3034 -11.5426 -1.82242
-19.8875 -11.578 -1.1812
-18.8897 -11.1026 -1.12857
-19.5491 -11.5416 -1.10168
-20.4833 -11.4529 -0.341005
-17.3394 -11.3329 -2.07254
-19.5058 -11.5193 -1.00298
-16.8906 -11.4021 -2.0862
-19.9531 -11.5382 -0.326579
-18.0358 -11.5345 -1.35285
-17.2825 -11.671 -1.60793
-20.6675 -11.7169 0.935435
-17.2571 -11.6542 -1.55329
-20.1635 -11.8855 0.757293
-17.0805 -11.8362 -1.26153
-17.8479 -11.9171 -0.617684
-16.5976 -11.8196 -1.51878
-16.6347 -11.9592 -1.41047
-17.7582 -11.8256 -0.501775
-16.4094 -11.9101 -1.19807
-15.2843 -12.5273 -2.97437
-17.6412 -10.3985 1.50153
-17.0099 -12.1011 -0.656753
-17.618 -11.8207 -0.0142167
-15.5759 -12.0636 -2.0168
-17.6708 -11.9468 0.352347
-17.0765 -11.9717 -0.36762
-16.3044 -12.5119 -0.529155
-16.2669 -12.5714 -0.433901
-18.4504 -11.0187 -3.46873
-18.4361 -11.1028 -3.16178
-20.9163 -11.2639 -0.628442
-20.7928 -11.1943 -0.20311
-17.265 -11.3865 -2.19996
-21.0361 -11.5573 0.61237
-19.5273 -11.3062 0.304203
-18.7733 -11.3036 0.283016
-19.156 -11.4433 0.225072
-18.3154 -12.0352 -0.362605
-17.6173 -11.8263 -0.375511
-18.3504 -11.757 0.323315
-17.7409 -11.9174 -0.221106
-17.0951 -11.6787 -0.41949
-16.0957 -12.479 -1.0824
-16.5848 -12.441 -0.234586
-19.5543 -10.5632 -3.36849
-20.3411 -10.8036 -2.26991
-17.7207 -10.8582 -2.92415
-20.8392 -11.0802 -0.783719
-19.7948 -11.3501 -1.26213
-21.3792 -11.148 0.2051
-19.3722 -11.2592 0.009406
-16.9265 -11.4617 -1.87895
-15.4231 -11.5988 -2.67423
-17.2681 -11.8159 -0.354695
-16.9593 -11.9576 0.497605
-20.3074 -10.3845 -2.90486
-17.5163 -11.0008 -2.76983
-17.9044 -11.1635 -2.28658
-17.8333 -11.3389 -2.28486
-17.4036 -11.4172 -2.03872
-16.1644 -11.5734 -2.11225
-16.0365 -11.6985 -1.9899
-17.5915 -11.7233 -0.783059
-17.1413 -11.7098 -1.50101
-14.4134 -12.686 -3.26267
-17.7315 -11.6832 -1.57925
-16.5333 -11.944 -1.27804
-15.3669 -12.3742 -1.85624
-18.2942 -11.6851 -0.913958
-16.9834 -11.9648 -1.12622
-16.0744 -12.5076 -1.12517
-16.2328 -12.6397 -0.810124
-16.2693 -12.6283 -0.588104
-17.4674 -11.6721 -1.59408
-17.0277 -11.8229 -1.8297
-16.756 -11.9083 -0.871568
-21.1717 -11.2977 0.189995
-21.2794 -11.0107 -0.696134
-21.0053 -11.1743 -0.172937
-20.8187 -11.2869 -0.597075
-20.7459 -11.3145 -0.610472
-20.806 -11.29 -0.539439
-20.5297 -11.3936 -0.499573
-20.5776 -11.6916 0.432007
-20.4144 -11.8198 0.481119
-20.4686 -11.6624 0.370957
-20.1809 -10.8571 -1.58482
-20.4276 -10.997 -1.65334
-20.3569 -11.4698 -0.415677
-20.4052 -10.6649 -3.09118
-20.303 -11.3406 -0.610525
-20.2394 -11.267 -1.15096
-20.2869 -10.6929 -2.47897
-20.1948 -10.5097 -2.71079
-20.2051 -11.4986 -0.589288
-19.8634 -11.225 -1.4319
-19.0776 -11.0814 0.0343824
-19.9494 -11.0952 -2.28974
-19.7719 -11.2898 -2.09708
-19.668 -11.4884 -0.983194
-18.8608 -11.0992 0.0187363
-19.661 -11.0891 -2.92829
