-15.2117 -12.4169 -3.35312
-18.3036 -11.2772 -4.0051
-18.5038 -11.2912 -3.72043
-15.3582 -12.1971 -2.82625
-15.5057 -12.1892 -2.74424
-18.7939 -11.4124 -3.72228
-15.3932 -12.1575 -2.49504
-15.1075 -12.4081 -2.38727
-15.1159 -12.2726 -2.46204
-19.3514 -10.7913 -3.64336
-20.3304 -10.603 -3.71264
-20.2265 -10.6936 -3.55034
-18.8789 -11.2275 -3.19909
-16.2583 -11.367 -2.08084
-19.4649 -11.1238 -3.21387
-20.394 -10.7799 -3.347
-20.3702 -10.7748 -3.11558
-15.2456 -12.4876 -1.82032
-20.1097 -10.5324 -3.15948
-20.0859 -10.7469 -3.04187
-19.3884 -11.1788 -2.4395
-20.2283 -10.7024 -2.62197
-18.7669 -11.1641 -2.12102
-18.013 -11.2563 -1.7341
-19.5914 -10.9265 -2.12928
-19.9318 -11.0345 -2.41722
-20.6274 -10.8368 -2.43964
-20.9103 -10.704 -2.3206
-18.1825 -11.0308 -1.58589
-20.5037 -10.8044 -2.21805
-19.5426 -10.993 -1.69403
-20.5217 -10.5955 -2.13433
-16.3114 -11.6418 -1.05118
-20.8471 -10.765 -1.91603
-16.346 -11.7659 -0.574026
-20.7483 -10.9052 -1.47081
-20.2872 -10.8258 -1.34303
-18.824 -10.7536 -0.986906
-17.4655 -11.3575 -0.723161
-16.9343 -11.5373 -0.396821
-21.2755 -10.6196 -1.2058
-16.6545 -11.5579 -0.334893
-16.2698 -11.6774 -0.178287
-17.6072 -11.3889 -0.314969
-19.8856 -11.0311 -0.83527
-18.4114 -11.455 -0.328795
-20.2941 -10.9828 -0.626057
-21.1027 -10.8791 -0.529621
-21.0668 -10.7489 -0.347903
-21.0388 -10.8111 -0.566237
-20.5157 -11.0381 -0.287371
-20.0008 -11.1554 -0.142835
-18.9398 -10.628 0.273984
-16.504 -11.654 0.394498
-20.3425 -11.0243 -0.127771
-20.4737 -11.0068 -0.00295764
-18.5537 -11.125 0.23352
-17.7683 -11.1058 0.572193
-18.4833 -11.0026 0.363205
-17.3421 -11.3151 0.411889
-17.2066 -11.2875 0.541808
-17.519 -11.3102 0.597198
-17.2069 -11.535 0.395381
-21.6864 -10.9291 0.795324
-15.9776 -9.9653 1.21809
-17.4505 -9.56511 1.4259
-17.4053 -9.5107 1.8829
-14.9055 -12.4076 -2.96117
-15.2493 -12.4506 -3.12244
-15.2906 -12.4076 -2.96571
-15.0226 -12.397 -2.85293
-15.3937 -12.2932 -2.81006
-16.8526 -11.0793 -2.83554
-15.3925 -12.2963 -2.43814
-15.3772 -12.5634 -2.38866
-19.1646 -11.0378 -3.54127
-18.4351 -10.9937 -3.13438
-18.4513 -11.2878 -3.14704
-18.3956 -11.367 -2.74119
-18.0065 -11.0393 -2.43518
-19.3539 -11.1748 -2.77893
-20.6799 -10.607 -2.77877
-19.2308 -11.0793 -2.3995
-16.7035 -11.3849 -1.73194
-16.6065 -11.4905 -1.80938
-20.802 -10.5962 -2.61796
-18.9344 -11.3997 -2.00468
-21.1384 -10.5743 -2.52252
-17.1812 -11.4023 -1.27077
-16.2246 -11.8035 -0.959911
-15.7489 -12.2683 -1.02206
-19.4872 -11.1978 -1.7242
-19.1514 -11.1539 -1.57587
-17.2426 -11.4939 -1.18812
-16.1095 -12.0078 -0.863338
-16.0764 -12.1219 -0.62945
-16.2503 -11.7005 -0.64375
-20.4796 -10.774 -1.33227
-18.0603 -11.2695 -0.851821
-16.2942 -12.0348 -0.652587
-16.1149 -12.0853 -0.652137
-18.2954 -11.443 -1.02487
-16.8516 -11.363 -0.407402
-17.0333 -11.2165 -0.436417
-19.7273 -11.0353 -1.09547
-19.9785 -10.9067 -0.621027
-17.6015 -11.3612 -0.306613
-18.9634 -11.0453 -0.2466
-20.2492 -11.1297 -0.357121
-20.7003 -10.9059 -0.306302
-20.5809 -10.9737 -0.384785
-21.1295 -10.8876 -0.266964
-20.5936 -11.1262 -0.113509
-18.4993 -10.9326 0.194288
-16.2654 -11.5879 0.537903
-18.3863 -10.986 0.303534
-18.7716 -10.8271 0.0831456
-20.6076 -11.117 -0.164228
-21.1289 -10.8555 -0.0831913
-19.1557 -10.7456 0.324233
-19.244 -10.6723 0.258766
-21.3989 -10.7979 0.52983
-15.0013 -12.475 -3.03264
-18.6665 -11.2782 -3.87529
-15.1412 -12.4774 -2.49796
-15.2732 -12.3126 -2.81419
-15.1721 -12.4493 -2.55842
-19.3052 -10.974 -3.64206
-19.2956 -10.9106 -3.47038
-16.0434 -11.6391 -1.84504
-20.1666 -10.7875 -2.95353
-20.2655 -10.8764 -2.66039
-16.5175 -11.6713 -1.64566
-18.9816 -11.1153 -1.95878
-18.0751 -11.3784 -0.838735
-17.8649 -11.2628 -0.788704
-16.3048 -11.8626 -0.540477
-18.0676 -11.4613 -0.646671
-18.9138 -11.0306 -0.459233
-20.5777 -10.9637 -0.538106
-18.9899 -10.86 0.291431
-21.493 -10.6555 0.787355
-16.805 -9.6693 1.35101
-16.8566 -9.81066 1.48362
-16.5041 -9.82459 1.53826
-15.1512 -12.4758 -3.12513
-18.3418 -11.0381 -3.7934
-17.2218 -11.1411 -2.23881
-19.6275 -10.9567 -2.93335
-18.3645 -11.0458 -2.46639
-18.9319 -11.321 -2.09549
-19.9633 -10.8063 -2.06665
-16.6712 -11.7219 -0.776471
-15.9721 -12.1378 -0.718964
-20.0303 -11.151 -1.34279
-17.4337 -11.5327 -0.402498
-19.1146 -10.9754 -0.443914
-20.4987 -10.907 -0.081857
-21.613 -10.7459 0.846137
-14.5319 -12.6996 -3.09406
-14.8418 -12.4506 -3.03088
-18.2923 -11.3735 -3.87921
-19.4912 -10.9759 -0.84157
-19.9544 -11.1225 -0.244364
-19.0707 -10.7124 0.107833
-20.1462 -10.7791 -1.54323
-19.7445 -11.0673 -1.0229
-19.9648 -11.2715 -0.798241
-18.7684 -11.3031 -3.20142
-17.3997 -11.5828 -0.578584
-18.9909 -11.0078 -0.839374
-20.3822 -11.0032 -0.124079
-16.5154 -11.3239 -1.83355
-16.7595 -11.5707 -0.780605
-16.0611 -11.5229 -2.41758
-16.3309 -11.4629 -1.49338
-17.1987 -11.3547 -1.50811
-15.837 -11.9498 -1.17974
-16.6959 -11.766 -0.907969
-20.5766 -10.4745 -3.67352
-19.504 -10.9687 -3.50063
-19.4675 -11.0715 -3.60314
-19.8864 -10.7276 -3.54337
-20.1817 -10.756 -3.26736
-18.0695 -11.3942 -3.68076
-18.8113 -11.038 -3.11509
-19.5419 -11.2669 -3.12633
-18.5991 -11.3018 -3.02192
-20.3856 -10.7707 -2.13823
-15.7751 -12.1529 -3.39189
-19.3429 -11.345 -2.14229
-19.5855 -11.081 -1.92724
-15.3078 -12.0237 -3.35624
-15.3372 -12.2171 -3.24136
-19.4305 -11.0214 -1.63104
-15.2531 -12.2439 -3.2836
-15.4662 -12.3427 -2.99114
-19.4046 -11.2192 -1.53317
-17.9789 -11.3833 -1.82073
-18.3285 -11.2166 -1.68325
-17.9018 -11.2696 -1.75709
-15.141 -12.3109 -2.82824
-15.9531 -11.4819 -2.18122
-15.1107 -12.345 -3.11077
-15.3682 -12.2977 -2.70297
-18.3371 -11.1403 -1.4052
-20.0573 -10.9162 -0.873402
-21.0622 -10.892 -0.581165
-14.8816 -12.5824 -2.89737
-20.2393 -11.059 -0.723896
-17.989 -11.5181 -1.21506
-18.5855 -11.2605 -0.792813
-19.9252 -11.0587 -0.73406
-15.0188 -12.6357 -2.26976
-20.7126 -10.9414 -0.113767
-20.1545 -11.1611 -0.424686
-21.0673 -11.0739 -0.0464142
-20.4102 -10.8682 -0.232081
-16.4246 -11.8469 -1.38152
-20.7052 -10.9789 -0.319247
-18.643 -11.2578 -0.509317
-20.5495 -11.0739 -0.114676
-21.3149 -10.9368 0.394796
-19.3388 -10.7323 0.014883
-21.425 -10.7789 0.685315
-18.7109 -11.4629 -0.431107
-21.7929 -10.8516 0.584932
-21.2385 -10.8739 0.713286
-21.645 -10.4859 1.17885
-17.7057 -11.3135 -0.279992
-17.6694 -11.2049 -0.0945624
-16.9514 -11.3945 -0.299935
-18.7939 -10.9101 0.28908
-17.4681 -11.294 -0.112328
-16.469 -11.654 -0.922778
-16.4961 -11.6518 -0.72499
-18.5511 -11.0352 0.256171
-16.1482 -11.8992 -0.873387
-16.3806 -11.7517 -0.682946
-17.3221 -9.53024 0.958974
-17.1425 -11.3781 -0.239874
-17.1779 -9.58705 1.23568
-16.665 -11.7586 -0.485225
-16.5917 -11.6513 -0.599645
-17.3302 -9.55003 1.24671
-17.031 -9.71796 1.16306
-15.7413 -12.4012 -0.824962
-16.685 -11.6109 -0.369493
-17.4578 -9.58614 1.14731
-15.8352 -12.1763 -0.533205
-16.8752 -9.72744 1.17776
-16.2408 -12.3225 -0.691402
-17.4888 -9.75769 1.32191
-16.9419 -9.72766 1.04743
-16.5765 -11.7405 -0.20969
-16.4923 -11.6812 -0.22401
-16.0978 -11.9507 -0.453922
-17.6063 -11.2156 0.418998
-16.244 -11.9557 -0.227702
-16.7274 -9.78559 1.34159
-16.3868 -9.89333 1.42967
-16.7506 -11.5381 0.507827
-16.2349 -11.7689 0.610467
-20.4195 -10.5957 -3.56997
-18.5556 -11.2418 -3.8364
-19.9546 -10.9371 -3.28889
-19.5023 -10.9772 -3.19302
-20.2178 -10.6421 -2.79379
-20.4921 -10.6596 -2.84269
-20.2523 -10.7651 -2.14694
-18.7941 -11.138 -2.65237
-20.8027 -10.6935 -1.68052
-19.6569 -11.1494 -2.14201
-18.672 -11.202 -2.12772
-20.3683 -11.0354 -1.31907
-15.5408 -12.323 -2.77224
-14.8013 -12.5045 -3.15181
-15.5153 -12.4278 -2.67139
-15.4711 -12.5457 -2.61412
-16.7907 -11.2744 -1.61276
-18.2263 -11.3251 -1.12801
-18.445 -11.4658 -0.869822
-14.7759 -12.5232 -2.68658
-16.0583 -11.8896 -1.76425
-21.5745 -10.6177 0.408971
-19.0509 -10.934 -0.261804
-20.6404 -10.9856 0.0115772
-17.874 -11.5941 -0.559056
-15.0699 -12.5664 -2.01961
-15.2007 -12.478 -1.99324
-16.539 -11.6986 -1.03643
-17.3419 -11.4588 -0.65288
-17.0211 -11.6371 -0.661549
-15.7712 -12.016 -1.3395
-21.4489 -10.77 0.80871
-16.2488 -11.9 -0.966604
-16.2797 -11.7923 -0.910467
-16.4095 -11.6342 -0.774226
-16.2896 -11.6935 -0.703418
-16.3251 -11.8587 -0.491789
-17.3082 -11.3981 -0.302537
-16.738 -11.5785 -0.178399
-15.8412 -12.2007 -0.807632
-16.2035 -11.8044 -0.600559
-16.1651 -12.044 -0.590613
-15.9958 -12.1689 -0.647936
-15.8581 -12.1087 -0.674188
-16.3813 -12.2785 -0.443763
-16.8946 -9.87029 1.39275
-16.7179 -11.4758 0.584054
-16.8206 -11.8154 0.631097
-16.4924 -11.7115 0.467345
-16.1187 -11.3328 -2.87947
-19.0427 -11.1525 -2.74043
-20.9222 -10.9162 -1.89269
-21.0579 -10.9378 -1.64911
-17.4422 -11.1204 -2.23294
-17.3532 -11.1163 -2.10074
-18.1651 -11.197 -1.87836
-16.3009 -11.4696 -2.28149
-15.2363 -12.2619 -2.83993
-16.6353 -11.6208 -1.98032
-15.4629 -12.3804 -2.57695
-20.0873 -11.0128 -0.602654
-19.8259 -11.2873 -0.720466
-17.5777 -11.5141 -1.08096
-20.5794 -10.9549 -0.377888
-17.5318 -11.2421 -1.12854
-21.0958 -10.8802 -0.0403697
-18.0679 -11.3608 -0.662374
-18.2076 -11.5484 -0.85774
-18.1273 -11.5488 -0.832638
-15.1165 -12.5376 -2.02066
-18.0097 -11.3132 -0.62288
-16.7178 -11.773 -0.682961
-21.5773 -10.4958 0.972497
-16.8549 -11.2453 -0.359144
-17.0591 -11.4495 -0.0134689
-15.8666 -12.1039 -0.44326
-16.1712 -12.0607 -0.299931
-16.5705 -11.6497 0.630357
-19.0104 -11.2218 -3.2992
-18.6451 -11.3806 -2.95267
-17.9898 -10.9812 -2.03781
-15.5717 -11.4766 -2.84788
-20.4723 -10.6392 -1.62633
-16.9413 -11.2 -2.32847
-19.5584 -11.1986 -1.67489
-15.2857 -12.2852 -3.15294
-16.3074 -11.5786 -2.16932
-14.9526 -12.3221 -3.17802
-16.2603 -11.6161 -1.97019
-20.4563 -10.9054 -0.0411237
-21.6351 -10.3623 1.22282
-18.6875 -10.9931 0.400449
-17.4821 -11.5255 -0.562614
-16.4906 -11.9124 -0.636465
-16.397 -11.6866 -0.601896
-16.5057 -11.7713 -0.539826
-16.8535 -11.9001 -0.147709
-16.3858 -11.8889 -0.184754
-16.2615 -11.7866 0.395108
-17.3565 -10.8236 -2.88614
-17.1856 -11.0527 -2.50345
-19.1277 -11.1839 -2.18006
-15.4735 -11.4688 -2.70926
-16.05 -11.8202 -2.1963
-16.0224 -11.6557 -2.18896
-16.8245 -11.5037 -1.31821
-15.2134 -12.4837 -2.54659
-21.7358 -10.7964 0.569447
-21.612 -10.6799 1.07701
-16.3975 -11.7735 -0.512015
-16.58 -11.7766 -0.581737
-16.3529 -11.8516 -0.251598
-15.8997 -11.6143 -3.16225
-16.0718 -11.3213 -2.5659
-17.9881 -11.4195 -1.56548
-15.7368 -11.9191 -2.27181
-20.4984 -10.9304 -0.230513
-18.4564 -11.1527 -0.59517
-16.9764 -11.6758 -0.474103
-16.9235 -11.8541 -0.652964
-16.7947 -11.6286 -0.211152
-17.0617 -11.2693 -1.83
-16.5751 -11.2732 -1.93891
-18.9262 -11.3205 -0.761174
-16.6277 -11.635 -1.33042
-16.3987 -11.8444 -0.814928
-18.2489 -11.1929 0.0186473
-20.3139 -10.6553 -2.75826
-21.6383 -10.6485 0.797336
-17.032 -10.8517 -2.61789
-18.2521 -11.0761 -1.54832
-16.699 -11.3152 -1.94596
-16.7954 -11.5606 -1.11165
-15.9779 -11.5826 -2.00879
-15.2475 -11.7709 -2.04437
-20.2272 -10.8246 -3.59383
-20.5907 -10.6942 -2.764
-19.395 -10.912 -4.09534
-19.7896 -10.9025 -3.52801
-19.4987 -10.9031 -3.6998
-20.8466 -10.7257 -1.59652
-20.9122 -10.9489 -1.40272
-19.3725 -10.9597 -3.40162
-21.6957 -10.6701 0.742402
-19.9133 -10.7876 -2.26606
-21.7204 -10.9256 0.459081
-21.5364 -10.9596 0.824671
-21.1201 -10.9892 0.250246
-21.1318 -11.1268 0.594393
-20.5302 -11.0642 0.232322
-17.972 -10.8273 -2.34929
-17.3671 -9.62397 1.46978
-19.142 -10.7423 0.179667
-19.1144 -11.1144 -1.96072
-19.2289 -10.7016 0.263662
-17.1333 -9.77819 1.07954
-17.9532 -10.982 -2.19066
-18.8668 -10.9586 0.107089
-17.4215 -11.0265 -2.29992
-16.9035 -9.81118 1.08196
-17.0837 -9.72059 1.2846
-17.6334 -10.9979 -2.24015
-18.3301 -11.2841 -1.28358
-16.7984 -9.82284 1.08507
-17.0949 -9.64996 1.69794
-16.8409 -9.6592 0.937205
-17.245 -11.0247 -2.3193
-18.6742 -11.2915 -0.164627
-16.7567 -9.71213 1.15511
-18.3926 -11.3717 -0.791377
-18.4562 -11.4246 -0.364048
-18.1801 -11.4769 -0.449579
-17.5313 -11.346 -1.11952
-17.4002 -11.3146 -0.543669
-17.0988 -11.4705 -1.31608
-17.5284 -11.4662 -0.262766
-16.2674 -11.3419 -1.99958
-16.8469 -11.3396 -0.349534
-16.8942 -11.7655 -0.512234
-16.7564 -11.4975 -0.660698
-16.9278 -11.4621 0.438688
-16.431 -11.6551 -1.09748
-16.721 -11.6493 -0.0811885
-16.6976 -11.6047 -0.270214
-16.7333 -11.6462 -0.124897
-16.4281 -11.7604 -0.390243
-15.2374 -12.1425 -3.34779
-16.5619 -11.808 -0.134992
-16.4009 -11.7935 -0.305142
-16.3938 -11.8365 -0.155084
-15.1369 -12.2692 -3.17213
-16.3694 -11.487 0.373708
-15.1713 -12.2868 -3.11421
-15.1372 -12.4811 -3.02767
-15.2184 -12.4107 -2.85401
-15.2126 -12.0766 -2.61289
-16.3 -11.9383 -0.354176
-16.1612 -11.9986 -0.565507
-16.2647 -12.1044 -0.294371
-15.1314 -12.3838 -2.2972
-15.0973 -12.464 -2.18808
-15.1628 -12.625 -1.88994
-19.7559 -10.6753 -4.03325
-20.6924 -10.7085 -2.15682
-20.2085 -10.7285 -1.89704
-20.4135 -10.8016 -2.05368
-21.76 -10.6076 0.416328
-19.5962 -10.896 -2.99162
-21.6754 -10.8927 0.828757
-21.564 -10.7841 0.875152
-21.3759 -10.9422 0.523259
-20.3516 -10.9781 -0.515702
-20.2935 -11.217 -0.52784
-20.2029 -11.2699 -0.24438
-19.0428 -10.7601 0.27128
-18.0374 -10.9674 -2.17576
-17.4233 -11.1044 -2.25267
-18.0158 -11.713 -0.726634
-18.1071 -11.3429 -0.752968
-17.5279 -11.3433 -0.196634
-16.9108 -11.6107 -1.60568
-17.5048 -11.3601 0.232352
-16.2158 -11.4004 -2.25444
-16.6462 -11.6343 -1.38724
-16.9088 -11.3356 -0.663484
-16.7805 -11.4104 -0.328736
-16.7775 -11.3444 -0.24309
-16.1312 -11.761 -0.6633
-15.2505 -12.135 -3.43233
-16.2972 -11.7393 -0.522057
-16.2338 -11.5785 0.408384
-16.2109 -12.0576 -0.658975
-16.1646 -12.0938 -0.403558
-15.7598 -12.2287 -0.978785
-15.7519 -12.1049 -0.702134
-15.8456 -12.2829 -0.458008
-15.2789 -12.3987 -1.77543
-15.4018 -12.5212 -1.8122
-15.0574 -12.5389 -1.84887
-20.6207 -10.8202 -2.34112
-20.9103 -10.6859 -1.58041
-21.8427 -10.6429 0.322106
-21.5238 -10.8279 0.390822
-20.869 -10.9946 -0.291137
-19.0891 -11.0445 -3.07728
-20.559 -11.2058 -0.191129
-20.4444 -10.8817 -0.354343
-18.4939 -11.2393 -3.79161
-20.2948 -10.969 -0.184482
-20.351 -11.2018 0.0858061
-18.9632 -10.657 0.23025
-17.6053 -11.0357 -2.39121
-17.3698 -11.0598 -2.22544
-17.8024 -11.4323 -0.570122
-16.9027 -11.5513 -1.55513
-15.8957 -11.4093 -2.9965
-16.3273 -11.4021 -2.30017
-16.0791 -11.3475 -2.06121
-16.8059 -11.7111 -0.903367
-15.7934 -12.0482 -3.37621
-16.4578 -11.6945 -0.625405
-16.6523 -11.5173 0.459271
-15.5414 -12.3287 -2.74708
-15.3437 -12.3989 -3.2289
-15.5571 -12.2637 -2.82345
-15.0901 -12.3282 -3.28641
-19.127 -11.2494 -1.46945
-17.7724 -10.9241 -2.30567
-18.7048 -10.7695 0.386415
-18.8894 -10.9597 0.128581
-18.6198 -10.8085 0.304626
-18.5071 -11.0189 0.171966
-17.0944 -11.4287 -1.91253
-17.309 -11.2403 -0.821284
-17.5125 -11.4178 -0.584087
-17.5785 -11.5288 -0.255778
-15.737 -11.2615 -2.74361
-16.3301 -11.756 -1.10789
-16.6554 -11.4463 0.281013
-16.5081 -11.6806 -0.981666
-16.6166 -11.7099 0.535806
-16.4524 -12.017 -0.109108
-15.1955 -12.4215 -3.1059
-15.8254 -12.2174 -0.877375
-15.476 -12.4039 -1.53722
-19.785 -11.1305 -1.57618
-18.9763 -10.8357 0.140968
-18.6769 -11.3638 -0.642352
-17.4922 -11.3305 -0.330549
-16.8564 -11.6024 -1.20691
-16.913 -11.2862 0.665376
-15.1498 -12.4997 -3.02169
-15.3426 -12.3023 -2.69176
-16.311 -12.0324 -0.128214
-21.8221 -10.7788 0.643668
-18.8682 -10.9303 -0.381119
-17.9242 -11.0964 0.191677
-16.9 -11.5296 -0.842977
-16.8578 -11.4355 -0.455807
-16.6533 -11.4734 -0.266325
-18.8566 -11.0682 -0.88922
-16.9806 -11.5469 -0.978499
-16.7301 -11.7393 -0.802598
-16.3765 -11.5675 0.365517
-21.4944 -10.8171 0.879636
-20.562 -11.1974 -0.0677322
-16.9355 -11.6534 -0.879931
-16.2091 -12.0114 -0.792322
-16.4244 -11.5923 -1.48643
-17.0282 -11.6488 -0.358581
-17.1162 -11.2729 -1.70233
-17.07 -11.5111 -0.490961
-15.5783 -11.9085 -2.00309
-22.0803 -11.0919 0.109574
-21.4672 -10.8272 0.992277
-21.5095 -10.6715 0.420874
-17.0659 -9.61211 1.77239
-17.2873 -9.61464 1.47996
-17.212 -9.79509 1.38556
-16.8771 -9.79593 1.3676
-18.5154 -11.0014 0.33292
-19.5833 -10.7844 -3.57412
-17.7104 -11.3236 -0.2168
-16.8249 -11.3288 -0.470739
-16.9624 -11.3621 -0.883435
-17.2903 -11.1001 -2.15144
-16.2253 -11.5579 0.535519
-16.2932 -11.397 -2.15426
-21.2055 -10.7662 0.66499
-16.4245 -9.78692 2.10345
-20.5766 -10.439 -2.89895
-18.6531 -10.8738 0.135395
-18.8306 -11.2203 -2.81942
-17.3606 -11.5419 -0.318268
-17.2036 -11.3978 -0.895268
-17.1842 -11.0718 -2.27836
-17.4877 -10.8716 -2.22468
-16.6258 -11.6463 0.53673
-16.6014 -11.7343 -0.0571126
-16.2681 -11.501 -2.0235
-16.131 -11.2675 -2.10789
-16.0863 -11.451 -2.16043
-15.6531 -12.0637 -0.981824
-15.7043 -12.2725 -3.06342
-14.9298 -12.4743 -2.78954
-21.4219 -10.6032 0.605376
-18.7709 -10.7868 0.35911
-18.8193 -10.7221 0.141341
-18.1029 -11.3526 -0.873935
-17.521 -11.3152 -0.305573
-17.5621 -11.45 -0.526709
-17.5769 -11.2666 -1.09614
-17.2974 -11.2039 -2.02014
-16.6269 -11.3698 -0.297173
-16.4733 -11.5863 0.392761
-16.8537 -11.6234 -0.361439
-16.5605 -11.6352 -0.569554
-16.3544 -11.771 -0.771376
-15.9359 -11.5325 -3.11438
-15.6975 -12.1659 -3.37314
-14.9347 -12.3526 -2.20487
-21.4963 -10.7792 1.06401
-21.7213 -10.7197 0.802557
-20.3476 -11.0842 -0.12187
-20.2596 -11.0357 -0.531692
-20.5889 -10.5292 -2.16206
-18.8084 -10.8728 0.185081
-18.4958 -11.0422 0.185499
-17.7966 -11.3884 -0.278296
-17.7403 -11.6397 -0.293975
-18.5476 -11.3834 -2.98496
-18.5943 -11.0843 -3.29516
-16.507 -11.8501 -0.00370276
-16.5963 -11.9385 -0.231329
-15.7585 -12.2067 -1.13248
-15.7508 -12.0533 -1.22902
-14.6381 -12.5209 -2.47246
-21.2376 -10.7117 0.0782592
-19.3339 -10.8278 0.224557
-17.4923 -11.3521 -0.124028
-16.7 -11.6371 0.609192
-17.0691 -11.4007 -1.62421
-16.3525 -11.7383 -0.505247
-15.3638 -12.4194 -2.7754
-18.7336 -10.8643 -1.15278
-17.2984 -11.3415 -0.320964
-16.8437 -11.5334 -1.06375
-16.3576 -11.5475 0.549067
-15.6634 -12.0603 -1.4245
-15.287 -12.4808 -2.84199
-21.5136 -10.6668 1.04043
-21.9511 -10.8414 0.685809
-14.3954 -12.6255 -3.11113
-21.6011 -10.7786 0.605081
-17.5403 -11.2652 -1.56933
-16.8993 -9.5585 1.64287
-21.4102 -10.7853 1.02482
-21.4088 -10.8345 0.946342
-16.8414 -9.7888 1.41219
-17.2445 -9.51771 1.16397
-17.1725 -9.84311 1.46359
-17.1418 -9.66188 1.3243
-21.4868 -10.8503 0.197184
-16.6505 -9.74904 1.26719
-16.6583 -9.69966 1.49485
-16.3395 -9.80288 1.18669
-20.3745 -11.0127 0.0676725
-18.8957 -10.6016 0.352198
-18.9527 -10.7409 0.599833
-20.2979 -10.9644 -0.690829
-20.3218 -10.9269 -1.55714
-17.1603 -11.444 0.546885
-17.2408 -11.5096 0.232709
-18.0152 -11.6516 -0.288579
-16.4687 -11.5098 0.378254
-17.5986 -11.4834 -0.225326
-17.5242 -11.3841 -0.289155
-17.9809 -11.2456 -0.716613
-17.7432 -11.3302 -0.0769327
-17.5254 -11.3671 -0.158628
-17.1826 -11.6925 -0.0406602
-18.3002 -11.3857 -1.25694
-19.3883 -10.9999 -1.81958
-20.2518 -10.5435 -2.79974
-18.1682 -11.4572 -0.989007
-16.9435 -11.4746 -0.217419
-20.9641 -10.4123 -3.1146
-16.8317 -11.3083 -0.407455
-16.8939 -11.3197 -0.403466
-17.4151 -11.5311 -0.726827
-20.0482 -10.9853 -2.70814
-16.6845 -11.8353 -0.146408
-16.4593 -11.9822 -0.22322
-16.5917 -11.6418 -0.301013
-17.6553 -11.3709 -1.22179
-16.3615 -11.784 -0.183582
-16.3653 -11.9184 -0.0975803
-17.2869 -11.374 -1.22161
-19.8171 -11.0774 -2.97152
-19.7173 -10.9847 -2.98881
-19.673 -10.7976 -3.03133
-19.4019 -11.135 -2.65849
-19.022 -11.1113 -2.66871
-20.5056 -10.5586 -4.07729
-16.2557 -12.0072 -0.367479
-16.6218 -11.5911 -0.590147
-20.2947 -10.6359 -3.96422
-16.2042 -12.1477 -0.490039
-16.1652 -12.0497 -0.58907
-16.3621 -11.5423 -0.684837
-19.5926 -10.7564 -3.48858
-19.3921 -10.946 -3.56069
-16.3048 -11.5505 -1.0239
-19.5753 -10.7751 -4.20032
-17.106 -11.2219 -2.21002
-16.6651 -11.4853 -1.53289
-19.3771 -10.7824 -4.16875
-19.1035 -10.8172 -4.03226
-18.2729 -11.2874 -3.93111
-18.0019 -11.369 -3.54431
-15.3722 -12.2798 -2.73693
-15.9428 -12.0416 -3.41589
-15.6332 -11.9639 -3.53218
-15.0199 -12.3475 -2.74748
-14.8301 -12.5726 -2.61635
-15.2123 -12.2652 -2.97792
-15.1212 -12.413 -3.12192
-14.5771 -12.5959 -2.9589
-16.9953 -9.60215 1.24044
-16.5114 -9.79452 1.44888
-21.4068 -10.7812 0.381765
-21.1247 -10.8481 0.380472
-20.8975 -10.9472 -0.0584779
-20.6409 -11.1368 -0.0197626
-19.2618 -10.6298 0.423101
-18.4919 -10.8985 0.527956
-18.6147 -10.7597 0.217325
-18.1573 -11.1199 0.368468
-17.8378 -11.1783 0.415116
-17.7617 -11.0655 0.454197
-20.8551 -10.5906 -1.54246
-17.8826 -11.4108 0.261709
-20.2843 -10.9483 -1.38311
-18.5797 -11.3913 -0.366887
-18.7358 -10.8734 -1.05526
-20.8494 -10.6118 -2.41639
-16.4298 -11.7896 0.524742
-17.5169 -11.5328 -0.219218
-18.3835 -11.352 -0.88353
-18.1668 -11.3342 -0.915687
-18.1625 -11.2216 -1.0291
-16.7938 -11.5805 -0.331595
-16.8497 -11.2144 -0.465802
-16.4458 -11.7844 -0.335659
-17.3731 -11.2219 -1.12695
-16.5633 -11.8199 -0.22822
-17.9038 -11.1477 -1.54038
-19.8597 -10.9022 -3.12486
-16.2675 -11.5915 -0.471336
-18.9882 -11.2446 -3.20344
-16.5115 -11.6895 -1.03896
-19.5319 -10.8915 -3.45203
-17.1324 -11.1633 -2.28982
-17.1094 -11.0302 -2.22475
-18.4893 -11.2726 -3.04499
-17.0307 -11.0491 -2.25019
-18.6637 -11.1538 -3.72432
-18.6986 -11.1104 -3.72613
-16.4562 -11.505 -1.89848
-15.9927 -12.0928 -1.37182
-18.1858 -11.3968 -3.7523
-16.149 -11.4608 -2.24489
-16.5662 -11.0722 -2.87388
-15.0956 -12.361 -2.60669
-14.99 -12.3986 -2.98552
-21.687 -11.0143 0.951948
-18.6615 -10.8592 0.349773
-20.3822 -11.1454 -0.468463
-20.1886 -11.0733 -0.916056
-20.2076 -11.1398 -0.924118
-20.9035 -10.7465 -1.51873
-17.4382 -11.0843 0.448955
-18.5808 -11.2058 -0.702188
-20.396 -10.8626 -2.20385
-17.3102 -11.4233 -0.317759
-17.7472 -11.3773 -0.540827
-18.0245 -11.2838 -0.923107
-17.1053 -11.2429 -0.0508669
-20.353 -10.678 -2.9041
-16.9344 -11.3479 -0.163736
-16.779 -11.6813 -0.264811
-16.6673 -11.6492 -0.148495
-16.5169 -11.7274 -0.144634
-17.9291 -11.3901 -1.45357
-17.3767 -11.4564 -1.20383
-17.2073 -11.3578 -1.00831
-16.3516 -11.7103 -0.521204
-20.0918 -10.6552 -3.52997
-19.979 -10.712 -3.63339
-16.1053 -12.1187 -0.749676
-18.5342 -11.2958 -3.01444
-17.3217 -11.0866 -2.19319
-17.3956 -11.0999 -2.28939
-17.35 -10.9898 -2.20751
-16.3974 -11.6186 -1.95357
-15.7543 -11.9497 -1.68943
-16.2527 -11.4115 -2.21022
-16.1274 -11.3958 -2.25473
-16.2163 -11.4679 -2.06486
-16.4634 -11.1005 -2.9115
-15.1226 -12.2843 -3.24997
-14.5826 -12.4189 -3.40846
-21.5306 -10.7744 0.943085
-19.1199 -10.6895 0.272586
-16.7383 -11.5975 0.727438
-16.9557 -11.4902 0.219848
-18.5579 -10.9964 -0.78663
-16.4146 -11.8424 0.34566
-16.3121 -11.6463 0.584691
-16.8834 -11.5033 -0.223302
-16.843 -11.4593 -0.208605
-16.8249 -11.6461 -0.255642
-16.4883 -11.7839 -0.0392364
-16.6088 -11.7765 -0.104378
-18.0089 -11.3498 -1.2503
-20.1335 -10.5369 -3.40409
-18.0664 -11.0797 -2.20051
-16.4883 -11.6182 -0.614316
-18.8285 -11.2089 -2.78533
-17.8702 -10.7208 -2.39392
-16.3374 -11.9781 -1.15097
-18.6644 -11.2456 -3.16541
-18.57 -11.1935 -3.18003
-16.4631 -11.6843 -1.40901
-16.9058 -11.556 -1.7494
-18.451 -11.3978 -3.34761
-16.0764 -11.3926 -2.14751
-16.2637 -11.08 -3.19864
-15.347 -12.4441 -1.90474
-15.7846 -11.9201 -2.27274
-15.2361 -11.748 -2.1475
-15.7605 -12.1767 -2.58882
-15.0722 -12.4775 -2.20113
-15.6585 -12.1375 -3.30882
-15.1879 -12.3485 -2.96697
-15.1824 -12.3955 -3.22979
-16.9708 -9.65942 1.26657
-21.2266 -10.7618 -0.0994574
-19.1407 -10.7741 0.293375
-20.4474 -11.1039 -0.159357
-18.1564 -10.9289 0.249998
-17.7956 -11.1451 0.352189
-19.9169 -10.9712 -1.36954
-19.9216 -11.1477 -1.38116
-18.3117 -11.4661 -0.350662
-18.9349 -10.6796 -1.03404
-16.7351 -11.4091 0.397098
-20.0401 -10.8692 -2.02347
-17.4876 -11.2992 -0.928148
-17.4304 -11.2961 -0.880705
-19.7624 -10.9847 -2.71722
-16.0508 -12.1246 -0.32327
-16.4025 -11.7582 -0.780533
-16.3079 -11.8249 -1.02903
-15.8127 -12.1302 -0.8679
-16.5813 -11.3918 -1.93133
-16.6299 -11.3979 -2.58998
-16.1644 -11.3569 -2.18009
-21.7124 -10.6341 0.572792
-18.6328 -11.0202 0.283127
-19.8165 -11.1273 -0.714914
-20.0168 -11.0785 -1.10812
-16.5568 -11.8137 -0.156785
-16.4373 -11.5888 -1.04507
-15.9527 -12.1077 -1.49732
-15.9012 -11.5639 -2.5389
-20.6166 -10.9508 -0.495708
-18.277 -10.9076 0.405412
-18.3418 -11.0975 0.0823474
-19.8631 -11.1 -0.928783
-17.0169 -11.5223 0.314781
-17.6964 -11.467 -0.312487
-16.5523 -11.6835 -0.886026
-17.0805 -11.2678 -2.26896
-16.8347 -11.3645 -1.92309
-15.7161 -11.6591 -2.39409
-15.1788 -12.3854 -1.84538
-15.7343 -11.4004 -2.91269
-16.5779 -11.6846 0.541874
-14.226 -12.5566 -3.5361
-16.8387 -11.6491 -0.415542
-17.0101 -11.7031 -0.683035
-15.9556 -11.8841 -2.0559
-17.2581 -11.5712 -0.692574
-16.6876 -11.5381 -1.78097
-15.9878 -11.768 -2.47523
-17.0394 -11.5092 -0.746706
-16.3293 -11.6789 -1.348
-15.4757 -12.1926 -1.30797
-15.7644 -11.9687 -1.54626
-14.5487 -12.4379 -3.02051
-14.8176 -12.4081 -3.17388
-15.0456 -12.4565 -2.99654
-14.9936 -12.5452 -2.99609
-15.2875 -12.3368 -3.02125
-18.3112 -11.3076 -3.70136
-18.243 -11.1912 -3.89366
-18.4245 -11.2268 -3.72645
-20.0015 -10.5271 -3.77961
-15.1355 -12.5133 -2.25944
-18.3057 -11.3041 -3.21571
-20.3413 -10.5549 -3.68674
-18.8686 -11.1152 -3.26098
-18.7167 -11.3091 -3.133
-19.436 -11.167 -3.03599
-17.0266 -11.424 -1.98958
-20.0214 -11.0537 -2.84337
-17.1215 -11.3746 -1.90192
-19.5057 -10.9619 -2.58129
-16.8914 -11.5255 -1.5308
-15.9818 -11.9212 -1.62385
-16.5726 -11.5982 -1.64274
-20.6689 -10.7778 -2.64622
-17.9239 -11.2924 -1.95125
-17.12 -11.4517 -1.35179
-21.0332 -10.7459 -1.7774
-19.0602 -10.7789 -0.919323
-17.5301 -11.3578 -0.67184
-16.3205 -12.1621 -0.532033
-20.9112 -10.8157 -1.29701
-18.4004 -11.2334 -0.705536
-18.8065 -11.2944 -0.469616
-16.2974 -11.8944 -0.217482
-19.9158 -11.2594 -0.694939
-16.4826 -11.8668 -0.347854
-18.7932 -10.9483 -0.415768
-21.0322 -10.8747 -0.490671
-20.8952 -10.723 -0.421758
-20.5394 -11.1393 -0.0350578
-20.7031 -10.9425 -0.181743
-16.9508 -11.573 0.531437
-18.7378 -10.7702 0.364172
-20.9812 -10.7 -0.195255
-20.5931 -11.0838 -0.146877
-21.1728 -10.8476 -0.00399923
-17.3764 -11.396 0.281764
-18.1463 -10.9783 0.405015
-17.3703 -11.3104 0.468536
-18.531 -10.9688 0.435476
-17.6054 -11.2144 0.597395
-21.3866 -10.9265 0.53771
-16.5839 -9.96125 1.22791
-15.4038 -12.2668 -2.80139
-15.3014 -12.3032 -2.67826
-15.216 -12.455 -2.21557
-18.4224 -11.1196 -3.011
-17.0799 -11.0223 -2.10266
-19.0952 -11.1719 -2.93825
-15.4052 -12.5048 -1.71464
-19.2204 -11.1841 -2.77093
-16.615 -11.44 -1.6421
-16.8148 -11.6198 -1.85804
-16.7972 -11.4963 -1.87617
-19.7027 -10.9776 -2.32485
-16.4946 -11.6626 -1.00172
-15.8492 -11.9587 -1.05115
-16.17 -12.1191 -0.664014
-16.0828 -12.0945 -0.598564
-16.5404 -11.7396 -0.344125
-16.8876 -11.4931 -0.605866
-18.6487 -11.3514 -0.795466
-18.1533 -11.5192 -0.65273
-20.1917 -11.1667 -0.595028
-18.8447 -11.0304 -0.200371
-16.3695 -11.5564 0.480574
-20.4031 -11.069 0.080772
-21.672 -10.7042 1.03082
-15.1398 -12.3555 -2.8833
-17.5134 -10.7264 -2.92647
-14.958 -12.5213 -2.03432
-16.8568 -11.3059 -1.87081
-15.417 -12.3558 -1.73186
-17.2038 -11.5293 -1.5872
-17.386 -11.3885 -0.999616
-20.5695 -10.7321 -1.37171
-16.7506 -11.6855 -0.246817
-20.4902 -11.1366 -0.576243
-20.1953 -11.0523 -0.256203
-18.9551 -11.075 -0.135498
-17.9286 -11.4022 0.201895
-16.6752 -11.4534 0.24019
-20.6612 -11.0422 -0.0291985
-19.1292 -10.7455 0.455913
-19.8682 -9.9722 1.38664
-14.4805 -12.6876 -3.07546
-18.4194 -11.3764 -3.86604
-14.7648 -12.5276 -2.50716
-17.3532 -10.8001 -2.74878
-15.525 -12.379 -1.83619
-19.9052 -10.9109 -2.21023
-15.9372 -11.8005 -1.13276
-20.4653 -10.6726 -2.12492
-17.2584 -11.5009 -0.709918
-16.5542 -11.5554 0.269233
-18.1907 -11.0394 0.165795
-17.2499 -11.4358 0.550483
-17.4854 -9.42856 1.28117
-15.8819 -12.0876 -3.39223
-18.6598 -11.258 -3.87859
-16.2015 -11.4305 -2.11311
-19.3613 -10.9734 -2.94672
-16.623 -11.4053 -1.67917
-19.9743 -11.154 -2.14322
-16.744 -11.7969 -0.962736
-16.5839 -11.6323 -0.380192
-20.8318 -10.8001 -0.607676
-18.8124 -10.7629 0.140522
-16.3398 -11.7224 0.449099
-15.2469 -12.4225 -3.03662
-17.3401 -11.0467 -2.04848
-17.2628 -11.0347 -2.20101
-16.9504 -11.3355 -1.2284
-16.2707 -12.0597 -0.380208
-19.2258 -10.9043 -0.82892
-16.739 -11.6879 -0.288098
-16.5407 -11.7016 -0.770817
-16.966 -11.5244 -0.13621
-18.0873 -11.1824 0.443394
-17.1394 -9.46667 1.18946
-17.2763 -11.2503 -2.13355
-16.3978 -11.8817 -0.161579
-16.3724 -11.7262 -1.15837
-18.7885 -10.7414 0.208614
-15.8933 -11.6949 -2.27896
-15.7446 -11.7795 -2.01987
-16.7696 -11.7969 -0.923129
-17.51 -11.6182 -0.762422
-16.5268 -11.7898 -0.51298
-20.432 -10.4929 -3.98714
-19.1722 -11.032 -3.92003
-19.8313 -10.9032 -3.39706
-19.8821 -10.7092 -3.39653
-20.0452 -10.7157 -3.40764
-15.985 -11.3371 -3.23489
-20.2293 -10.8475 -2.97769
-19.6081 -10.9528 -2.82985
-20.1062 -10.913 -2.57629
-17.0129 -11.16 -2.44059
-16.658 -11.3887 -2.58357
-14.8885 -12.4498 -3.04475
-20.7296 -10.6892 -2.32752
-20.2925 -10.9191 -2.41361
-17.1109 -11.0918 -2.30831
-15.4155 -12.2735 -2.79816
-15.0574 -12.5057 -3.1852
-15.3067 -12.2212 -2.8898
-17.7699 -11.3062 -2.07298
-19.9924 -10.978 -2.11384
-16.2498 -11.5136 -2.17669
-19.728 -10.943 -2.19771
-16.4209 -11.2058 -2.02081
-15.2634 -12.4335 -2.8725
-17.1382 -11.3489 -2.06998
-19.5461 -11.1468 -2.02904
-16.9569 -11.4911 -2.11126
-14.8885 -12.3708 -2.51646
-16.9823 -11.3698 -2.14487
-21.0369 -10.7732 -1.74094
-20.6961 -10.6284 -1.73814
-16.6514 -11.3969 -1.76676
-16.4921 -11.4828 -1.868
-15.378 -12.4082 -2.33094
-20.8551 -10.8313 -1.66331
-17.9864 -11.0236 -1.42514
-17.9432 -11.3624 -1.49495
-16.6054 -11.6007 -1.69879
-16.8347 -11.6209 -1.56767
-18.2909 -11.3633 -1.12997
-15.2021 -12.4551 -2.07663
-17.3469 -11.2922 -1.20591
-18.8812 -11.1452 -0.72716
-20.6271 -11.0152 -0.391962
-20.4679 -11.061 -0.193844
-21.2473 -10.8076 -0.155777
-16.7272 -11.6652 -0.766752
-18.6368 -11.4923 -0.316492
-16.7512 -11.5722 -0.49848
-16.4333 -11.7415 -0.655543
-15.7492 -12.2371 -0.821491
-17.4638 -11.5183 -0.32155
-17.307 -11.4127 -0.291859
-16.211 -11.9489 -0.408944
-16.6549 -11.6292 -0.356845
-16.3298 -11.7947 -0.0816422
-16.3779 -11.8734 -0.137493
-17.1212 -9.46783 1.05301
-17.1134 -9.62542 1.29486
-17.2159 -11.5015 0.609211
-16.4699 -11.5802 0.457793
-16.6246 -11.6884 0.420672
-16.5504 -9.77489 1.25322
-17.0902 -9.56815 1.65108
-16.6658 -9.91836 1.18959
-19.3109 -10.8651 -3.60395
-19.3706 -11.0513 -3.36911
-19.1431 -10.9024 -3.44579
-18.6315 -11.0721 -3.46555
-19.5923 -10.728 -3.16101
-16.386 -11.0668 -3.00778
-19.0198 -11.1229 -3.39258
-20.4152 -10.7698 -3.15435
-15.348 -12.3633 -3.01671
-19.0122 -10.9089 -2.64437
-19.545 -11.0988 -2.34383
-14.8066 -12.5028 -3.02808
-14.9242 -12.359 -3.01375
-17.6014 -11.0861 -2.40221
-14.7612 -12.207 -3.05341
-16.1109 -11.6168 -2.02731
-15.073 -12.457 -2.71569
-16.7256 -11.4308 -1.84046
-18.2759 -11.1732 -1.26427
-20.1533 -11.0756 -1.17607
-17.3969 -11.5404 -1.16371
-19.9663 -10.8924 -0.961231
-17.5251 -11.3859 -1.16276
-17.9636 -11.2637 -0.634851
-18.1618 -11.601 -0.498209
-17.4894 -11.4869 -0.396137
-16.3471 -11.7478 -0.822746
-16.1615 -11.9395 -0.481697
-16.4155 -11.7159 -0.721498
-17.4795 -11.4457 -0.141512
-17.8938 -11.0716 0.332802
-16.4809 -11.8985 0.0120571
-17.4636 -11.459 0.471271
-16.4009 -11.5079 0.325592
-20.3377 -10.5756 -2.67798
-15.7706 -11.8793 -3.30564
-16.2596 -11.366 -2.44524
-16.1123 -11.6522 -1.96894
-17.0505 -11.5014 -2.00712
-18.9028 -10.6328 -1.15829
-19.9423 -11.0058 -0.69816
-17.9892 -11.498 -1.02552
-17.97 -11.4329 -1.02835
-17.5647 -11.5558 -0.796587
-16.1825 -11.8054 -0.495076
-17.0354 -11.4739 -0.121064
-21.7048 -10.5056 1.03072
-17.3912 -9.57985 1.00549
-19.7741 -9.93605 1.26499
-17.1708 -9.47846 1.20765
-16.5045 -9.39975 1.72343
-20.1835 -10.4537 -4.18413
-19.6634 -10.9114 -2.83272
-15.6186 -11.3723 -2.78571
-17.3127 -10.9505 -2.47104
-20.6153 -10.6335 -2.21314
-17.4213 -11.1611 -1.28716
-16.8568 -11.4644 -1.30826
-20.0958 -10.9365 -0.53003
-19.9801 -11.1961 -0.628602
-20.6425 -11.0267 -0.134483
-20.3774 -11.1341 -0.329258
-19.2367 -10.7151 0.23032
-21.4525 -10.6038 0.913372
-16.7996 -11.5845 0.462201
-15.8855 -11.5273 -3.00279
-17.1433 -11.4513 -1.24999
-19.9837 -11.2101 -0.746922
-17.4956 -11.4557 -0.993181
-19.2558 -10.8165 0.0389179
-16.8012 -11.5501 -0.0863444
-21.5546 -10.7117 1.01275
-16.8526 -9.66181 1.22378
-16.515 -11.1218 -2.86711
-17.2711 -11.349 -2.08883
-18.2067 -11.0434 -1.83932
-20.0077 -11.1502 -1.30858
-16.5276 -11.6857 -1.34449
-15.5869 -11.9623 -1.62581
-21.5217 -10.4351 1.06744
-16.0673 -11.9128 -1.08756
-16.8708 -11.5214 -1.15998
-16.6731 -11.4736 0.740409
-16.9102 -11.5827 -0.477333
-16.6781 -11.0105 -3.19871
-15.6686 -11.8345 -2.47459
-19.7105 -10.8313 -3.46652
-19.7241 -10.9196 -3.431
-19.8319 -10.9541 -2.06322
-16.6742 -11.1668 -3.14565
-17.447 -10.8776 -2.60825
-17.2265 -11.1416 -2.32894
-21.3489 -10.7855 0.447671
-18.3103 -11.1996 -1.35078
-17.1145 -11.4286 -1.83961
-21.4378 -10.632 0.883196
-21.4438 -10.8441 1.03811
-16.1776 -11.3213 -2.1199
-16.6571 -11.4769 -1.58504
-17.4731 -9.61608 1.34417
-14.777 -12.4856 -3.02274
-16.9972 -11.4126 -0.68191
-18.1884 -11.1895 0.49087
-16.9014 -11.3129 -0.445858
-14.9404 -12.3733 -2.35277
-15.0614 -12.4327 -2.21842
-14.9392 -12.3278 -2.38557
-15.9172 -12.203 -0.877369
-15.6303 -12.0584 -0.921123
-16.7186 -11.5658 0.700575
-18.7567 -11.2597 -3.57438
-19.5775 -11.1945 -1.6877
-17.1751 -11.0448 -2.34745
-20.0594 -10.9433 -0.670357
-20.4232 -11.118 -0.338752
-18.8406 -11.0587 -1.17582
-21.5364 -10.6658 0.892707
-16.1406 -11.4244 -2.13545
-18.9472 -10.9743 0.290804
-17.4465 -11.3949 -1.1735
-16.6064 -11.6423 -1.71051
-15.395 -12.395 -3.11499
-15.3433 -12.3511 -2.87015
-15.2698 -12.3059 -2.77129
-17.4988 -11.503 -0.267969
-16.856 -11.5725 -0.757356
-16.4975 -11.7152 -1.11052
-17.0896 -11.5839 -0.45859
-16.1727 -11.7332 -0.86896
-16.1876 -11.6881 -0.66893
-16.4534 -11.7618 -0.784797
-16.5332 -11.583 -0.752337
-16.2859 -11.7998 -0.94788
-16.3153 -11.674 -0.482697
-16.534 -11.8835 -0.225864
-16.3523 -11.713 -0.096014
-15.844 -12.1308 -0.527172
-18.3092 -11.2962 -3.45073
-19.7656 -11.0116 -2.09991
-20.5447 -10.8265 -1.18104
-16.5314 -11.2398 -3.03155
-16.6157 -11.2786 -3.0405
-16.3669 -11.1831 -2.92895
-17.2503 -11.1087 -2.21591
-19.0569 -11.1004 -1.54069
-19.1259 -11.356 -1.56078
-20.6788 -10.9838 -0.415353
-19.0593 -10.9437 0.401066
-17.4097 -11.4035 -0.808469
-15.231 -12.255 -2.83865
-16.8405 -11.6931 -0.736953
-14.565 -12.6416 -3.27967
-16.553 -11.6689 -0.840922
-16.3285 -11.9351 -0.340408
-16.0641 -11.9364 -0.684842
-19.5054 -10.8722 -3.14793
-18.7289 -11.2502 -2.62898
-20.6522 -10.9901 -0.0694316
-21.7043 -10.7199 1.26926
-16.1484 -11.3751 -2.43323
-18.812 -10.813 0.0716257
-19.0016 -10.7788 -0.0653694
-17.1753 -11.4376 -1.492
-18.7313 -10.8654 0.255483
-16.4744 -11.8041 -0.716087
-16.3437 -11.7076 -0.398329
-16.5121 -11.9251 -0.171919
-16.3977 -11.9366 -0.0952264
-16.1855 -12.0439 -0.188089
-17.2346 -10.8261 -2.94636
-21.5508 -10.6912 0.53644
-15.9942 -11.3769 -2.08561
-19.0689 -10.6813 0.160418
-16.1593 -11.5459 -2.06886
-16.7727 -11.6161 -0.967172
-17.8246 -11.1019 0.561972
-16.5902 -11.5469 -0.273802
-21.6813 -10.8261 1.09968
-16.6881 -11.452 -1.88543
-18.7333 -11.1236 -0.9452
-21.4923 -10.7675 1.01569
-21.5821 -10.8247 1.06662
-17.145 -11.5833 -1.53034
-16.4764 -11.7275 -1.35182
-17.1547 -11.2465 -2.23559
-15.7404 -12.2427 -1.54616
-16.55 -11.2489 -1.7416
-15.4265 -11.8866 -1.90251
-15.5769 -12.4675 -2.70972
-20.8132 -10.4603 -2.73146
-21.8078 -10.7755 0.536272
-21.5499 -10.7571 0.553098
-19.6388 -10.6721 -3.41495
-19.7657 -10.9614 -2.86812
-20.5727 -11.0787 -0.179962
-20.3944 -11.0734 0.157319
-17.1854 -9.83556 1.33346
-17.4411 -11.0985 -2.04651
-16.9882 -11.0978 -2.89828
-17.0838 -11.3303 -1.78839
-16.7382 -11.405 -0.435731
-16.9735 -11.4327 -0.432241
-16.1258 -11.4366 -2.0737
-16.5917 -11.5586 0.484693
-15.3819 -12.3093 -2.83909
-15.1731 -12.5858 -2.30618
-20.7762 -11.0009 -0.0753392
-17.1755 -11.1814 -2.34935
-17.1654 -11.1747 -1.86406
-18.1515 -11.4958 -0.797739
-16.5388 -11.7806 -0.664384
-15.7728 -12.0594 -0.869082
-20.4719 -10.9303 -0.24607
-20.619 -11.0152 -0.309868
-17.4093 -9.70845 1.29938
-17.0146 -11.4372 -1.94639
-17.3401 -11.3033 -0.438721
-18.9038 -11.1976 -2.60838
-18.5886 -10.7256 0.274984
-17.385 -11.5222 -0.475699
-15.4722 -11.849 -2.06209
-15.204 -12.4175 -2.76656
-21.5502 -10.3809 1.34475
-20.5096 -10.9633 -0.299811
-16.9591 -11.5529 -0.915354
-19.7225 -11.3054 -0.64447
-16.349 -11.7832 -1.55915
-15.8842 -11.7428 -1.96812
-16.1678 -11.9857 -1.2166
-16.9601 -11.7367 -0.839837
-18.9814 -11.1871 -0.921114
-17.1034 -9.61267 1.39719
-16.908 -9.54906 1.41091
-20.219 -11.0346 -1.49817
-20.1635 -10.9825 -1.79122
-19.2011 -11.0369 -3.88152
-18.5181 -11.5822 -0.420038
-18.8971 -11.087 -3.63349
-18.6452 -11.3364 -2.85453
-16.9786 -11.5184 0.276408
-17.4507 -11.0516 -2.29241
-16.7041 -11.3628 -0.303323
-16.8743 -11.4908 -1.53276
-16.5822 -11.6118 -0.284488
-16.5123 -11.6869 -0.219947
-16.5702 -11.5704 -1.62372
-16.3094 -11.9149 -0.0372768
-16.17 -11.2947 -2.1792
-16.1845 -11.3989 -2.1109
-16.2874 -11.263 -2.0722
-16.0882 -11.2333 -2.10675
-15.6704 -12.1296 -3.41864
-14.8414 -12.6021 -2.80789
-14.6818 -12.6033 -3.03502
-20.8437 -10.6786 -2.15674
-20.3154 -10.4572 -2.92867
-20.503 -10.7475 -2.82132
-19.5286 -11.0479 -1.73002
-17.7118 -11.3466 0.309004
-18.6259 -11.2722 -3.00977
-17.9888 -11.47 -0.806164
-17.6323 -11.5169 -0.387166
-17.7465 -11.3274 -0.515316
-17.6861 -11.3609 -0.841219
-17.4688 -11.6064 -0.245665
-17.4697 -11.412 -0.825847
-17.5216 -11.4436 -0.529212
-17.4445 -11.1398 -2.10625
-16.8925 -11.6283 -0.675498
-16.7133 -11.5812 -0.127331
-16.7429 -11.6384 -1.48056
-16.1225 -11.4151 -2.02125
-16.0273 -11.2828 -2.20569
-15.9954 -12.0841 -0.932303
-15.8369 -12.1531 -0.676335
-18.6761 -11.0146 -1.05609
-17.1323 -11.0208 -2.35067
-16.7764 -11.3567 -0.341929
-16.655 -11.7369 0.320746
-16.4389 -11.6903 -0.749243
-16.0996 -11.3031 -2.03184
-16.2222 -11.4617 -3.09488
-14.8727 -12.421 -2.57773
-21.5329 -10.7829 0.538913
-18.5591 -10.909 0.198097
-16.7391 -11.4877 -1.1887
-16.5877 -11.714 0.133154
-16.5879 -11.8183 -0.958254
-14.8602 -12.6558 -2.65717
-16.9653 -11.6714 -1.27603
-16.516 -11.8709 -0.328812
-16.6075 -11.6911 -1.36576
-16.3109 -11.747 -0.0800436
-16.2824 -11.8089 -1.00835
-15.2794 -12.4317 -2.77506
-17.0433 -11.3633 -0.933887
-16.7348 -11.917 -0.517283
-16.1797 -11.3827 -2.62649
-14.54 -12.7421 -3.35972
-15.9947 -11.7025 -2.50794
-15.5307 -12.2368 -1.48207
-16.8772 -9.74075 1.35857
-20.9785 -10.982 -0.0116341
-20.0832 -11.0071 -1.64629
-17.6156 -11.1163 0.324545
-18.7847 -10.6813 -1.1549
-20.9066 -10.6843 -3.05819
-20.6786 -10.732 -2.79425
-20.0619 -11.0296 -2.12697
-17.9785 -11.4572 -0.417413
-20.0573 -10.8598 -3.05241
-16.7496 -11.5039 0.517086
-17.5652 -11.385 -0.448535
-17.0957 -11.4951 -0.314881
-16.7967 -11.3211 -0.233425
-16.7938 -11.7186 -0.447022
-16.7575 -11.5067 -0.313601
-19.3298 -11.1095 -3.52535
-16.4821 -11.5946 -0.280772
-16.5003 -11.6648 -0.875809
-17.0706 -11.0053 -2.21376
-16.5491 -11.7046 -1.50569
-16.5439 -11.2197 -2.39011
-15.9696 -12.1494 -1.40808
-16.1287 -11.5387 -2.26551
-16.205 -11.404 -1.9846
-16.021 -11.2998 -2.27249
-15.8377 -12.1147 -3.30174
-15.3796 -12.3245 -2.74986
-15.4999 -12.0474 -3.27734
-15.2224 -12.1574 -3.00027
-20.3155 -11.1668 0.17113
-18.6903 -10.7037 0.260831
-18.6276 -11.0426 0.216211
-18.329 -10.9262 0.181594
-21.0902 -10.3792 -2.41689
-17.5044 -11.2481 0.407857
-20.0855 -10.9022 -2.14077
-20.2821 -10.6816 -3.06983
-17.22 -11.4148 0.316889
-17.7415 -11.3831 -0.259234
-17.5274 -11.3229 -0.328501
-19.3428 -10.8811 -2.77323
-19.1577 -11.2934 -2.08016
-17.4672 -11.5327 -0.795799
-17.2725 -11.4069 -0.94928
-18.625 -11.0805 -2.96255
-17.3734 -11.2132 -2.33357
-18.5828 -11.02 -3.90639
-16.4378 -11.7045 -0.611355
-18.1294 -11.4778 -3.85004
-16.1351 -11.9919 -1.01335
-15.6588 -12.0592 -0.858142
-16.0829 -11.5315 -2.19003
-16.1199 -11.4583 -2.14688
-16.1221 -11.5737 -2.16587
-16.2979 -11.3214 -1.90196
-15.8209 -11.8673 -1.51882
-16.2717 -11.22 -2.78905
-15.9796 -11.6636 -3.10731
-15.1811 -12.3773 -2.5829
-15.0666 -12.4588 -2.21627
-21.5332 -10.6471 0.909018
-20.3783 -11.0952 -1.17771
-20.1733 -10.9714 -1.47506
-18.6464 -11.3124 -0.48109
-20.3275 -10.5672 -2.86498
-17.7532 -11.3738 -0.228831
-16.7745 -11.5123 -0.36033
-17.4183 -11.3385 -1.18132
-16.3759 -11.7916 -0.532735
-16.4916 -11.6972 -0.322427
-18.416 -11.3009 -3.18594
-16.8071 -11.586 -1.22076
-16.4684 -11.7232 -0.585328
-16.2434 -11.9329 -0.628658
-16.2255 -11.6229 -0.872636
-16.4837 -11.8066 -1.55918
-16.0383 -12.2317 -0.869766
-15.7409 -12.0791 -0.865076
-16.163 -11.369 -2.20901
-15.5683 -12.5221 -1.93905
-15.9374 -11.4126 -3.05804
-15.3311 -12.3426 -2.94394
-14.8411 -12.6069 -2.6803
-21.5789 -10.6289 1.01935
-16.6889 -9.71645 1.30202
-20.3481 -11.1356 -0.0335409
-19.2844 -10.7287 0.251462
-18.8778 -10.8376 -0.798821
-18.7985 -11.0102 -0.924402
-16.4535 -11.3986 0.503538
-16.4383 -11.8756 -0.197638
-16.1871 -11.8033 -0.489874
-17.1912 -11.0387 -2.25977
-16.4488 -11.7724 -0.760981
-16.5653 -11.4861 -1.82094
-16.1163 -12.0163 -0.988926
-16.0084 -11.9816 -0.842576
-15.9592 -12.25 -0.994263
-16.0645 -11.5116 -2.03982
-16.7163 -11.4166 0.287143
-16.6196 -11.3119 -0.439384
-17.7669 -11.4064 -1.36592
-16.4215 -11.8778 -0.0427813
-16.5439 -11.3802 -1.81624
-16.0824 -12.1214 -0.971844
-15.5625 -11.975 -1.00333
-15.3859 -12.4569 -2.86793
-14.9853 -12.5634 -2.4722
-18.5363 -10.7244 0.438089
-19.967 -11.1297 -0.609984
-16.8213 -11.805 -0.242361
-14.8541 -12.49 -3.08855
-16.2023 -11.3829 -2.16525
-21.5243 -10.8588 0.830684
-17.1655 -11.7024 -1.42164
-15.6608 -12.145 -2.16584
-16.7681 -11.5425 -0.0955802
-17.1464 -9.52337 1.26198
-20.7528 -11.0042 -0.21668
-18.6301 -11.1005 0.623322
-18.595 -11.0287 0.534498
-17.1826 -11.2357 0.696371
-16.8641 -11.4266 0.432507
-16.3807 -11.7303 -0.0699708
-18.1579 -11.235 -1.0658
-16.5615 -11.7981 -0.173527
-17.4454 -11.4852 -0.682941
-16.5251 -11.944 -0.0339631
-16.7255 -11.7585 -0.492938
-17.6597 -11.3533 -1.05086
-19.6828 -10.8651 -2.46581
-19.3211 -11.0746 -2.22865
-16.4621 -11.7237 -0.699464
-16.436 -11.6624 -0.711334
-19.7454 -10.8409 -2.94601
-19.1383 -11.0357 -2.78171
-16.4404 -11.657 -1.13393
-18.9689 -11.1706 -2.75873
-15.7953 -12.1011 -0.71713
-16.014 -12.0184 -0.934548
-16.9447 -11.3168 -1.77834
-16.4296 -11.496 -1.54864
-17.0509 -11.4084 -2.02558
-17.3322 -10.9774 -2.18107
-15.8435 -11.6196 -2.10441
-16.0007 -11.3219 -2.15711
-16.4223 -11.3912 -2.51917
-16.4081 -11.0571 -3.08128
-15.3201 -12.4266 -2.5476
-15.7839 -12.0038 -3.31609
-15.3344 -12.2388 -2.86817
-14.8838 -12.4724 -2.87328
-21.3739 -10.4369 1.13671
-21.6513 -10.7431 0.746158
-16.5557 -9.81885 1.24545
-19.2095 -10.7101 0.312359
-20.9099 -11.0445 -0.353192
-18.5719 -11.0999 0.338236
-18.6242 -11.0805 0.244429
-20.0328 -11.2347 -1.00515
-16.7989 -11.457 0.387375
-17.7006 -11.2651 -0.339715
-20.7215 -10.4907 -2.22866
-16.7202 -11.5714 -0.0510403
-16.9346 -11.3847 -0.469869
-16.4295 -11.7895 -0.280657
-16.1884 -12.0684 -0.217943
-17.5697 -11.2097 -1.14232
-16.4831 -11.8685 -0.476422
-20.3165 -10.7369 -2.87334
-16.1905 -12.0513 -0.86275
-16.2678 -11.7905 -0.955557
-16.7222 -11.4939 -1.53613
-17.1026 -11.3631 -1.95323
-17.2447 -11.2387 -2.59294
-16.6097 -11.3636 -2.13152
-16.0893 -11.4051 -1.7904
-16.7429 -11.398 -2.51232
-16.1675 -11.2659 -2.01945
-15.2277 -12.4771 -2.53711
-14.8404 -12.5799 -2.86184
-20.5972 -10.948 -0.491351
-18.4893 -10.9835 0.285901
-18.0217 -10.9552 0.227905
-20.1123 -11.0935 -0.72928
-17.1786 -11.3901 0.588223
-17.0349 -11.4852 0.278112
-20.4304 -10.9334 -1.34798
-18.6676 -11.1109 -0.566491
-17.6089 -11.5337 0.0213633
-16.907 -11.3475 -0.255662
-16.7343 -11.659 -0.0784537
-20.5636 -10.5879 -2.84462
-20.444 -10.7363 -2.79157
-17.5719 -11.3273 -1.14764
-16.8308 -11.7081 -0.690351
-20.3746 -10.6153 -3.09509
-16.4108 -11.7198 -0.501204
-16.3159 -11.8362 -0.788551
-17.9117 -11.1325 -2.09647
-18.0323 -11.147 -2.20045
-16.3111 -11.724 -0.880699
-16.3192 -11.683 -1.05095
-16.2458 -11.6227 -1.37508
-17.1921 -11.045 -2.11876
-18.3774 -11.1776 -3.1563
-16.2495 -11.2595 -2.10382
-15.3433 -12.3748 -1.93243
-16.2922 -11.0377 -2.84778
-15.3624 -12.3676 -2.85808
-21.6093 -10.8804 0.876107
-19.3354 -10.5186 0.237592
-20.4344 -11.2798 0.0275735
-19.0365 -10.6471 0.214529
-20.3896 -10.9046 -0.12091
-18.6195 -10.7835 0.357315
-17.8315 -11.1623 0.689243
-17.9363 -11.0019 0.272011
-16.7697 -11.7624 0.299519
-16.5407 -11.7568 -0.312296
-16.2411 -11.7459 -1.00995
-15.8584 -12.033 -0.728172
-16.045 -12.1288 -1.26015
-16.5509 -11.4896 -2.11844
-16.3591 -11.5284 -1.98356
-21.5396 -10.9698 0.790488
-19.7197 -11.0587 -0.704171
-17.1664 -11.3763 -1.96643
-15.8226 -12.1342 -1.00209
-17.2082 -11.251 -1.87357
-16.1859 -11.5727 -2.04622
-15.7717 -11.8397 -2.40479
-20.5688 -11.1823 -0.0133283
-18.2723 -11.1348 0.231333
-16.519 -11.5026 0.522077
-15.9931 -11.9185 -1.13456
-16.2365 -11.3679 -2.13571
-21.6801 -10.7161 1.01785
-17.0521 -11.5739 -0.95988
-17.0694 -11.3606 -2.19018
-17.0203 -11.6939 -0.623861
-16.0397 -12.152 -0.543149
-15.8707 -11.754 -2.01337
-17.3812 -11.1095 -1.70698
-16.6843 -11.757 -0.386775
-16.5422 -11.6398 -1.46015
-16.475 -9.74927 2.00884
-17.4658 -9.61618 1.44839
-16.409 -9.80098 1.31805
-16.5677 -9.9415 1.20444
-17.1382 -9.64094 1.19671
-21.614 -10.7088 1.12818
-21.6609 -10.7963 1.04927
-21.4599 -10.9023 0.242532
-16.7473 -11.6428 0.567097
-18.7581 -10.8075 0.474015
-17.158 -11.3543 0.349474
-17.2539 -11.3146 0.384832
-16.7764 -11.5315 0.410543
-20.5032 -11.1228 0.113411
-16.4861 -11.5093 0.564764
-17.0443 -11.4122 0.48293
-16.6064 -11.5119 0.57329
-20.5126 -11.13 0.00924498
-16.562 -11.5849 0.628414
-20.7887 -11.1295 -0.241423
-18.788 -10.6291 0.1054
-18.8964 -10.7611 0.219434
-17.4171 -11.0541 0.250425
-16.2128 -11.8061 0.395052
-20.2518 -11.0585 -0.193897
-19.1714 -10.9247 -0.224309
-20.1167 -11.1085 -0.494795
-17.6778 -11.3606 -0.149322
-18.9337 -11.1271 -0.609468
-19.6489 -11.0094 -0.61781
-16.5824 -11.7409 -0.148152
-19.7444 -11.1356 -0.842888
-16.3797 -11.8834 -0.21828
-16.4033 -12.0258 -0.163503
-16.3839 -11.948 0.00418335
-16.5001 -11.7846 -0.180901
-16.709 -11.7781 -0.24229
-16.4884 -11.8789 -0.163038
-16.9002 -11.1861 -0.258094
-17.4553 -11.4665 -0.531665
-16.9668 -11.3664 -0.456789
-16.1954 -11.9881 -0.615066
-17.4312 -11.422 -0.826849
-20.5032 -10.8156 -1.37189
-18.6526 -11.0513 -1.02292
-18.9411 -10.8132 -1.21224
-20.879 -10.786 -1.53211
-16.593 -11.6924 -0.662296
-16.3875 -11.5812 -0.731393
-16.398 -11.7457 -0.847127
-16.4913 -11.6951 -0.661771
-20.7635 -10.6083 -1.8348
-20.5533 -10.8746 -1.78917
-17.2972 -11.5152 -1.22072
-19.2843 -11.1527 -1.78055
-19.1344 -11.0899 -1.74927
-17.1829 -11.4346 -1.12364
-20.5059 -10.7684 -1.87885
-17.0949 -11.3263 -1.36897
-19.5464 -11.0688 -1.82536
-16.6811 -11.4528 -1.34828
-21.0277 -10.605 -2.3321
-19.0556 -11.3103 -1.9858
-16.8554 -11.4371 -1.2507
-17.8855 -11.3414 -1.53508
-19.6462 -10.9839 -2.24578
-16.347 -11.7466 -1.46066
-16.8068 -11.2185 -1.68345
-16.984 -11.5404 -1.64282
-16.6872 -11.544 -1.68721
-16.5193 -11.5195 -1.61896
-19.2801 -11.1809 -2.60092
-20.6916 -10.6368 -2.9755
-20.4124 -10.7971 -3.05763
-20.3555 -10.553 -2.83581
-16.8919 -11.3658 -1.70837
-16.9972 -11.4158 -2.05614
-17.4037 -11.2238 -2.16749
-16.6207 -11.4129 -1.92354
-20.6475 -10.6044 -3.25964
-20.3447 -10.7483 -3.28786
-15.3765 -12.503 -1.85214
-17.1064 -10.9307 -2.15526
-17.1513 -11.0095 -2.22239
-19.8235 -10.9738 -3.28619
-16.1333 -11.5822 -1.93215
-16.2104 -11.267 -2.29045
-20.5682 -10.5696 -3.61953
-15.2968 -12.4105 -2.1101
-20.6023 -10.5723 -3.64489
-16.1257 -11.5048 -2.26502
-18.8251 -11.1235 -3.29368
-16.1927 -11.3118 -2.21322
-16.2337 -11.2507 -2.21386
-16.0393 -11.4499 -2.09487
-18.3356 -11.3257 -3.03171
-17.332 -10.8825 -2.51577
-17.093 -10.9959 -2.54994
-18.531 -11.3429 -3.27868
-16.6901 -11.2924 -2.47233
-16.3747 -11.2893 -2.45164
-20.1785 -10.7462 -3.81796
-15.133 -12.3706 -2.39986
-14.9606 -12.5419 -2.30895
-19.5417 -10.6125 -3.85212
-15.084 -12.4905 -2.5472
-19.8967 -10.6844 -4.09809
-18.7252 -11.1596 -3.55836
-19.583 -10.9827 -4.07491
-18.4133 -11.2355 -3.78125
-18.3201 -11.3075 -3.89007
-18.2334 -11.4222 -3.72772
-18.1425 -11.3686 -3.78948
-18.0608 -11.3476 -3.7422
-15.2716 -12.4316 -2.64759
-14.9579 -12.6319 -2.8248
-15.3987 -12.3764 -2.93443
-14.7356 -12.5132 -2.80397
-14.9618 -12.2306 -2.72827
-14.8449 -12.3776 -2.96281
-15.3662 -12.2135 -3.12633
-16.0192 -11.5734 -3.24837
-15.2529 -12.2627 -3.17653
-14.5082 -12.6329 -3.2791
-14.5911 -12.4751 -3.29328
-16.5605 -9.80351 1.39216
