-19.2752 -11.5835 -1.45118
-20.7725 -11.1875 -0.407876
-20.5588 -11.3564 0.216006
-19.9719 -11.6733 -0.185096
-20.4221 -11.5679 0.101455
-20.3197 -11.703 0.421243
-17.1357 -11.7969 -0.426345
-17.349 -11.9935 -0.233197
-20.1408 -11.0591 -1.67076
-19.325 -11.3136 -1.47833
-20.1809 -11.6253 -0.32593
-19.2634 -11.3874 -0.473629
-17.0656 -12.1062 -0.622667
-19.9549 -11.8365 0.292502
-18.1133 -11.4374 -2.93107
-19.4898 -11.5562 -1.22432
-16.9677 -10.6937 2.14747
-18.8878 -11.3483 -2.12948
-17.9145 -11.3038 -1.99289
-19.5426 -11.4072 -1.18874
-20.0301 -11.8281 0.884185
-18.993 -11.1602 -1.23234
-19.287 -11.4962 1.3906
-17.7034 -11.9879 0.202943
-19.0824 -11.4146 1.11311
-19.2829 -11.5975 -1.2637
-19.2928 -11.588 -1.11336
-20.1155 -11.9339 0.626101
-17.5364 -11.9454 -0.35999
-16.3275 -11.6964 -2.03797
-17.1002 -11.9098 -0.224957
-17.2363 -11.7912 -0.319286
-17.2456 -11.9154 -0.564105
-20.1311 -11.7856 0.199501
-18.2258 -11.2433 -2.81488
-16.5193 -12.2373 -0.630642
-16.7705 -11.7385 -1.7593
-17.3583 -11.8128 -0.400003
-18.0925 -10.9434 -2.304
-17.2648 -11.8047 -0.368146
-19.4949 -11.5777 -1.29835
-19.2179 -11.2636 -1.40205
-20.0487 -11.7071 -0.340788
-16.4879 -12.2529 -0.960745
-19.4458 -11.5895 -1.4742
-19.3702 -11.5313 -1.28319
-19.8492 -11.7289 -0.268108
-18.1515 -12.0942 -0.0727622
-18.5698 -11.1752 -1.29703
-17.3025 -12.0567 -0.77983
-20.8673 -11.2895 -0.591903
-20.7997 -11.3878 -0.171011
-19.6523 -11.4036 -1.32258
-17.6686 -11.7038 -0.849296
-17.7734 -12.0197 -0.359676
-17.1404 -11.9192 -0.464716
-16.1453 -12.4024 -1.39539
-20.0328 -11.646 -0.436389
-17.5765 -11.8667 -1.12945
-19.3423 -11.4546 -1.25524
-19.3444 -11.2005 0.118143
-18.4103 -11.835 -0.35301
-18.4332 -11.6975 -1.14416
-16.8804 -12.1079 -0.632683
-19.0638 -11.349 -2.49113
-16.8717 -11.9522 -1.24106
-20.5777 -11.1342 -1.43365
-17.858 -11.6861 -0.192339
-17.0618 -11.9354 -1.09417
-16.4508 -12.2152 -0.968201
-19.8796 -11.2097 -1.67835
-17.7973 -11.9891 -0.625187
-16.4271 -12.4554 -0.662434
-20.8418 -11.4097 -0.31257
-19.3558 -10.8598 -2.69558
-19.6421 -11.2949 -1.53539
-19.1694 -11.1509 -2.45961
-19.1091 -11.1206 -2.798
-18.4205 -11.8834 -0.54816
-16.7414 -12.3556 -0.185532
-18.3455 -11.643 -1.54887
-18.337 -11.6124 -0.8828
-17.6826 -11.9656 -0.783002
-19.2448 -11.3399 -1.57877
-19.5363 -11.0564 0.0413178
-17.6001 -11.9878 -0.281777
-20.8858 -11.1978 -0.840528
-20.1214 -11.3312 -0.552102
-19.3657 -11.54 -1.81562
-18.9017 -11.4727 -1.73156
-18.6603 -11.2853 -2.48825
-18.8984 -11.5804 0.873471
-18.4479 -11.741 -0.45958
-16.5872 -12.099 -0.852088
-20.7752 -11.1711 -0.505581
-19.8984 -10.9837 -2.12222
-20.2135 -10.9815 -2.09727
-19.6698 -10.9982 -2.00576
-19.3286 -11.449 -2.10346
-19.3058 -11.2004 -1.98946
-19.2648 -11.294 -1.60018
-19.0808 -11.2672 -2.68335
-18.6015 -11.3456 0.265711
-17.8097 -11.8835 -0.736414
-17.8136 -11.8669 -0.692637
-16.5888 -12.5088 -0.665921
-16.8906 -10.6697 1.51442
-20.5257 -11.0836 -1.25937
-20.4372 -11.4764 -0.499371
-19.8148 -11.0782 -2.24275
-18.7796 -11.571 -1.76547
-17.6605 -11.8583 -0.99441
-17.1869 -11.8214 -1.06958
-16.5301 -11.7399 -1.85576
-20.4195 -10.7632 -1.91098
-20.8025 -11.3898 -0.396969
-20.9303 -11.0994 -0.542281
-20.5061 -10.9823 -1.52903
-20.5582 -11.1212 -1.35384
-20.2472 -10.7602 -2.46842
-20.2894 -11.2385 -1.16078
-20.2344 -11.1145 -1.20037
-20.2921 -11.3024 -1.12002
-19.7473 -11.2022 -2.19493
-19.9242 -11.2954 -1.20406
-19.8821 -11.4434 -1.21955
-19.8065 -11.5449 -1.64144
-19.5362 -11.5621 -0.902027
-18.0326 -10.9807 -2.30784
-18.4266 -11.5184 -1.42183
-18.6083 -11.8117 -0.783496
-17.1243 -11.74 -1.54052
-16.3781 -12.3888 -1.03664
-20.6005 -10.7194 -1.88007
-20.2627 -11.1819 -1.05954
-20.0958 -10.9719 -2.0361
-16.7395 -11.5928 -2.16199
-15.9139 -12.6077 -1.05421
-17.5189 -11.8757 -0.644938
-17.5045 -11.8607 -0.890741
-17.5285 -11.7463 -0.73906
-17.7483 -10.536 1.76368
-16.5988 -12.3172 -0.980214
-17.7476 -11.6229 -1.65517
-17.2114 -11.9616 -0.790404
-17.3491 -11.9152 -0.983496
-18.2873 -11.5587 -0.999477
-16.9723 -11.8534 -1.35777
-17.9039 -11.6649 -0.914418
-20.8492 -11.4329 0.0720346
-20.5005 -11.168 -0.389889
-20.3117 -11.1406 -1.61418
-20.1343 -11.281 -1.49723
-19.9858 -10.989 -1.96245
-20.0222 -10.99 -2.2563
-19.6869 -11.2871 -2.3475
-19.1525 -11.083 -2.89417
-18.9869 -11.3718 0.272688
-18.8175 -11.3122 0.0592258
-18.8648 -11.2604 -2.79022
-18.2966 -11.5807 -1.34096
-18.2407 -11.8825 -1.01445
-17.7549 -11.8242 -0.659249
-16.7609 -12.1685 -0.75379
-20.9464 -11.2245 -0.317926
-20.7066 -11.2617 -0.321786
-19.6536 -11.2697 -1.36048
-19.5213 -11.1879 0.957206
-19.3294 -11.442 -2.11353
-19.2487 -11.1164 -2.52933
-19.0097 -11.0123 -2.98628
-18.7478 -11.6434 -0.415411
-18.961 -11.2201 -2.66024
-17.7881 -12.0831 -0.545627
-17.8374 -11.7213 -0.792246
-17.72 -11.6821 -0.775873
-17.6413 -12.0571 -0.271381
-16.7646 -11.8113 -1.94736
-16.5354 -12.1397 -0.853535
-16.5702 -12.1488 -1.10056
-16.4989 -12.2853 -0.873718
-16.7384 -11.5172 -2.47436
-16.4828 -12.3809 -0.862639
-16.2468 -11.4933 -1.97903
-20.9361 -11.2528 -0.607388
-20.377 -10.8796 -1.59753
-20.2638 -11.1843 -1.90502
-19.7851 -10.8515 -2.32451
-19.701 -10.8997 -2.49572
-19.2843 -11.1631 -2.79163
-18.2031 -11.1557 -2.22618
-17.7733 -12.0666 -0.283795
-17.777 -11.9802 -0.443908
-17.6164 -12.0235 -0.0597437
-17.5405 -12.0999 -0.531301
-17.7882 -11.968 -0.438821
-17.5008 -12.0119 -0.791878
-16.4809 -12.326 -0.530212
-15.9683 -12.5226 -0.734966
-15.708 -12.1673 -2.22873
-20.8215 -11.2188 -0.685562
-20.3051 -11.3197 -1.17504
-19.9996 -11.3645 -1.4455
-19.7413 -11.2685 -1.45333
-18.9315 -11.6272 -0.699419
-17.7483 -11.918 -0.65996
-17.1017 -11.7203 -2.03948
-20.2849 -10.9791 -1.7492
-19.0915 -11.4453 0.594492
-18.192 -11.0117 -2.33336
-18.0584 -11.2653 -3.20223
-15.9967 -12.2447 -1.9062
-21.0239 -11.0059 -0.513703
-20.3776 -11.3174 -1.11018
-19.6157 -11.3792 -1.29563
-20.2008 -10.6409 -2.63165
-19.9137 -11.0551 -1.73732
-19.7032 -11.2413 -2.12122
-18.9716 -11.6649 -0.653405
-19.3366 -11.0932 -2.65429
-18.7995 -11.6597 -0.471093
-19.0058 -11.5519 -2.02709
-19.0886 -11.15 -2.48208
-18.4335 -11.4604 -1.40091
-18.5174 -11.556 -2.88394
-17.4768 -11.8033 -0.710479
-17.242 -11.795 -0.449833
-16.4555 -11.7245 -1.93756
-15.8492 -11.9987 -1.91356
-20.1519 -11.3326 -1.1495
-20.5244 -10.7365 -2.44443
-19.4944 -11.3857 1.00975
-20.0607 -10.9329 -2.11502
-19.6816 -11.2154 -1.49438
-19.9192 -11.0752 -1.94297
-19.2507 -11.2828 -1.94757
-19.1337 -11.253 -2.71199
-18.9287 -11.3381 -2.70697
-17.6586 -11.8741 -0.670919
-17.7149 -11.5941 -1.36602
-17.4827 -11.6361 -0.865235
-16.7506 -12.1735 -0.953381
-16.5346 -12.0604 -0.768128
-20.9412 -11.1072 -0.625712
-20.3233 -11.5497 0.375407
-20.6266 -11.4183 -0.332591
-20.541 -11.4184 -0.296277
-20.0363 -11.0122 -2.29757
-20.0054 -10.8957 -2.39248
-19.8874 -11.1211 -1.59434
-18.7362 -11.5005 0.276396
-18.799 -11.4492 0.0691757
-19.3694 -11.1567 -2.95901
-17.6504 -12.0662 -0.449757
-17.507 -11.5451 -1.05499
-17.6872 -11.6128 -1.1301
-17.2752 -10.5713 1.36152
-17.0787 -12.0655 0.219989
-17.0303 -12.1459 0.382064
-16.6537 -11.6917 -2.48573
-20.4002 -11.2921 -0.754004
-18.8277 -11.7891 -0.723204
-18.2924 -11.2388 -2.11285
-20.437 -11.0548 -1.38741
-20.1414 -11.1047 -1.81834
-19.983 -11.6527 -0.402882
-18.1885 -11.118 -2.06424
-17.2068 -11.8977 -1.61559
-18.7185 -11.4502 0.295575
-18.9383 -11.5151 -0.756777
-15.5681 -12.1094 -2.00843
-18.4244 -11.5569 -0.718967
-16.1755 -11.7214 -1.78978
-19.6734 -11.1283 -1.56615
-20.0087 -10.8912 -2.12571
-19.829 -11.0636 -2.10233
-18.3721 -11.7285 -1.07225
-20.2696 -10.6748 -2.13421
-19.7708 -11.3213 -1.14642
-19.6678 -10.9855 -2.06006
-19.372 -11.5593 -1.51727
-19.5649 -11.0903 -2.05753
-18.2157 -11.9659 0.158763
-18.575 -11.4278 -2.16337
-19.0252 -11.1215 -2.56135
-16.5326 -11.5828 -2.49667
-20.2344 -11.1007 -1.1416
-20.0178 -11.374 -0.859847
-18.4583 -11.3717 0.124941
-19.3056 -11.1689 -2.53038
-17.5572 -12.0769 -0.321432
-17.2939 -11.9792 -0.322256
-17.0018 -11.8929 -0.337933
-16.2543 -11.6422 -2.44217
-20.8886 -11.2126 -0.463478
-20.5646 -11.8344 0.60895
-19.9613 -10.8437 -2.28243
-17.388 -12.0349 0.661521
-17.2892 -10.5477 1.44603
-18.272 -11.6912 -0.934962
-16.4721 -11.6786 -2.532
-21.0425 -10.9446 -0.897966
-18.9495 -11.321 0.121714
-18.9564 -11.4268 0.191712
-16.86 -12.2668 0.358246
-20.2583 -11.1734 -1.60087
-17.9057 -10.4454 1.3156
-18.4394 -11.4967 0.164208
-18.9541 -11.728 -0.955215
-18.1126 -11.6707 -0.934214
-17.4145 -11.6859 -0.985312
-20.2446 -11.6565 -0.420889
-20.7725 -10.8644 -1.6735
-20.3207 -11.0535 -1.3157
-20.6501 -10.8759 -1.90402
-20.39 -10.728 -1.95567
-20.5603 -10.7475 -2.05901
-20.3777 -11.0447 -1.6743
-19.4236 -11.3536 -1.24315
-18.4289 -11.6354 -0.771933
-18.054 -11.6842 -0.668182
-19.5283 -10.9415 -2.51524
-17.3206 -12 -0.311618
-20.4958 -11.7049 0.517212
-20.6761 -11.3132 -0.526263
-20.6513 -10.9782 -1.40823
-17.8479 -10.2942 1.54401
-18.1593 -11.7857 -0.827374
-17.2315 -11.961 0.323919
-18.2662 -11.8223 -0.894937
-16.8079 -12.2598 0.474415
-17.5478 -11.8983 -0.332472
-18.7205 -11.8463 -2.00934
-16.9877 -11.7826 -0.481582
-15.5663 -11.9919 -2.02469
-20.5498 -11.7942 0.275832
-20.7302 -10.9766 -0.640199
-20.568 -11.2966 -0.496073
-19.8633 -11.5056 -0.355534
-20.645 -10.8818 -1.98065
-16.6037 -11.5124 -2.46414
-20.0048 -11.2203 -1.19489
-20.1404 -10.9873 -1.82884
-18.1564 -11.7775 0.526306
-17.5171 -11.8729 0.24894
-17.0884 -11.3853 -2.52969
-16.6979 -12.2735 -1.09928
-17.9293 -11.2415 -2.59708
-19.1725 -11.4975 0.627207
-18.8971 -11.2143 -1.10827
-19.278 -11.432 0.793703
-19.3294 -11.3154 -0.704313
-18.2315 -12.0003 -0.534312
-18.3344 -10.9054 -2.12251
-20.9442 -11.2297 0.235181
-19.3945 -11.5107 1.16149
-20.6451 -11.2778 -0.333777
-20.2803 -11.676 -0.15232
-20.0293 -11.5136 -0.71891
-17.9077 -11.9673 0.221409
-19.8143 -11.2882 -1.4964
-20.3948 -10.9457 -1.79816
-20.7427 -10.7867 -2.11307
-19.4016 -11.4075 -1.55397
-18.4155 -11.7666 -0.848725
-17.5495 -12.0045 -0.157172
-17.4813 -11.9947 -0.358361
-17.3466 -12.1561 -0.262502
-16.7413 -12.3689 -0.227468
-20.0479 -10.6953 -2.53887
-18.8228 -11.422 -2.26995
-19.1569 -11.2866 -2.65156
-17.071 -11.9432 -1.30194
-16.1241 -11.5387 -2.48317
-17.9637 -10.5076 1.53353
-19.1245 -11.2945 0.25396
-20.0689 -11.378 -0.94089
-20.5963 -10.8913 -1.6839
-20.3353 -10.944 -1.86728
-19.8962 -11.12 -1.52112
-19.4306 -11.5233 -1.54676
-20.0498 -10.7946 -2.59038
-19.4546 -10.9117 -2.49697
-18.9374 -11.5064 -2.22391
-16.5729 -11.8068 -1.47193
-20.2817 -11.587 -0.195562
-20.7504 -11.0217 -1.32809
-20.5161 -11.0295 -1.46963
-18.2461 -11.6604 0.252354
-20.4509 -10.9907 -1.52227
-19.6053 -11.4718 -1.28903
-19.6089 -11.2875 -1.4901
-17.8311 -12.0782 -0.165686
-19.4459 -11.4689 -1.40815
-19.4361 -11.375 -1.42109
-19.0081 -11.3775 -1.73413
-20.0721 -10.8133 -2.64531
-18.5061 -11.3755 -2.73519
-17.3093 -11.2868 -2.22471
-16.2337 -11.5359 -2.57613
-17.9771 -11.6659 -0.020959
-17.6713 -11.9943 0.518715
-19.4694 -11.4298 -1.54669
-16.6498 -12.328 0.313155
-19.7246 -11.0625 -1.99704
-17.9602 -11.8069 -1.60454
-18.6186 -11.5095 -2.27565
-18.8209 -11.2419 -2.7075
-18.3321 -11.5008 -2.85401
-20.2363 -11.4693 -0.567201
-20.4378 -11.226 -0.644998
-18.2437 -11.8154 0.19615
-20.3186 -10.9009 -1.72352
-16.9955 -12.1428 0.410993
-19.7382 -11.6675 -0.462334
-19.0997 -11.2452 -0.868043
-20.8867 -11.5647 0.502461
-20.6299 -11.4494 -0.385862
-20.8535 -11.2728 -0.31721
-20.3694 -11.496 -0.540893
-19.9174 -11.4707 -0.841981
-20.4433 -11.2199 -0.948278
-20.2234 -11.2658 -1.35037
-20.5501 -11.0467 -1.52595
-20.6285 -10.7436 -1.51595
-20.4402 -11.0325 -1.55995
-19.8699 -11.2951 -1.39077
-20.1695 -11.0588 -1.48914
-20.1147 -11.1952 -1.51542
-20.643 -10.6747 -2.07622
-19.9012 -10.8525 -2.13452
-19.6467 -11.1202 -2.17286
-19.6011 -11.0163 -1.95061
-19.5006 -11.1484 -1.98893
-19.785 -11.0373 -2.36428
-19.6578 -10.86 -2.39363
-19.108 -11.2 -2.36866
-19.4346 -11.0789 -2.61053
-19.08 -11.0748 -2.41683
-18.6444 -11.3785 -2.63319
-18.9853 -11.1744 -2.85693
-18.9363 -11.1651 -2.81826
-17.2536 -11.2696 -2.20549
-18.2293 -11.3847 -2.78241
-16.28 -11.5696 -1.84794
-15.9473 -11.7928 -2.22249
-16.1248 -11.6275 -2.56008
-14.9969 -12.6857 -2.95571
-17.9913 -10.318 2.03969
-20.4992 -11.3536 -0.140524
-20.2728 -11.373 -0.163286
-20.666 -11.0504 -0.733219
-19.8906 -11.3608 -0.345951
-20.6527 -11.2479 -0.831049
-20.3808 -10.9912 -1.45512
-20.5833 -11.063 -1.47352
-19.4336 -11.4208 -1.18059
-18.1722 -11.678 -1.16272
-19.4618 -11.4238 -1.70761
-20.3109 -10.7998 -2.27287
-18.0919 -11.6413 -1.67146
-18.7894 -11.4333 -2.29826
-19.2586 -11.4312 -2.56732
-18.7481 -11.3055 -2.60962
-16.9195 -11.7297 -1.79807
-18.5255 -11.3621 -2.64479
-18.4595 -11.3535 -2.70393
-16.5997 -11.4282 -2.52054
-20.3798 -11.7188 0.117564
-19.9928 -11.8454 -0.197271
-20.3694 -11.3564 -0.559198
-20.1017 -11.3275 -0.746166
-19.463 -11.4758 -1.03877
-20.1275 -11.3141 -1.24266
-17.2918 -11.9432 -0.443781
-19.5628 -11.2098 -1.37408
-19.3266 -11.2287 -1.30075
-20.5614 -10.6278 -2.06998
-20.1851 -10.9035 -1.88783
-19.0317 -11.1313 -2.61678
-19.0089 -11.2566 -2.61828
-17.3834 -11.3567 -2.15575
-18.5005 -11.3613 -2.53534
-19.8342 -11.7839 -0.229218
-18.5792 -11.3368 0.30366
-19.8155 -11.3484 -1.04833
-18.9053 -11.206 -2.08962
-16.478 -11.8749 -1.22358
-18.7627 -11.5533 -2.23466
-18.5169 -11.4529 -2.16223
-17.8359 -11.1193 -2.28938
-16.534 -11.4501 -2.44237
-19.8234 -11.6415 -0.346732
-19.8133 -11.6112 -0.394931
-20.5105 -11.2676 -0.735302
-17.6595 -11.7832 0.0838935
-17.6675 -12.0164 -0.467573
-18.8012 -11.3799 -2.02888
-18.4756 -11.174 -2.96444
-18.2549 -11.3193 -2.77354
-19.9763 -11.6669 -0.288522
-20.5557 -11.164 -0.608825
-20.3125 -10.8671 -1.92935
-18.6193 -11.3259 -2.81813
-17.7921 -11.2544 -2.52649
-20.3332 -11.4745 -0.371896
-19.2924 -11.2671 0.0106502
-18.1349 -11.618 0.123888
-17.8581 -11.6311 -1.71151
-17.2012 -11.1429 -2.48639
-17.0867 -12.0539 -0.233525
-19.9609 -11.3388 -1.22527
-17.462 -11.7476 -0.838998
-16.2854 -11.6771 -2.32463
-21.0166 -11.6258 0.549745
-20.376 -11.7206 0.316268
-21.0806 -11.3275 0.322242
-20.6579 -11.4868 0.207756
-21.0598 -11.4133 -0.0277618
-20.3915 -11.6259 -0.144392
-20.2404 -11.6189 0.0678343
-19.063 -11.1444 0.257032
-21.0578 -11.1306 -0.159562
-20.9336 -11.3109 -0.309731
-20.9668 -11.5291 -0.312587
-20.4411 -11.4658 -0.239179
-20.4232 -11.3979 -0.393168
-20.3375 -11.34 -0.44218
-20.5046 -11.6231 -0.487246
-20.0638 -11.7787 -0.368497
-20.1012 -11.5559 -0.599165
-20.2121 -11.4923 -0.368202
-20.115 -11.5145 -0.565266
-20.5514 -11.1456 -0.655674
-20.8242 -11.1243 -0.686341
-19.786 -11.5188 -0.701911
-20.0338 -11.3706 -0.882979
-17.4615 -12.162 -0.415493
-20.9072 -11.0579 -0.940125
-20.6768 -11.1074 -0.835687
-17.1487 -12.0021 -0.586389
-17.2178 -11.7615 -0.710848
-19.2041 -11.325 -0.94579
-20.5168 -11.077 -1.17557
-20.1777 -11.3309 -1.23302
-20.5258 -11.115 -1.13335
-20.1108 -11.3818 -1.31452
-20.4321 -11.0623 -1.55471
-20.6367 -10.9586 -1.60827
-19.6672 -11.3095 -1.47655
-20.2937 -10.9145 -1.72271
-19.0885 -11.5594 -1.65269
-20.103 -11.0538 -1.71522
-18.8186 -11.3206 -1.92358
-19.1762 -11.5525 -2.12188
-18.6633 -11.5929 -2.0381
-19.3625 -11.3032 -2.33221
-19.6578 -10.8976 -2.31809
-19.7088 -10.9777 -2.34399
-20.0439 -10.9764 -2.48613
-20.3732 -10.7794 -2.48424
-20.4943 -10.6464 -2.40145
-19.1636 -11.2971 -2.55754
-18.4443 -11.3994 -2.76457
-17.3784 -11.2958 -2.17615
-17.4174 -11.3558 -2.46224
-19.2683 -10.9436 -2.79824
-18.3947 -11.1651 -2.66634
-18.7827 -11.2243 -2.97393
-20.9289 -11.4704 0.674575
-18.9817 -11.1381 0.361658
-19.2528 -11.1193 0.134063
-17.6904 -11.9195 -0.018699
-19.6854 -11.5636 -0.763785
-17.2955 -11.9719 -0.382562
-18.12 -11.7293 -0.767132
-19.3604 -11.5056 -1.08763
-20.379 -11.249 -1.13227
-19.5055 -11.548 -1.21166
-16.7387 -12.2575 -0.698373
-20.1638 -11.0951 -1.50802
-19.9037 -11.3305 -1.53587
-19.6547 -11.1964 -1.57785
-18.5552 -11.3289 -2.20835
-16.7786 -11.7812 -1.98354
-18.7065 -11.0715 -2.60014
-19.4284 -10.9508 -2.60218
-18.7372 -11.1931 -2.8838
-18.0354 -11.1009 -2.38266
-18.8755 -11.1703 -2.92071
-20.0912 -11.7788 0.966368
-19.1503 -11.5097 1.1605
-20.3975 -11.5796 0.523264
-20.4714 -11.7337 0.475871
-20.1623 -11.6988 0.0115973
-20.5352 -11.8539 0.0777867
-19.8007 -11.7512 -0.272708
-20.4914 -11.2747 -0.353022
-16.9932 -12.0472 -0.212761
-18.4886 -11.7189 -0.690524
-19.6052 -11.4084 -0.984859
-20.2759 -11.302 -0.938747
-19.9646 -11.3592 -1.16211
-19.5785 -11.3987 -1.30598
-18.076 -11.4074 -1.60771
-18.0013 -11.2182 -2.14759
-18.521 -11.4446 -2.5555
-16.9235 -11.4047 -2.35722
-18.6793 -11.5973 0.327367
-19.7456 -11.7245 -0.0512401
-19.6706 -11.7846 0.0818931
-19.9909 -11.595 -0.344308
-17.9668 -12.0517 -0.123964
-18.1838 -11.783 -0.16311
-19.4384 -11.361 -1.56847
-19.4483 -11.3762 -1.89039
-18.9402 -11.3794 -2.6815
-17.4154 -11.1875 -2.33753
-19.4225 -11.286 0.545484
-17.2906 -12.1126 -0.391212
-17.3237 -12.0492 -0.482525
-17.0163 -11.8118 -0.271451
-19.6546 -11.3882 -1.77481
-19.5491 -11.244 -2.07457
-19.1317 -11.181 -2.40738
-16.5164 -11.6583 -2.3524
-17.5701 -11.1881 -2.46344
-16.9267 -10.5908 1.53136
-18.7595 -11.3601 0.600805
-18.8834 -11.2518 0.418929
-17.5417 -11.7549 -0.0360066
-20.1702 -11.5953 -0.756887
-16.806 -12.2712 -0.0784518
-17.9828 -11.8613 0.200305
-20.2916 -11.2696 -0.729502
-17.381 -11.7179 -1.25229
-18.5211 -11.1302 0.44103
-19.6806 -11.4475 -1.09564
-19.479 -11.5168 -1.47568
-17.2332 -11.8701 0.471816
-17.1546 -11.2975 -2.65508
-18.8663 -11.3946 -2.92825
-18.7763 -11.2832 -3.0912
-19.0343 -11.1381 -2.56022
-19.0046 -11.1835 -2.56754
-18.8967 -11.275 -2.51852
-19.961 -10.7671 -2.47231
-20.4023 -10.7327 -2.26512
-19.747 -11.1394 -2.42437
-19.9846 -10.858 -2.48232
-19.8248 -10.9233 -2.31827
-18.6999 -11.2938 -2.20245
-19.0378 -11.3086 -2.29368
-19.9611 -11.079 -2.20178
-19.6227 -11.0182 -2.10876
-19.121 -11.1994 -2.32387
-19.3616 -11.4052 -2.17324
-19.3888 -11.2481 -1.88925
-19.2454 -11.119 -2.1579
-20.3688 -11.1744 -1.72953
-20.5956 -11.0079 -1.48806
-20.7021 -10.8731 -1.70034
-20.5275 -11.0734 -1.57887
-20.47 -10.7354 -1.61365
-18.9477 -11.5045 -1.55953
-20.3413 -10.8178 -1.51716
-19.8628 -11.2632 -1.57466
-19.9731 -11.1457 -1.49122
-20.1888 -11.3417 -1.51434
-20.5515 -11.0127 -1.47056
-20.5 -11.2573 -1.40547
-20.2103 -11.2717 -1.26386
-20.6344 -10.8969 -1.37654
-17.1529 -11.8224 -0.891613
-17.1055 -11.8072 -1.00584
-19.8656 -11.3242 -1.08971
-20.0837 -11.2851 -1.2884
-20.2834 -11.1635 -1.09473
-17.6855 -11.9144 -0.818854
-18.3283 -11.6333 -0.724552
-20.1538 -11.4097 -1.01484
-20.779 -10.9922 -0.943263
-17.2028 -12.0709 -0.563813
-17.3289 -11.6449 -0.406244
-20.5375 -11.2503 -0.823125
-20.6834 -11.0172 -0.904529
-20.6899 -11.2561 -0.726449
-17.4293 -12.0466 -0.387907
-20.1737 -11.5919 -0.432036
-20.2185 -11.3881 -0.718511
-17.8297 -11.9234 -0.255903
-20.6583 -11.2519 -0.580713
-20.4382 -11.4586 -0.316767
-20.2559 -11.4318 -0.411986
-20.9913 -11.0895 -0.365482
-19.7527 -11.7129 -0.232799
-17.9523 -11.8184 0.172457
-20.6191 -11.2784 -0.286948
-20.8204 -11.6455 -0.213831
-20.7416 -11.254 -0.18679
-20.8544 -11.4265 -0.152814
-20.7118 -11.3124 -0.120774
-20.4694 -11.6499 0.354006
-19.1806 -11.4422 1.36462
-16.7045 -11.2709 -2.43308
-19.4037 -11.1849 -2.732
-18.8322 -11.2684 -2.81173
-18.283 -11.5074 -2.82352
-18.9525 -11.2321 -2.68264
-15.9964 -11.7378 -2.53922
-19.4255 -11.1388 -2.59751
-19.3263 -11.2134 -2.53571
-20.0911 -10.9556 -2.36818
-19.2854 -11.1782 -2.31237
-19.7119 -10.9524 -2.15779
-19.6631 -11.0395 -2.20877
-19.5427 -11.2419 -2.18796
-20.514 -10.8268 -1.97543
-19.6325 -11.0773 -2.11207
-19.7802 -10.8618 -2.02571
-19.4276 -11.2948 -1.88817
-20.5571 -10.9834 -1.90904
-20.6806 -10.9467 -1.68017
-20.3608 -10.9155 -1.79524
-19.2192 -11.2829 -1.84048
-20.1072 -11.0864 -1.65557
-20.6808 -10.9152 -1.5566
-20.3068 -10.9314 -1.59039
-20.4782 -10.955 -1.54248
-20.7098 -11.0218 -1.40559
-19.8412 -11.1244 -1.56266
-19.1221 -11.5011 -1.35041
-20.788 -10.955 -1.28682
-20.0245 -11.2648 -1.38109
-19.6132 -11.303 -1.42851
-19.8324 -11.4996 -1.35329
-20.2325 -11.3456 -1.30657
-20.2728 -11.1366 -1.19827
-20.2029 -11.212 -1.39695
-19.7209 -11.3675 -1.09367
-17.3585 -11.8173 -0.914868
-19.6363 -11.5738 -1.12273
-16.3332 -12.2896 -0.618187
-20.3947 -11.2874 -0.969667
-17.0299 -11.8318 -0.610169
-20.0207 -11.4733 -0.846164
-17.0151 -11.9517 -0.448913
-19.9594 -11.332 -0.948236
-17.2686 -11.8285 -0.383569
-19.6999 -11.3142 -0.75395
-19.742 -11.4975 -0.715216
-17.221 -11.9687 -0.235917
-20.0845 -11.3984 -0.721559
-17.3443 -11.8418 -0.254338
-20.3041 -11.2661 -0.647224
-17.3925 -11.8848 -0.230127
-17.4443 -11.9869 -0.453748
-20.4629 -11.1702 -0.833465
-20.1922 -11.3372 -0.698596
-20.8048 -11.105 -0.693736
-20.7124 -11.5414 -0.590694
-20.2736 -11.3518 -0.522457
-19.8457 -11.805 -0.460687
-20.281 -11.5989 -0.219602
-18.6414 -11.4448 0.242476
-17.2149 -12.0148 0.622701
-20.6551 -11.3437 -0.00170983
-20.2633 -11.5928 0.118283
-20.6389 -11.545 -0.152444
-21.2323 -11.5745 0.031391
-20.7277 -11.6338 0.315324
-18.0162 -10.6502 1.38023
-16.0072 -11.5064 -2.30748
-19.1722 -11.0135 -2.52578
-19.3094 -11.5306 -1.98387
-19.7776 -10.9114 -1.82283
-20.5709 -11.0644 -1.56821
-16.6859 -11.9273 -1.35178
-18.5962 -11.6453 -1.71621
-19.5865 -11.3172 -1.72251
-20.1417 -11.0671 -1.50325
-20.4069 -11.0903 -1.3447
-19.2717 -11.6286 -1.26126
-18.0121 -11.7025 -1.05623
-19.6088 -11.5024 -1.29068
-20.0032 -11.5041 -1.25104
-18.4159 -11.7032 -1.19515
-20.2276 -11.3079 -1.26882
-19.369 -11.5757 -1.2055
-20.3769 -11.2554 -1.29185
-20.2904 -11.0605 -1.18197
-20.0426 -11.4409 -1.36572
-19.7375 -11.4835 -1.04559
-17.698 -11.7353 -0.831263
-20.0518 -11.3429 -1.10351
-17.2743 -12.1047 -0.609392
-17.3129 -12.115 -0.503724
-17.3691 -11.8778 -0.245985
-17.256 -12.0822 -0.147741
-18.0164 -11.9544 -0.414503
-20.5554 -11.2439 -0.714533
-17.5955 -11.8986 -0.377297
-20.596 -11.1888 -0.505556
-17.7144 -11.9786 0.0262278
-20.2779 -11.4742 -0.492327
-21.0013 -11.3015 -0.634319
-19.7281 -11.7139 -0.218431
-20.6237 -11.3769 -0.65196
-20.6156 -11.3404 -0.458066
-18.1984 -11.3749 0.192752
-18.8138 -11.244 0.163047
-19.9233 -11.6792 -0.233535
-20.079 -11.7314 -0.100377
-20.8984 -11.2293 -0.0289624
-20.7879 -11.4396 0.221408
-20.6734 -11.5396 0.239492
-16.6985 -10.6745 1.2466
-18.1504 -10.3585 1.40324
-20.8673 -11.5066 0.630559
-19.3537 -11.0735 -2.53611
-16.3914 -11.4108 -2.61117
-18.9915 -11.2875 -2.51872
-20.2175 -10.7308 -2.4623
-19.8116 -10.9024 -2.46059
-20.6131 -10.9397 -1.97805
-19.7817 -11.0827 -1.92026
-20.2452 -11.104 -1.87372
-19.4978 -11.2891 -1.82056
-20.2962 -10.9333 -1.86589
-18.9441 -11.4836 -1.92243
-18.9881 -11.4906 -1.73948
-19.5931 -11.4784 -1.60405
-19.572 -11.5915 -1.33884
-19.5531 -11.3733 -1.21595
-19.8223 -11.2772 -1.28285
-20.3825 -11.187 -1.02921
-17.6258 -11.896 -0.579646
-17.2646 -11.8994 -0.545341
-17.309 -11.9738 -0.227841
-17.6398 -11.8599 -0.468774
-17.391 -11.8167 -0.182939
-20.3792 -11.3019 -0.957652
-20.6478 -11.2197 -0.823036
-17.5607 -11.961 -0.0551544
-17.8701 -11.9016 -0.0128745
-17.6521 -12.0029 0.016747
-20.3081 -11.4287 -0.486147
-19.8887 -11.457 -0.305164
-20.6254 -11.4069 -0.240103
-20.6884 -11.5461 -0.144296
-20.9759 -11.4143 -0.0989216
-20.2789 -11.8569 -0.00844655
-20.4617 -11.4595 0.0358351
-19.6598 -11.0399 0.509353
-20.7337 -11.4495 0.220309
-20.8092 -11.5012 0.282509
-20.9802 -11.365 0.340807
-20.5709 -11.6727 0.20965
-20.8099 -11.4 0.300307
-19.7936 -12.1038 0.211754
-17.6619 -10.3035 1.4265
-19.2069 -11.6661 1.02263
-21.3336 -11.2977 0.574307
-20.4063 -11.0011 -2.37015
-17.5059 -11.3023 -1.99796
-16.3769 -11.6213 -2.19972
-19.6161 -11.0016 -2.26015
-19.8612 -11.0478 -2.44952
-19.8891 -11.121 -1.96977
-17.9787 -11.592 -1.59656
-17.6995 -11.5087 -1.35416
-16.4745 -11.8992 -1.2351
-18.2891 -11.6775 -1.40578
-19.3129 -11.568 -1.3963
-20.1537 -11.2813 -1.41573
-19.5256 -11.5664 -1.36468
-18.4447 -11.6836 -1.15891
-19.9303 -11.3583 -1.27889
-19.6578 -11.3802 -1.20972
-20.0414 -11.1448 -1.20335
-18.2919 -11.6477 -0.948269
-17.1342 -11.7742 -0.463752
-17.2492 -11.8555 -0.404282
-17.4563 -11.8109 -0.302492
-20.8493 -11.0946 -0.74247
-17.5444 -11.9463 -0.0968952
-19.8666 -11.5024 -0.376033
-17.5121 -11.9057 -0.136482
-20.2037 -11.4372 -0.527587
-17.7504 -12.0611 0.0666164
-19.8905 -11.7245 -0.16684
-20.5668 -11.2864 -0.165693
-20.465 -11.5324 0.0739267
-20.5836 -11.3892 0.219842
-21.1681 -11.5194 0.238962
-20.4855 -11.7411 0.451597
-18.1343 -10.6109 1.34169
-20.7989 -11.6136 0.474612
-20.7182 -11.5617 0.523454
-17.6748 -10.2575 1.69347
-17.7837 -11.041 -2.55459
-19.3072 -11.2064 -2.36655
-19.3173 -11.2691 -1.89674
-17.6946 -11.3366 -1.38701
-16.639 -11.6703 -1.23361
-19.0572 -11.1407 -1.08297
-16.6845 -12.0354 -1.19682
-17.832 -11.9945 -0.677514
-17.1656 -11.9677 -0.451882
-17.3878 -11.8433 -0.273169
-17.4853 -11.7569 -0.224992
-17.2737 -11.9228 -0.240515
-20.243 -11.5228 -0.49829
-20.7444 -11.5426 -0.222581
-20.2746 -11.7804 0.399578
-20.3998 -11.6929 0.538448
-20.9463 -11.6466 0.590414
-17.8001 -10.5922 1.63375
-17.277 -11.1699 -2.01974
-19.6714 -11.2117 -1.51561
-19.8041 -11.3696 -1.1448
-20.2289 -11.2136 -1.16735
-20.3646 -11.1861 -1.11928
-18.4682 -11.9098 -0.842548
-19.7954 -11.6645 -0.238707
-19.4631 -11.0419 0.522183
-20.7611 -11.5268 0.044192
-18.0562 -10.6171 1.36444
-17.8968 -11.6847 -1.5016
-19.478 -11.5544 -1.35914
-17.3874 -11.8728 -0.778024
-17.2904 -12.0212 -0.0526133
-19.1737 -11.2892 -0.108226
-19.9899 -11.6194 -0.21148
-17.7036 -11.6724 0.227871
-20.2298 -11.447 -0.0662601
-17.5288 -11.3236 -1.69481
-19.8807 -11.2934 -1.16021
-17.8641 -11.8256 -0.269196
-19.571 -11.4312 -1.22929
-20.0608 -10.9636 -2.13362
-20.7534 -11.0129 -1.41563
-20.3485 -10.8819 -1.57147
-20.8553 -10.9651 -1.03633
-20.8441 -11.1802 -0.812969
-20.424 -11.2928 -1.12564
-19.2465 -11.1459 -2.32535
-19.1165 -11.3086 -2.51516
-19.0872 -11.3294 -2.46952
-20.7806 -11.0435 -0.531803
-20.1222 -11.4145 -1.08475
-20.928 -11.466 -0.178567
-20.1079 -11.4777 -0.854716
-19.2689 -11.4583 -1.46594
-20.804 -11.5646 0.373739
-19.3536 -11.2118 0.241846
-17.7432 -11.7382 -0.852497
-19.149 -11.3603 0.199357
-17.1376 -11.9129 -1.47102
-17.3881 -11.8703 -1.13323
-18.27 -11.8467 -0.0372477
-17.4382 -11.9488 -0.311854
-17.0314 -11.909 -0.147756
-17.1085 -11.9512 -0.562803
-17.1262 -12.0901 -0.308839
-17.8662 -11.8382 0.386038
-16.9201 -12.1404 0.308985
-16.6735 -12.2677 0.697254
-20.4419 -10.9339 -2.34405
-20.5241 -11.0937 -1.76814
-20.3689 -10.9351 -1.67014
-20.0787 -10.9923 -2.12265
-20.2758 -10.9896 -1.80236
-19.6737 -11.0475 -1.98355
-20.0294 -11.2358 -1.87604
-20.229 -11.3334 -1.01457
-20.4394 -11.2504 -0.809637
-20.3704 -11.1864 -0.756196
-20.3272 -11.2623 -0.97418
-19.9722 -11.2879 -0.895701
-19.695 -11.3324 -1.36718
-19.9462 -11.4254 -0.674715
-20.4248 -11.4412 -0.0442106
-19.3031 -11.4503 -1.48276
-20.1419 -11.5518 -0.751474
-21.0427 -11.3055 0.478178
-20.392 -11.3908 0.289043
-17.0753 -11.2976 -2.60379
-18.1197 -11.2222 -1.61384
-17.8242 -11.7106 -1.73234
-17.0007 -11.4113 -2.30123
-18.0541 -11.9194 -0.813449
-17.4691 -11.9988 -0.949532
-17.5389 -11.9399 -0.755417
-18.9345 -11.4848 0.312986
-18.8021 -11.2993 0.133502
-16.9315 -11.8867 -0.872034
-17.7738 -11.9747 -0.554622
-17.2449 -12.0511 -0.489909
-17.5792 -12.1471 -0.401354
-17.23 -12.1199 -0.628074
-19.351 -11.4478 0.843555
-17.4598 -11.931 -0.295609
-17.4524 -12.0309 -0.413686
-17.3419 -12.0521 -0.271867
-17.3327 -11.7527 -0.261129
-16.4554 -12.3098 -0.901966
-16.5025 -12.3859 0.557264
-19.8193 -10.902 -2.59007
-20.3155 -11.1414 -1.68512
-19.2553 -11.1906 -2.44243
-19.8943 -11.1565 -1.74556
-20.2427 -11.191 -1.05925
-20.2351 -11.3045 -0.94419
-20.8062 -11.2472 -0.457271
-20.535 -11.3728 -0.984903
-19.2275 -11.1625 -1.93453
-18.1232 -11.3658 -2.66279
-19.9289 -11.2831 -1.23246
-20.588 -11.4129 -0.452356
-18.8357 -11.3583 -2.06963
-19.6456 -11.5316 -1.18174
-21.1934 -11.2656 0.506157
-18.8329 -11.5725 -1.71668
-20.9763 -11.6101 0.645702
-20.7957 -11.551 0.465146
-20.0174 -11.555 -0.168137
-17.9148 -11.7067 -1.82805
-18.7831 -11.391 -0.741088
-18.3009 -11.6536 -1.12422
-18.3809 -11.7889 -1.08769
-16.479 -11.4862 -2.61903
-18.4013 -11.8046 -0.819931
-18.4249 -11.6791 -0.719004
-18.1897 -11.6557 -0.67511
-19.2343 -11.3437 0.206251
-18.1219 -11.7889 -0.722186
-17.7302 -11.7843 -0.929135
-17.5126 -11.8292 -0.69034
-17.9043 -11.7558 -0.347623
-17.8521 -11.9672 -0.581271
-17.8131 -11.9063 -0.38903
-17.0396 -12.0554 -0.739407
-17.1094 -12.0697 -0.545556
-17.572 -11.9638 -0.228928
-17.1475 -11.8882 -0.635463
-17.2049 -11.9249 -0.633452
-17.5495 -11.9331 -0.308905
-17.4561 -11.7974 -0.342055
-19.0781 -11.5925 0.85
-17.6496 -11.8722 0.0720807
-17.8752 -10.6204 1.27717
-18.0147 -10.5913 1.25394
-17.3336 -10.5785 1.76893
-20.5388 -10.6745 -2.26231
-19.8559 -10.8932 -2.35332
-20.8933 -11.0129 -0.663192
-18.9123 -11.172 -2.43828
-20.9962 -11.1797 -0.690137
-18.7081 -11.3343 -2.46377
-20.5154 -11.3562 -0.775487
-18.5737 -11.4486 -2.69848
-19.1541 -11.4815 -1.77175
-20.302 -11.2657 -0.59513
-19.5764 -11.3029 -1.59727
-19.9961 -11.3613 -0.630676
-20.3055 -11.622 -0.438501
-19.2919 -11.2537 -1.25063
-19.5596 -11.6063 -0.716799
-19.0142 -11.0927 -1.09912
-20.668 -11.6751 0.24657
-18.4321 -11.6114 -1.13549
-17.6072 -11.7627 -1.13405
-17.6187 -11.8946 -1.00604
-18.1362 -11.9365 -0.454206
-18.8617 -11.2894 0.418433
-17.2167 -11.9482 -0.998342
-18.0998 -11.8422 -0.176252
-19.5418 -11.1574 1.13144
-17.9586 -11.6762 -0.0613272
-19.1592 -11.511 0.975699
-17.4448 -11.9881 -0.471954
-16.5081 -12.1727 -0.874685
-17.2785 -12.0468 -0.472251
-17.1543 -11.9557 -0.493863
-17.4667 -12.0518 0.0858799
-18.0834 -11.9912 0.380368
-17.3813 -10.6294 1.64869
-20.4608 -10.6732 -2.16363
-20.3621 -10.8866 -1.94458
-20.1514 -10.8094 -2.2114
-20.0672 -10.8394 -2.33462
-20.7973 -11.1811 -1.07943
-20.3732 -11.3793 -0.963266
-19.6713 -11.2892 -1.57098
-18.3756 -11.2831 -2.90896
-18.295 -11.4899 -2.77902
-20.5178 -11.3292 -0.419052
-19.6964 -11.5355 -1.25658
-20.9875 -11.7241 0.111648
-17.966 -10.9487 -2.5249
-17.6593 -11.1935 -2.2649
-19.8464 -11.7048 -0.342054
-17.2822 -11.0867 -2.47541
-17.5241 -11.2226 -2.59349
-17.2937 -11.3226 -2.19637
-19.7395 -11.9194 -0.211559
-17.6128 -11.654 -1.04397
-17.689 -11.8069 -0.997035
-16.6247 -11.7225 -2.06966
-18.9862 -11.261 0.00536122
-16.1607 -11.5813 -2.02455
-16.5652 -12.067 -1.9331
-18.0858 -12.0412 -0.544491
-17.5811 -11.8201 -0.651989
-18.5871 -11.4643 0.453333
-17.8155 -11.8214 -0.382791
-16.5294 -11.9836 -1.31275
-17.9501 -12.0272 -0.130889
-18.0904 -12.0194 -0.11797
-16.5657 -12.2162 -1.18546
-17.3241 -11.9293 -0.376232
-17.7556 -11.8992 0.0835685
-17.3573 -12.1066 0.528497
-18.7392 -11.2671 1.31047
-17.0161 -12.3085 0.534795
-17.2365 -10.6285 1.12758
-19.7739 -11.054 -2.34834
-19.5778 -11.1445 -2.14999
-19.1396 -11.3765 -2.75254
-18.8786 -11.3945 -2.5303
-20.8941 -11.4327 0.0754273
-19.3589 -11.6748 -1.49406
-19.3332 -11.3842 -1.7013
-20.0557 -11.7674 -0.28014
-20.8251 -11.674 0.498576
-17.2583 -11.2906 -2.41675
-20.4871 -11.8877 0.403094
-17.0873 -11.2668 -2.15267
-18.2693 -11.6411 -1.34791
-19.2669 -11.4538 -0.502315
-16.5513 -11.8278 -1.1404
-15.4166 -11.9361 -2.23931
-15.7174 -12.0708 -2.28257
-19.6127 -11.3133 0.96355
-16.6969 -12.0628 -1.25522
-18.8807 -11.4782 1.40971
-20.5651 -10.6813 -2.61799
-20.5829 -10.9619 -2.09506
-20.5916 -10.7563 -1.8616
-20.2841 -10.9463 -2.36289
-21.2099 -11.3639 -0.0886821
-18.1632 -10.9097 -2.31339
-20.5954 -11.2623 -0.265317
-20.0546 -11.6327 -0.327246
-18.0653 -11.5522 -1.49733
-17.767 -11.7724 -1.03599
-17.171 -11.6856 -1.23383
-17.8585 -11.763 -0.431154
-17.5958 -12.0931 -0.535021
-15.843 -12.3549 -1.44594
-17.662 -10.4978 1.5875
-20.8944 -11.1183 -0.783325
-18.8867 -11.0804 -1.35165
-17.6667 -11.6996 -1.74614
-18.8125 -11.5761 -0.554679
-17.2517 -12.1116 -0.955682
-20.3322 -11.4713 -0.865844
-19.3501 -11.566 -1.47456
-17.0788 -11.8621 -1.36625
-17.2699 -11.8433 -0.243037
-19.2642 -11.4265 -1.51691
-16.9418 -11.9193 -1.44736
-17.5993 -11.6073 -1.60227
-19.1963 -11.174 0.490814
-17.3967 -11.8215 -0.0735634
-18.9756 -11.081 -0.870596
-17.1988 -11.742 -1.17395
-17.8316 -11.9552 -0.322671
-17.5361 -10.9841 -2.42311
-20.7802 -11.3622 -0.307336
-20.6444 -10.9519 -1.56837
-20.6948 -11.1285 -0.911478
-20.2785 -11.721 0.182453
-20.1978 -11.2592 -0.886664
-20.1846 -11.3444 -1.02086
-20.2645 -11.6988 -0.708045
-19.8811 -10.9852 -2.25441
-20.1346 -10.9156 -2.46074
-19.6943 -11.175 -1.49689
-19.6863 -10.8723 -2.49854
-19.6452 -11.3925 -2.21113
-19.2034 -11.1975 -2.3553
-18.9819 -11.1496 -1.93007
-18.9475 -11.2181 -2.22559
-19.0582 -11.4294 0.275994
-18.9988 -11.288 -2.13236
-18.9947 -11.4431 -2.44408
-18.2138 -11.2903 -2.65799
-17.4121 -11.9636 -0.552382
-17.0643 -11.7405 -0.530901
-16.4832 -12.2673 -0.941165
-20.6833 -10.8462 -1.2914
-20.4902 -10.8412 -1.97288
-20.3941 -10.6619 -1.89768
-20.5747 -11.3172 -0.681894
-20.4815 -10.8842 -1.54431
-20.4576 -10.8431 -1.93796
-20.4054 -11.2225 -1.19654
-20.69 -11.5183 -0.568661
-20.2725 -11.2707 -0.312891
-20.1817 -11.5257 -0.472775
-20.3183 -11.1569 -0.99903
-20.2304 -11.1379 -1.84732
-20.2423 -11.0987 -1.26621
-20.0693 -11.375 -1.16414
-19.9179 -11.3503 -0.731535
-20.0147 -11.2974 -1.20597
-19.5752 -11.1604 -1.54216
-19.4563 -11.2543 -1.70464
-19.6667 -11.1494 -2.33491
-19.635 -11.4775 -1.3657
-19.3293 -11.38 -2.13551
-19.3824 -11.1816 0.15031
-19.2294 -11.5309 -1.90845
-19.1305 -11.189 -1.94587
-19.0822 -11.2931 0.045541
-18.8751 -11.3573 -2.57089
-18.4008 -11.4433 -3.00728
-18.4545 -11.6484 -0.535273
-18.1268 -11.4582 -2.80839
-18.3671 -11.7733 -0.601362
-18.4684 -11.6847 -0.840415
-18.082 -11.7323 -1.75489
-17.3584 -11.8806 -0.915243
-17.2251 -11.9552 -0.383275
-17.1181 -11.9483 -0.740834
-17.1035 -11.8289 -1.29599
-21.0396 -11.3478 0.444749
-20.757 -11.5677 0.126866
-20.87 -11.4029 0.0720684
-20.5172 -11.6738 0.184266
-20.6733 -11.0223 -1.13599
-20.6613 -11.2653 -0.61833
-20.4402 -11.7558 0.484303
-20.4625 -11.2941 -0.564184
-20.4388 -11.5363 -0.552602
-20.3603 -10.7961 -2.43078
-19.9237 -11.0242 -1.95196
-19.9553 -10.9379 -2.00918
-19.7905 -11.4296 -0.579123
-19.8236 -11.8312 0.288194
-19.8324 -11.0646 -2.50345
-19.8572 -11.4604 -1.10043
-19.4653 -11.3467 -1.7808
-19.3192 -11.1155 -2.31771
-19.4076 -11.4085 -1.74979
-19.3743 -11.4136 0.661088
-19.122 -11.4813 -2.23248
-19.0738 -11.3116 -2.15632
-18.5936 -11.681 -0.903977
-18.3803 -11.7372 -0.744366
-17.6168 -12.0702 -0.441515
-17.7092 -12.0312 -0.228791
-17.6265 -11.9252 -0.0423194
-17.4897 -11.8627 -0.959691
-17.2538 -12.2025 0.534634
-16.9282 -12.4155 -0.226191
-16.8439 -11.731 -1.94358
-16.7213 -11.7802 -1.62454
-17.496 -10.3143 1.34125
-16.567 -11.8834 -1.84987
-16.2473 -11.7793 -2.02053
-16.8532 -10.5483 1.51001
-20.4973 -11.117 -1.38739
-20.5814 -11.5481 0.169734
-20.4942 -11.3113 -0.778328
-20.587 -10.8887 -1.67584
-20.3113 -11.1557 -1.24277
-20.4107 -11.2414 -0.813085
-19.906 -11.6339 -0.361626
-19.9827 -11.7371 -0.470033
-20.0032 -11.4125 -0.232242
-19.863 -11.5665 -0.788832
-19.7738 -10.8582 -2.69626
-19.6207 -11.1836 -2.04693
-19.6369 -11.1686 1.02256
-19.0937 -11.2181 -2.59136
-18.8942 -11.2884 -2.95521
-18.7518 -11.619 -1.59619
-18.3938 -11.7446 -0.795501
-18.2661 -11.9326 -0.909166
-17.9715 -11.5621 -2.91195
-17.5216 -12.2113 -0.229446
-17.9354 -11.2172 -2.34326
-17.7158 -11.9004 0.212764
-17.3295 -11.198 -1.92814
-17.5297 -11.2125 -2.12291
-17.3344 -11.991 -0.275693
-17.1655 -11.9697 -0.114006
-17.1588 -12.1281 -0.657128
-17.2079 -11.9266 -0.485851
-21.0096 -11.4337 -0.0196802
-20.8336 -11.3867 0.256188
-20.7486 -11.3114 -0.454087
-20.6956 -11.1577 -1.31027
-20.4391 -11.206 -0.805787
-20.3799 -11.267 -0.874973
-20.1201 -10.8311 -2.12061
-20.133 -11.4776 -0.916869
-19.9305 -11.3937 -0.901653
-19.9204 -11.0847 -2.26362
-19.7892 -11.32 -1.25364
-19.4319 -11.5014 -1.59596
-19.3927 -11.3731 -1.56205
-18.8972 -11.5033 0.720942
-18.318 -11.1858 -2.63211
-18.1736 -11.4455 -2.84862
-17.9966 -11.7206 -1.10451
-17.9123 -11.7551 -0.747709
-17.6941 -11.972 -0.320695
-17.8381 -12.0622 0.0538672
-17.2404 -11.9371 -0.309903
-17.2049 -11.8912 -0.451242
-17.8543 -10.4439 1.33632
-17.8118 -10.2553 1.51881
-17.0821 -11.3478 -2.23065
-16.522 -12.1868 -0.58768
-16.5814 -12.3414 -1.01523
-16.6135 -12.0422 -1.31738
-16.4283 -11.7984 -1.55081
-16.6161 -11.242 -2.55486
-20.6091 -11.2095 -0.454978
-20.4894 -11.6961 0.794099
-20.2919 -11.0686 -1.15991
-20.2121 -11.5394 -0.807571
-19.9351 -10.7887 -2.23211
-19.8328 -11.8388 0.0493998
-19.9011 -11.5563 -0.447093
-19.7222 -11.0462 -2.13228
-19.7314 -11.174 -2.35078
-19.4595 -11.3663 1.1043
-19.2141 -11.6694 -1.53986
-19.1253 -11.5526 0.878274
-18.3212 -11.8269 -1.01915
-18.2181 -11.3379 -2.03486
-18.1321 -10.7998 -2.45441
-17.6968 -11.7432 -0.850659
-17.0805 -11.6386 -0.514491
-16.9887 -11.9196 -1.34482
-16.7165 -12.1886 -1.12899
-16.5814 -11.7929 -1.94907
-20.5532 -11.3485 -0.0531901
-20.5042 -11.7157 -0.179304
-20.451 -11.5514 -0.438023
-20.2897 -11.3361 -1.19537
-20.0243 -11.7817 -0.494507
-19.4056 -11.3498 -2.11179
-19.3024 -11.3609 -1.61307
-18.0706 -11.6896 -1.0793
-18.2464 -11.8047 -0.0552255
-17.9765 -12.1075 -0.814426
-17.624 -11.8636 -0.676237
-17.7997 -10.6089 1.58046
-16.465 -12.2377 -0.851352
-20.7987 -11.3926 -0.447126
-20.8498 -11.255 -0.326942
-19.9183 -11.4039 -1.03327
-19.9736 -11.5242 -0.300634
-19.9579 -11.6639 -0.360799
-19.3218 -11.5299 -1.513
-19.3483 -11.6041 -1.59149
-17.9257 -11.913 -0.104172
-15.6842 -12.4337 -1.66807
-16.8532 -10.7438 2.15095
-20.0725 -10.9697 -2.25866
-18.9927 -11.0035 -1.1273
-18.1852 -10.9173 -2.25525
-19.1532 -11.3312 -1.36652
-16.977 -12.0041 -1.32044
-15.7697 -12.2984 -1.66457
-18.1869 -11.2099 -1.76904
-17.3709 -11.8779 -0.366483
-17.4218 -11.2756 -2.45889
-17.1712 -11.8315 -1.12221
-17.0328 -11.5466 -1.86305
-19.3858 -11.1103 0.37127
-17.8346 -11.2825 -2.09224
-19.1012 -11.2419 -0.992507
-17.6454 -11.2311 -2.61786
-17.8075 -11.6843 -1.39385
-17.1974 -11.2838 -2.47193
-20.5907 -11.8057 0.527
-20.5211 -11.5833 0.312143
-19.0369 -11.4443 1.53523
-20.5018 -11.3324 0.0277404
-20.7574 -11.1638 -0.0315301
-20.9172 -11.2486 -0.468969
-20.5455 -11.4774 -0.171194
-20.2055 -11.673 -0.105583
-20.5348 -11.3079 -0.336383
-20.7213 -11.3064 -0.412958
-20.4417 -11.4033 -0.550742
-19.993 -11.6575 -0.0791591
-20.1344 -11.4094 -0.716451
-20.6122 -11.4742 -1.13364
-20.5389 -11.2585 -0.834075
-20.5185 -11.2763 -0.789001
-19.1675 -11.2669 0.356187
-20.2409 -11.2168 -1.00926
-20.162 -11.1671 -1.07711
-20.3967 -11.371 -1.1702
-18.6515 -11.6245 0.308255
-20.58 -10.9438 -1.40141
-20.0152 -11.295 -0.981906
-19.9013 -11.2231 -1.20897
-20.5517 -10.9565 -1.52271
-20.6218 -10.9741 -1.80191
-20.7254 -10.9386 -1.82042
-17.8468 -11.7201 0.373935
-17.967 -11.8329 0.071588
-20.1345 -11.208 -1.44719
-19.9446 -11.3931 -1.54595
-19.9781 -11.3619 -1.50943
-19.8744 -11.1302 -1.50037
-17.7281 -11.8671 0.131403
-20.1982 -11.0477 -1.75999
-20.1428 -10.9872 -1.76011
-20.6541 -10.7514 -1.89425
-20.6959 -10.7514 -2.07451
-17.8222 -12.1377 -0.199474
-20.5312 -10.4971 -1.924
-16.7939 -12.3216 0.450895
-19.8497 -11.1904 -1.89352
-16.9394 -12.2859 0.263908
-19.2345 -11.4457 -1.45268
-19.3552 -11.6051 -1.29829
-19.403 -11.3901 -1.4022
-17.4097 -11.9809 -0.250969
-17.3336 -11.9196 -0.46062
-17.3614 -11.9025 -0.436427
-18.8889 -11.567 -1.74482
-20.5731 -10.8851 -2.54039
-17.2941 -11.7902 -0.397847
-17.1477 -11.7528 -0.467388
-17.1903 -11.9061 -0.318557
-19.5507 -11.1301 -2.01304
-19.4672 -11.4204 -1.92291
-19.4269 -11.1423 -2.15821
-20.1359 -11.0168 -2.28527
-19.4517 -11.1496 -1.93152
-19.8496 -10.788 -2.42334
-19.8682 -10.8729 -2.23661
-19.9088 -11.1204 -2.19894
-19.71 -10.968 -2.36341
-17.1928 -11.9309 -0.864663
-19.1388 -11.2879 -2.27182
-19.2451 -10.9907 -2.3059
-19.3043 -11.0086 -2.48744
-18.7843 -11.2914 -2.58214
-21.0554 -11.6621 0.477134
-20.6328 -11.706 0.247572
-19.565 -11.82 0.140756
-20.7999 -11.1912 -0.936763
-20.7686 -11.1925 -0.545877
-20.9429 -11.0409 -0.783074
-20.5485 -11.2289 -0.769619
-20.4765 -11.2155 -0.845927
-20.4241 -11.3908 -0.464419
-20.4643 -11.1733 -0.942937
-20.0446 -11.5083 -0.785724
-20.1995 -11.4314 -0.953808
-20.4693 -11.1641 -1.15441
-18.1013 -10.3823 1.25799
-20.5562 -11.1485 -1.28683
-19.8026 -11.3897 -0.92168
-20.3967 -11.1798 -1.09945
-20.241 -11.2174 -1.00261
-20.3539 -11.0401 -1.59857
-20.2909 -11.0294 -1.31517
-20.4856 -10.8226 -1.69988
-20.3571 -10.8578 -1.56806
-20.6435 -11.0193 -1.74561
-20.2765 -10.9898 -1.73831
-20.4363 -11.0043 -1.88634
-20.5343 -10.9908 -1.68667
-20.1065 -11.1871 -1.5307
-19.2346 -11.2775 -1.51808
-18.2631 -11.7838 -0.817079
-18.4218 -11.685 -0.951746
-19.5716 -11.4938 -1.68937
-17.7602 -12.0234 -0.517196
-17.386 -11.833 -0.341652
-17.5238 -11.9749 -0.376066
-19.2182 -11.461 -1.69039
-17.2917 -11.958 -0.350779
-19.0171 -11.5592 -1.67908
-17.2828 -12.1675 -0.668095
-19.6571 -11.0509 -2.15069
-17.0923 -11.9335 -0.334118
-17.146 -11.9487 -0.4204
-17.284 -12.0656 -0.632333
-17.0588 -11.8385 -0.481794
-18.7392 -11.5773 -1.69068
-19.9941 -11.0589 -2.15231
-17.1056 -11.8807 -0.328597
-17.6248 -11.6226 -0.848154
-17.7948 -11.7681 -1.03425
-17.4676 -11.729 -0.979372
-19.5851 -11.0483 -2.27605
-18.8723 -11.6023 -2.04812
-19.5727 -10.9881 -2.52772
-19.3459 -11.0844 -2.51112
-19.3579 -11.1413 -2.44615
-19.3343 -11.1227 -2.38492
-17.0484 -11.8277 -1.5861
-18.6425 -11.2379 -2.98671
-18.3519 -11.5314 -2.8195
-16.3494 -11.6991 -2.08009
-20.8404 -11.5666 -0.0122134
-20.7759 -11.2828 -0.549568
-20.1087 -11.9023 0.335132
-20.3347 -11.4621 0.0346755
-20.7347 -11.3276 -0.714921
-20.3313 -11.6141 -0.373471
-20.8273 -11.168 -0.838665
-20.576 -11.3187 -0.576303
-20.5753 -11.2075 -0.810513
-20.3812 -11.3935 -0.79039
-18.0197 -10.3024 1.47561
-18.0441 -10.4884 1.35599
-17.9369 -10.5703 1.41421
-20.0834 -11.5944 -0.826591
-20.2479 -11.1393 -1.11708
-19.0425 -11.5754 -0.136139
-20.2775 -11.1962 -1.23996
-20.2315 -11.0676 -1.2496
-18.0612 -11.7152 0.189449
-19.7985 -11.5074 -1.03529
-20.424 -11.1368 -1.33282
-20.5348 -10.983 -1.75853
-20.1468 -10.9896 -1.49538
-20.8699 -10.6335 -1.91566
-17.1275 -10.7218 1.48881
-20.6899 -10.8101 -1.89738
-19.4554 -11.5093 -1.39906
-20.5997 -11.1198 -1.75835
-18.7696 -11.952 -0.871972
-17.7678 -11.8669 -0.379054
-19.8828 -11.3274 -1.83084
-16.6439 -12.6227 -0.242191
-17.4087 -11.8538 -0.392775
-17.1876 -12.0354 -0.652971
-19.6923 -11.1182 -2.23903
-19.8151 -10.8534 -2.43382
-16.7001 -11.9452 -1.46681
-16.9711 -11.6282 -1.7408
-16.9844 -11.7089 -1.73196
-18.1731 -11.5198 -2.79673
-17.9129 -11.7266 -2.8984
-16.2109 -11.4092 -1.99946
-21.079 -11.4736 0.302607
-20.8947 -11.3142 0.261885
-20.8321 -11.158 -0.655344
-20.7858 -11.1437 -0.500727
-20.0769 -11.5934 -0.266538
-20.3914 -11.3377 -0.58911
-20.6357 -11.0145 -0.670231
-20.0389 -11.5888 -0.48786
-19.1357 -11.1128 0.0869093
-19.8748 -11.3817 -1.15861
-20.4924 -10.921 -1.5903
-18.6141 -11.7589 -0.605478
-18.3772 -11.7119 -0.990687
-18.2884 -11.762 -0.715335
-19.9439 -11.0024 -2.04191
-19.9049 -11.0481 -1.75412
-18.1943 -11.7377 -0.748959
-17.6087 -11.9983 -0.413549
-17.3488 -11.8832 -0.201781
-17.3565 -11.9317 -0.507156
-17.2882 -11.8192 -0.189816
-17.0978 -11.7376 -0.417894
-19.784 -10.9882 -2.38879
-19.732 -11.0314 -2.32854
-19.2348 -11.2403 -2.57169
-19.2955 -11.1655 -2.72894
-19.2634 -11.107 -2.59584
-19.0395 -11.2428 -2.50656
-18.89 -11.2584 -2.64732
-19.0227 -11.1626 -2.52209
-19.0059 -11.2026 -2.60442
-17.8617 -11.1593 -2.46646
-17.4849 -11.1527 -2.50432
-17.3458 -11.053 -2.27613
-20.3645 -11.8831 0.528555
-21.0865 -11.1888 -0.121335
-21.0168 -11.2959 -0.21788
-20.2301 -11.6604 0.365203
-20.0937 -11.7658 0.385723
-20.8433 -11.0757 -0.718569
-18.5432 -10.9852 1.31119
-20.4607 -11.1781 -0.753646
-20.1616 -11.38 -0.586554
-19.6584 -11.783 -0.0506817
-19.8361 -11.4153 -1.26783
-20.4234 -10.9415 -1.79042
-19.8771 -11.3662 -1.11524
-19.5703 -11.3958 -1.14019
-19.5621 -11.4248 -1.3435
-17.5904 -11.7544 0.262649
-20.7077 -10.799 -2.02013
-18.9669 -10.955 -1.10446
-17.4764 -11.9209 -0.34626
-18.6213 -11.6701 -0.818953
-19.1115 -11.6206 -1.49749
-20.5557 -10.6915 -2.29427
-19.0915 -11.5634 -1.72118
-20.0227 -10.9902 -2.24546
-17.4066 -12.0188 -0.551111
-17.2594 -11.757 -0.227948
-18.3318 -11.8628 -1.09324
-17.3253 -11.9154 -0.537806
-17.0366 -11.6666 -0.567435
-19.8853 -11.0686 -2.51958
-18.5394 -11.4086 -2.7384
-18.0846 -10.9598 -2.31036
-16.5799 -11.6167 -2.39267
-21.0585 -11.3589 0.696396
-19.4719 -11.2884 1.00986
-20.8047 -11.3304 -0.202207
-20.1914 -11.7297 0.0401921
-18.8805 -11.6377 0.94072
-20.6751 -11.2297 -0.627438
-20.1692 -11.4658 -0.630527
-20.1454 -11.4044 -0.814504
-18.7708 -11.4073 0.170975
-20.1369 -11.3224 -1.55232
-17.601 -11.8252 0.228605
-18.6602 -11.7273 -0.633959
-19.3171 -11.6751 -1.51311
-17.326 -12.1126 -0.443165
-19.6588 -11.0565 -2.62272
-16.6351 -12.2984 -1.16298
-18.8882 -11.1271 -2.67887
-18.3662 -11.5245 -2.80635
-18.1696 -11.3136 -2.77424
-17.4422 -11.1384 -2.02165
-17.5645 -11.2159 -2.38016
-16.2318 -11.6033 -2.12512
-16.5892 -11.3985 -2.56069
-20.2828 -11.765 0.207901
-20.8989 -11.283 -0.61857
-20.8361 -11.2197 -0.487791
-19.4822 -11.1347 0.503498
-20.1361 -11.6255 -0.338172
-20.2423 -11.2736 -0.875946
-20.1544 -11.3474 -1.28556
-17.9234 -11.8395 0.220084
-19.2926 -11.4708 -1.36665
-17.8423 -11.8326 -0.597095
-19.1005 -11.2914 -1.86282
-19.1313 -11.2855 -2.38961
-19.0036 -11.2102 -2.67382
-16.7333 -11.3538 -2.36376
-19.5375 -11.1659 1.22342
-20.6877 -11.2084 -0.825663
-18.1968 -11.7795 0.302326
-17.8182 -11.8194 0.184418
-18.1961 -12.0214 -0.407796
-19.4804 -11.4887 -1.14471
-20.0581 -11.0181 -2.21974
-17.1531 -11.7836 -1.04279
-18.3595 -11.9892 -0.215359
-19.0596 -11.2193 -1.17886
-17.2282 -11.5899 -1.72766
-18.0732 -11.995 -0.281346
-17.7886 -12.1218 -0.229889
-19.0414 -11.454 -2.2335
-19.2769 -11.106 -2.0289
-20.6968 -10.9503 -1.76167
-20.6568 -11.0014 -1.75952
-20.4073 -10.9951 -1.54874
-20.1728 -11.1456 -1.39486
-19.7252 -11.27 -1.74094
-20.3578 -11.0206 -1.27342
-20.3224 -11.1807 -1.20256
-20.4168 -10.9864 -1.18284
-20.273 -11.2912 -1.30228
-20.2756 -11.3413 -1.07071
-17.1797 -11.904 -0.663848
-20.4934 -11.2956 -1.07106
-17.255 -12.0558 -0.459471
-20.6769 -11.319 -0.965471
-20.4358 -11.1678 -0.778305
-20.4605 -11.1927 -1.00709
-17.2978 -11.8961 -0.32882
-20.3565 -11.4186 -0.621622
-20.4417 -11.3488 -0.531921
-20.667 -11.5078 -0.409684
-20.658 -11.2098 -0.451999
-20.7776 -11.4295 -0.124109
-20.9397 -11.5059 -0.257983
-18.7095 -11.3824 0.533993
-20.1157 -11.7791 1.02082
-19.5862 -11.1078 -2.40857
-18.5442 -11.5347 -2.16388
-19.853 -11.0348 -2.05545
-20.5572 -11.0033 -1.6849
-20.5892 -10.9822 -1.44713
-20.101 -11.0746 -1.29445
-16.5955 -12.04 -1.31159
-19.7878 -11.4181 -1.41272
-19.5007 -11.2786 -1.38611
-19.6187 -11.3827 -1.2535
-20.4328 -11.2737 -1.10918
-20.4395 -11.0645 -1.36744
-20.2445 -11.2944 -1.27614
-19.9332 -11.3628 -1.0845
-18.5091 -11.8087 -0.856264
-20.2251 -11.2488 -0.897657
-20.4053 -11.2051 -0.93417
-17.2971 -11.8042 -0.231534
-17.1024 -11.6815 -0.337745
-19.7634 -11.4262 -0.771249
-20.1836 -11.4374 -0.833098
-20.0121 -11.5085 -0.763093
-17.408 -11.8788 -0.419948
-17.4344 -11.9615 -0.458264
-20.1876 -11.4806 -0.539848
-20.91 -11.2381 -0.252689
-20.1696 -11.8214 0.0235208
-20.8484 -11.6701 0.222542
-21.2427 -11.4108 0.401021
-20.6401 -10.9026 -1.53889
-19.1314 -11.2598 -0.844953
-20.0818 -11.407 -1.07488
-17.0689 -11.838 -0.298605
-20.9134 -11.1012 -0.890846
-17.2908 -11.9206 -0.34041
-17.737 -12.1779 -0.178374
-20.701 -11.2037 -0.485018
-20.9362 -11.3017 -0.494644
-20.6178 -11.4757 -0.051033
-20.421 -11.6579 -0.197903
-20.7327 -11.4427 -0.0686979
-19.8299 -11.9629 0.640926
-18.5417 -10.747 1.44322
-20.2832 -11.0053 -1.70894
-19.7312 -11.1899 -1.53513
-16.609 -12.1 -1.24939
-19.2626 -11.3366 -1.20533
-18.5045 -11.6751 -0.880154
-17.2509 -11.8951 -0.58695
-17.7053 -11.9429 0.00220846
-20.2965 -11.9089 0.130407
-20.4126 -11.8317 0.617352
-19.1399 -11.4651 1.03127
-21.0166 -11.603 0.640203
-17.7008 -11.5279 -1.5602
-16.7088 -12.0558 -1.11352
-18.267 -11.5737 -0.694444
-20.7669 -11.0684 -0.513317
-17.4427 -11.8202 -0.240571
-20.5246 -11.225 -0.561049
-17.6742 -11.9415 -0.36571
-20.8057 -11.2486 -0.731347
-17.9079 -11.8328 -0.228304
-20.2348 -11.4728 -0.557765
-20.1579 -11.7966 -0.297633
-19.5201 -11.2092 -1.69174
-19.2779 -11.3903 -1.71437
-17.8887 -12.1604 -0.266058
