-20.2235 -10.8666 -2.23266
-17.5749 -11.2304 -2.43798
-15.7421 -11.5433 -2.80963
-19.1828 -11.3795 -0.408534
-17.706 -11.9329 -0.30529
-17.4972 -12.0394 -0.938289
-17.8863 -11.6812 -1.23632
-17.9025 -10.6439 1.57019
-17.7939 -11.9868 -0.0892299
-16.9644 -11.8763 -1.13622
-17.1001 -11.2275 -2.15534
-17.3679 -12.2385 -0.386223
-16.752 -11.5242 -2.4709
-18.6283 -11.1913 -3.01192
-19.5767 -11.0831 -2.81719
-19.6293 -10.857 -3.04476
-20.1851 -10.6615 -3.01783
-17.3158 -11.1853 -2.19868
-20.341 -10.6276 -2.88882
-20.5569 -10.6325 -2.84439
-19.4169 -11.1604 -2.51352
-19.3779 -11.0792 -2.59371
-19.0911 -11.347 -2.57874
-19.3442 -11.2121 -2.75204
-18.8971 -11.3668 -2.22486
-20.1226 -10.8693 -2.33922
-18.7176 -11.5355 -2.36501
-19.9723 -10.7447 -2.2109
-16.8432 -11.9632 -1.77954
-16.6998 -11.8303 -1.81184
-16.9483 -11.9037 -1.78093
-18.6894 -11.4156 -2.02022
-18.8597 -11.4096 -2.03829
-16.6078 -11.8871 -1.3152
-19.6164 -11.5236 -1.66982
-18.8112 -11.4808 -1.68861
-20.4558 -10.9041 -1.70351
-19.9331 -11.2429 -1.41252
-20.5749 -11.0188 -1.19826
-20.2267 -11.1021 -1.45764
-17.5917 -11.9718 -0.969307
-19.751 -11.5159 -1.03541
-17.4378 -11.8707 -0.285288
-18.3402 -11.7191 -0.852775
-18.1212 -12.0349 -0.566181
-19.901 -11.4367 -0.549529
-20.6223 -11.2249 -0.764747
-20.1673 -11.5137 -0.81145
-19.145 -11.4494 -0.262389
-20.3323 -11.3872 -0.647823
-17.8211 -11.9722 -0.397687
-20.2744 -11.3778 -0.448711
-20.3501 -11.4257 -0.480284
-20.2639 -11.6128 -0.417071
-20.6835 -11.4475 -0.328979
-20.5092 -11.3473 -0.251748
-19.0193 -11.36 0.167212
-18.6944 -11.5297 0.0320122
-20.3056 -11.6873 -0.155089
-20.7148 -11.4539 0.152183
-20.8284 -11.3548 -0.172422
-17.0053 -12.2528 0.601075
-18.0712 -11.6176 0.550269
-18.2732 -11.7693 0.397851
-17.6422 -12.0508 0.399212
-16.7912 -12.3469 0.574503
-18.4151 -11.5148 0.349316
-19.1015 -11.1669 0.511221
-20.2261 -11.621 -0.0291017
-21.0709 -11.2871 0.0680684
-20.7452 -11.4515 0.241198
-20.5418 -11.617 0.199167
-20.4721 -11.7836 0.514144
-21.0152 -11.3863 0.496651
-21.0277 -11.6729 0.557477
-16.8057 -10.6466 1.3424
-16.7425 -10.9246 1.55807
-16.6183 -10.7196 1.6327
-19.3228 -11.633 1.27339
-17.3726 -11.3222 -2.34336
-20.0395 -11.2212 -2.48679
-20.1247 -10.8131 -2.29531
-17.2555 -11.545 -1.80211
-17.2381 -11.9212 -1.61055
-16.6406 -12.0276 -1.88053
-17.271 -11.9235 -1.45131
-16.6045 -11.9476 -1.36404
-19.0713 -11.1548 -1.31603
-16.0753 -12.6968 -0.922399
-19.7303 -11.316 -1.18394
-18.3111 -11.8127 -0.980041
-17.06 -12.2192 -0.908705
-19.9979 -11.4746 -1.05813
-19.8961 -11.3299 -0.791808
-19.7216 -11.6845 -0.882109
-19.8639 -11.3419 -0.770349
-20.4156 -11.3694 -0.853851
-17.5336 -12.2156 -0.204749
-18.0515 -11.9927 -0.387911
-17.3599 -12.1219 -0.225733
-19.2124 -11.3243 -0.322296
-20.8215 -11.3692 -0.520928
-19.8848 -11.6278 -0.374839
-20.2509 -11.5609 -0.413637
-19.3272 -11.3555 0.150975
-18.461 -11.6606 0.13788
-16.4029 -12.2903 0.111294
-20.0767 -11.604 -0.0946048
-18.2376 -11.7205 0.194971
-18.2567 -11.6719 0.460615
-17.0932 -12.0068 0.331998
-16.829 -12.2235 0.519912
-20.3502 -11.7377 0.183783
-20.2652 -11.6864 0.226264
-20.4507 -12.0202 0.316894
-19.3043 -11.5095 0.635022
-20.5872 -11.7411 0.577565
-20.7805 -11.7811 0.479382
-19.3958 -11.3843 0.928967
-19.3129 -11.5647 1.21777
-17.1297 -10.5805 1.46557
-16.6898 -10.8524 1.61946
-20.5865 -11.6092 1.27092
-16.1225 -11.5971 -2.58386
-17.4172 -11.1601 -2.50972
-19.0573 -11.0107 -2.89708
-18.7142 -11.1707 -2.92437
-17.1001 -11.204 -2.18486
-18.6352 -11.2129 -2.64627
-16.9759 -11.6969 -2.17061
-17.026 -11.6505 -1.99368
-16.6909 -11.7201 -2.05133
-17.992 -11.5906 -1.33673
-16.3236 -12.1055 -1.01187
-19.7359 -11.3735 -1.24997
-19.8865 -11.4833 -1.29914
-20.0251 -11.2372 -1.11805
-19.4469 -11.4232 -0.685056
-19.5816 -11.6063 -0.770556
-19.7114 -11.7108 -0.763675
-20.0291 -11.6095 -0.798103
-16.7841 -12.0656 -0.276839
-17.261 -12.0509 -0.171544
-19.1957 -11.4544 -0.337953
-19.0372 -11.2224 -0.226704
-18.1104 -11.8691 0.0336052
-20.7376 -11.4763 -0.199637
-17.3109 -12.014 0.119017
-16.8613 -12.156 0.163543
-20.0152 -11.8263 -0.0826779
-20.3001 -11.8438 0.499465
-18.9993 -11.5596 0.743427
-17.1909 -10.3368 1.34335
-17.0308 -10.6963 1.63011
-19.0753 -11.3329 -2.98232
-17.7347 -11.1841 -2.55493
-18.3429 -11.6379 -0.898384
-18.2824 -11.8601 -0.965976
-19.8475 -11.3896 -0.687169
-20.4479 -11.2638 -0.763153
-20.0248 -11.4686 -0.733721
-20.2545 -11.5752 -0.280031
-16.9075 -12.0967 0.245734
-20.3885 -11.8502 0.00459572
-20.3687 -11.7455 0.952135
-17.9116 -11.1435 -2.19258
-18.2285 -11.3626 -1.57926
-20.0509 -11.1822 -1.34592
-19.7126 -11.5601 -0.930786
-19.3008 -11.3797 -0.432646
-19.8977 -11.6622 -0.281598
-18.6676 -11.6649 0.31143
-20.3298 -11.7354 0.0528935
-20.4846 -11.6874 0.412698
-19.3532 -11.4989 1.22105
-17.6204 -10.3914 1.68413
-16.3661 -11.6181 -2.05138
-20.0584 -11.4359 -0.665078
-19.4033 -11.5213 -0.358842
-17.5514 -12.0328 0.291088
-20.3198 -11.6026 0.102967
-20.229 -11.8737 0.500972
-20.6541 -11.6543 0.829993
-20.1485 -11.3255 -0.988721
-18.3458 -11.8369 -0.746597
-20.04 -11.5596 -0.711569
-19.4351 -11.4291 -1.24843
-19.5899 -11.6368 -0.857748
-18.4968 -11.8989 -0.577766
-16.5582 -12.2985 0.218246
-20.2724 -10.6611 -2.9424
-20.4537 -10.6961 -2.42251
-18.1966 -11.4772 -2.98189
-19.6621 -11.2873 -2.03491
-20.749 -11.0166 -1.43555
-20.2705 -11.354 -1.59415
-20.6204 -10.8752 -1.43814
-18.9155 -11.5088 -1.66067
-17.9908 -11.5354 -1.72482
-16.9205 -11.726 -1.99586
-16.8563 -11.6788 -1.84409
-16.7351 -11.925 -1.61847
-20.7649 -11.0595 -0.936764
-19.3763 -11.4908 -1.25599
-20.7309 -11.091 -0.641712
-20.43 -11.1465 -0.73009
-16.7072 -12.0033 -1.45684
-18.3235 -11.6691 -1.15335
-19.7991 -11.4323 -0.792132
-20.1623 -11.2774 -0.568208
-20.0889 -11.6204 -0.520568
-18.2391 -11.5912 -0.691305
-20.6181 -11.4116 -0.437913
-21.3561 -11.3881 -0.283371
-20.3148 -11.3469 -0.274071
-20.9683 -11.2653 -0.272015
-20.4882 -11.3037 -0.376102
-20.0142 -11.52 -0.380835
-20.4651 -11.2737 0.054387
-17.2361 -12.2224 -0.658659
-17.5743 -12.0515 -0.582736
-19.84 -11.8157 -0.239832
-20.8607 -11.4787 0.0524092
-18.3151 -12.0601 -0.326667
-20.1158 -11.6789 -0.240705
-19.901 -11.6632 -0.135661
-21.3644 -11.2623 0.172066
-20.3371 -11.5134 0.0283561
-21.194 -11.1191 0.330144
-17.3309 -11.8859 -0.371314
-21.2983 -11.4872 0.178881
-20.3404 -11.7055 0.178002
-16.9333 -11.8439 -0.457552
-20.3714 -11.5844 0.15254
-18.8315 -11.4202 0.0838612
-20.4706 -11.5812 0.333159
-20.401 -11.8538 0.398344
-20.518 -11.8357 0.157261
-20.4888 -11.7975 0.364473
-19.2972 -11.5228 0.71727
-17.7788 -10.3845 1.6607
-16.5054 -10.8113 1.71783
-17.553 -10.5515 1.95926
-19.6641 -10.9379 -2.94469
-19.6498 -10.9088 -2.84913
-18.9139 -11.1427 -2.57431
-18.6291 -11.4732 -2.5948
-17.0664 -11.298 -2.13542
-15.3271 -12.541 -2.99572
-16.6814 -11.6692 -2.19011
-17.9912 -11.572 -2.0022
-16.4829 -11.7777 -1.86797
-16.9388 -11.8795 -1.89527
-19.6403 -11.157 -1.12085
-19.0928 -10.9305 -1.01352
-20.4333 -11.3594 -0.619915
-17.2841 -11.6471 -1.14723
-19.5557 -11.2753 -0.76299
-20.4477 -11.3702 -0.658199
-20.603 -11.3816 -0.215037
-15.9498 -12.6416 -1.23767
-19.8939 -11.6488 -0.261536
-19.9723 -11.7794 -0.343801
-20.1972 -11.5347 -0.121601
-20.1447 -11.8001 0.041793
-20.0827 -11.5363 0.0619415
-20.5238 -11.5184 0.179035
-17.3275 -12.045 -0.107473
-18.0276 -11.9595 0.0862202
-20.9593 -11.3992 0.60176
-21.1529 -11.4743 0.613167
-20.2634 -11.5225 0.541268
-18.94 -11.4004 0.434243
-19.2728 -11.4288 0.802826
-20.8089 -11.7083 0.494614
-17.712 -11.8984 0.698536
-16.4148 -12.312 0.280673
-16.4959 -12.2719 0.397869
-19.6189 -11.1224 1.28462
-19.1374 -11.6263 1.07307
-16.4027 -10.7323 1.4355
-17.3854 -11.2948 -2.36318
-18.762 -11.4508 -2.34793
-16.8757 -11.5109 -2.08207
-16.048 -11.7025 -2.22461
-20.0592 -11.383 -1.05491
-16.7484 -11.9648 -1.4358
-19.7111 -11.5538 -0.589017
-19.996 -11.7792 -0.208484
-20.0802 -11.6911 0.162329
-17.4378 -12.1289 -0.405034
-17.8926 -11.85 -0.204315
-18.3586 -11.5927 0.176039
-20.267 -11.7423 0.385058
-17.853 -10.6033 1.46282
-18.58 -11.2468 -3.01136
-18.7967 -11.4576 -2.99996
-18.8576 -11.2067 -2.89077
-19.3221 -11.2103 -2.5598
-16.2562 -11.8024 -1.98183
-16.341 -11.7719 -1.99105
-17.0007 -11.782 -1.71439
-19.5215 -11.5358 -1.00332
-18.1971 -11.8322 -1.10921
-19.7916 -11.4749 -0.718525
-18.3442 -11.7579 -0.806667
-19.1147 -11.4055 -0.165935
-18.0348 -11.8392 -0.147593
-18.0478 -11.731 -0.150833
-16.7291 -12.3241 0.302776
-16.7371 -10.8945 1.64029
-20.2061 -11.1699 -0.953105
-19.8587 -11.3806 -0.868776
-19.7328 -11.5065 -0.793527
-19.3377 -11.102 0.098925
-17.3755 -12.0779 -0.236958
-15.9972 -12.5548 -0.703147
-19.3296 -11.2168 0.735402
-18.0695 -11.5461 -1.43248
-17.5663 -11.9865 -1.165
-19.2019 -11.3744 0.21831
-18.2566 -11.8904 -0.0101058
-17.3684 -11.8151 -1.02613
-17.3703 -10.3364 1.31513
-15.5713 -11.9827 -2.14808
-17.8194 -12.2159 -0.340326
-20.265 -11.8611 0.0479073
-18.1488 -11.3455 -1.5283
-16.5943 -12.4057 -0.563754
-16.6695 -12.4936 -0.189162
-19.382 -11.4512 0.142546
-20.7879 -10.8144 -1.88651
-20.0636 -10.9065 -2.39726
-20.7704 -10.7817 -1.74678
-20.0097 -11.0781 -2.40851
-19.2582 -11.4078 -1.68545
-20.9008 -11.3002 -0.295212
-20.9882 -11.3178 -0.0426502
-20.9599 -11.5567 -0.328144
-20.4699 -11.246 -0.372933
-17.1081 -11.7289 -1.75965
-16.9254 -11.9556 -1.87493
-15.4002 -12.5052 -2.87677
-19.9865 -11.7621 -0.206268
-19.7132 -11.7489 -0.263106
-19.8733 -11.7324 -0.152952
-17.4701 -11.809 -1.19264
-20.5713 -11.591 0.51019
-20.6757 -11.6992 0.398732
-20.1847 -11.8548 0.326707
-18.8487 -11.3987 0.373145
-18.8136 -11.3469 0.223502
-18.847 -11.3735 0.456314
-16.637 -12.112 -1.12169
-16.4938 -12.3941 -1.02581
-20.2997 -11.0233 -1.4373
-18.8456 -11.5197 -1.70356
-17.0344 -11.4614 -2.19846
-20.6704 -11.4292 -0.449641
-19.5304 -11.4248 -1.21146
-20.6974 -11.1351 -0.540737
-21.1129 -11.3111 0.410512
-17.2072 -11.7519 -1.77619
-17.0773 -11.7845 -1.67715
-16.7097 -11.6744 -2.02
-18.2247 -11.8133 -1.06454
-15.3154 -12.5982 -2.81833
-17.5574 -11.6267 -1.2219
-17.7265 -11.9212 -0.824086
-19.0794 -11.3278 0.144814
-18.9043 -11.9214 -0.262332
-17.1925 -11.8901 -1.34478
-16.567 -12.0636 -1.22412
-20.6305 -11.9445 0.834534
-20.3199 -11.7818 0.684641
-20.1639 -11.9057 0.896394
-17.7827 -11.9208 -0.253865
-19.141 -11.4286 0.866239
-17.4037 -12.0579 -0.462417
-16.7829 -12.165 -0.701947
-19.2549 -11.5049 0.895612
-16.6253 -12.501 -0.4142
-16.369 -12.5074 -0.359763
-20.2065 -11.1961 -1.10598
-17.1209 -11.1065 -2.21146
-18.894 -11.6465 -1.60321
-18.3428 -11.5236 -1.31321
-21.2016 -11.3366 0.393532
-17.1204 -11.4896 -1.72733
-17.1829 -11.8143 -1.16897
-17.632 -11.8198 -0.911844
-17.7733 -11.9215 -0.400839
-17.9565 -11.7569 0.132015
-17.5842 -12.1645 -0.19982
-16.4206 -12.3952 -0.885437
-19.0567 -11.1822 -2.57166
-20.4508 -11.2327 -0.422007
-19.8192 -11.5905 -0.407288
-17.4971 -12.0421 -0.359709
-16.4565 -12.3994 -0.864052
-16.6813 -12.2129 -0.59718
-19.827 -11.5715 -0.139378
-19.1945 -11.1775 0.052478
-16.1664 -12.5438 -0.905377
-17.9248 -11.4324 -2.2428
-19.0407 -11.3441 0.112357
-17.7335 -11.6084 -1.29013
-17.0834 -11.7169 -1.81761
-20.2839 -11.6253 0.299216
-19.85 -11.2529 -1.74293
-20.6462 -11.4526 -0.242256
-19.9068 -11.5116 -0.259493
-20.3179 -11.5343 0.232111
-17.0419 -11.8653 -1.89963
-16.6091 -11.9166 -1.48008
-16.833 -11.9619 -0.62335
-16.0659 -12.7355 -0.71338
-20.5519 -10.7343 -2.15089
-20.1332 -10.9092 -2.52751
-20.4439 -11.1582 -0.634671
-19.8781 -11.5437 -0.72002
-19.929 -11.5362 -0.377657
-18.3062 -11.8905 -1.03095
-19.2703 -11.3241 0.923763
-16.0806 -11.8068 -2.32269
-17.2761 -11.8722 -1.19419
-17.691 -11.8305 -0.396563
-17.588 -12.1881 -0.241729
-17.3193 -11.876 -0.542883
-16.4483 -12.2335 -0.732574
-16.6855 -12.3852 -0.394228
-16.5745 -12.5724 -0.385768
-20.7498 -11.0757 -0.427997
-20.9325 -11.3338 0.241492
-20.7299 -11.4874 -0.169489
-20.6583 -11.3611 -0.211377
-18.889 -11.5229 0.55612
-16.8706 -11.7585 -1.38493
-17.3709 -11.86 -1.22704
-17.7684 -11.8899 -0.547073
-16.9318 -12.3653 0.179899
-17.3918 -11.7612 -1.27452
-19.2801 -11.2478 -1.08798
-19.7886 -11.7774 -0.246256
-16.6332 -12.3067 -0.207924
-20.2473 -10.6418 -2.52348
-18.0978 -11.1974 -1.80658
-19.0095 -11.4891 0.766452
-19.3474 -11.391 -0.263518
-17.6182 -12.3342 -0.477744
-17.2483 -12.0072 -0.537817
-20.4479 -10.5454 -2.73638
-20.1452 -10.8263 -2.48972
-20.5905 -11.37 -0.507533
-19.3583 -11.1397 -2.53278
-19.8935 -11.6914 -0.578972
-19.9441 -11.7053 -0.572689
-18.8056 -11.3144 -2.98649
-20.1937 -11.9469 0.942561
-19.08 -11.2334 0.342808
-17.6821 -11.7262 -1.17177
-16.9875 -11.5234 -1.82153
-17.0188 -11.4681 -1.70358
-17.2227 -10.6053 1.59729
-16.424 -12.3077 -0.833948
-20.5589 -10.6061 -2.5573
-20.9299 -11.2892 -0.498509
-20.6334 -11.2667 -0.297869
-20.1991 -11.1543 -0.785546
-18.0736 -11.5773 -3.09752
-19.3137 -11.3925 0.858851
-18.5606 -11.69 -1.23955
-18.1763 -12.0522 -0.498143
-17.5338 -11.9092 -0.959567
-17.9178 -11.9354 -0.347
-17.8048 -11.9274 -0.504429
-17.6679 -12.046 -0.599343
-16.8508 -11.8554 -1.3817
-16.8415 -12.3484 -0.100184
-16.8159 -12.5865 -0.36752
-16.664 -12.529 -0.297022
-20.7425 -11.2087 -0.493618
-19.3563 -11.236 -2.57884
-18.7868 -11.2043 -2.61252
-17.6428 -11.8199 -0.729096
-17.3558 -11.861 -0.728089
-17.7296 -11.8231 -0.544328
-17.5112 -11.8472 -0.561201
-17.5935 -12.0586 -0.734552
-17.0794 -12.1059 0.169955
-16.4073 -12.0263 -1.00179
-17.1165 -11.6136 -1.67096
-17.6698 -12.0244 -0.281555
-17.8178 -11.8761 -0.42563
-16.5076 -12.0969 -0.994641
-16.7152 -12.441 -0.178106
-16.6483 -12.3518 -0.174113
-20.4767 -11.643 0.318876
-19.3337 -11.4736 0.793727
-17.1289 -11.458 -2.27005
-16.1948 -12.6289 -1.13027
-20.3548 -10.6056 -2.78844
-19.3784 -11.1774 0.423453
-18.0474 -11.2415 -2.0463
-19.9136 -11.4216 -0.935303
-19.6073 -11.6918 -0.92456
-17.7863 -10.3835 1.7994
-19.3226 -11.5092 -0.356336
-15.407 -12.2329 -1.87125
-19.3881 -11.4064 -0.873814
-20.8254 -11.0994 -0.437465
-20.4199 -11.09 -0.471445
-19.9553 -10.7269 -2.66644
-20.1434 -10.8298 -2.39475
-20.2977 -11.0703 -1.57643
-19.9916 -10.8658 -2.01487
-19.9347 -11.2054 -1.57105
-19.703 -10.9799 -2.50572
-19.2218 -11.2795 0.216743
-19.3304 -11.3732 -1.65871
-19.1232 -11.1706 -2.34812
-19.2383 -11.3645 -2.46251
-19.206 -11.1744 -2.5939
-18.9237 -11.6556 -1.66667
-18.5708 -11.6117 -1.12424
-17.2614 -12.0503 -0.275088
-16.7762 -10.595 1.41934
-16.4979 -12.2683 -1.02589
-16.4304 -12.2984 -0.656313
-16.7309 -12.5338 -0.438594
-15.9189 -11.9811 -2.14816
-15.1129 -12.589 -3.34858
-20.4758 -10.5444 -2.70335
-20.4813 -10.7399 -2.92313
-20.379 -11.0422 -1.34475
-20.165 -10.688 -2.64852
-19.9984 -10.8845 -2.20855
-20.0842 -11.7031 0.156793
-19.5163 -11.1638 0.068047
-19.4058 -11.3426 -2.74175
-18.7857 -11.3386 0.176208
-18.8965 -11.4236 0.293022
-18.1797 -11.667 -1.35683
-18.1617 -11.948 0.1092
-17.7616 -12.0186 -0.388949
-17.6329 -12.0556 -0.739464
-15.1548 -12.7063 -2.94045
-20.2927 -10.524 -2.37028
-20.2129 -11.127 -1.8035
-19.5359 -11.4192 0.997239
-19.3166 -11.5307 1.00174
-19.2079 -11.3459 -0.428243
-18.8486 -11.3007 -2.48312
-18.0211 -11.4192 -2.91197
-17.9389 -11.6753 -1.03149
-17.831 -11.9889 -0.295869
-17.3538 -11.0164 -2.25581
-17.3304 -11.5896 -1.58529
-16.258 -11.704 -2.13495
-16.7662 -12.5113 -0.26918
-16.6885 -12.4251 -0.883562
-16.4017 -11.9491 -1.42245
-16.1404 -12.6016 -0.61927
-15.6454 -12.2888 -2.20505
-14.867 -12.8251 -2.65632
-20.3999 -10.7026 -2.29306
-20.1293 -11.0666 -2.4064
-18.9529 -11.4349 0.311335
-17.4872 -11.3649 -2.24409
-17.1883 -11.4364 -2.15439
-17.3708 -11.6789 -1.74821
-16.4595 -11.8565 -1.35331
-16.384 -12.2196 -0.831447
-18.8598 -11.4334 -1.80559
-17.1611 -11.7653 -1.43665
-17.3452 -11.753 -1.88329
-18.8799 -11.5099 0.181519
-18.3485 -11.6653 -0.817089
-16.9773 -11.234 -2.13635
-16.6645 -12.5956 -0.404319
-19.3807 -11.1585 0.512581
-19.4807 -11.1871 0.137732
-20.4751 -11.344 -0.646284
-19.679 -11.4652 -0.876385
-19.5062 -11.2403 0.295018
-19.1115 -11.2552 -0.64063
-16.7199 -12.1644 -1.00737
-17.6829 -11.6113 -1.51126
-17.574 -11.5234 -1.42822
-16.9003 -11.9732 -0.864219
-19.2957 -11.2506 0.500392
-17.3554 -11.9078 -0.748634
-16.7005 -12.2293 -0.631579
-20.7366 -11.3271 -0.391096
-20.8421 -11.2457 -0.707408
-20.7918 -10.7385 -1.55538
-20.6154 -10.6423 -2.28314
-19.9188 -11.0662 -2.06421
-20.0412 -10.7804 -2.47627
-20.0582 -10.9952 -1.98656
-19.8688 -10.8784 -2.51134
-19.309 -11.1724 -2.6297
-19.0891 -11.2479 -2.31482
-19.2265 -11.2552 -2.4013
-19.1272 -11.3827 -2.56637
-18.166 -11.5547 -0.637157
-18.7183 -11.4757 -2.86283
-18.667 -11.2101 -3.10375
-18.6219 -11.2875 -2.84409
-16.624 -10.8232 1.8017
-16.7965 -10.6975 1.60032
-17.2586 -11.7827 -0.192159
-16.4863 -10.728 1.42369
-17.2239 -11.8902 -0.655048
-16.2432 -10.8403 1.4198
-16.9525 -11.8812 -1.47012
-16.5204 -12.1728 -0.898663
-16.5007 -11.523 -2.50362
-16.2071 -12.5063 -0.700174
-16.0569 -12.5671 -1.45992
-16.0029 -12.1548 -2.36524
-15.0108 -12.6248 -3.40232
-20.7619 -11.271 -0.492056
-20.5516 -11.3852 -0.443225
-20.4888 -10.7167 -1.40224
-20.0394 -10.8799 -2.00421
-20.0573 -11.3579 -1.28262
-19.7863 -10.9259 -2.33959
-19.1415 -11.1142 -2.35797
-18.9286 -11.5526 -1.69274
-17.1376 -10.5984 1.49879
-17.6054 -11.9857 0.204455
-17.7944 -12.1717 -0.279908
-17.8583 -12.0496 -0.585
-17.6507 -11.8047 -1.0421
-17.62 -12.0145 -0.404952
-16.9948 -11.3083 -2.05517
-16.7545 -12.4078 -0.0260775
-16.8111 -12.2115 -0.658847
-16.6663 -12.1535 -1.05221
-16.4865 -11.8729 -1.37458
-20.666 -11.3933 -0.193609
-20.3932 -10.53 -2.7304
-20.4103 -11.1127 -1.71528
-19.2011 -11.0834 0.189167
-19.7283 -11.6018 -0.835531
-19.8926 -11.3457 -1.75685
-19.4008 -11.2668 -2.47695
-19.0183 -11.3608 -1.76736
-17.8273 -11.9094 -0.148162
-17.6471 -11.9759 -0.901235
-16.7721 -12.0654 -0.810259
-16.6573 -12.3491 -0.727104
-16.3713 -11.827 -2.02937
-20.3057 -11.3387 -1.06746
-18.9277 -11.2768 -2.07112
-16.7271 -12.3818 -0.24407
-16.658 -12.4765 -0.303647
-16.6069 -12.2284 -1.04547
-16.4651 -12.5091 -0.47055
-16.0736 -12.6337 -1.1609
-14.9257 -12.8231 -2.7196
-14.5598 -12.7663 -3.28933
-20.6075 -10.8418 -1.57912
-19.3294 -11.3607 0.655651
-19.0185 -10.981 -1.01707
-17.4106 -11.7132 -1.04499
-16.9007 -11.4993 -1.84207
-16.1912 -12.5956 -1.12957
-19.558 -11.0647 -1.73881
-18.9276 -11.3501 -1.08689
-18.4431 -11.8945 -0.613155
-17.372 -11.9493 -0.421334
-16.703 -12.3613 0.378125
-17.7025 -11.8198 -1.20151
-16.3368 -12.4499 -1.04799
-18.8241 -11.4428 0.186877
-16.2513 -12.6169 -0.864554
-17.343 -11.2083 -2.14269
-16.8589 -11.7266 -2.05236
-16.9979 -11.9142 -1.55198
-20.7158 -11.1139 -0.307145
-20.8945 -11.2579 -0.540164
-20.6201 -11.1273 -1.36513
-18.6032 -11.4095 0.209808
-18.6562 -11.4966 0.143389
-19.928 -11.0177 -1.80232
-20.0812 -10.9097 -2.02558
-19.9796 -10.9536 -2.40876
-19.9525 -10.999 -2.06033
-18.7107 -11.7528 -0.767079
-19.6455 -10.7431 -2.87213
-19.5145 -10.8793 -3.02843
-19.5356 -11.0066 -3.07548
-19.0122 -11.4899 -1.56316
-18.1926 -11.7707 -0.945326
-17.9074 -12.0317 -0.184347
-17.1829 -12.0918 -0.263991
-16.7946 -11.2583 -2.49571
-16.4152 -11.6842 -2.60997
-19.3396 -11.2329 0.0555327
-18.855 -11.2926 0.181537
-19.9908 -11.3863 -1.11595
-18.3911 -11.501 -0.586957
-18.1999 -11.9189 -0.36669
-18.9047 -11.5166 -1.81214
-18.7209 -11.4824 -1.80456
-19.3682 -11.2592 -2.44533
-18.1937 -11.8822 -0.999107
-19.2654 -11.1485 -2.75514
-18.2835 -11.7458 -1.1872
-17.6822 -11.8823 -0.432928
-17.69 -11.8445 -0.665393
-18.9065 -11.0051 -2.90689
-16.5801 -12.6182 -0.132112
-16.5878 -12.2503 -0.574858
-16.5375 -12.1697 -0.823847
-16.6941 -12.2995 -0.843046
-16.6605 -11.8233 -2.04361
-16.2099 -11.6312 -2.01403
-14.9999 -12.7151 -2.65907
-20.4128 -11.2693 -0.59658
-20.5386 -11.3443 -0.336036
-20.6112 -10.9677 -1.48816
-20.3784 -11.0072 -1.37444
-19.4115 -11.4371 0.421143
-20.501 -10.9952 -1.4537
-20.1906 -11.0344 -1.5152
-18.7326 -11.644 0.256552
-17.1668 -10.4804 1.47587
-17.1622 -10.5145 1.47193
-19.8978 -10.9327 -2.63095
-18.9547 -11.1554 -0.867643
-19.0298 -11.3062 -1.8532
-16.3209 -10.8377 1.59248
-17.7131 -12.1138 -0.430652
-17.6355 -11.927 -0.753212
-17.0849 -12.2939 0.25108
-17.5313 -11.9076 -0.771248
-17.3797 -11.7773 -0.764725
-16.6213 -12.3307 0.179882
-16.5253 -12.3713 0.445141
-16.6957 -12.1553 -1.12222
-16.4147 -12.3551 -0.844527
-15.4775 -12.6184 -2.89036
-14.8794 -12.5886 -2.93353
-20.7617 -11.152 -1.33102
-19.3566 -11.3276 0.125908
-17.7271 -12.081 -0.493801
-17.5612 -11.7814 -0.700779
-16.9286 -12.0085 -0.405164
-17.0541 -12.0833 -0.368405
-16.6622 -12.3876 0.396505
-16.7981 -12.1646 -1.05736
-16.6226 -12.5734 -0.452413
-16.7498 -11.4516 -2.42567
-20.7981 -11.2108 -0.511628
-20.4402 -11.3909 -0.547661
-20.7542 -11.2376 -0.663158
-20.3806 -11.1426 -1.71814
-16.9247 -10.8097 1.59789
-17.505 -12.0356 -0.0902077
-17.6297 -11.7703 -1.08607
-17.1925 -11.2558 -2.13474
-15.6443 -12.1505 -2.06711
-19.1071 -11.7107 0.86874
-20.4945 -11.0155 -1.48398
-18.3026 -11.6107 -1.25502
-17.6712 -11.1211 -2.29756
-16.4556 -12.2357 -0.322062
-16.6555 -11.9395 -1.11636
-18.9014 -11.3295 0.206566
-16.9732 -11.6128 -2.08931
-16.9325 -11.7851 -1.69594
-18.1052 -11.3708 -1.7596
-17.0486 -12.004 -0.412137
-17.1367 -12.0509 -0.810117
-16.3891 -11.6595 -2.19752
-16.41 -12.1189 -0.533076
-16.5683 -11.9696 -1.40433
-16.1245 -12.7411 -0.766185
-21.1297 -11.3828 0.156936
-20.8675 -11.4788 0.25997
-20.6266 -11.3617 -0.0890797
-19.2949 -11.2545 0.36537
-19.0906 -11.1221 0.299577
-17.2074 -10.4409 1.54222
-20.6468 -10.7717 -1.58723
-18.7776 -11.4298 0.166034
-18.3992 -11.5184 0.364922
-20.2183 -11.2722 -1.08646
-20.5885 -11.0529 -1.44839
-16.6724 -10.7276 1.43982
-20.0506 -11.3238 -1.47512
-20.592 -10.8502 -1.92713
-20.2313 -11.0601 -1.61617
-18.9551 -11.0359 -1.00488
-20.0485 -11.052 -1.96167
-20.0332 -10.944 -2.37847
-19.4835 -11.1839 -2.17053
-19.5784 -11.2577 -2.06784
-19.4845 -11.1341 -2.15962
-19.0154 -11.7608 -1.83152
-19.0823 -11.5549 -1.7287
-17.0245 -12.0659 -0.179569
-19.6191 -10.9812 -2.75963
-19.2852 -11.1593 -2.47454
-17.6548 -11.9493 -1.15404
-17.3425 -11.8668 -1.23097
-19.1943 -11.0696 -2.80075
-18.9629 -11.124 -3.13353
-17.2397 -11.3378 -2.62769
-16.009 -12.4973 -1.4271
-15.8254 -11.6333 -2.24902
-16.429 -11.3727 -2.66227
-20.4019 -11.6326 0.124659
-19.9618 -11.7992 0.518118
-20.1252 -11.4902 -0.558161
-20.1873 -11.6081 -0.230473
-20.9116 -10.7226 -1.78577
-20.7649 -10.934 -1.75814
-20.8596 -11.0592 -1.50222
-20.9064 -10.8639 -1.58641
-17.2222 -10.5657 1.28769
-19.9847 -10.9042 -2.32723
-19.5496 -11.2671 -2.09521
-17.6668 -12.0146 -0.1682
-19.9981 -10.7747 -2.83418
-17.4511 -11.9275 -0.14334
-19.9448 -10.8357 -2.85798
-17.483 -11.5479 -1.25918
-16.441 -12.2797 -0.594558
-16.3508 -12.2494 -0.814288
-16.5364 -12.2974 -0.80059
-16.439 -12.1377 -1.0919
-16.5834 -12.2147 -1.03305
-16.5544 -12.0383 -1.59628
-15.001 -12.8175 -2.72417
-20.7401 -11.4736 -0.448467
-20.6266 -11.3821 -0.266805
-19.1463 -11.3564 0.343358
-20.0736 -11.5354 -0.575621
-20.4234 -11.3319 -0.855578
-20.4732 -11.2635 -0.847655
-20.1228 -11.2835 -0.674045
-20.5615 -11.1318 -1.36955
-18.3969 -11.4719 0.343487
-19.7791 -11.1937 -1.10443
-20.1684 -10.9875 -2.01792
-17.2501 -12.2399 0.407508
-17.8176 -12.2773 -0.108669
-17.4316 -12.0576 -0.385471
-18.0769 -11.8356 -0.885523
-17.3792 -11.9734 -0.250938
-17.463 -11.84 -0.689239
-19.2711 -11.1957 -2.74777
-16.3335 -11.6283 -2.21718
-16.6821 -10.4994 2.0826
-17.4931 -10.4061 1.44735
-17.1489 -10.6811 1.66864
-19.8831 -11.5634 -0.332518
-17.2201 -10.6185 1.47502
-20.7826 -10.8615 -1.54089
-20.8467 -10.8712 -1.5346
-17.023 -10.5924 1.63748
-18.4865 -11.4933 0.375291
-16.5858 -10.802 1.36117
-16.3618 -10.71 1.35838
-19.0539 -11.2827 -1.19509
-16.9786 -12.3501 0.55944
-17.0939 -12.3321 0.157601
-17.946 -12.0081 -0.489729
-17.6201 -11.7679 -0.558922
-17.925 -11.9031 -0.90685
-17.6206 -11.77 -0.691603
-17.4546 -11.9517 -0.750823
-19.2135 -10.9927 -2.89114
-16.632 -12.4691 -0.512724
-18.9837 -11.3024 -2.80444
-16.6168 -12.3757 -0.855836
-16.3968 -12.1204 -0.914678
-16.6329 -11.9993 -1.02721
-17.5954 -11.0451 -2.65735
-16.0893 -12.6671 -1.07617
-17.2407 -10.6494 1.45826
-16.4364 -10.8817 1.36843
-17.4445 -11.8884 0.347232
-17.1387 -12.1036 0.362295
-19.2977 -11.4144 -1.75229
-16.5859 -12.4382 0.301165
-16.5694 -12.1415 -0.993865
-16.74 -12.0022 -1.13948
-19.8664 -11.535 -1.33014
-17.4595 -12.1944 0.56062
-18.8245 -11.7466 -0.685185
-16.5515 -12.1424 -1.08022
-16.0356 -12.7196 -1.09433
-15.2307 -12.5732 -2.78993
-19.0348 -11.3855 0.00970504
-18.389 -11.6868 0.193203
-16.9463 -12.0549 -1.33379
-17.0638 -12.1988 -0.158463
-16.2077 -12.5993 -0.666003
-21.3509 -11.4249 0.266754
-21.1784 -11.3484 0.22024
-20.553 -11.6685 0.53709
-17.746 -10.3652 1.53986
-20.5381 -11.5559 0.274138
-20.6162 -11.4509 0.300352
-16.91 -10.4909 1.55471
-16.7156 -10.7916 1.44336
-20.2924 -11.5411 -0.277672
-16.4349 -10.9109 1.59426
-19.1747 -11.3687 -0.0490577
-16.3479 -10.9958 1.47098
-18.8793 -11.2468 0.252309
-18.8112 -11.5129 0.0819181
-18.6358 -11.4311 0.268449
-20.2793 -11.2634 -0.73335
-20.1559 -11.3069 -0.994952
-20.0675 -11.5753 -0.755035
-20.2208 -11.0635 -1.04489
-21.0734 -10.6454 -1.61909
-18.1036 -12.0356 -0.466815
-19.8666 -11.3189 -1.2092
-20.4539 -10.9574 -1.64929
-19.7034 -11.353 -1.14002
-18.4547 -11.8948 -0.772801
-19.6536 -11.4414 -1.2437
-20.7674 -10.7718 -1.6695
-20.9743 -10.9666 -1.89133
-18.3281 -11.7161 -0.861994
-17.3249 -12.1218 -0.227757
-18.2844 -11.8517 -0.827512
-20.5134 -10.7835 -1.92192
-20.6122 -10.8955 -1.92386
-17.8236 -11.8971 -0.720492
-20.5561 -10.8608 -2.21262
-20.6622 -10.7215 -2.1003
-18.562 -11.6437 -1.40254
-20.58 -10.7087 -1.99898
-20.1023 -10.8906 -2.04098
-18.6647 -11.5475 -1.26772
-17.4848 -11.8012 -0.869475
-19.6089 -11.2796 -2.05919
-19.055 -11.3325 -1.9266
-19.7702 -11.1475 -2.33953
-20.5742 -10.6931 -2.86731
-20.5502 -10.5195 -2.60803
-19.16 -11.1355 -2.25032
-18.8711 -11.408 -2.16083
-20.091 -10.5656 -2.7233
-19.8939 -10.9211 -2.57787
-19.9497 -10.722 -2.57595
-20.6467 -10.5996 -2.93502
-19.0304 -11.2765 -2.50877
-17.6725 -11.625 -1.98771
-18.7948 -11.1744 -2.38999
-19.4049 -10.9623 -2.84496
-17.1051 -11.7663 -1.62892
-17.6392 -11.4109 -2.38132
-17.3273 -11.0842 -2.38326
-17.9125 -11.3491 -3.27819
-16.2606 -11.4848 -2.18907
-16.1365 -11.6014 -2.15646
-16.929 -11.3968 -2.54329
-20.6813 -11.6797 0.678078
-17.2618 -10.6782 1.60666
-17.1136 -10.6572 1.66657
-17.7118 -10.3753 1.55613
-20.6903 -11.6137 0.0853838
-20.3844 -11.6852 0.0471107
-16.5776 -11.0022 1.47343
-21.0026 -11.0154 -0.457128
-20.307 -11.3808 -0.325474
-20.0171 -11.6815 -0.139893
-16.5076 -10.874 1.27258
-18.9914 -11.3599 0.24935
-21.0987 -10.9507 -0.767279
-17.5097 -11.6363 0.123189
-20.4475 -11.0596 -1.53489
-20.4928 -10.9895 -1.54504
-19.8103 -11.4012 -1.3232
-20.0248 -11.3434 -1.56852
-17.6956 -12.0101 -0.502886
-20.6689 -10.9108 -1.54561
-20.3252 -10.9176 -1.95952
-16.4549 -12.488 -0.299147
-19.071 -11.2551 -1.82677
-18.1923 -11.5236 -1.21269
-17.4138 -11.8804 -0.90245
-17.4743 -11.5781 -1.15892
-20.3921 -10.7857 -2.62712
-16.4252 -12.3509 -0.985259
-18.9302 -11.5817 -2.10489
-16.2956 -12.2738 -1.04466
-19.1635 -11.3003 -2.61716
-18.9345 -11.2369 -2.87629
-19.1868 -11.1089 -2.98144
-17.458 -11.2758 -1.98949
-16.652 -11.7928 -2.10522
-16.3129 -11.6629 -1.96433
-16.6777 -11.5918 -2.60438
-15.2715 -12.783 -2.98855
-15.2067 -12.7055 -2.93998
-14.9895 -12.6487 -3.03953
-15.1675 -12.5477 -3.26334
-20.687 -11.5077 -0.266832
-19.3505 -11.171 0.516053
-20.2203 -11.4336 -0.305506
-20.2611 -11.5558 -0.312206
-18.6712 -11.502 0.48567
-20.0711 -11.6072 -0.338524
-17.9787 -11.7556 0.0544036
-20.2033 -11.3735 -1.15785
-20.3471 -11.1987 -1.09722
-16.8429 -12.3189 0.466113
-20.6293 -10.9524 -1.52768
-17.5915 -12.0885 -0.264934
-20.0442 -11.2112 -1.53708
-19.7675 -11.3247 -1.3275
-17.4828 -12.1707 -0.34223
-17.5248 -11.9813 -0.420972
-17.289 -12.047 -0.285143
-19.8773 -11.5288 -1.38273
-18.2753 -11.7006 -1.09124
-17.6209 -12.0049 -0.614972
-16.4773 -12.48 -0.34532
-18.9987 -11.3623 -1.63225
-19.8363 -11.0956 -2.05597
-19.6121 -11.1049 -2.08347
-19.8718 -10.9538 -2.36195
-19.2625 -11.5846 -1.97041
-17.4412 -11.9018 -1.23429
-17.753 -11.7574 -1.08056
-18.8805 -11.4499 -1.91485
-20.2839 -10.909 -2.56421
-16.038 -12.3539 -1.08541
-18.7174 -11.7507 -2.20842
-18.7019 -11.5402 -2.16871
-19.0194 -11.1751 -2.44767
-18.4915 -11.5309 -2.40338
-16.5426 -11.8449 -1.32029
-19.59 -10.8801 -2.7309
-18.8596 -11.1475 -2.86927
-16.503 -11.4507 -2.48393
-15.0995 -12.5584 -2.9473
-15.1026 -12.6022 -3.05656
-20.1737 -11.6172 0.0458852
-18.7252 -11.477 0.48655
-20.1372 -11.5168 -0.49877
-18.6961 -11.6086 -0.082462
-19.2631 -11.4337 -0.482591
-18.1143 -11.7465 -0.501466
-17.4896 -11.9455 -0.246371
-17.0298 -11.955 -0.148723
-17.7389 -11.569 -1.19561
-19.0119 -11.1734 -2.69584
-16.686 -11.6527 -2.5162
-19.6565 -11.639 -1.05836
-17.3209 -12.0966 -0.522607
-18.2711 -11.8466 -0.874482
-16.4931 -12.204 -0.94104
-16.2028 -11.8062 -2.12162
-17.0949 -10.9596 -2.82833
-20.7043 -11.6795 0.614148
-17.0965 -10.4699 1.42474
-19.9546 -11.6398 -0.38933
-19.8622 -11.7002 -0.791599
-19.8696 -11.4362 -1.15833
-14.6016 -12.8002 -3.31288
-21.3252 -11.2033 0.272643
-21.3817 -11.3817 0.220047
-16.8307 -10.7092 1.74763
-19.1714 -11.4347 0.240834
-17.8907 -11.6035 -1.44407
-16.6913 -11.7815 -2.05802
-18.3793 -11.5254 0.233401
-17.3922 -12.0479 0.538758
-17.6326 -11.9328 -0.905343
-17.7662 -11.5336 -1.6688
-16.6689 -11.6907 -2.06218
-14.898 -12.7409 -2.80933
-19.7808 -10.9189 -3.11178
-19.7582 -10.9153 -2.16797
-19.4617 -11.2367 -2.01613
-19.9152 -11.0361 -2.02629
-18.973 -11.6105 -1.72023
-16.4652 -12.3485 -1.08187
-20.1897 -11.1827 -1.50599
-20.663 -11.0512 -1.40807
-19.8618 -11.1799 -1.27925
-20.6554 -10.9549 -1.54959
-20.2088 -11.0945 -1.66968
-20.4716 -11.1064 -1.20517
-20.1614 -11.2759 -1.15981
-20.3744 -11.2247 -1.18858
-18.3446 -11.881 -0.794588
-17.1661 -11.91 -0.407716
-20.327 -11.3926 -0.725073
-20.6959 -11.0653 -0.776224
-19.9396 -11.5645 -0.536509
-20.4173 -11.5443 -0.415058
-20.4877 -11.2105 -0.349138
-20.906 -11.1333 -0.463991
-20.3293 -11.5066 -0.213521
-20.5267 -11.5414 -0.204878
-16.8589 -12.2811 0.291905
-20.6828 -11.6826 0.0119476
-20.6281 -11.5884 -0.287665
-20.4418 -11.67 -0.204749
-20.4457 -11.6442 -0.0854808
-17.6079 -12.0979 0.377588
-18.25 -11.6067 0.352398
-18.1406 -11.7581 0.295509
-18.3944 -11.5621 0.317722
-18.4611 -11.6718 0.35024
-20.4851 -11.3525 0.0504196
-20.2816 -11.691 0.413928
-20.2707 -11.8779 0.368003
-20.5015 -11.7992 0.176541
-19.351 -11.3961 0.903308
-19.2177 -11.3642 0.892472
-16.5967 -10.646 1.60923
-20.7079 -11.685 0.935055
-20.6782 -11.7787 1.04706
-16.7515 -10.4308 2.28965
-18.7229 -11.3399 -2.91142
-19.131 -11.182 -2.84897
-19.1571 -11.0171 -2.7971
-15.9784 -11.9049 -2.15631
-20.066 -10.7604 -2.74848
-20.2197 -10.9703 -1.98242
-18.1908 -11.6201 -1.52618
-18.8713 -11.7977 -1.6939
-19.7259 -11.2382 -1.28948
-16.082 -12.6108 -0.955578
-19.8108 -11.4574 -1.39101
-20.7318 -11.0855 -1.37066
-19.8773 -11.4143 -1.13581
-16.0559 -12.6785 -0.799124
-16.2376 -12.6196 -0.696625
-19.0836 -11.3078 -0.986818
-19.709 -11.4608 -1.04551
-19.663 -11.776 -0.707989
-19.2197 -11.4725 -0.280894
-20.095 -11.6338 -0.183481
-19.7359 -11.7414 -0.379992
-19.9789 -11.7041 -0.274918
-20.0986 -11.8263 -0.319313
-18.2887 -11.8719 0.112047
-17.6509 -11.9186 0.0586168
-19.2644 -11.43 0.0496456
-17.8742 -11.8778 0.204202
-20.6161 -11.6877 -0.119158
-17.4954 -12.17 0.536214
-20.7943 -11.7494 0.490347
-20.4566 -11.9415 0.559056
-17.3948 -10.5124 1.59378
-16.0827 -11.2509 -2.69178
-18.1234 -11.2161 -2.02085
-18.8105 -11.4463 -2.31711
-19.7902 -11.2382 -2.00302
-19.074 -11.3248 -0.999595
-20.0423 -11.6969 -0.66302
-19.8313 -11.5413 -0.718922
-19.8348 -11.531 -0.695588
-19.7731 -11.553 -0.689277
-20.0212 -11.4282 -0.33012
-20.2095 -11.4206 -0.162411
-19.4193 -11.2297 0.378694
-20.3822 -11.7641 0.017551
-20.4136 -11.7206 0.979445
-16.6385 -11.8232 -1.73725
-18.1383 -11.4599 -1.45939
-19.9031 -11.3554 -1.27478
-20.0239 -11.2823 -1.24541
-19.9457 -11.3595 -0.709124
-20.0689 -11.7351 -0.211324
-19.9695 -11.6776 -0.101511
-17.2332 -11.9731 0.218566
-20.8657 -11.4201 0.324334
-19.4306 -11.438 1.23854
-19.4506 -11.3998 1.10345
-17.1555 -10.5904 1.43575
-17.0289 -10.4995 1.76302
-16.7189 -11.9577 -1.37101
-19.5544 -11.411 -1.40295
-19.0936 -11.3513 -0.431577
-20.1483 -11.5746 -0.167179
-20.1504 -11.7985 0.357143
-20.5636 -11.7334 0.690169
-16.9571 -10.5502 1.52749
-16.0044 -11.9807 -2.25931
-16.283 -11.7595 -1.75969
-16.4215 -12.1219 -1.36233
-17.3096 -11.7358 -1.2893
-19.5529 -11.463 -1.22573
-17.9467 -11.8598 -0.499891
-19.4257 -11.2869 1.16236
-17.3136 -11.767 -1.80895
-17.0095 -11.9866 -1.50782
-16.9201 -12.2191 -0.771546
-17.6712 -11.8086 -0.583522
-17.3384 -11.8365 0.0976037
-17.3796 -11.421 -2.2889
-16.7393 -11.8523 -1.25144
-16.635 -11.995 -0.969961
-16.019 -12.3718 -1.3991
-19.3538 -11.3819 -2.23138
-18.2798 -11.3492 -2.18676
-19.028 -11.3888 -1.65031
-16.7016 -11.7759 -1.8319
-20.5966 -10.9753 -1.44738
-20.0962 -11.0877 -1.39531
-19.7021 -11.409 -1.21457
-16.9365 -11.9174 -1.35319
-17.5913 -11.7261 -1.01894
-17.1293 -12.0839 -1.12392
-20.6504 -11.3246 -0.521881
-20.3668 -11.4733 -0.633152
-20.5597 -11.4774 -0.417696
-20.5028 -11.4701 -0.187049
-19.9901 -11.5352 -0.277373
-17.9304 -12.0759 -0.469079
-16.0162 -12.6717 -0.673228
-19.0859 -11.3755 0.180326
-17.612 -12.1678 -0.167007
-20.2829 -11.7912 0.0237755
-20.6039 -11.4807 0.358071
-21.3272 -11.4335 0.142812
-21.3097 -11.4374 0.125998
-21.1117 -11.5474 0.417179
-20.7752 -11.5167 0.506867
-17.772 -11.9068 0.147507
-20.6937 -11.5072 0.350292
-20.4239 -11.6329 0.381796
-20.2238 -11.7775 0.280159
-17.7948 -11.6951 0.312145
-21.0461 -11.6453 0.675262
-19.0306 -11.4078 0.657775
-20.3998 -11.7531 0.687427
-19.3355 -11.4111 0.808876
-20.7456 -11.8546 0.997548
-20.4527 -11.0416 1.4272
-17.3534 -10.3483 1.40364
-19.956 -11.3175 -1.42544
-18.3102 -11.6151 -1.47892
-19.6215 -11.3599 -0.938767
-19.5288 -11.6718 -1.09915
-19.7768 -11.6994 -0.652881
-19.7496 -11.5336 -0.712998
-17.0612 -11.8898 -0.87494
-20.9679 -11.3842 -0.720133
-19.7482 -11.7537 -0.132753
-19.9094 -11.69 -0.249773
-16.1387 -12.517 -0.800669
-20.0359 -11.7038 -0.462286
-20.0434 -11.7185 -0.107829
-19.9928 -11.675 -0.0241464
-20.3121 -11.6623 -0.321254
-18.5646 -11.4826 -0.0731536
-17.9192 -11.7698 0.400413
-20.485 -11.6002 0.413177
-19.3606 -11.3932 0.982569
-16.5626 -10.5338 2.19593
-18.4894 -11.5305 -2.24622
-19.5537 -11.3387 -1.12245
-19.5653 -11.2911 -0.914897
-20.5421 -11.4874 -0.2975
-19.2872 -11.2471 0.109794
-17.7776 -11.8616 -0.156498
-18.3499 -11.7394 0.267111
-16.8787 -10.407 2.21541
-17.0946 -12.028 -1.42019
-16.269 -12.3809 -1.55164
-18.9725 -11.0514 0.216692
-18.3903 -11.3131 -1.81883
-19.7197 -11.39 -0.741771
-20.4338 -10.9566 1.28675
-18.1035 -11.5525 -1.73681
-18.1013 -11.6697 -0.713942
-17.7026 -12.1066 -0.448198
-20.0691 -11.6247 -0.108576
-16.8522 -11.8027 -1.86814
-19.8601 -11.5127 -1.09463
-20.0528 -11.7696 0.279199
-17.1389 -12.1144 0.338292
-17.154 -11.6199 -1.68442
-19.3667 -11.4465 -0.407035
-17.565 -11.0809 -1.67071
-19.6639 -10.8632 -3.12907
-19.6606 -11.5042 -1.76913
-18.8293 -11.5684 -1.66674
-19.6353 -11.5261 -1.00663
-19.6161 -11.6787 -0.641779
-20.6087 -11.5454 -0.239659
-20.0596 -11.6411 -0.0349604
-18.134 -11.6778 0.316191
-18.7715 -11.397 -2.57503
-19.7068 -11.4227 -1.86446
-17.9023 -11.576 -1.952
-20.3237 -11.2747 -1.21709
-19.6987 -11.2668 -1.22991
-21.0148 -11.324 -0.225567
-17.554 -11.7974 -1.12204
-19.8569 -11.7937 -0.287614
-20.0336 -11.8583 0.406069
-20.2623 -11.8974 0.868367
-18.1492 -11.8525 0.192847
-20.9298 -10.6847 1.3491
-19.5229 -11.5619 -1.09483
-17.1745 -11.8873 -1.37931
-16.9805 -12.1007 -1.52844
-20.6926 -11.3294 -0.223331
-19.6691 -11.7559 -0.374927
-20.4527 -11.6001 -0.270489
-19.1721 -11.0937 0.0771317
-15.9999 -12.3423 -1.35642
-17.2449 -11.9387 -0.269469
-17.0956 -11.8699 -0.574143
-18.9864 -11.0422 -2.85853
-15.2042 -12.5802 -3.01211
-17.8843 -11.5828 -1.3798
-17.1325 -12.2085 -0.621521
-20.3816 -11.6505 0.316302
-17.8337 -11.5132 -1.45111
-19.1189 -11.5071 -0.463304
-19.6173 -11.5845 1.05374
-20.5057 -11.46 -0.454019
-17.2136 -12.1036 -0.697079
-17.1296 -11.391 -1.81798
-18.9721 -11.3576 -0.470316
-19.969 -11.7631 -0.575577
-17.5221 -11.9237 0.372658
-16.43 -12.4061 -0.391868
-20.5622 -11.3912 -0.466225
-20.6233 -11.4867 -0.501617
-20.6455 -11.3066 -0.513891
-19.8768 -11.7848 -0.668237
-18.2639 -11.8548 -0.584465
-17.757 -11.7648 -0.447104
-16.5706 -12.4909 -0.567607
-16.6755 -12.5787 -0.320608
-19.9177 -11.2865 -1.29715
-19.6427 -11.6999 -0.507998
-19.8845 -11.6562 -0.221535
-15.3339 -12.5494 -2.96216
-17.9147 -11.2755 -2.27321
-18.0339 -11.3329 -2.08839
-17.0824 -11.957 -1.39129
-20.5527 -11.2136 -0.355404
-20.5883 -11.5771 -0.242726
-20.7306 -11.5659 0.355315
-17.3903 -11.7271 -1.70877
-19.5123 -11.409 1.16614
-17.5271 -12.1197 -0.970028
-17.5449 -11.7278 -0.689466
-17.3894 -11.9393 -0.771813
-17.1555 -12.235 -0.486562
-17.1799 -11.8318 -0.341491
-16.7305 -12.1987 -0.773281
-16.3244 -12.4605 -1.01658
-19.9328 -11.6776 -0.29952
-19.1484 -10.922 -0.974451
-16.0706 -12.458 -1.26704
-18.4665 -11.6699 -1.11177
-17.0535 -12.1735 -0.840052
-17.0795 -11.8546 -1.88328
-19.0475 -11.3091 0.863857
-17.0439 -11.9151 -1.90154
-19.9582 -11.2626 -1.31197
-17.2084 -12.2315 -0.754805
-20.7032 -11.1957 -0.324378
-20.8247 -11.2042 -0.323167
-19.0997 -11.4432 0.716266
-17.7003 -11.9117 -0.540376
-17.484 -10.3706 1.52778
-16.6272 -12.1448 -0.721622
-16.1537 -12.5935 -0.917449
-19.5792 -11.1745 -1.83803
-20.4759 -11.4727 -0.235799
-17.7506 -11.9956 -0.389049
-17.8783 -11.8129 -0.366209
-16.55 -12.3434 -0.402938
-20.2511 -11.3889 -0.480385
-18.944 -11.061 -1.18365
-16.9588 -11.9298 -1.43258
-16.5698 -12.3773 -0.862037
-16.7915 -12.4061 -0.81005
-20.547 -11.3348 -0.136886
-19.0289 -11.3479 0.257504
-16.5395 -12.4192 -0.925
-19.3138 -11.4102 0.989392
-17.8896 -11.7819 -0.00829856
-16.6938 -11.9988 -1.302
-18.0718 -11.1791 -2.38313
-19.2739 -11.403 -0.255925
-18.8847 -11.4264 -1.03232
-17.4817 -11.2261 -2.54668
-20.574 -10.5541 -2.75819
-20.5753 -10.6869 -2.47118
-20.705 -11.3167 -0.361057
-20.7185 -11.3669 -0.473886
-20.7109 -11.1326 -0.238904
-20.5928 -11.1752 -0.316887
-19.364 -11.1196 -2.51386
-19.6888 -11.6762 -0.767451
-18.7393 -11.3252 -3.07332
-17.2222 -11.6973 -1.80496
-16.578 -12.4675 -0.312372
-16.2948 -12.3332 -0.725749
-20.4264 -11.3455 -1.14749
-19.6872 -11.5666 -1.50931
-18.7968 -11.2176 -2.7315
-18.0381 -11.4094 -2.83655
-17.634 -11.9783 -0.775086
-19.7626 -11.4503 -1.49451
-16.8043 -12.4054 -0.227675
-18.6634 -11.5803 -1.98342
-17.3177 -11.1963 -2.2571
-16.6155 -12.2785 -0.973738
-16.4983 -12.6125 -0.0917506
-20.9296 -11.3233 -0.405424
-19.414 -11.2295 0.471969
-19.2609 -11.2088 0.400909
-15.479 -12.1945 -1.80737
-16.2673 -12.5415 -0.947376
-20.7617 -11.2326 -0.567144
-20.5307 -11.2649 -0.834164
-19.691 -11.5726 -0.915639
-17.2324 -11.5108 -1.80595
-19.3543 -11.6196 -0.248564
-19.316 -11.5613 -0.934303
-20.4369 -10.8158 -2.2107
-20.9114 -11.342 -0.48504
-20.502 -11.5095 -0.45369
-18.9539 -11.2042 -2.36268
-17.7902 -11.6795 -0.562426
-16.4487 -12.2114 -1.20099
-16.1214 -12.3854 -1.75762
-20.624 -10.6595 -2.48599
-20.469 -10.8443 -2.37177
-20.5746 -11.3431 -0.418326
-20.1084 -10.8909 -2.15197
-18.4057 -12.0674 -0.272431
-17.5153 -12.1499 -0.829948
-17.0403 -12.0376 -1.37499
-16.5298 -12.2112 -0.516746
-15.7932 -12.1927 -1.88019
-15.0058 -12.7675 -2.55348
-20.7126 -10.9209 -1.7469
-20.6392 -11.3011 -0.527384
-19.7034 -11.1539 -2.03267
-17.4203 -11.1 -1.93718
-16.1578 -11.966 -1.49466
-16.3057 -12.7409 -0.845474
-20.6665 -11.3611 -0.240345
-20.0419 -10.847 -2.18063
-19.9049 -10.9124 -2.01664
-19.583 -11.4274 -0.881919
-17.2776 -11.6436 -1.63949
-20.8913 -11.1593 -0.692822
-18.9299 -11.5921 -1.66113
-16.5879 -12.4236 -0.513345
-17.5395 -11.5729 -1.36781
-16.2881 -12.0198 -1.28621
-18.3361 -11.3893 -1.67549
-17.4497 -12.0778 -0.715553
-17.2682 -11.8751 -1.12661
-16.6029 -12.1049 -1.08116
-17.4313 -11.7999 -1.60627
-16.2755 -12.8122 -0.512043
-17.3844 -12.0744 -0.88209
-20.8815 -11.4254 -0.414849
-20.8553 -11.4094 -0.402608
-20.8325 -11.232 -0.496287
-20.4973 -11.4711 -0.583453
-20.4857 -10.7068 -2.42559
-20.5589 -10.7319 -2.37211
-20.5225 -10.96 -1.46084
-19.3674 -11.3914 -2.38599
-19.1084 -11.1182 -2.45374
-19.0678 -11.2472 -2.3185
-19.1035 -11.3161 -2.47421
-17.8837 -11.8505 -0.34246
-16.7904 -11.8455 -1.78253
-16.4798 -11.5425 -2.33219
-14.9943 -12.694 -3.11548
-14.8206 -12.6981 -2.96171
-20.0903 -11.0029 -2.39965
-19.889 -10.957 -2.79069
-19.7686 -10.9183 -3.05547
-17.8082 -12.0358 -0.553353
-16.5816 -12.1565 -1.22477
-16.5516 -12.4362 -0.449863
-16.2687 -12.7317 -0.47952
-20.7576 -11.0181 -1.61985
-20.4007 -10.8702 -2.1519
-20.3222 -11.2043 -0.937318
-20.2021 -11.4267 -0.970637
-19.7103 -11.4051 -1.52261
-18.965 -11.3976 -2.48138
-18.5539 -11.8683 -0.657059
-17.8912 -11.9943 -0.518585
-16.5181 -12.1896 -0.911866
-16.1107 -11.8035 -2.17515
-20.8569 -10.6387 -1.67562
-20.5586 -11.5737 0.0424203
-19.949 -11.479 -0.940868
-19.6052 -11.4629 -1.87944
-17.3964 -11.1976 -2.34629
-16.301 -11.5787 -2.16414
-16.0892 -11.7545 -2.02413
-16.0816 -12.3208 -1.34549
-15.8704 -12.5237 -1.22643
-19.7883 -11.4611 -1.62695
-16.0662 -12.5783 -0.99465
-14.579 -12.7509 -3.55017
-17.7992 -11.7376 -1.288
-16.9202 -12.2005 -0.982604
-16.3434 -11.6742 -2.08302
-16.096 -12.7659 -0.68825
-20.8027 -11.1032 -0.509883
-20.6026 -11.3948 -0.319818
-20.8322 -11.105 -1.6811
-20.2874 -11.0397 -1.49608
-20.5658 -10.999 -1.63688
-20.3608 -10.7427 -2.31067
-20.5084 -10.6939 -2.37915
-19.9045 -11.1822 -2.01794
-19.8182 -10.9907 -2.44039
-17.044 -10.6305 1.35402
-19.089 -11.5088 -1.6558
-18.9954 -11.327 -2.24796
-19.0871 -11.021 -2.53463
-19.2316 -11.1808 -2.89068
-18.2502 -12.1606 -0.517939
-18.6097 -11.2191 -2.95995
-18.8121 -11.308 -3.09742
-17.7284 -11.9834 -0.57258
-17.1866 -11.3963 -2.26736
-16.7827 -12.6347 -0.445618
-16.48 -12.2341 -0.699635
-20.9245 -11.3335 -0.139787
-20.7676 -11.2954 -0.371746
-20.8904 -10.6975 -1.95963
-19.2479 -11.3436 -2.21956
-18.266 -11.6609 0.291592
-17.7107 -12.0769 -0.306906
-17.8013 -11.7431 -0.817973
-17.9129 -11.7744 -1.03477
-17.6032 -11.7354 -1.19959
-16.4241 -10.7913 1.35033
-16.4504 -12.2295 -1.06085
-15.6888 -12.0905 -2.09284
-20.5027 -11.4538 0.206547
-20.2846 -11.1661 -1.60695
-20.358 -10.7833 -2.09593
-19.6806 -10.9001 -2.36636
-17.828 -12.1037 -0.177271
-18.326 -11.3648 -1.80707
-17.8515 -12.0408 -0.242248
-17.6619 -11.8102 -0.288769
-17.6921 -12.0209 -0.672082
-17.7006 -12.0422 -0.828485
-17.6657 -11.6096 -1.12982
-17.647 -11.7217 -0.869191
-16.6942 -12.3542 -0.176173
-16.725 -12.3777 -0.730444
-16.6357 -12.0286 -0.918512
-16.1 -12.411 -1.03559
-15.9897 -12.4157 -1.18367
-20.8373 -11.4764 -0.396185
-20.3341 -10.6115 -2.66879
-18.9444 -11.5472 -0.497035
-17.6382 -11.9902 -0.289199
-17.7541 -11.7431 -0.619092
-17.2327 -11.2941 -2.22665
-16.5473 -12.0192 -1.8985
-15.7341 -12.166 -1.78777
-17.0559 -11.7068 -1.79155
-20.4872 -11.3266 -0.393956
-20.9334 -10.8663 -1.67431
-20.8897 -10.7671 -1.82957
-19.0848 -11.3227 0.347505
-20.2553 -11.3578 -1.12512
-20.6642 -10.6372 -1.95694
-20.1798 -11.006 -1.60312
-20.5356 -10.6399 -2.57663
-20.0648 -10.7959 -2.44573
-17.1247 -10.7315 1.66411
-18.9645 -11.3972 -1.76605
-18.2514 -11.5927 -0.743473
-19.0566 -11.1003 -2.69312
-17.8133 -11.8929 -0.56494
-19.1514 -11.0003 -2.92275
-18.8689 -11.1058 -2.69519
-17.7115 -11.9102 -0.80388
-18.7694 -11.0879 -2.93166
-16.5264 -12.2416 -0.643649
-17.4533 -11.1526 -2.523
-16.0897 -12.3477 -1.01678
-14.8281 -12.8225 -2.61424
-20.3316 -11.4935 -0.437555
-19.2865 -11.2627 0.134652
-20.4467 -11.1055 -1.18946
-17.4025 -10.3723 1.3703
-18.8857 -11.5845 0.281468
-17.2057 -10.6688 1.54893
-17.8352 -12.0923 -0.164673
-19.04 -11.1231 -2.64881
-17.6145 -12.0168 -0.356449
-17.7114 -11.9865 -0.597628
-17.7642 -11.8388 -0.933945
-17.7667 -11.7862 -1.00006
-17.6491 -11.8172 -0.667499
-17.6261 -11.6749 -0.979763
-17.5785 -11.7747 -0.945365
-17.3167 -11.9112 -0.81308
-17.4688 -11.9455 -1.15104
-16.7089 -12.3791 -0.457348
-16.3102 -11.6649 -2.41169
-20.6762 -10.7438 -2.14363
-17.9601 -11.9364 -0.360838
-18.9126 -10.956 -2.88441
-17.2124 -12.0437 0.182317
-17.7537 -11.9546 -0.883405
-16.5606 -12.4022 -0.964047
-16.5479 -12.2127 -0.705901
-16.8224 -11.3832 -2.51757
-16.1889 -11.6673 -1.98248
-20.8483 -11.4874 0.0386329
-19.1734 -11.5543 1.15319
-20.0719 -11.5693 -0.547087
-16.8575 -10.8591 1.61422
-18.7491 -11.5209 -0.942538
-18.2138 -11.7999 -1.11781
-17.864 -11.8291 -0.408695
-18.0905 -11.2951 -1.52159
-16.7964 -12.2694 -0.418054
-16.5239 -12.2707 -0.815399
-16.5436 -12.3148 -0.878553
-16.4743 -12.2993 -0.580852
-20.5314 -11.1427 -1.35378
-16.3932 -10.7953 1.51242
-17.5223 -12.0265 -0.506069
-20.7719 -11.314 -0.629251
-18.4635 -11.858 -0.602129
-17.7863 -11.8859 -0.565351
-16.7575 -11.672 -1.84259
-20.7547 -11.2406 -0.415242
-20.9508 -10.9348 -1.75245
-18.8585 -11.3825 0.0898061
-17.104 -10.5396 1.38088
-20.2219 -11.241 -1.59238
-18.0722 -11.689 0.376102
-18.0745 -11.8545 0.181086
-16.3371 -10.8764 1.35406
-18.286 -11.8527 -0.369498
-19.7101 -11.0661 -2.18537
-17.5878 -11.9031 -0.265024
-19.0333 -11.5405 -2.0034
-19.1638 -11.2806 -2.518
-17.8875 -11.4741 -1.65802
-16.5084 -12.2964 -0.835563
-17.0965 -11.2862 -2.03742
-16.2721 -12.4498 -1.1064
-18.911 -11.4878 0.165247
-16.9165 -10.6221 1.89919
-16.7689 -10.7507 1.63086
-18.613 -11.7736 -0.713734
-19.9115 -11.0139 -2.20403
-17.5606 -12.0563 -0.34377
-18.0628 -11.7491 -1.02366
-17.6632 -11.7356 -0.637926
-17.619 -11.7723 -0.667146
-19.127 -11.2203 -2.61758
-17.6835 -11.7141 -1.21456
-19.2386 -10.9756 -2.70309
-17.5602 -11.8289 -1.06686
-20.9318 -11.344 -0.358417
-20.2112 -11.5737 -0.239814
-16.8379 -10.4969 2.26028
-17.2512 -10.6665 1.58829
-17.1763 -10.6808 1.57907
-20.7731 -10.5345 -1.70958
-18.8001 -11.4194 0.385429
-17.0848 -10.466 1.31904
-16.9944 -10.5875 1.66356
-18.0634 -11.7136 0.249002
-17.8879 -11.9188 0.313729
-16.3753 -10.8786 1.54296
-16.4173 -10.9281 1.47232
-18.7009 -11.7153 -0.744153
-18.1068 -11.9084 -1.12363
-17.6165 -11.8942 -0.612637
-19.54 -10.7987 -2.75854
-16.8124 -12.3561 -0.360887
-16.4237 -12.2228 -0.808097
-16.654 -12.2446 -0.925704
-16.6927 -11.6976 -1.79505
-16.6278 -11.5221 -2.49636
-16.0519 -11.5911 -2.59863
-20.4878 -11.3155 -0.553141
-20.507 -11.2686 -0.778175
-20.8317 -10.9455 -1.41137
-17.2671 -10.7362 1.62901
-19.101 -11.3795 0.215512
-17.1927 -10.6303 1.73157
-17.1973 -10.5211 1.37323
-17.9326 -11.7105 0.378982
-17.4458 -12.0075 -0.290303
-16.6343 -12.4337 -0.750146
-21.1469 -11.4293 0.229756
-20.5422 -11.3206 -0.501422
-18.3953 -11.9616 -0.541164
-16.8519 -12.3947 0.552045
-18.0708 -11.7147 -1.37088
-17.2071 -11.8306 -1.51211
-16.7897 -12.3263 0.383462
-18.0744 -11.9968 -0.805438
-16.1335 -12.6128 -1.09942
-15.3805 -12.3893 -1.32843
-16.7747 -11.9839 -1.55007
-16.9915 -10.545 1.58017
-19.14 -11.3692 0.223509
-17.1212 -10.4176 1.47646
-18.8187 -11.3233 0.229516
-18.5354 -11.5693 0.268103
-18.5903 -11.3314 0.0809419
-16.3902 -10.7044 1.38882
-20.3959 -11.179 -1.09259
-20.7476 -11.0391 -1.58579
-20.9807 -10.8719 -1.7132
-20.4338 -10.9741 -1.52844
-17.2475 -12.0911 0.268614
-20.1933 -11.1172 -2.11729
-16.5384 -12.2161 0.314424
-19.6843 -11.0508 -2.26048
-18.7716 -11.5785 -1.8009
-20.2759 -10.7013 -2.80218
-16.6585 -12.4381 -0.280028
-16.9967 -11.8527 -1.28881
-18.7493 -11.0821 -2.71834
-16.8368 -11.8108 -1.61338
-16.8592 -11.3152 -2.45184
-16.388 -11.6266 -2.66508
-19.2628 -11.3914 0.869426
-20.4867 -11.461 -0.490628
-16.8005 -10.7476 1.54796
-20.6145 -11.3087 -0.566878
-20.9896 -10.8886 -1.75086
-20.5258 -11.0441 -1.57379
-17.5031 -11.9784 0.390995
-20.7683 -10.7537 -2.01056
-17.6365 -12.0687 -0.16795
-17.8872 -12.0312 -0.429274
-20.4734 -10.5386 -2.39648
-20.0797 -11.0481 -2.13605
-17.5781 -12.1424 -0.192997
-17.7751 -11.7994 -0.697221
-17.6317 -11.6935 -0.798855
-16.5468 -12.3165 -0.465485
-16.6401 -12.3897 -0.603279
-19.4329 -11.1176 -2.56668
-19.1905 -11.1345 -2.49406
-17.2145 -11.1561 -2.67692
-17.1493 -10.667 1.64825
-19.3349 -11.2199 -0.00342581
-20.2941 -11.1973 -1.04001
-20.549 -11.2883 -1.14292
-20.4831 -11.0218 -1.37944
-17.5066 -12.0652 -0.460503
-16.5841 -12.3668 -0.588569
-19.5895 -10.8481 -3.0389
-19.2426 -11.2085 0.419216
-16.9721 -10.5878 1.67211
