-20.1696 -11.1873 -0.941995
-20.6427 -11.2683 -1.09179
-20.9227 -11.2254 -1.16066
-17.4954 -11.9169 -0.310566
-20.9847 -10.7993 -0.951417
-21.0039 -11.1265 -0.728735
-18.831 -11.4934 -0.710297
-20.4376 -11.2253 -0.692088
-21.2775 -11.0203 -0.857483
-20.4091 -11.4342 -0.626253
-20.5377 -11.0833 -0.475213
-20.4837 -11.2578 -0.611751
-20.4712 -11.5121 -0.569406
-19.9243 -11.7571 -0.37795
-19.8399 -11.6317 -0.623502
-21.0844 -11.1919 -0.543983
-20.2777 -11.4205 -0.500427
-20.3939 -11.6276 -0.459155
-20.1319 -11.5555 -0.50447
-21.1371 -11.1347 -0.58298
-20.6619 -11.2345 -0.609313
-20.7994 -11.0709 -0.397065
-20.9573 -11.1022 -0.423948
-21.016 -11.0448 -0.437502
-19.2617 -11.2724 0.000740045
-18.9789 -11.2728 0.0546782
-18.9382 -11.2047 0.0641355
-21.0726 -11.1101 -0.196833
-20.7977 -11.3454 -0.124632
-18.6611 -11.3668 0.247645
-21.1781 -11.1049 0.116702
-21.0163 -11.1854 0.0994163
-21.1054 -11.1843 -0.0235375
-21.239 -11.3069 -0.0412344
-20.454 -11.428 0.0534552
-21.0234 -11.2301 0.09835
-21.2727 -11.327 0.145701
-20.5759 -11.6574 0.349965
-19.3033 -11.4187 0.902322
-19.3965 -11.2929 0.983835
-20.6967 -11.7588 0.722584
-20.7706 -11.3943 0.840745
-20.1288 -12.0035 0.842056
-17.7456 -10.262 1.86607
-17.2614 -10.3814 1.92083
-14.529 -12.698 -3.26469
-15.1807 -12.6909 -3.07779
-14.9768 -12.7772 -2.98107
-15.4743 -12.4334 -3.06846
-15.5341 -12.3795 -2.67795
-15.5407 -12.5318 -2.90423
-15.1187 -12.6415 -2.84829
-18.4506 -11.3447 -3.13818
-15.1022 -12.5913 -2.74687
-18.4761 -11.2682 -2.8878
-18.7172 -11.166 -3.04914
-18.5517 -11.2337 -2.93884
-18.8196 -10.9512 -2.8582
-20.0952 -10.5406 -2.89268
-19.7124 -10.8752 -3.05866
-15.9664 -11.6808 -2.24732
-16.3531 -11.524 -2.07307
-19.1903 -10.9842 -2.89554
-17.1318 -11.2618 -2.20324
-20.2048 -10.7053 -2.83838
-19.4049 -11.0589 -2.8308
-19.1079 -11.3638 -2.60297
-18.9132 -11.1227 -2.66318
-17.7757 -11.5814 -2.12225
-19.8831 -10.936 -2.54577
-18.8967 -11.1174 -2.57502
-19.063 -11.0765 -2.5761
-19.2369 -11.0885 -2.34934
-19.3898 -11.2256 -2.53341
-19.0768 -11.2855 -2.30003
-19.5371 -11.0611 -2.33518
-17.9577 -11.2674 -1.99511
-19.553 -10.9158 -2.39665
-15.4043 -12.8551 -1.90622
-19.558 -11.1136 -2.20706
-19.9183 -10.9319 -2.38277
-19.8269 -10.9255 -2.27584
-19.9784 -10.992 -2.18928
-19.0675 -11.3713 -2.16039
-19.8341 -11.0263 -2.2081
-19.746 -11.1326 -2.28217
-15.8568 -12.4426 -1.56971
-18.1519 -11.3114 -1.70745
-18.6543 -11.3627 -1.89249
-18.041 -11.3527 -1.65198
-19.3902 -11.2742 -2.18329
-20.6272 -10.872 -2.27931
-15.9422 -12.5758 -1.40438
-15.7699 -12.2794 -1.36899
-15.8989 -12.4751 -1.38189
-15.8919 -12.506 -1.26602
-17.1169 -11.6642 -1.29991
-17.1326 -11.8475 -1.42393
-20.0699 -11.0104 -1.79311
-18.8517 -11.5401 -1.79325
-19.0784 -11.5999 -1.80272
-19.017 -11.5638 -1.77737
-20.8383 -10.7776 -1.90933
-20.7414 -10.5518 -1.98429
-19.1198 -11.3923 -1.73986
-19.7691 -11.2454 -1.83111
-20.549 -10.7573 -1.85028
-17.3528 -11.8776 -1.19749
-20.0955 -11.032 -1.69059
-19.8993 -11.2349 -1.63586
-20.2889 -10.9308 -1.66224
-18.1553 -11.8655 -1.1567
-19.7142 -11.3504 -1.54952
-16.6748 -12.1333 -0.852128
-17.3412 -11.8706 -0.683701
-16.7479 -11.9943 -0.91867
-18.6025 -11.6699 -1.17486
-17.5196 -11.6635 -1.03504
-19.4957 -11.4542 -1.20565
-20.3215 -11.2366 -1.22864
-20.2673 -11.1682 -1.14339
-16.5758 -12.1732 -0.669288
-16.2541 -12.4624 -0.850117
-20.3416 -11.1214 -1.11011
-18.2494 -11.6636 -0.635191
-18.698 -11.4554 -0.827331
-18.2377 -11.9164 -0.672687
-19.8499 -11.4265 -0.761652
-19.7688 -11.5436 -0.833649
-19.8157 -11.4847 -0.889614
-20.0126 -11.4697 -0.983894
-16.8804 -12.0042 -0.229653
-20.1078 -11.5094 -0.679363
-17.472 -11.9344 -0.370998
-18.4499 -11.6921 -0.551088
-17.8152 -11.94 -0.5157
-17.3633 -11.8628 -0.275709
-17.4199 -11.8251 -0.253699
-18.8082 -11.2936 -0.381509
-18.6938 -11.7805 -0.711868
-18.951 -11.7824 -0.459317
-19.035 -11.3418 -0.402007
-19.7623 -11.6709 -0.622941
-20.4262 -11.3925 -0.555507
-20.3609 -11.4017 -0.46738
-20.1102 -11.455 -0.60731
-20.6255 -11.2155 -0.594145
-20.6076 -11.2825 -0.450821
-20.0382 -11.5624 -0.212618
-17.9437 -11.4637 0.122327
-17.0955 -11.9284 0.497585
-20.7928 -11.4532 -0.348714
-17.573 -12.0407 0.232553
-21.1203 -11.0659 -0.252552
-19.0553 -11.2685 -0.0367772
-17.1961 -11.949 0.144284
-16.6272 -12.1683 0.223927
-17.1789 -12.0311 0.3549
-18.7462 -11.622 0.101201
-20.4476 -11.3934 -0.142323
-20.0376 -11.7325 -0.237839
-20.7771 -11.5488 -0.103709
-20.197 -11.4249 0.0236256
-20.4804 -11.6288 -0.15361
-21.2868 -11.2157 -0.29058
-20.8381 -11.3943 -0.151893
-21.2626 -11.3885 -0.277716
-19.3204 -11.1841 0.0744569
-17.9121 -11.56 0.213543
-18.2074 -11.5706 0.225655
-18.8412 -11.285 0.170608
-17.7564 -11.9623 0.430846
-19.2777 -11.2434 0.290126
-20.8693 -11.1729 -0.0665013
-20.7873 -11.2466 -0.148594
-20.2305 -11.6826 0.0316765
-20.4544 -11.4173 0.0552146
-20.0627 -11.5642 0.0673493
-20.1499 -11.716 0.120385
-20.4169 -11.6019 0.185054
-21.2374 -11.4011 0.325258
-20.4309 -11.6276 0.0974164
-20.6269 -11.4887 0.210205
-16.9425 -10.4677 1.32796
-17.5123 -10.3595 1.10651
-16.2852 -10.6063 1.49732
-18.1874 -10.2318 1.17179
-16.7291 -10.7193 1.47358
-16.7842 -10.6215 1.24939
-16.7544 -10.3815 1.50555
-18.0837 -10.3602 1.41039
-16.7255 -10.7293 1.69849
-16.9376 -10.5906 1.68628
-17.0937 -10.7331 1.39242
-17.2237 -10.6165 1.70346
-17.8093 -10.189 1.61301
-18.4321 -10.4223 1.71882
-15.3371 -12.6673 -2.87033
-16.5702 -11.297 -2.39763
-19.7489 -10.7155 -2.89472
-19.6943 -10.5482 -3.17089
-19.091 -11.1695 -2.97799
-19.6204 -10.837 -3.08676
-15.2354 -12.6502 -2.68728
-19.7479 -10.7373 -3.02336
-18.6606 -11.1995 -3.00972
-18.5082 -11.2367 -2.65857
-19.9645 -10.8761 -2.82901
-19.6872 -10.9222 -2.8744
-20.4586 -10.6958 -2.8156
-20.4187 -10.5603 -2.72619
-20.3725 -10.8063 -2.82301
-19.2717 -11.1842 -2.62726
-20.3099 -10.6645 -2.89225
-19.8912 -11.0731 -2.42893
-19.7751 -11.0166 -2.39197
-20.6049 -10.7318 -2.57741
-19.0471 -11.2024 -2.37222
-16.7581 -11.9113 -1.72649
-20.0519 -10.9779 -2.22704
-19.6564 -11.0337 -2.34447
-20.264 -10.9763 -2.29525
-19.7638 -11.1553 -2.2883
-19.5864 -11.1298 -2.05157
-17.8344 -11.5758 -1.78946
-19.4196 -11.2259 -2.03624
-18.1286 -11.6228 -1.54027
-18.8588 -11.4986 -1.80746
-20.0497 -11.0991 -1.89639
-19.5231 -11.4618 -1.88135
-20.2861 -10.8776 -1.88047
-20.5423 -11.038 -1.92464
-19.6745 -11.0669 -1.52675
-17.6571 -11.5826 -1.33523
-16.4071 -12.0926 -1.06053
-20.899 -10.933 -1.63302
-20.2065 -11.1487 -1.59334
-18.4756 -11.5259 -1.30802
-20.5584 -10.8033 -1.61052
-15.9497 -12.5287 -0.990694
-17.1332 -11.8735 -1.04586
-19.6408 -11.4037 -1.37539
-18.2618 -11.8848 -1.193
-19.7608 -11.3574 -1.5158
-17.6785 -11.6569 -1.0081
-16.4872 -12.0911 -0.75113
-16.3619 -12.0629 -0.790335
-17.6094 -11.6949 -1.15225
-18.772 -11.4597 -1.02933
-20.5297 -11.0157 -1.42275
-20.5449 -11.0474 -1.51148
-17.1179 -12.1562 -0.605384
-17.1849 -11.9264 -0.745069
-18.2723 -11.8797 -0.732665
-17.1004 -12.0427 -0.343606
-20.0949 -11.2242 -1.06243
-19.1602 -11.4048 -0.834126
-18.9998 -11.6186 -0.787566
-19.8036 -11.4714 -0.85731
-20.9001 -11.0274 -1.00073
-17.2375 -11.9162 -0.371478
-16.4941 -12.4441 -0.232678
-17.4424 -12.1027 -0.33041
-17.8943 -11.9061 -0.266407
-20.5321 -11.286 -0.549722
-20.0605 -11.3713 -0.444749
-20.3649 -11.3516 -0.372169
-20.5818 -11.5764 -0.449978
-19.952 -11.3871 -0.463193
-17.5044 -11.9235 0.217894
-20.7196 -11.299 -0.265773
-19.1376 -11.0607 0.0516338
-19.2382 -10.9827 -0.00745243
-17.2275 -11.9848 0.286726
-17.7522 -11.8428 0.142392
-21.2829 -11.0723 -0.254513
-18.4365 -11.5039 0.164331
-20.9229 -11.3959 -0.244655
-21.0306 -11.2626 -0.257352
-21.3009 -11.3064 -0.139043
-18.8515 -11.298 0.348039
-16.86 -12.0946 0.529078
-17.2626 -11.9775 0.559033
-19.3762 -11.2341 0.268678
-18.5879 -11.1613 0.276608
-18.8882 -11.3726 0.150622
-20.7316 -11.4069 -0.0623921
-20.5484 -11.5159 0.111314
-20.434 -11.4792 -0.058016
-17.8783 -11.6649 0.491514
-20.9182 -11.5212 0.223853
-20.9255 -11.6132 0.173777
-20.8541 -11.5449 0.227538
-20.3289 -11.5773 0.209292
-20.5808 -11.6447 0.256794
-21.2225 -11.3798 0.158091
-20.7764 -11.4247 0.276375
-19.1522 -11.3762 0.659707
-20.2586 -11.6644 0.516985
-17.358 -10.5575 1.27326
-16.9949 -10.273 1.45675
-17.1113 -10.3683 1.31781
-16.6246 -10.6409 1.2916
-17.2409 -10.581 1.32487
-17.5077 -10.3625 1.43681
-20.2857 -11.8618 0.872059
-16.5938 -10.6519 1.41469
-17.2968 -10.4598 1.34268
-17.6503 -10.0591 1.73376
-16.8682 -10.5552 1.561
-17.4942 -10.1917 1.57041
-17.0874 -10.7402 1.49984
-17.2664 -10.6418 1.50843
-17.2128 -10.4852 1.44407
-17.2542 -10.5603 1.61493
-17.2062 -10.5858 1.55376
-17.2382 -10.4775 1.7321
-17.7624 -10.278 1.90942
-16.6296 -10.683 2.0432
-16.8519 -10.6781 2.09484
-17.223 -11.1073 -2.28255
-16.1191 -11.471 -2.10185
-16.2872 -11.6321 -1.96749
-16.2988 -11.747 -2.09385
-16.2896 -11.6476 -1.9036
-17.0758 -11.5611 -1.87618
-20.2153 -10.7684 -2.45735
-16.8143 -11.7203 -1.72322
-20.3751 -10.5852 -2.14433
-18.8869 -11.2718 -1.96973
-19.3711 -11.3701 -1.88701
-17.2664 -11.7613 -1.29762
-19.7059 -11.2945 -1.90152
-20.143 -10.9929 -1.98658
-19.2662 -11.3947 -1.7574
-20.126 -10.8529 -1.87867
-18.5337 -11.363 -1.59122
-20.8352 -10.7859 -1.9205
-19.7894 -10.9339 -1.72817
-20.2896 -10.967 -1.63935
-18.2442 -11.2895 -1.08193
-20.7977 -10.9232 -1.62026
-20.4935 -10.8883 -1.58269
-20.205 -11.1825 -1.31814
-18.7255 -11.6248 -1.12054
-18.2204 -11.6353 -1.14138
-18.4723 -11.672 -1.26602
-17.8011 -11.7788 -0.847308
-16.1155 -12.4655 -0.668728
-20.5347 -11.1457 -1.28689
-17.618 -11.8797 -0.980094
-17.2334 -11.8611 -0.6876
-16.8354 -12.2983 -0.502239
-18.4634 -11.631 -0.820237
-18.5221 -11.6579 -0.808575
-18.4349 -11.6387 -0.77277
-20.1318 -11.2238 -1.05501
-20.8648 -11.0246 -0.854207
-17.7821 -11.9737 -0.318622
-17.3963 -11.7713 -0.43414
-17.8008 -11.8877 -0.551509
-17.2804 -11.932 -0.357044
-17.1909 -11.9753 -0.333519
-20.5438 -11.1969 -0.87051
-18.8989 -11.2528 -0.440724
-16.6468 -12.3763 -0.135964
-20.5873 -11.2867 -0.710385
-20.7789 -11.2213 -0.626325
-19.8703 -11.6269 -0.595729
-18.0589 -11.9126 -0.182282
-19.4369 -11.3919 -0.28958
-19.9034 -11.4509 -0.389083
-20.4383 -11.3306 -0.523308
-19.2979 -11.0554 -0.0503182
-20.8963 -11.2709 -0.126407
-20.6651 -11.1829 0.0125418
-17.711 -12.0777 0.500893
-20.7491 -11.3998 0.0568581
-20.7998 -11.5653 -0.0415142
-20.919 -11.294 -0.0061938
-21.2217 -11.3994 0.01637
-21.055 -11.2436 0.175453
-20.5159 -11.7484 0.355758
-20.6922 -11.6488 0.398879
-20.9493 -11.496 0.362893
-16.5715 -10.7324 1.45302
-17.5189 -10.1687 1.28521
-19.0755 -11.3964 1.12351
-19.2322 -11.2227 1.18563
-17.578 -10.3369 1.40237
-20.1939 -11.7824 1.17712
-16.995 -10.7682 1.78985
-20.5321 -11.64 0.756887
-20.6203 -11.6648 0.831527
-16.8263 -10.6282 1.70041
-19.5876 -11.4366 1.11917
-16.9524 -10.5472 1.81008
-17.0897 -10.5098 2.0627
-15.3032 -12.4655 -2.83757
-19.5334 -11.055 -2.84913
-18.5404 -11.2002 -2.84674
-16.4204 -11.6532 -2.18179
-17.9676 -11.054 -2.30051
-18.142 -10.8911 -2.16563
-19.9935 -10.7777 -2.89465
-16.1373 -11.567 -2.07442
-19.2456 -11.2921 -2.61947
-16.2438 -11.8023 -1.9242
-18.1377 -11.0988 -2.11801
-18.0114 -11.5022 -1.94651
-17.0958 -11.6895 -1.62959
-19.8279 -11.1777 -2.22474
-18.8143 -11.587 -1.54561
-20.3242 -11.0441 -1.7676
-17.5344 -11.7306 -1.22689
-17.695 -11.7845 -1.05852
-16.4431 -12.0891 -0.918005
-20.4097 -11.0172 -1.41548
-20.9093 -11.1168 -1.51838
-16.1905 -12.5176 -0.797225
-18.2203 -11.5322 -0.873083
-16.737 -12.2435 -0.651377
-18.3094 -11.8022 -0.863338
-18.2388 -11.8647 -0.746188
-17.9413 -11.7417 -0.631887
-16.6022 -12.2072 -0.582812
-19.8363 -11.2569 -0.942881
-16.2284 -12.7092 -0.470346
-17.7343 -11.6719 -0.685535
-16.9641 -12.2519 -0.735752
-17.7657 -11.6493 -0.675887
-17.0566 -11.7772 -0.354501
-19.7921 -11.6694 -0.818714
-16.7905 -12.112 -0.456394
-16.9547 -11.9374 -0.385767
-20.1243 -11.3022 -0.620494
-20.7013 -11.1645 -0.535304
-19.8618 -11.4047 -0.427042
-20.4213 -11.3412 -0.174072
-20.4714 -11.4208 -0.174045
-20.8769 -11.329 -0.160862
-17.4277 -11.9188 0.362793
-19.0518 -11.3601 0.289138
-20.4745 -11.4687 0.133045
-20.2193 -11.5076 -0.155061
-20.6821 -11.2847 0.112018
-20.7992 -11.2198 -0.0660894
-21.0688 -11.4341 0.164571
-21.0178 -11.3386 0.0816143
-20.772 -11.5698 0.504967
-17.1824 -10.4948 1.34937
-20.359 -11.8283 0.698144
-19.4014 -11.4562 0.878063
-17.7429 -10.4218 1.59173
-17.678 -10.4473 1.97898
-15.4837 -11.7265 -2.65779
-16.1256 -11.6675 -2.44326
-17.7738 -11.0687 -2.52459
-20.4562 -10.5109 -2.91503
-16.1875 -11.7663 -1.95557
-16.8168 -11.9044 -1.95538
-18.829 -11.5106 -1.98786
-19.9691 -11.1494 -2.10134
-17.2895 -11.737 -1.46096
-19.3814 -11.4414 -1.67276
-16.9574 -11.7341 -1.32994
-16.6197 -12.1491 -0.987946
-16.4532 -12.2588 -1.26245
-20.4324 -10.7531 -1.53237
-18.3964 -11.5146 -1.02902
-18.384 -11.6816 -0.953906
-19.7241 -11.3346 -1.11581
-17.896 -11.8029 -0.762458
-16.1282 -12.3037 -0.427987
-20.0577 -11.4532 -0.79376
-20.4136 -11.0895 -0.825181
-16.88 -12.3875 -0.285554
-18.7458 -11.3424 0.0786558
-19.0177 -11.3374 0.11465
-18.9157 -11.3655 0.234242
-18.4438 -11.4721 0.270065
-19.2616 -11.5071 0.662335
-21.0693 -11.296 0.224755
-19.1675 -11.2788 0.708874
-19.4149 -11.4836 0.840615
-15.0166 -12.4542 -2.92185
-17.2845 -11.1695 -2.57698
-16.4411 -11.5068 -2.10336
-17.0582 -11.2907 -2.24278
-16.206 -11.6092 -1.9751
-17.8147 -11.2516 -2.17613
-16.4773 -11.7927 -1.79968
-18.6643 -11.4568 -2.19787
-15.9944 -12.5109 -1.11486
-19.8868 -11.3768 -1.36856
-17.5342 -11.9725 -0.813495
-16.6958 -12.3422 -0.520461
-17.29 -11.7647 -0.182758
-17.7542 -11.797 0.0657555
-19.9008 -11.5355 -0.249697
-19.2963 -11.2922 0.222923
-20.949 -11.045 0.0139377
-20.3183 -11.8411 0.0928522
-19.3688 -11.3745 0.589953
-19.5819 -11.4659 0.776884
-17.204 -10.4133 1.48806
-14.6504 -12.8949 -3.20563
-19.8627 -11.1911 -1.32289
-18.8317 -11.2 0.293008
-20.4958 -11.6351 0.062023
-19.2408 -11.3106 0.731565
-17.2165 -10.5157 1.33619
-16.926 -11.5706 -2.27682
-18.3064 -11.182 -2.29618
-17.031 -11.6992 -1.94984
-15.8492 -12.2463 -1.47013
-19.9817 -11.6912 -0.222168
-17.2987 -10.3612 1.41707
-17.6761 -10.2468 1.68913
-17.1064 -10.3557 1.60928
-16.8272 -11.9343 -1.74561
-18.0481 -11.378 -1.9715
-19.6778 -11.3759 -1.08476
-19.9274 -11.36 -0.986616
-20.0507 -11.6676 -0.589932
-19.6115 -11.0871 1.24883
-17.1901 -11.5901 -1.90365
-17.305 -11.5136 -1.62279
-17.3548 -11.9939 -0.86821
-17.9969 -10.581 1.73523
-17.1635 -11.8898 -0.397061
-20.5544 -10.5939 -2.64822
-20.9271 -10.7608 -1.93077
-19.9324 -11.02 -2.34766
-19.4432 -10.9629 -3.02904
-20.096 -10.9755 -2.36219
-19.3678 -10.9763 -2.88967
-19.8162 -11.1714 -2.46865
-20.5277 -10.8475 -1.64599
-20.2827 -11.03 -1.79849
-20.9845 -10.9553 -0.868004
-19.0223 -11.3111 -2.76266
-19.0769 -11.2155 -2.51533
-18.8251 -11.1574 -2.69297
-18.5365 -11.2113 -2.75579
-21.1017 -11.0705 -0.510063
-20.9301 -11.0636 -0.475753
-19.8086 -11.2556 -1.69012
-20.8164 -11.2979 -0.567624
-20.3214 -11.3401 -1.20263
-18.0608 -11.2733 -3.19538
-18.1562 -11.2122 -3.20431
-19.0208 -11.3711 -2.32088
-18.8624 -11.2056 -2.24401
-18.1289 -11.383 -3.0598
-20.5123 -11.4067 -0.134509
-18.9531 -11.5098 -1.83434
-18.7195 -11.5502 -1.99858
-20.6204 -11.3653 0.0196101
-19.858 -11.3452 -0.518241
-17.8495 -11.4715 -2.04213
-18.5782 -11.5239 -1.07968
-20.467 -11.6332 0.228708
-18.8353 -11.6028 -1.05394
-18.3383 -11.7648 -0.727558
-18.3349 -11.6326 -0.812988
-16.1518 -11.7447 -2.22626
-19.4269 -11.296 0.831694
-19.2812 -11.4767 0.664846
-16.8421 -11.6884 -1.26736
-17.2867 -11.8262 -1.02179
-16.8728 -11.7658 -1.41782
-17.1418 -11.8637 -0.945891
-17.1288 -11.6935 -0.894031
-17.2287 -11.9144 -0.966985
-17.1765 -11.7017 -0.945059
-17.1067 -11.7804 -0.898833
-16.9724 -11.7918 -0.605911
-16.9223 -11.7487 -0.880433
-17.03 -12.0903 -1.00328
-16.8664 -12.03 -0.897319
-19.1827 -11.3868 1.55063
-17.059 -11.9331 -0.96404
-17.1009 -12.1084 -0.930364
-16.9384 -11.8451 -0.902064
-17.0985 -12.0086 -0.495172
-15.8527 -12.1813 -1.86493
-15.9092 -12.3832 -1.68628
-15.9004 -12.1864 -1.70253
-15.8312 -12.3929 -1.45192
-15.831 -12.3063 -1.73025
-15.8498 -12.3482 -1.62193
-15.9275 -12.1994 -1.49036
-15.8427 -12.3925 -1.35733
-16.0333 -12.2997 -1.40231
-17.4923 -11.9564 0.327497
-17.7875 -10.2968 1.61632
-16.284 -12.8139 -0.657649
-16.0982 -12.5445 -0.877672
-20.3833 -10.408 -2.66672
-20.0565 -10.6182 -3.15375
-20.7645 -10.494 -2.46098
-19.9635 -10.8792 -2.4384
-20.5074 -10.7399 -1.78843
-19.6668 -11.0904 -2.38349
-20.068 -10.8359 -2.12225
-20.268 -11.1415 -1.74353
-19.4479 -11.0393 -2.5412
-20.9009 -10.9896 -0.757949
-19.3368 -11.2532 -2.51828
-18.6455 -11.0803 -3.11736
-19.2957 -11.1457 -2.4946
-20.025 -11.1251 -1.98458
-19.019 -11.2529 -2.84453
-18.7158 -11.0818 -2.72874
-19.0575 -11.2582 -2.35441
-18.8399 -11.1586 -2.41778
-20.9899 -11.1005 -0.656708
-18.8826 -11.1717 -2.63158
-18.9274 -11.4054 -2.16967
-18.0802 -11.4235 -3.05712
-18.1463 -11.5574 -3.17201
-20.6187 -11.1283 -0.608645
-21.1706 -11.3082 0.201479
-19.8695 -11.3743 -1.40136
-21.0255 -11.3119 -0.106215
-20.7546 -11.1852 -0.446536
-19.1636 -11.3189 -1.94507
-20.3503 -11.5279 -0.511308
-19.1269 -11.3518 -1.89588
-18.9885 -11.5012 -1.84251
-19.6058 -11.4849 -0.965911
-17.3098 -11.3208 -2.2653
-20.7081 -11.3844 0.155761
-20.5675 -11.4951 -0.130039
-17.7815 -11.5163 -1.98809
-20.5184 -11.5402 0.077825
-20.9383 -11.507 0.294961
-18.378 -11.4213 -1.71946
-18.2456 -11.34 -1.59199
-20.526 -11.4981 -0.0437847
-17.6116 -11.2772 -2.03771
-16.8733 -11.295 -2.66286
-20.1608 -11.5115 -0.196822
-19.8864 -11.5724 -0.292277
-20.2781 -11.5042 -0.065905
-19.1408 -11.2988 -0.390944
-18.8029 -11.5391 -0.851845
-18.9611 -11.511 -0.855777
-18.7838 -11.5748 -0.762158
-20.6657 -11.5102 0.562204
-19.4025 -11.0481 -0.0930881
-18.7478 -11.5705 -0.86829
-18.3612 -11.5798 -1.13193
-20.1577 -11.7798 0.120063
-18.7387 -11.755 -0.452959
-18.3079 -11.6187 -0.739713
-18.2975 -11.6422 -0.858697
-18.3957 -12.0441 -0.333959
-18.4841 -11.7786 -0.504176
-17.5504 -11.6443 -0.968264
-19.2461 -11.3134 0.774704
-16.285 -11.7679 -1.58392
-16.9982 -11.9056 -1.44665
-15.9146 -11.7799 -2.13569
-17.0846 -11.8785 -1.6186
-16.2161 -11.7347 -1.99099
-19.0992 -11.3338 0.774933
-19.0151 -11.3681 0.871652
-18.9428 -11.3785 0.876131
-18.4831 -11.3511 0.252941
-19.1456 -11.4589 0.873583
-19.1044 -11.422 0.992418
-17.5195 -11.7751 -0.639977
-17.9014 -11.5409 -0.0290187
-18.2421 -11.8275 -0.102642
-18.2315 -11.5884 0.503279
-18.252 -11.5691 0.400385
-17.6531 -11.9113 -0.315228
-17.8857 -11.8677 0.20166
-17.1931 -11.8294 -0.435857
-14.8959 -12.7524 -2.76046
-18.084 -10.5303 1.39259
-17.3935 -11.8319 -0.285785
-17.8368 -11.6659 0.113233
-15.9816 -12.2233 -1.72642
-14.9398 -12.691 -2.83089
-17.3578 -11.7656 -0.372987
-17.3641 -11.9468 -0.37948
-16.6851 -12.0983 -0.929444
-15.9496 -12.4352 -1.59698
-15.906 -12.3792 -1.2787
-15.9753 -12.3764 -1.43225
-17.0924 -10.2821 1.38812
-17.187 -10.4998 1.43888
-17.4032 -10.528 1.61959
-17.0712 -10.4875 1.42972
-17.0141 -10.7958 1.53083
-16.5905 -10.9204 1.36544
-20.3606 -10.3657 -3.07977
-20.3277 -10.6258 -2.86031
-19.9874 -10.5586 -2.69338
-20.314 -10.8841 -2.47446
-21.0538 -10.7877 -1.58806
-19.2954 -11.0595 -2.76784
-19.5898 -11.1532 -2.25706
-19.6853 -11.2035 -2.20741
-19.1968 -11.2392 -2.46552
-18.9896 -11.3161 -2.64162
-18.634 -11.1456 -3.05516
-20.7557 -10.8936 -0.923227
-20.1513 -11.2025 -1.6067
-18.8741 -11.4335 -2.64228
-21.555 -11.0706 -0.285181
-20.5972 -11.2451 -0.797768
-17.8153 -11.4662 -3.21611
-19.9745 -11.358 -0.937111
-18.9703 -11.4543 -2.1518
-20.0865 -11.2334 -1.0063
-18.8695 -11.4133 -2.06788
-20.1351 -11.4267 -0.619257
-19.5917 -11.5781 -1.22006
-19.6141 -11.3299 -1.33064
-19.5883 -11.4916 -1.11326
-19.8834 -11.4304 -0.815207
-17.455 -11.2771 -2.35635
-19.9806 -11.4854 -0.421864
-20.4033 -11.4709 0.0912526
-17.359 -11.1659 -1.99242
-19.9257 -11.5067 -0.333559
-20.4889 -11.6847 0.432699
-17.9864 -11.7246 -1.62101
-16.2269 -11.2509 -2.62424
-20.6878 -11.6979 0.944218
-18.2717 -11.6383 -1.13973
-18.9735 -11.2556 0.150728
-17.3706 -11.6354 -1.53426
-16.2105 -11.6 -2.09192
-18.0357 -11.9251 -0.699765
-17.6314 -11.4947 -0.89585
-17.7113 -11.7722 -0.558497
-16.0884 -11.7405 -2.10571
-19.1913 -11.4945 0.721573
-19.0665 -11.475 0.911251
-19.3089 -11.1541 0.923978
-17.1031 -11.89 -0.79267
-15.4302 -12.397 -2.95452
-15.2627 -12.3539 -3.08381
-14.8022 -12.6403 -3.16311
-17.2179 -12.2321 -0.656858
-14.7833 -12.5789 -2.96948
-15.0103 -12.5191 -2.83977
-17.2235 -11.9882 -0.249825
-14.937 -12.6893 -2.78856
-16.6771 -12.3906 -0.194925
-17.4471 -10.1522 1.41235
-17.2226 -10.345 1.23504
-17.3477 -10.5523 1.13414
-17.0964 -10.397 1.46458
-17.3688 -10.4216 1.71605
-16.8786 -10.483 1.39119
-16.7491 -10.6057 1.49924
-16.4093 -10.8706 1.2583
-20.4256 -10.8582 -2.47434
-18.6128 -11.1262 -2.79706
-18.9256 -11.2122 -2.66481
-18.0556 -11.3477 -3.1855
-20.7383 -11.0012 -0.694831
-18.0615 -11.2996 -2.89754
-19.8552 -11.4117 -1.22018
-18.0491 -11.4049 -2.8953
-20.7728 -11.1056 -0.319862
-19.0442 -11.4064 -1.91389
-21.1552 -11.528 0.305597
-19.7707 -11.4296 -0.8913
-18.938 -10.9901 -1.12284
-19.7954 -11.4991 -0.77912
-20.2966 -11.5679 -0.146244
-17.4247 -11.1946 -2.20444
-17.3602 -11.3045 -2.13529
-19.9631 -11.5658 -0.397257
-17.4121 -11.1247 -2.0343
-17.4396 -11.1314 -2.10218
-19.1922 -11.2703 -0.442179
-19.9381 -11.9698 0.15551
-17.6257 -11.5203 -1.49906
-16.9881 -11.5732 -2.22476
-20.5369 -11.6554 0.985675
-20.3839 -11.5682 0.626001
-20.2372 -11.7569 0.701455
-18.7813 -11.4492 0.278612
-18.2143 -11.5688 -0.618533
-16.5357 -11.6999 -2.00747
-16.2224 -11.7253 -1.99393
-16.1916 -11.6204 -2.06948
-18.243 -12.027 -0.702963
-19.3007 -11.242 0.925695
-18.4442 -10.5885 1.35896
-17.5365 -12.0066 -0.509516
-16.351 -11.9276 -1.11548
-17.9105 -10.2033 1.50241
-16.496 -12.1319 -0.753528
-17.2485 -12.1795 0.427012
-20.5992 -10.6628 -2.42252
-20.0757 -10.9527 -2.15685
-19.954 -10.7997 -2.24193
-20.4989 -10.9013 -1.55999
-20.8434 -11.1124 -0.638687
-19.8169 -11.3628 -1.70779
-20.9593 -11.2975 -0.264422
-19.6172 -11.4585 -1.35861
-19.9806 -11.3154 -0.692356
-21.3283 -11.3876 0.175762
-20.3757 -11.5204 -0.3742
-20.7065 -11.4727 0.24438
-20.1734 -11.7175 0.052836
-20.3189 -11.7873 0.290133
-20.1389 -11.7975 0.103625
-17.9535 -11.5091 -1.4744
-16.6279 -11.4964 -2.3184
-16.9561 -11.5731 -1.80536
-15.8986 -11.5905 -2.66642
-16.3472 -11.6308 -2.11468
-19.4647 -11.4743 0.83024
-16.0256 -11.7126 -2.16173
-16.032 -11.5739 -2.16039
-16.6275 -11.823 -1.22202
-17.774 -12.0032 -0.391667
-17.3492 -12.0573 -0.262298
-17.1102 -11.7791 -0.447189
-17.9132 -10.4255 1.49557
-16.81 -12.279 -0.535592
-16.5895 -12.5038 0.0313837
-19.7599 -11.1698 -1.53835
-18.1421 -11.1097 -2.2083
-18.8078 -11.5917 -1.95094
-17.3118 -11.3437 -2.07884
-20.1507 -11.6522 -0.15913
-20.3409 -11.8159 0.208461
-18.0179 -11.6761 -1.39026
-17.6403 -11.4576 -1.08275
-18.2286 -11.6457 -0.596543
-19.2964 -11.2958 0.535726
-19.4607 -11.1614 0.914207
-19.2671 -11.3554 0.859533
-15.4926 -11.85 -2.70523
-19.4701 -11.4527 0.930282
-19.3312 -11.2549 0.622271
-17.9347 -11.7252 -0.644443
-17.6627 -11.9915 -0.251649
-16.6478 -12.0802 -1.11727
-14.8999 -12.5671 -2.7971
-17.7353 -11.9098 -0.0887761
-15.5927 -11.9967 -1.96627
-17.2882 -11.879 -0.370567
-16.3519 -12.1633 -0.926801
-16.698 -12.1279 -0.623063
-20.5618 -10.6028 -2.61479
-19.8926 -11.4182 -1.30165
-18.04 -11.148 -2.04412
-17.8423 -11.2855 -2.35736
-19.0048 -11.284 -0.904182
-20.222 -11.5596 0.299185
-16.1665 -11.6023 -2.13342
-17.0708 -11.7158 -1.40607
-17.073 -11.778 -1.64384
-18.1637 -11.8378 -0.00115933
-17.0289 -11.8466 -0.430087
-20.0482 -10.6472 -2.80979
-20.7901 -10.8363 -1.98074
-20.0415 -11.6369 -0.296354
-19.2748 -11.2027 -0.461848
-15.7763 -11.7176 -2.52286
-16.1294 -11.4285 -1.92726
-17.105 -12.0027 -1.576
-19.1685 -11.4156 0.788134
-16.937 -11.838 -1.28297
-16.7191 -11.9296 -1.42249
-17.3896 -10.4943 1.25126
-19.8414 -11.5258 -1.19099
-18.4695 -11.388 -1.68797
-18.9992 -11.1809 0.189944
-19.5883 -11.2471 0.720159
-16.1204 -12.6148 -1.21438
-19.6243 -11.4171 -0.855255
-18.7447 -11.4258 -1.03423
-19.1953 -11.3506 -0.734438
-19.1781 -11.3141 -0.271464
-16.8249 -10.5146 1.97766
-18.4151 -11.6301 -0.702595
-19.5959 -11.0954 0.846474
-17.4443 -11.2261 -1.6305
-16.2894 -11.8157 -2.04852
-16.2937 -11.8343 -1.66501
-17.5174 -10.1314 1.33326
-17.8436 -10.3085 1.73764
-17.3664 -12.1732 -0.295494
-21.0609 -11.6124 0.750724
-21.011 -10.7179 -1.6891
-20.784 -11.3401 -0.788321
-20.8497 -11.2246 -0.599021
-20.6358 -11.4924 -0.329505
-20.4525 -11.418 -0.44553
-20.3714 -11.4252 -0.559908
-20.4026 -10.8948 -2.39156
-20.2502 -10.8318 -2.39723
-20.3546 -10.9371 -1.95902
-20.1108 -10.9415 -2.36428
-20.195 -10.8423 -2.43451
-20.0307 -10.9967 -2.25244
-19.8489 -11.574 -0.51606
-19.7629 -11.0526 -2.05842
-19.8816 -11.0039 -2.40926
-19.7061 -10.9298 -2.89278
-19.4982 -10.8639 -2.95336
-19.4627 -10.9199 -3.22082
-19.2256 -11.4044 -1.62055
-19.3224 -11.2367 -2.6415
-18.9837 -11.1722 -2.64123
-18.666 -11.5267 0.105073
-17.6651 -10.4021 1.57679
-19.0983 -11.2737 -2.54
-19.0467 -11.2243 -2.24551
-18.8496 -11.1007 -3.07071
-19.1399 -11.0171 -2.70038
-19.1228 -11.1282 -2.84344
-18.8284 -11.2117 -3.03937
-18.6349 -11.5421 -1.00979
-18.8203 -11.2037 -2.76646
-18.5421 -11.4908 -1.05729
-18.6874 -11.4032 -1.28054
-18.6009 -11.454 -1.52516
-17.5278 -10.4316 2.19909
-18.1769 -11.7022 -0.78839
-18.288 -11.5949 -0.809247
-18.2044 -11.2947 -1.6054
-18.5814 -11.2865 -3.02766
-18.2993 -11.6055 -0.785556
-18.4129 -11.7175 -1.10756
-18.0962 -11.6477 -1.68024
-18 -11.727 -1.81699
-18.1882 -11.4186 -2.84195
-17.8506 -11.4863 -3.18075
-18.0351 -11.4131 -3.02393
-16.8734 -10.2459 2.39884
-17.2817 -11.1624 -2.31954
-17.1231 -11.8455 -0.4813
-17.1796 -11.8904 -0.867479
-17.0996 -11.8086 -0.798016
-17.0136 -11.798 -0.991729
-16.9652 -11.7239 -0.714494
-17.0812 -11.8516 -0.705342
-16.9395 -11.7559 -0.749026
-17.0853 -11.7013 -1.55019
-17.0061 -12.0245 -1.05638
-17.1175 -11.8782 -0.809387
-16.7508 -11.3225 -2.7496
-16.7628 -12.0556 -0.313281
-16.579 -12.1897 0.175954
-16.3592 -11.6369 -2.0405
-16.3393 -12.5879 -0.651398
-16.1288 -12.177 -1.58722
-15.9977 -12.4505 -1.30933
-16.0916 -12.2146 -1.437
-16.1288 -12.1834 -1.63404
-15.891 -12.3482 -1.57885
-15.884 -12.2543 -1.52147
-16.0105 -12.3125 -1.63775
-15.4007 -12.5867 -2.99458
-14.9762 -12.3968 -3.00945
-15.1512 -12.3457 -3.19308
-14.8734 -12.5671 -3.04987
-21.3897 -11.051 0.0483773
-20.8404 -10.7572 -1.76112
-20.7436 -11.3975 0.282137
-20.691 -11.1507 -0.847061
-20.8115 -11.5479 0.285194
-20.5375 -11.2915 -0.591189
-20.678 -11.287 -0.315563
-20.738 -10.7662 -2.12337
-20.6583 -10.5439 -2.49978
-20.5102 -10.6024 -2.97209
-20.4012 -11.3929 -0.485964
-20.261 -11.7238 -0.0174949
-20.2922 -10.8175 -1.89558
-20.4208 -11.1996 -0.945026
-20.542 -11.1924 -1.15801
-20.2413 -10.9502 -2.40771
-20.233 -11.6865 0.134455
-20.1504 -11.3814 -0.638049
-20.075 -11.3207 -1.32854
-19.9484 -11.7664 -0.181775
-19.9183 -11.5883 -0.196468
-19.8253 -10.6431 -2.61624
-19.9457 -10.7604 -2.53277
-19.8555 -11.4084 -0.897409
-19.7293 -11.1725 -1.3434
-19.1055 -11.303 0.946313
-19.1247 -11.4976 0.951335
-19.0645 -11.5031 0.933823
-19.0425 -11.5041 0.755613
-19.553 -11.5882 -1.29525
-19.2093 -11.0541 0.164119
-19.1812 -11.4089 -1.94564
-19.1132 -11.2832 -0.330764
-19.2503 -11.1256 -2.55221
-18.0305 -10.4039 1.2045
-19.2233 -11.1255 -2.74201
-19.1002 -11.3252 -2.38515
-17.9316 -10.4985 1.93719
-17.6817 -10.1114 1.61897
-19.25 -11.2855 -2.48561
-19.1148 -11.1398 -2.97949
-18.994 -11.2813 -2.74073
-18.9745 -11.4865 -2.13807
-18.9928 -11.4145 -1.78949
-18.4224 -11.4902 0.169962
-17.6671 -10.5336 1.49411
-18.916 -11.0565 -2.88675
-18.6971 -11.5817 -1.04329
-18.5923 -11.5357 -0.982976
-18.5377 -11.4194 -1.19641
-18.622 -11.404 -1.36071
-18.5813 -11.4548 -2.29265
-18.8435 -11.4991 -1.97177
-18.4986 -11.1511 -3.10513
-18.2204 -11.5293 0.237619
-17.5243 -10.569 1.85929
-18.2781 -11.8751 -0.423074
-18.0095 -11.7467 -0.142892
-17.3019 -10.4333 1.33873
-17.2623 -10.4184 1.28799
-17.0465 -10.5265 1.48954
-17.8527 -11.7979 0.258866
-17.8279 -11.9113 -1.1429
-18.0014 -11.8963 -0.97201
-17.8904 -11.43 -2.15616
-16.9437 -10.65 1.47893
-17.446 -11.1168 -2.38435
-17.4494 -11.8758 0.485171
-17.4556 -11.9026 -0.492376
-17.2051 -11.8724 -0.808555
-17.1714 -11.8526 -1.30988
-16.9575 -11.8353 -1.47607
-16.408 -10.9402 1.34134
-16.9932 -11.8736 -1.14003
-16.8456 -12.1909 0.568596
-16.6352 -12.3505 0.0998838
-16.5586 -12.1483 -0.880341
-16.3836 -11.5542 -2.02645
-16.501 -12.4392 -0.678227
-16.2355 -11.6936 -2.38194
-16.2494 -12.5139 -0.658853
-16.0401 -11.9326 -2.15812
-15.9096 -12.4378 -1.28361
-15.839 -12.303 -1.43774
-16.0424 -12.412 -1.32144
-16.0579 -12.3573 -1.57037
-15.9103 -12.4127 -1.45565
-16.0442 -12.3794 -1.59177
-15.9673 -12.3019 -1.65306
-15.7655 -12.181 -1.94573
-15.0038 -12.6894 -2.79866
-21.2816 -11.2145 0.0455718
-21.0417 -11.3607 0.210369
-20.9457 -11.0244 -0.320522
-20.7975 -10.8993 -1.90575
-20.7713 -11.0526 -0.550461
-20.627 -10.5603 -3.11808
-20.6817 -11.0092 -1.43696
-20.5123 -11.6647 0.0734392
-20.3724 -11.1473 -0.864232
-20.6019 -11.0633 -1.6673
-20.5281 -10.7987 -1.65629
-20.2486 -11.7181 1.06164
-20.2859 -10.8166 -1.75203
-19.9118 -11.0236 -1.81538
-19.9501 -10.5719 -2.74865
-19.8103 -10.6649 -2.36091
-19.2498 -11.5397 0.910168
-19.2766 -11.5487 0.849328
-19.1884 -11.3664 -2.05027
-18.8089 -11.1709 0.291813
-18.7668 -11.4084 0.357053
-18.8639 -11.4689 0.227881
-19.131 -11.0544 -2.70217
-18.9525 -11.2632 -1.86425
-18.5618 -11.6469 -1.89906
-17.4655 -10.4019 1.50535
-18.344 -11.2805 -1.48602
-18.2087 -11.7769 0.172597
-18.1198 -11.6427 0.284988
-17.3645 -10.2326 1.44605
-18.322 -11.4289 -1.30783
-17.2372 -10.4117 1.44688
-18.2606 -11.877 -0.685266
-18.0015 -11.8218 -1.29998
-17.9451 -11.517 -1.85324
-17.6889 -11.6131 -1.03949
-16.7865 -10.7433 1.70602
-16.8194 -10.7188 1.57623
-16.8562 -10.6191 1.50712
-17.3345 -12.0033 -0.26115
-17.5171 -11.0825 -1.86877
-17.5842 -11.6574 -0.491642
-17.3391 -12.155 -0.486211
-17.2946 -11.2272 -2.30329
-17.2007 -11.9627 -0.41541
-17.1231 -11.6269 -0.428459
-17.1788 -11.8598 -1.16096
-17.0691 -11.9738 0.289312
-17.0576 -11.9562 -1.74957
-16.685 -12.2581 -0.361331
-16.7071 -12.1307 -0.968206
-16.6406 -12.5125 -0.341045
-16.4662 -11.7102 -2.01253
-16.3571 -11.8568 -1.8506
-16.1851 -11.651 -2.09097
-16.2216 -12.6169 -0.564562
-16.1403 -11.5681 -2.0064
-15.0002 -12.4651 -2.98613
-15.0143 -12.6548 -3.13288
-14.6104 -12.4839 -3.11991
-21.1978 -11.3028 0.189125
-20.8536 -11.3359 -0.654072
-20.5401 -11.1013 -0.852344
-20.7311 -10.714 -2.12893
-20.473 -10.9258 -1.28826
-20.7368 -10.7832 -2.01672
-20.5127 -11.6456 0.684926
-20.1359 -11.7642 0.281761
-20.1503 -10.8042 -2.30196
-19.5186 -11.4153 1.01269
-20.0904 -11.2415 -0.784918
-20.1245 -11.4701 -0.532747
-19.9725 -11.0396 -1.95662
-20.0244 -11.0731 -2.06099
-19.9747 -11.2096 -1.46642
-19.8499 -11.6112 -0.50023
-19.8244 -10.8479 -2.50644
-19.9691 -10.783 -2.58676
-19.8113 -11.3542 -1.27857
-19.5764 -11.0803 -1.74506
-19.7863 -11.0051 -2.39329
-19.7184 -11.3297 -1.00256
-19.1987 -11.1835 -2.16223
-19.1884 -11.101 -2.9177
-19.0552 -11.5159 -1.82771
-18.2412 -11.3684 -1.62334
-17.3642 -10.5943 1.50687
-17.9317 -11.179 -2.25007
-18.1327 -11.6443 -1.13831
-18.1655 -11.6755 -0.996083
-17.8092 -11.4253 -1.54733
-17.3511 -11.1524 -2.00378
-17.317 -11.9389 -0.213751
-17.3904 -12.0114 -0.300723
-16.7198 -12.1315 -1.17592
-16.6636 -12.0766 -1.09519
-16.6114 -11.9028 -1.27799
-16.6124 -11.9889 -1.0635
-16.5539 -12.3296 -0.769127
-16.4084 -11.5644 -1.95257
-16.2434 -11.5191 -2.02794
-15.9902 -11.7142 -2.20012
-14.588 -12.6368 -3.39204
-21.0336 -11.4646 -0.0477208
-21.0117 -10.8375 -1.71348
-20.8945 -11.2576 0.0227862
-20.4842 -11.5004 0.780572
-20.432 -10.5305 -2.84563
-20.357 -11.5887 -0.41763
-20.3 -11.7366 0.903996
-19.6498 -11.2772 1.25373
-20.1387 -11.1586 -1.46297
-20.357 -11.0668 -1.80523
-20.0701 -11.9526 0.0905823
-19.9873 -10.7385 -2.54403
-19.9259 -11.3262 -1.15692
-19.347 -11.4007 0.846193
-19.7913 -11.6005 -0.382476
-20.056 -10.6414 -3.00349
-19.4354 -11.2552 0.510968
-19.8851 -11.4255 -0.730185
-19.744 -11.3077 -1.17257
-19.1771 -11.5083 0.486094
-19.759 -11.7286 -0.68751
-18.8929 -11.458 -1.73543
-18.7546 -11.3705 -2.46786
-18.2195 -11.3466 -2.20541
-18.0179 -11.0314 -2.3801
-17.3171 -10.2852 1.25528
-17.6036 -11.7023 -1.10527
-17.394 -11.8109 -1.0833
-17.593 -11.4418 -2.03543
-17.1654 -11.2964 -2.2267
-17.265 -11.287 -2.35939
-17.1179 -11.189 -2.29143
-16.7647 -12.1526 -0.622725
-16.7092 -12.0388 -1.05465
-16.6106 -11.9974 -1.13734
-16.4078 -11.5293 -2.57481
-16.5511 -11.7183 -1.7858
-16.4531 -12.1859 -0.503574
-16.4532 -11.8325 -1.90138
-16.404 -12.1527 -0.749809
-16.2944 -11.3214 -2.68446
-16.1302 -11.6824 -2.22496
-15.4114 -12.017 -2.12217
-20.1992 -11.4215 -1.10179
-20.0983 -11.8002 0.898261
-20.1697 -11.6824 -0.244213
-19.4166 -11.384 0.700005
-20.0889 -11.5608 -0.341059
-19.4105 -11.4438 1.03893
-19.4661 -11.3943 0.92747
-19.675 -11.5348 -0.643464
-18.3189 -11.9056 -0.620401
-17.6408 -11.9476 -0.263477
-16.8051 -12.036 -1.13812
-17.036 -11.8215 -1.71994
-16.8563 -11.6826 -1.92679
-16.6704 -12.356 -0.334457
-16.7016 -12.2964 -0.822819
-16.6202 -12.6187 -0.366054
-16.2596 -11.6711 -2.39537
-14.6197 -12.6647 -3.32735
-20.2646 -11.8121 0.065376
-17.3237 -10.3136 1.48056
-18.054 -11.4045 -1.80742
-17.8715 -11.5257 -0.848284
-16.8757 -12.2059 -0.677571
-16.7934 -11.8568 -1.81148
-16.61 -12.0219 -0.679623
-16.5867 -12.1858 -1.11749
-16.1046 -11.5764 -2.33212
-16.0074 -12.6216 -0.992252
-15.1576 -12.4664 -2.71509
-20.182 -11.5104 -0.222408
-18.7206 -10.9106 -1.33018
-18.0603 -11.3886 -1.69384
-16.8389 -11.6896 -2.14886
-16.7748 -11.8545 -1.31268
-16.4298 -12.047 -1.37897
-16.0084 -12.4963 -0.911669
-14.6579 -12.589 -3.05911
-14.3967 -12.7261 -3.3048
-20.3248 -10.7248 -3.01422
-20.2921 -11.5683 -0.24113
-19.8039 -11.3086 -1.30912
-18.5536 -11.8791 -0.591367
-17.4646 -11.8798 -0.974132
-17.1676 -11.7607 -1.21746
-17.0344 -11.6604 -2.11068
-19.7089 -11.6847 -1.12596
-19.2773 -11.3097 -0.48799
-19.1803 -11.3514 -0.88894
-17.6479 -10.1554 1.34939
-18.1902 -11.0217 -2.22603
-17.6111 -10.3277 1.16112
-16.5497 -11.903 -1.93114
-17.8652 -10.2694 1.63098
-21.0205 -11.2735 0.505922
-21.3282 -11.0393 -0.0478944
-21.1153 -11.2209 0.033978
-21.0639 -11.2482 -0.0517293
-20.537 -11.7271 0.493224
-17.4629 -10.3988 1.63762
-20.9897 -11.4463 -0.027512
-19.1161 -11.5218 0.688234
-20.7634 -11.1792 -0.442176
-20.33 -11.4018 -0.109036
-20.3478 -11.4737 -0.212601
-20.9475 -11.087 -1.08725
-19.3542 -11.201 0.230652
-20.461 -11.3812 -0.622565
-21.0455 -10.9474 -0.878012
-20.0552 -11.6754 -0.326483
-19.2159 -11.2569 -0.0906588
-20.6108 -11.1481 -1.29273
-20.1433 -11.1561 -0.946224
-20.0871 -11.4025 -1.15661
-20.9268 -10.7598 -1.7352
-20.897 -10.9058 -1.6284
-21.0911 -10.6847 -1.7126
-20.8577 -10.7929 -1.59413
-20.5137 -11.0909 -1.78214
-20.8473 -10.8831 -1.74362
-20.2763 -11.1487 -1.55085
-20.8861 -10.7597 -1.91822
-19.0935 -11.4232 -0.797993
-20.7724 -10.7858 -1.96439
-19.5884 -11.4288 -1.20626
-20.3763 -10.8831 -1.86126
-19.8526 -11.1845 -1.43194
-19.6531 -11.5503 -1.29602
-20.6981 -10.7166 -1.99838
-20.2628 -10.9545 -1.73773
-20.6598 -10.6455 -2.24956
-20.6617 -10.8122 -2.09165
-20.5909 -10.7413 -2.17184
-20.2977 -10.7886 -2.29489
-18.3406 -11.545 -0.92297
-18.329 -11.8344 -0.836504
-16.6345 -12.2628 0.463058
-19.3625 -11.4224 -1.79209
-18.6393 -11.3834 -1.09667
-19.8223 -10.8328 -2.31983
-17.3313 -11.9785 -0.259999
-19.8052 -10.9898 -2.14622
-18.748 -11.3902 -1.05634
-17.2847 -11.8637 -0.437896
-20.1421 -10.8085 -2.34938
-20.4288 -10.5366 -2.68027
-19.6316 -11.3939 -2.12098
-20.0459 -10.9693 -2.46074
-19.598 -11.0955 -2.04372
-19.6452 -11.0983 -2.04467
-19.8812 -10.7189 -2.30337
-19.1077 -11.5909 -1.77595
-19.98 -10.8322 -2.30373
-19.7495 -11.0466 -2.10892
-19.4577 -11.1724 -2.24544
-18.8919 -11.5043 -1.6584
-18.9834 -11.5965 -1.76792
-19.9025 -10.9651 -2.47308
-18.9147 -11.5939 -1.64745
-16.9799 -12.194 -0.300304
-19.9812 -11.0151 -2.79057
-19.6627 -11.2657 -2.48875
-19.8041 -10.9677 -2.56655
-19.1904 -11.2367 -2.19301
-19.143 -11.1368 -2.23283
-19.0698 -11.1784 -2.32818
-18.6245 -11.5257 -2.08841
-19.0617 -11.3194 -2.60312
-18.1984 -11.5595 -1.68846
-18.7738 -11.399 -2.39402
-19.4155 -11.0017 -2.83778
-18.6997 -11.5552 -2.26269
-16.933 -12.0118 -0.842187
-18.7901 -11.412 -2.42164
-19.5726 -10.8498 -2.99947
-19.5128 -10.9186 -2.95118
-19.5107 -11.0231 -3.09213
-19.6356 -10.84 -3.08677
-19.2731 -10.9905 -2.79892
-19.3444 -11.0624 -2.74891
-19.4125 -10.9574 -3.01495
-18.871 -11.1511 -2.61577
-18.9675 -11.1888 -2.98146
-16.6719 -12.162 -1.02916
-17.9447 -11.4356 -2.14225
-18.7698 -11.1921 -2.83999
-18.6423 -11.1569 -2.65983
-18.7186 -11.0923 -3.01383
-18.6634 -11.2133 -2.96902
-18.5014 -11.3002 -2.84784
-18.7401 -11.1444 -3.17416
-18.1986 -11.252 -2.76095
-18.2794 -11.2678 -2.72956
-16.0453 -12.272 -1.5251
-15.7735 -12.376 -1.23845
-17.9373 -11.6238 -3.08564
-18.1159 -11.404 -3.12276
-15.989 -12.2221 -1.417
-16.0031 -12.3237 -1.68417
-15.966 -12.4893 -1.53142
-15.8207 -12.2542 -1.53853
-15.9828 -12.4059 -1.51845
-16.704 -11.563 -2.00843
-16.3439 -11.6471 -2.02808
-15.4216 -12.6273 -2.73761
-15.2891 -12.5779 -2.87141
-15.4674 -12.604 -2.71948
-14.9913 -12.5148 -2.73988
-15.1521 -12.5906 -2.86589
-14.8408 -12.7922 -2.85786
-14.7649 -12.6219 -2.93413
-15.1425 -12.5183 -3.0954
-17.7072 -10.3226 1.88653
-20.7446 -11.5553 0.680275
-20.9315 -11.5202 0.609235
-18.1403 -10.4929 1.57719
-20.7314 -11.3992 0.238431
-21.0232 -11.1801 0.00744315
-20.6477 -11.7223 0.00420223
-21.0255 -11.2013 -0.0297197
-18.0595 -10.3367 1.58648
-19.2361 -11.256 0.760507
-20.5189 -11.3852 -0.0165053
-19.2278 -11.4693 0.893446
-20.8126 -11.3125 -0.191317
-18.0598 -10.3267 1.20844
-19.1589 -11.606 0.673976
-20.1547 -11.6831 0.200634
-19.1686 -11.3362 0.65774
-20.0516 -11.5571 0.254482
-20.5218 -11.4093 0.0299557
-20.6519 -11.485 -0.206239
-20.7532 -11.2709 -0.158993
-17.2574 -10.4845 1.73807
-20.2852 -11.4598 -0.178405
-20.3006 -11.6539 -0.165206
-20.3657 -11.2154 -0.53234
-20.1941 -11.6311 -0.1513
-19.9503 -11.7 -0.311088
-17.0685 -10.2499 1.43139
-17.0986 -10.6997 1.41604
-19.4826 -11.2781 0.186897
-20.1561 -11.8439 -0.208767
-20.4524 -11.355 -0.611328
-20.9261 -11.1866 -0.897753
-19.1301 -11.4554 0.304707
-20.3935 -11.3265 -0.552117
-17.2714 -10.2647 1.14921
-17.0193 -10.7444 1.50965
-16.8975 -10.5195 1.58883
-17.3441 -10.4326 1.3347
-19.9722 -11.5961 -0.281633
-20.4559 -11.3422 -0.640075
-19.2592 -11.2607 0.170006
-19.9154 -11.2743 -0.446285
-20.2432 -11.4257 -0.909322
-18.9695 -11.3656 0.193416
-20.1528 -11.3174 -0.855524
-20.1245 -11.5041 -0.727727
-19.9143 -11.6007 -0.494584
-20.1122 -11.4178 -0.723087
-18.7013 -11.4986 0.372738
-18.6042 -11.4951 0.0275382
-20.0145 -11.3509 -0.866469
-19.9529 -11.4438 -0.741445
-19.7377 -11.5007 -0.813385
-20.6588 -10.7025 -2.05848
-20.0683 -11.3837 -1.14355
-18.8355 -11.5979 -0.59823
-20.6809 -10.9415 -1.82091
-20.174 -11.0619 -1.53084
-19.643 -11.365 -1.21479
-19.4911 -11.3919 -1.29891
-18.3536 -11.6795 -0.597032
-17.3655 -12.1682 0.147215
-20.4453 -10.9596 -2.19071
-18.5238 -11.7103 -0.786874
-16.7516 -12.3306 0.514959
-19.7122 -11.129 -1.68101
-19.9978 -11.1983 -1.88839
-19.5159 -11.1874 -2.15228
-18.1133 -11.6229 -0.908844
-18.5578 -11.5828 -1.05706
-17.5467 -11.9541 -0.336835
-17.3958 -11.9227 -0.130669
-19.2481 -11.3629 -1.58373
-19.3135 -11.2286 -2.18025
-18.1628 -11.9098 -1.03151
-17.5958 -11.8295 -0.784847
-18.8105 -11.4215 -1.77842
-17.5292 -11.9146 -0.700052
-18.32 -11.6373 -1.24111
-17.9323 -11.7775 -0.86121
-20.4561 -10.6262 -3.0893
-17.1857 -11.6944 -0.509334
-19.9512 -11.026 -2.52136
-16.5529 -12.2812 -0.131828
-18.2099 -11.6034 -1.68757
-17.4874 -11.6884 -1.24117
-19.3116 -11.2996 -2.29064
-19.1294 -11.2782 -2.26967
-19.0407 -11.0671 -2.2849
-18.962 -11.2936 -2.35971
-19.5322 -10.8747 -2.63815
-17.2385 -11.9145 -0.863337
-18.7528 -11.385 -2.28505
-19.2556 -11.2164 -2.53604
-16.8639 -11.9983 -0.818702
-16.9964 -11.9837 -0.939769
-18.989 -10.9871 -2.70121
-17.1301 -11.7173 -1.16816
-16.9796 -12.0316 -1.04874
-19.5628 -10.7447 -3.00939
-19.6808 -11.1055 -2.99108
-17.0732 -12.067 -0.990718
-16.3795 -12.5441 -0.624076
-18.0356 -11.3937 -1.74437
-19.5883 -10.8931 -2.9811
-19.5478 -10.8112 -3.23856
-19.3814 -11.0588 -3.05993
-18.9984 -11.1513 -2.8716
-16.9946 -11.6826 -1.32323
-17.0446 -11.8565 -1.25947
-18.9866 -11.2153 -2.84021
-16.6092 -12.2004 -0.899569
-17.6874 -11.5101 -2.12669
-18.4285 -11.195 -3.00285
-17.297 -11.6893 -2.04223
-15.9873 -12.3688 -1.39018
-15.9605 -12.674 -1.32609
-15.6658 -12.5406 -1.43719
-18.1706 -11.2238 -3.03706
-17.9073 -11.5101 -3.22164
-18.0532 -11.213 -3.22229
-15.8347 -12.2914 -1.51815
-16.3002 -11.518 -2.01844
-16.0836 -11.6475 -2.12713
-16.1438 -11.6589 -2.16687
-16.1413 -11.6267 -2.04252
-17.6566 -10.4605 2.153
-20.2135 -11.9386 1.02402
-20.854 -11.3935 0.19896
-20.816 -11.6473 0.435935
-17.7369 -10.1901 1.71112
-20.4347 -11.768 0.640421
-17.7263 -10.3092 1.7196
-20.7271 -11.4897 0.0920113
-19.0868 -11.4419 0.993363
-20.1609 -11.7202 0.211644
-20.8254 -11.2097 -0.416863
-19.3364 -11.4115 0.689754
-20.1532 -11.5346 0.198195
-17.5427 -10.2611 1.58102
-17.1448 -10.4236 1.71832
-20.7128 -11.4368 -0.598331
-20.2521 -11.5184 -0.267549
-20.108 -11.5771 -0.0481954
-17.0927 -10.3004 1.50273
-19.4642 -11.0765 0.226773
-16.9259 -10.3975 1.57129
-17.3106 -10.1912 1.44756
-17.4013 -10.3887 1.25298
-20.7985 -11.0448 -0.955888
-16.9828 -10.4043 1.50055
-17.28 -10.2717 1.31856
-19.8423 -11.5774 -0.337705
-16.7252 -10.6843 1.63247
-18.7228 -11.5094 0.164775
-18.8516 -11.4927 0.168874
-19.7446 -11.3751 -0.601956
-18.7453 -11.5401 0.326585
-16.7976 -10.7744 1.47083
-18.7422 -11.6258 0.439564
-20.347 -11.3502 -1.11069
-19.9515 -11.4118 -0.649144
-20.4412 -11.102 -1.29932
-20.4888 -11.0942 -1.15926
-20.7082 -10.7123 -1.30329
-20.0866 -11.3711 -0.946985
-20.0471 -11.4011 -1.05787
-19.8807 -11.4901 -0.789083
-19.8047 -11.412 -0.965045
-19.8403 -11.4141 -1.28228
-17.695 -11.7684 0.396621
-19.971 -11.101 -1.37243
-17.7246 -11.7356 0.262464
-20.5251 -10.9777 -1.81291
-20.0402 -10.8577 -1.92501
-19.425 -11.5051 -1.47442
-18.6791 -11.8232 -0.609534
-18.2444 -11.913 -0.397487
-16.9894 -11.8555 0.10571
-18.2562 -11.8483 -1.02865
-20.6335 -10.5743 -2.8867
-20.0526 -10.8671 -2.3704
-19.7703 -11.1358 -2.08002
-17.8409 -11.7103 -0.897206
-17.9651 -11.8807 -0.998811
-19.4685 -11.2498 -2.1291
-19.827 -11.1816 -2.16702
-17.2465 -11.7821 -0.33012
-18.2569 -11.7994 -1.17905
-20.6724 -10.3266 -2.93529
-20.2432 -10.6541 -2.73822
-18.1964 -11.7134 -1.20187
-17.7797 -11.6227 -0.952158
-17.6974 -11.7315 -0.542
-18.9271 -11.3617 -1.82894
-18.4325 -11.2888 -1.43337
-16.4893 -12.782 -0.294586
-16.7319 -12.2579 -0.322422
-19.0986 -11.2733 -2.43606
-19.3062 -11.1836 -2.58917
-19.417 -11.0204 -2.60878
-19.1575 -10.9236 -2.58799
-18.0307 -11.3943 -1.80855
-18.7495 -11.6466 -2.10039
-19.6087 -10.866 -3.2124
-19.0008 -11.1491 -2.62813
-16.1036 -12.7915 -0.546361
-17.199 -11.8624 -1.32036
-17.8378 -11.6263 -1.65171
-16.679 -12.1429 -0.896165
-16.6105 -12.2126 -0.79398
-18.9017 -11.145 -2.59374
-18.9757 -11.1311 -2.74026
-19.3751 -11.0602 -2.95071
-16.0337 -12.4797 -1.00652
-17.3989 -11.2026 -2.21415
-18.1962 -11.5102 -3.18999
-16.4443 -11.651 -1.82104
-16.4973 -11.6983 -1.96786
-16.2894 -11.9804 -2.16284
-15.0112 -12.6958 -2.96759
-14.9792 -12.5573 -3.20956
-20.6453 -11.5369 1.04488
-19.5008 -11.5094 1.23311
-21.0994 -11.309 0.155818
-21.3654 -11.2983 0.0629667
-20.598 -11.5896 0.461717
-20.314 -11.8521 0.671753
-18.0245 -10.4426 1.52329
-19.3825 -11.3706 0.961952
-20.2234 -11.8044 0.27236
-19.1131 -11.3195 0.947324
-20.9417 -11.3409 -0.191031
-20.3614 -11.6955 0.25927
-17.4603 -10.3586 1.79017
-17.4367 -10.5711 1.77064
-20.886 -11.0891 -0.681831
-17.2141 -10.5769 1.49364
-19.2577 -11.3533 0.349862
-16.7934 -10.63 1.47273
-17.1887 -10.4213 1.23833
-17.2384 -10.5735 1.18549
-19.847 -11.7166 -0.353406
-20.0191 -11.6383 -0.317635
-19.1193 -10.9731 0.17679
-20.1198 -11.2576 -0.570763
-18.6946 -11.4237 0.428487
-18.8354 -11.4171 0.278643
-17.1111 -10.4791 1.52485
-20.0875 -11.304 -1.01648
-18.244 -11.6867 0.289038
-20.6817 -10.9455 -1.59101
-19.6098 -11.5124 -0.90475
-17.5034 -11.7465 0.191763
-20.6228 -10.5049 -2.10963
-20.2169 -10.9433 -2.03643
-20.895 -10.7792 -2.34303
-19.7503 -11.352 -1.83743
-19.7042 -11.1371 -1.77428
-20.4395 -10.6083 -2.49792
-17.7086 -11.6743 -0.49655
-17.1031 -11.968 -0.506373
-19.0272 -11.4838 -1.88605
-18.8715 -11.4353 -1.63115
-16.8511 -12.4798 -0.220963
-18.9813 -11.4723 -1.77673
-17.6499 -11.7562 -0.817976
-17.1542 -11.8961 -0.338937
-16.7257 -12.3805 -0.404579
-17.0998 -11.9725 -0.943385
-17.6366 -11.452 -1.55584
-16.8046 -12.1228 -0.736967
-18.8596 -11.3191 -2.506
-18.0518 -11.1969 -2.22449
-17.9895 -11.3054 -1.94346
-18.5893 -11.3403 -2.70888
-17.0208 -11.755 -1.93788
-17.1118 -11.42 -2.08291
-16.7867 -11.7371 -1.86313
-18.2887 -11.5173 -2.94487
-18.1937 -11.4465 -2.89684
-15.8063 -12.5123 -1.31632
-17.1603 -11.307 -2.03839
-17.3622 -11.04 -2.53938
-16.6419 -11.7154 -1.84624
-16.8967 -11.3798 -2.47773
-15.5046 -12.919 -1.98845
-20.3529 -11.6846 0.77705
-20.1953 -11.6334 0.757683
-20.2984 -11.8031 0.89926
-17.7377 -10.148 1.65074
-18.0471 -10.4762 1.36719
-20.9783 -11.351 -0.0681375
-20.0752 -11.728 0.212335
-20.65 -11.211 -0.955067
-19.8455 -11.5615 -0.7047
-20.7932 -10.5105 -1.84981
-19.8239 -11.3886 -0.969024
-19.6631 -11.23 -1.39867
-19.8033 -11.31 -1.70294
-20.2271 -10.7466 -1.76655
-18.3328 -11.7116 -0.790247
-19.9523 -10.8423 -2.2044
-18.2371 -11.7302 -1.14591
-17.8176 -11.891 -0.668398
-18.8791 -11.5894 -1.70062
-17.0077 -11.8051 -0.28355
-18.8052 -11.602 -1.75172
-16.7763 -12.5689 -0.219491
-18.8224 -11.3727 -1.83436
-16.6791 -12.3048 -0.362575
-16.6287 -12.1878 -0.346683
-17.5715 -11.6764 -1.05159
-17.585 -11.4403 -1.41745
-16.1984 -12.5501 -0.587352
-16.505 -12.2661 -0.84134
-19.0835 -11.0527 -3.01635
-16.5726 -11.843 -1.391
-16.6694 -11.7833 -1.08103
-16.809 -11.7266 -1.67809
-17.7318 -11.0158 -2.5897
-16.2585 -11.6381 -1.99757
-16.1998 -11.6859 -2.06904
-16.323 -11.657 -1.90386
-16.3308 -11.4691 -2.15694
-16.4918 -11.529 -2.5921
-15.5273 -12.1236 -1.85238
-15.6497 -11.2666 -2.66804
-14.4954 -12.6269 -3.31777
-21.0388 -11.4047 0.0568926
-19.2478 -11.509 0.771122
-20.2985 -11.5712 0.275926
-18.0964 -10.2691 1.51558
-20.1317 -11.797 0.2797
-19.4059 -11.3338 0.672993
-20.9854 -11.3077 -0.390808
-19.9826 -11.6097 0.0157979
-20.0051 -11.6508 -0.243565
-19.0804 -11.182 0.173923
-20.147 -11.5319 -0.522154
-20.7207 -11.0019 -1.88103
-20.8118 -10.8584 -1.57177
-18.0776 -12.0494 -0.240184
-17.5869 -12.0634 -0.296876
-17.329 -11.9574 -0.391676
-17.746 -11.7795 -0.699012
-17.7896 -11.5961 -1.10767
-17.3544 -11.8924 -0.664314
-20.3676 -10.5554 -3.05829
-16.6933 -12.3639 -0.727936
-16.6041 -11.8609 -1.19827
-17.0907 -11.6667 -1.70194
-16.7439 -11.7605 -1.75283
-17.2495 -11.3424 -2.1508
-16.2942 -11.6621 -1.95539
-16.2363 -11.7219 -1.94143
-20.4468 -11.6242 0.16188
-18.7807 -10.9549 -1.0435
-17.8051 -11.8287 -0.306849
-17.2071 -11.9034 -0.254357
-16.7724 -12.276 -0.150195
-17.7114 -11.8134 -1.11474
-16.6064 -12.2244 -0.61128
-18.1103 -11.2094 -1.72873
-19.469 -10.9557 -2.87824
-16.9966 -11.8239 -1.46912
-16.5526 -11.7411 -1.44576
-16.589 -11.8408 -1.90131
-16.1538 -11.7153 -2.01849
-15.3941 -11.9398 -1.99566
-17.3594 -10.2715 1.64558
-17.336 -10.5633 1.44786
-20.0309 -11.7094 -0.380537
-18.9346 -11.2445 -0.0254306
-19.761 -11.3762 -1.36337
-18.9065 -11.098 -0.794566
-20.378 -10.8541 -1.96294
-16.5054 -12.14 -0.832074
-17.9436 -11.6046 -1.89588
-19.0591 -11.1167 -3.10076
-16.6653 -11.7797 -1.53829
-17.1703 -11.544 -1.98229
-17.3774 -11.1386 -2.5425
-20.217 -11.6293 -0.225467
-18.987 -11.3816 -1.18571
-17.551 -11.9573 -0.286599
-16.7044 -12.0181 -1.41346
-17.511 -11.3093 -2.42966
-20.0431 -11.3565 -0.893048
-16.1654 -12.4418 -0.86149
-17.3528 -11.4201 -1.6981
-16.7376 -11.5282 -2.05175
-19.4147 -11.2919 0.905189
-19.6256 -11.3708 -1.06885
-17.6147 -11.2131 -2.32354
-19.7619 -11.43 1.12706
-19.1316 -11.3244 -0.351866
-20.065 -11.4613 -1.16343
-17.9938 -12.0049 -0.411449
-18.1123 -11.2561 -1.73563
-16.3305 -11.6827 -1.9642
-18.4617 -10.6536 1.55299
-17.5416 -10.2803 1.86904
-17.6588 -12.0529 -0.270401
