-17.0195 -11.5373 -4.12071
-15.9529 -12.4295 -3.48691
-15.6664 -12.6679 -3.34962
-16.2884 -12.1063 -4.04294
-16.1115 -12.1944 -4.03607
-15.7264 -12.4707 -3.83159
-15.3494 -12.6906 -3.9571
-14.8296 -12.9074 -4.05845
-17.8859 -11.7128 0.594304
-17.5315 -11.8629 0.417535
-16.4461 -12.4075 -0.29391
-16.3839 -12.4801 -0.322976
-16.3959 -12.3831 -0.38207
-16.1954 -12.7605 -0.244955
-16.5086 -12.3476 -0.498079
-17.2569 -11.9119 -0.971436
-16.1364 -12.5842 -0.909243
-22.3574 -8.27553 -3.36375
-19.5447 -10.7922 -2.20743
-16.0556 -12.6316 -1.57127
-16.0352 -12.6054 -1.73807
-15.7927 -12.7552 -1.66432
-16.0239 -12.1939 -1.95984
-19.5801 -10.1727 -4.27204
-15.7848 -12.1746 -2.60008
-15.3723 -12.471 -2.46934
-17.1268 -11.4753 -4.24188
-15.5608 -12.61 -3.65795
-17.6207 -11.8354 0.425659
-16.5845 -12.5004 -0.610316
-16.2131 -12.6163 -0.577256
-16.7007 -12.2257 -1.12939
-22.3941 -8.04204 -3.38801
-16.6855 -12.0548 -1.43432
-16.9215 -11.8752 -1.76222
-15.7139 -12.8398 -1.46505
-16.4682 -11.6561 -2.53548
-16.0433 -12.1313 -2.39437
-15.5919 -13.0886 -2.09071
-15.8013 -11.7772 -2.93307
-15.5531 -12.9388 -2.64642
-16.2676 -11.643 -3.33127
-16.1397 -11.7208 -3.31198
-15.611 -12.716 -3.24387
-16.8462 -11.6267 -4.19609
-17.9245 -11.9861 -0.331568
-16.6782 -12.4162 -0.659714
-17.6636 -11.6802 -1.24592
-16.7437 -12.1115 -1.31128
-17.108 -11.6309 -1.72423
-16.0409 -12.1663 -1.91285
-15.841 -12.6366 -3.15146
-16.6932 -12.1169 -0.966921
-15.807 -12.9433 -0.835218
-16.5719 -12.0432 -1.85567
-17.0166 -11.4257 -2.20744
-16.0135 -12.4542 -2.9745
-16.4462 -12.4028 -0.299738
-16.4023 -12.1376 -1.71892
-16.0307 -12.3652 -1.59485
-16.9981 -11.5468 -2.17354
-16.0771 -12.1251 -1.83271
-15.9891 -12.1122 -1.99201
-15.4911 -12.4167 -2.35698
-15.9811 -12.7613 -1.43866
-16.3695 -11.8154 -2.19036
-16.1449 -11.9174 -2.17116
-17.3231 -11.3067 -2.37989
-15.6683 -12.6119 -3.06931
-15.5027 -12.5455 -4.10929
-19.5438 -10.1436 -4.41754
-15.3294 -12.7655 -3.67366
-15.5844 -12.6972 -3.46788
-20.1828 -9.95579 -3.80238
-15.6542 -12.7142 -3.2607
-15.5435 -12.7513 -3.23834
-20.1569 -10.0661 -3.45084
-20.5805 -9.89442 -3.13275
-15.3298 -12.9915 -2.88724
-15.3528 -12.5719 -2.50936
-16.0121 -11.9483 -2.31508
-20.4786 -10.097 -2.59646
-16.1189 -11.913 -2.23152
-15.4839 -13.0887 -2.3114
-20.494 -10.247 -2.24039
-20.1078 -10.4555 -2.21644
-20.5467 -10.2485 -2.21613
-20.2921 -10.4291 -1.98223
-20.4213 -10.3568 -1.98404
-15.989 -12.6355 -1.66615
-19.8932 -10.8249 -1.45493
-16.3882 -12.1316 -1.35829
-19.6441 -10.9996 -1.29892
-19.6597 -11.0294 -1.22901
-17.9077 -11.7283 -1.15986
-16.0355 -12.7539 -1.22324
-19.7694 -11.05 -0.96737
-16.173 -12.5203 -0.971141
-17.8568 -11.8713 -0.781981
-15.7524 -12.9737 -0.966716
-20.265 -10.8978 -0.554453
-16.7072 -12.4143 -0.711951
-16.5292 -12.2281 -0.524107
-16.008 -12.9458 -0.739097
-16.5315 -12.1885 -0.49622
-16.6045 -12.1583 -0.472905
-16.5506 -12.1789 -0.484641
-16.5381 -12.1866 -0.476787
-16.5398 -12.1334 -0.381562
-16.5505 -12.1687 -0.355479
-16.516 -12.2246 -0.315469
-18.1206 -11.9555 -0.00873846
-18.4055 -11.3928 0.594557
-16.3421 -12.5405 0.437449
-15.6201 -11.1432 2.04276
-15.4835 -10.924 2.09567
-15.0548 -12.7769 -4.08292
-15.3072 -12.6945 -3.92258
-17.0617 -11.5791 -4.04478
-16.1262 -12.2859 -3.81661
-16.2851 -11.5176 -3.49648
-19.7543 -10.1434 -4.09138
-16.7447 -11.1555 -3.40124
-18.8952 -10.6513 -3.87893
-18.5348 -10.8801 -3.82473
-19.933 -10.0907 -3.89557
-20.2643 -9.87682 -3.79628
-20.5993 -9.74269 -3.72131
-20.5936 -9.75962 -3.59228
-15.247 -12.9438 -3.20347
-19.9971 -10.1471 -3.50951
-20.274 -10.0213 -3.47439
-19.8767 -10.3694 -3.07903
-17.246 -11.0145 -2.56773
-15.4922 -12.974 -2.6812
-16.2261 -11.8076 -2.29035
-16.2416 -11.8501 -2.24285
-17.1648 -11.3809 -2.09302
-15.5226 -13.0595 -2.33585
-16.9979 -11.8323 -1.82873
-15.7619 -12.9371 -1.17975
-15.8908 -12.8806 -1.11862
-16.4827 -12.2513 -0.409672
-16.4988 -12.2013 -0.386197
-16.3377 -12.4937 -0.337325
-16.1416 -12.6748 0.057396
-16.1299 -12.677 0.0875576
-18.2905 -11.4603 0.600407
-20.0838 -9.91709 2.48958
-19.5509 -9.97859 2.4449
-16.8623 -11.6081 -4.10734
-18.0871 -11.0547 -4.21109
-19.7708 -10.0892 -4.13617
-18.9347 -10.5785 -3.98704
-18.6849 -10.8282 -3.76851
-15.1201 -12.9862 -3.19567
-16.2144 -11.5391 -2.77145
-16.4909 -11.3719 -2.71099
-16.579 -11.3359 -2.69273
-15.5619 -12.8773 -2.85883
-15.6407 -12.8672 -2.87799
-16.0835 -11.9245 -2.28444
-16.0694 -12.1155 -2.29976
-19.6063 -10.7017 -2.51772
-16.0596 -12.0434 -2.16045
-16.0509 -12.1013 -2.18802
-17.0533 -11.4428 -2.12376
-20.1365 -10.4378 -2.2598
-20.2874 -10.3737 -2.22701
-20.4251 -10.29 -2.19915
-15.9679 -12.2968 -1.46883
-16.1994 -12.4442 -1.16924
-20.3826 -10.9621 -0.179512
-16.484 -12.2761 -0.457998
-16.3655 -12.5306 -0.376831
-18.305 -11.6479 0.349888
-20.0713 -11.3855 0.504123
-20.0844 -11.2958 0.569483
-18.1388 -11.5421 0.58587
-16.4455 -12.4106 0.267781
-18.3285 -11.4615 0.661076
-14.802 -12.9561 -4.0467
-17.0763 -11.5179 -4.17177
-15.9606 -12.2965 -3.99488
-16.0413 -11.7831 -3.32616
-15.783 -11.8212 -2.93762
-15.3021 -12.9161 -3.18756
-15.4184 -12.8597 -3.17696
-16.0643 -12.1478 -2.39077
-16.0381 -12.0305 -2.12396
-16.0483 -12.0852 -2.15014
-16.0545 -12.1027 -2.08593
-16.71 -11.8267 -2.09999
-16.9442 -11.8598 -1.68648
-16.0256 -12.6495 -1.70024
-15.9159 -12.3301 -1.48718
-15.9517 -12.404 -1.49656
-16.1859 -12.595 -0.777934
-16.4955 -12.2567 -0.45534
-16.3553 -12.5821 -0.337942
-16.1626 -12.7762 -0.252664
-18.382 -11.7066 0.272073
-17.4148 -11.9221 0.421135
-16.2518 -12.533 0.212146
-16.0851 -11.8655 -2.54623
-15.9761 -12.3246 -2.66633
-17.1162 -11.5957 -2.06094
-20.157 -10.4857 -2.0733
-16.636 -12.2484 -0.885221
-16.2867 -12.5646 -0.679028
-16.6746 -12.487 -0.608045
-16.1347 -12.2731 -3.78558
-15.5743 -12.7138 -3.29941
-15.2592 -13.0126 -2.9526
-16.4031 -11.8915 -2.02618
-16.7582 -11.8763 -1.7657
-16.9834 -11.8567 -1.62783
-16.228 -12.3828 -1.26463
-20.0051 -11.2712 0.520587
-16.6876 -12.2715 0.264693
-16.0536 -11.9924 -2.65628
-17.1861 -11.9495 -0.962424
-17.0507 -11.6262 -1.79906
-17.8348 -12.0037 -0.348417
-16.1025 -11.8685 -2.34037
-16.6414 -12.1985 -0.861949
-16.6384 -11.2873 -3.05594
-15.8751 -12.383 -2.81402
-20.034 -9.87741 -4.3773
-19.5688 -10.1274 -4.43522
-18.3599 -10.8154 -4.44281
-18.4117 -10.7941 -4.41987
-20.1019 -9.91984 -4.07681
-18.324 -10.8865 -4.21918
-20.3048 -9.85307 -3.79615
-20.1609 -9.93324 -3.81262
-17.7521 -11.2041 -4.26453
-20.1662 -9.95984 -3.80956
-17.5739 -11.2997 -4.3071
-17.6449 -11.2586 -4.19851
-18.8059 -10.6987 -3.92911
-17.9086 -11.1581 -4.1101
-18.7687 -10.7153 -3.92433
-18.2336 -11.0129 -4.0086
-19.9513 -10.1606 -3.50691
-16.4654 -11.9418 -4.2301
-18.3206 -11.0206 -3.83037
-16.7067 -11.8413 -4.10449
-16.417 -12.0491 -3.96153
-15.5187 -12.5307 -4.10543
-15.1547 -12.7326 -4.10101
-15.0604 -12.7741 -4.10883
-20.4737 -10.069 -2.62082
-16.1371 -12.2629 -3.74781
-20.661 -10.0129 -2.59991
-14.9344 -12.877 -3.99304
-16.2219 -12.311 -3.49118
-16.1081 -12.3533 -3.50618
-15.0699 -12.8352 -3.75956
-15.2747 -12.7763 -3.66771
-19.0952 -10.9476 -2.56688
-16.7867 -11.5233 -2.51533
-16.5652 -11.6313 -2.54493
-15.2386 -12.8346 -3.54125
-16.1178 -11.8526 -2.6093
-15.5888 -12.7362 -3.24651
-15.6477 -12.7012 -3.23235
-17.2401 -11.3383 -2.09625
-17.1257 -11.3547 -2.09007
-16.2304 -11.8196 -2.27771
-17.3972 -11.3904 -1.98976
-15.7009 -12.7216 -3.0944
-16.0847 -11.907 -2.28589
-17.1164 -11.4841 -2.00279
-16.2309 -11.8579 -2.24812
-15.8417 -12.2105 -2.53899
-16.1326 -11.9004 -2.22828
-20.725 -10.375 -1.3118
-16.0325 -12.1063 -2.34144
-16.1397 -11.9552 -2.17879
-20.532 -10.4937 -1.33675
-17.7995 -11.3362 -1.74563
-15.3738 -12.9557 -3.0145
-15.161 -13.0566 -3.04034
-15.4824 -12.916 -2.89282
-15.5455 -12.9218 -2.68815
-15.4259 -13.0009 -2.71521
-16.0584 -12.1936 -1.96021
-17.0338 -11.8351 -1.68313
-20.4686 -10.681 -0.787624
-17.2572 -11.8768 -0.968859
-19.7254 -11.2972 -0.174466
-16.1459 -12.4365 -1.20779
-16.1804 -12.4212 -1.2185
-19.8833 -11.3086 0.0222722
-17.1541 -12.0648 -0.714371
-19.8284 -11.3471 0.035951
-18.1217 -11.8428 -0.336405
-16.1943 -12.5144 -0.973276
-20.3627 -11.1812 0.569345
-16.5245 -12.1957 -0.475979
-16.4982 -12.2117 -0.486037
-16.4957 -12.1959 -0.34435
-20.4489 -11.2059 0.884418
-16.0176 -12.8599 -0.928545
-17.2101 -12.1811 -0.208079
-15.7434 -12.9608 -0.972302
-16.3575 -12.4602 -0.381741
-16.3451 -12.4666 -0.33229
-16.3175 -12.5173 -0.355651
-16.3325 -12.5468 -0.333333
-17.9711 -11.6571 0.679732
-16.5306 -12.4063 0.336221
-16.9086 -12.2322 0.550319
-16.3101 -12.5597 0.454905
-19.5573 -10.1373 -4.46794
-19.7378 -10.1179 -4.08589
-18.0288 -11.0637 -4.25152
-18.8772 -10.6267 -3.94269
-20.3511 -9.9352 -3.50707
-16.9711 -11.5418 -4.03349
-16.9284 -11.5887 -4.03991
-19.6699 -10.3378 -3.58863
-20.2674 -10.0481 -3.46027
-20.1369 -10.0989 -3.45693
-16.2582 -11.5182 -3.49865
-19.0942 -10.6799 -3.43678
-16.5316 -11.9929 -3.98757
-16.6401 -11.2199 -3.09461
-15.8635 -12.363 -3.98876
-20.6168 -10.0088 -2.74955
-15.2871 -12.7021 -3.96171
-20.1642 -10.291 -2.71172
-20.2523 -10.2591 -2.68627
-15.3884 -12.6413 -3.92842
-20.3097 -10.1911 -2.61379
-14.8504 -12.9161 -4.01733
-15.0096 -12.8314 -3.98888
-14.9839 -12.8712 -3.96013
-16.1362 -11.5795 -2.78699
-19.8429 -10.5372 -2.47824
-15.5836 -12.6577 -3.61568
-20.1157 -10.4348 -2.303
-20.2383 -10.3877 -2.22468
-20.3832 -10.3585 -1.99391
-20.1384 -10.5009 -2.07318
-15.5377 -12.7297 -3.33698
-19.5175 -10.8467 -2.07232
-17.1057 -11.4193 -2.06536
-16.1936 -11.8239 -2.30163
-15.7914 -12.1962 -2.56466
-19.3893 -11.0008 -1.89005
-16.0152 -12.0196 -2.38185
-16.0482 -11.9722 -2.1687
-20.3564 -10.5247 -1.36176
-16.028 -12.085 -2.04694
-15.2437 -13.0296 -2.9045
-15.5269 -12.9422 -2.68017
-19.1246 -11.3012 -1.37763
-16.9642 -11.8573 -1.29386
-15.9816 -12.6679 -1.67905
-15.8105 -12.7539 -1.63589
-18.0255 -11.8139 -0.711963
-16.2062 -12.4337 -1.18878
-16.5692 -12.284 -0.874352
-17.2667 -12.0848 -0.457812
-15.692 -12.9399 -1.30539
-18.4141 -11.5813 0.0763729
-16.5255 -12.2328 -0.463447
-16.4909 -12.2409 -0.449199
-18.3833 -11.4143 0.609177
-16.2176 -12.677 -0.437096
-16.351 -12.6379 -0.336479
-18.0632 -11.6375 0.820672
-16.3136 -10.8504 1.61332
-16.8397 -12.2587 0.477601
-16.1288 -12.6749 0.0509264
-16.2914 -12.5495 0.381641
-19.6811 -10.0751 -4.46263
-18.8086 -10.5841 -4.33286
-19.8248 -10.0671 -4.13807
-18.8164 -10.7041 -3.97452
-18.2214 -10.9888 -4.06426
-17.0957 -11.4654 -4.16396
-16.7428 -11.6511 -4.20548
-18.9994 -10.6144 -3.88293
-17.0547 -11.4965 -4.14723
-16.8045 -11.6602 -4.1579
-17.0827 -11.4829 -4.07703
-16.8921 -11.5638 -4.08939
-16.8239 -11.6331 -4.12883
-16.9253 -11.5839 -4.0554
-19.9775 -10.1253 -3.45137
-20.4958 -9.92655 -3.23272
-20.5633 -9.93132 -3.15154
-20.5936 -9.93205 -3.11142
-16.6347 -11.1852 -3.10317
-16.4981 -11.5415 -3.36837
-16.0383 -11.7971 -3.31098
-17.2019 -10.9688 -2.7163
-14.8097 -12.9289 -4.06434
-16.2241 -11.544 -2.78121
-16.0878 -11.5741 -2.77785
-15.9405 -11.6669 -2.82667
-15.8796 -11.7049 -2.87146
-20.6864 -10.1855 -2.20031
-19.5489 -10.7296 -2.49154
-20.283 -10.3135 -2.24249
-20.2668 -10.3078 -2.17853
-17.1014 -11.4983 -2.04007
-17.814 -11.211 -1.89712
-16.0227 -11.9465 -2.2703
-15.5789 -12.3282 -2.53934
-17.072 -11.5434 -1.95066
-16.0307 -12.0722 -2.14851
-15.2109 -13.0745 -2.92075
-15.5026 -12.9576 -2.68094
-15.5279 -12.9709 -2.63452
-17.1255 -11.778 -1.26317
-16.9737 -11.8135 -1.25187
-15.5005 -13.0635 -2.33761
-15.9718 -12.292 -1.4236
-15.9447 -12.351 -1.46973
-17.1445 -11.9493 -1.04136
-16.0475 -12.4706 -1.2617
-16.5921 -12.2367 -0.821763
-16.5766 -12.305 -0.852441
-17.2026 -12.0876 -0.579535
-20.0947 -11.282 0.401954
-16.1905 -12.5926 -0.747406
-16.4881 -12.3351 -0.485692
-16.1682 -12.5875 -0.736063
-16.2664 -12.6184 -0.685377
-16.1743 -12.6628 -0.60476
-17.1247 -12.2511 -0.127871
-17.7873 -11.7312 0.542644
-16.3529 -12.5512 -0.329615
-16.3109 -12.6337 -0.366744
-16.3424 -12.6263 -0.306823
-16.1385 -12.7704 -0.287186
-19.181 -10.3909 -4.31185
-18.2613 -10.9254 -4.15523
-19.7819 -10.2815 -3.763
-18.8366 -10.7496 -3.76826
-18.6624 -10.8137 -3.76624
-18.5458 -10.8965 -3.82639
-16.3178 -12.1997 -3.77815
-17.3931 -10.9115 -2.65141
-15.2303 -12.7298 -3.9478
-16.0895 -12.3674 -3.59224
-15.8331 -11.8361 -2.96221
-15.8171 -11.8326 -2.90747
-15.7739 -11.8641 -2.93692
-20.4383 -10.3479 -2.00152
-17.1849 -11.432 -2.00861
-16.0274 -12.0994 -2.38498
-16.1955 -11.9781 -2.11983
-15.554 -12.8695 -2.87777
-15.2547 -13.0451 -2.87061
-16.8751 -12.1121 -1.2041
-15.8731 -12.6868 -1.68816
-16.7177 -12.2243 -1.14816
-17.8657 -11.8743 -0.70385
-16.7004 -12.2574 -0.934824
-22.3796 -8.2502 -3.43805
-16.8699 -11.6749 -4.11128
-15.9478 -12.2991 -4.05199
-16.6486 -11.2342 -3.07687
-17.1604 -11.3746 -2.16207
-16.0477 -12.0486 -2.5995
-15.8525 -12.1821 -2.70033
-15.3898 -12.8677 -3.19925
-20.1759 -10.6711 -1.47729
-18.4587 -11.2204 -0.771678
-18.4309 -11.2571 -0.676032
-15.5788 -13.0599 -2.05634
-16.7338 -12.226 -1.08434
-18.4987 -11.5836 -0.274912
-16.6313 -12.4194 -0.77004
-16.3328 -12.514 -0.377436
-17.1504 -12.0521 0.435055
-16.5786 -12.3453 0.230575
-15.782 -11.6947 -2.94071
-20.3585 -10.3399 -2.06459
-16.1446 -11.8621 -2.54095
-17.1128 -11.6288 -1.93045
-16.9721 -11.7626 -1.85729
-18.0166 -11.4552 -1.28878
-16.7327 -12.1011 -1.50828
-16.6947 -12.0912 -1.40943
-16.7101 -12.0703 -1.33634
-16.6889 -12.2191 -1.16626
-17.2995 -11.4927 -4.15204
-16.9432 -11.7823 -1.92107
-16.9626 -11.9405 -0.925565
-17.2342 -12.2159 -0.132403
-16.2161 -12.7662 -0.356565
-17.0535 -11.6244 -1.8719
-16.052 -12.5999 -1.49738
-16.5656 -12.4446 -0.945533
-16.1757 -11.8109 -2.62494
-17.1414 -11.4555 -1.99573
-16.4315 -11.9851 -1.90517
-15.6763 -12.9073 -2.20233
-16.4474 -12.2123 -1.45745
-15.7495 -12.6261 -3.25146
-17.6675 -11.5355 -1.41458
-15.7084 -13.078 -2.40652
-16.7986 -11.1945 -3.00137
-17.1651 -11.1115 -2.7454
-17.2997 -11.1892 -2.62703
-15.5472 -12.4076 -3.23849
-16.5982 -12.277 -0.503903
-15.4705 -11.2139 1.92057
-22.5201 -7.93539 -3.45324
-20.1204 -9.91404 -4.15408
-20.6453 -9.71941 -3.72063
-20.1582 -9.93189 -3.83777
-20.171 -9.95071 -3.82404
-20.333 -9.97449 -3.45235
-20.1237 -10.0759 -3.47682
-20.0252 -10.1302 -3.50968
-20.3962 -9.9928 -3.26224
-20.4102 -10.0077 -3.17796
-20.4838 -10.1097 -2.63194
-19.4385 -10.4985 -3.36051
-18.1301 -11.0247 -4.25151
-18.199 -10.9751 -4.13824
-17.9265 -11.098 -4.24296
-20.8264 -10.0647 -2.13687
-18.6863 -10.83 -3.69954
-17.1162 -11.3887 -4.23517
-20.1887 -10.4131 -2.19033
-17.1319 -10.9882 -2.76606
-16.8741 -11.6305 -4.10298
-17.0166 -11.225 -2.88311
-18.7557 -11.1297 -2.69256
-17.902 -11.1009 -1.96834
-17.9295 -11.1208 -2.04522
-16.506 -11.9259 -4.17751
-16.9828 -11.4108 -2.48681
-20.4106 -10.7427 -0.785705
-16.2086 -12.1199 -4.25351
-17.0206 -11.4653 -2.15166
-16.572 -11.647 -2.55966
-16.4237 -12.1005 -3.86782
-19.4286 -11.1423 -1.31956
-16.4814 -11.6615 -2.56141
-21.4444 -10.4637 0.695581
-16.3079 -11.7835 -2.60038
-16.1944 -12.256 -3.74303
-20.1397 -11.0371 -0.315676
-15.8065 -12.4269 -3.88599
-15.5252 -12.4819 -4.10969
-15.6889 -12.4741 -3.90285
-15.9928 -11.9483 -2.32124
-15.1478 -12.7148 -4.09055
-16.0424 -12.1099 -2.35244
-20.4621 -11.1979 0.878664
-19.9909 -11.3584 0.49565
-16.3717 -10.8179 1.66379
-15.0458 -12.8275 -3.9383
-14.9672 -12.8841 -4.00225
-14.9499 -12.8842 -3.98057
-14.8484 -12.921 -4.03312
-14.7872 -12.9346 -4.07615
-18.4045 -11.4052 0.664853
-15.5281 -12.7478 -3.34925
-15.4222 -12.8115 -3.31688
-17.1665 -12.0157 -0.743703
-17.8782 -11.6778 0.536893
-17.8336 -11.732 0.677995
-16.6037 -12.2096 -0.81445
-15.4664 -12.9322 -2.87572
-16.5424 -12.167 -0.488416
-15.5558 -12.9127 -2.7039
-16.5099 -12.2314 -0.481118
-16.1573 -12.4734 -1.15007
-17.2755 -11.9984 0.440205
-16.1045 -12.5046 -1.15921
-17.1975 -12.2308 -0.0815149
-17.0725 -12.1051 0.375431
-15.3341 -13.078 -2.60318
-16.8967 -12.2369 0.544826
-16.3676 -12.5593 -0.334783
-16.3169 -12.6265 -0.368325
-16.3574 -12.6383 -0.327673
-16.2912 -12.6409 -0.398482
-16.1836 -12.6856 -0.484139
-16.1581 -12.724 -0.419551
-15.9649 -13.0496 -0.477178
-20.23 -9.91527 -3.80716
-20.2143 -10.0133 -3.45721
-18.5686 -10.7022 -4.31518
-19.8934 -10.2438 -3.26514
-20.6239 -9.99873 -2.74413
-19.7178 -10.3559 -3.33923
-19.3508 -10.5426 -3.38425
-17.6936 -11.2787 -4.18635
-17.4115 -10.8888 -2.66821
-17.7176 -11.297 -3.97606
-16.9368 -11.5609 -4.07272
-16.7618 -11.2829 -2.96071
-16.1828 -11.5599 -3.50506
-16.1719 -11.5749 -3.48398
-16.7323 -11.8078 -4.16169
-16.896 -11.4595 -2.42517
-17.0324 -11.4019 -2.12408
-18.9917 -11.2437 -1.74185
-17.1066 -11.5079 -2.06348
-17.0842 -11.4817 -2.01406
-16.315 -11.7739 -2.56664
-16.2477 -12.2311 -3.77699
-16.1727 -12.2591 -3.75714
-16.1703 -11.8329 -2.28255
-16.0943 -12.3446 -3.59262
-15.9808 -11.953 -2.33415
-16.0862 -11.9431 -2.27428
-16.9494 -11.8216 -1.85429
-16.0467 -11.961 -2.18852
-19.8987 -11.2762 0.0437587
-19.9553 -11.3666 0.411896
-15.7244 -12.6694 -3.25511
-14.9675 -12.8726 -3.95647
-17.8225 -11.8864 -0.75849
-18.1686 -11.8089 -0.461568
-17.8121 -11.9079 -0.751508
-18.124 -11.877 -0.344608
-16.7099 -12.2275 -1.14501
-17.2512 -12.0675 -0.533505
-15.5855 -11.2073 1.52255
-17.938 -11.6948 0.702576
-15.2631 -12.9535 -3.21031
-17.9067 -11.7373 0.692172
-16.5787 -12.3291 -0.88163
-15.5504 -12.9428 -2.65926
-17.2083 -12.2258 -0.0688669
-16.4629 -12.3228 -0.380722
-16.104 -12.5863 -0.928739
-16.1858 -12.5995 -0.788491
-16.2543 -12.595 -0.663651
-16.6 -12.3434 0.307173
-16.334 -12.5833 -0.398179
-16.3319 -12.6313 -0.276395
-15.7319 -12.9454 -1.18905
-16.115 -12.7467 -0.421569
-16.0718 -12.7614 -0.442438
-15.7213 -12.9961 -1.16598
-16.0075 -13.0231 -0.453214
-22.3839 -8.2568 -3.42118
-20.4453 -9.83274 -3.55596
-20.3486 -9.94163 -3.51453
-16.9332 -11.5915 -4.06317
-16.7407 -11.5185 -2.47605
-15.822 -11.8369 -2.94745
-15.928 -12.3961 -3.84789
-15.4584 -12.5311 -4.22077
-16.092 -11.9607 -2.23429
-19.7402 -11.3024 -0.204859
-15.4133 -12.6159 -3.93655
-15.4695 -12.5975 -3.921
-16.0731 -12.0463 -2.1375
-15.3835 -12.6501 -3.92254
-15.4317 -12.6451 -3.90915
-15.3827 -12.6789 -3.9394
-15.3833 -12.6763 -3.8825
-19.9973 -11.3161 0.449393
-18.4194 -11.4319 0.741342
-15.5595 -12.7469 -3.29518
-17.2187 -11.9632 -0.83021
-17.1695 -11.9859 -0.878777
-17.8502 -11.6882 0.558964
-17.6258 -11.826 0.490599
-16.4959 -12.2354 -0.420244
-16.2173 -12.6136 -0.716395
-16.2837 -12.658 -0.390608
-15.8675 -12.9079 -1.10939
-15.922 -12.8848 -1.03479
-16.1891 -12.7328 -0.259887
-16.0028 -12.9793 -0.443065
-19.3514 -10.6063 -3.21881
-17.1231 -11.0255 -2.77174
-16.0244 -11.9815 -2.23375
-18.4777 -11.5421 0.166277
-15.6847 -12.7 -3.26345
-18.3882 -11.5915 0.0717951
-17.837 -11.692 0.501475
-17.9802 -11.6596 0.743996
-16.5533 -12.2348 -0.50223
-17.283 -11.9869 0.420067
-16.4643 -12.4038 0.21411
-16.4788 -12.4134 0.291961
-16.1536 -12.5642 0.202513
-16.3177 -12.5542 0.391025
-16.1199 -12.6771 0.0625639
-16.124 -12.6055 0.31
-15.9777 -12.6765 0.222814
-17.0856 -11.7331 -1.83474
-16.6813 -12.2949 -1.02417
-16.1363 -12.6338 0.124764
-22.3868 -8.28933 -3.31385
-17.1328 -11.6955 -1.73764
-17.9766 -11.5217 -1.27184
-15.6059 -12.4667 -2.24288
-15.5889 -12.4892 -2.20087
-16.7336 -12.1808 -1.04963
-16.7216 -12.2084 -1.00074
-15.7174 -12.906 -1.40123
-16.1582 -12.6747 -0.508074
-15.6831 -12.9546 -1.33233
-17.0073 -11.5093 -2.1565
-16.6934 -11.7837 -2.04887
-16.4425 -12.5728 -0.619041
-15.765 -12.9187 -1.40092
-17.2001 -11.4689 -1.81528
-18.5387 -11.2113 -0.602766
-18.0251 -11.429 -1.24355
-16.7396 -12.0349 -1.42752
-16.0841 -12.6193 -1.48873
-18.1129 -11.3316 -1.01789
-16.6227 -12.344 -0.952623
-17.2644 -12.0229 -0.87592
-16.033 -12.3027 -1.63926
-16.6879 -12.1897 -0.998128
-16.9009 -11.4876 -3.71939
-18.2795 -11.4627 -0.846975
-15.6594 -12.8774 -2.35196
-20.355 -9.84085 -3.74853
-20.3361 -9.8748 -3.75358
-21.4077 -10.5343 0.706165
-21.4078 -10.5797 0.891065
-21.4163 -10.5953 0.946965
-19.7106 -10.211 -3.94415
-19.6388 -10.3997 -3.33834
-19.3021 -10.3783 -4.05849
-19.6444 -10.748 -2.23486
-20.1095 -11.2683 0.36509
-18.453 -11.1553 -0.5289
-18.6991 -10.8562 -3.68649
-19.9624 -11.3335 0.336082
-17.3178 -11.237 -2.2904
-17.8632 -11.1328 -4.19804
-17.898 -11.661 0.540599
-16.992 -11.4463 -2.11727
-16.6206 -11.3973 -2.96099
-16.9465 -11.6273 -4.05178
-17.1251 -11.9893 -0.986956
-16.7859 -11.9531 -1.73202
-15.9951 -11.7754 -3.34272
-17.2303 -12.2031 -0.0670166
-16.1798 -11.9554 -2.14421
-16.636 -11.8693 -4.12099
-16.5114 -12.2108 -0.418654
-16.4911 -12.2104 -0.446735
-16.5025 -12.2049 -0.490937
-16.4921 -12.2627 -0.46936
-16.4919 -12.2808 -0.497577
-16.0409 -12.1122 -2.3593
-15.6179 -12.4875 -2.17315
-15.8624 -12.8761 -1.14733
-17.4153 -10.8671 -2.5669
-17.736 -10.9125 -2.60774
-18.6836 -10.8484 -3.727
-17.1744 -11.0737 -3.22815
-17.1065 -11.0486 -3.36286
-17.6617 -11.2348 -2.29603
-17.861 -11.1739 -4.09507
-17.8857 -11.4563 -1.38594
-17.9163 -11.6924 0.708775
-16.5371 -11.4209 -2.99323
-17.4152 -11.7054 -1.35455
-16.723 -11.5387 -2.4818
-16.5377 -11.6525 -2.52602
-16.9064 -11.5772 -4.12667
-17.2668 -12.0428 0.536627
-17.3005 -12.0221 -0.556888
-17.1844 -12.0799 -0.570876
-17.1188 -12.0708 -0.730541
-17.1415 -12.201 -0.22432
-16.1952 -11.9663 -2.17281
-15.9466 -11.8972 -3.25554
-16.1033 -12.0116 -2.16899
-16.6911 -12.3341 0.422333
-16.2403 -12.0573 -4.24936
-19.4536 -10.1968 -4.36303
-16.0505 -10.9522 1.52039
-18.3828 -11.3314 -0.513721
-17.8416 -11.181 -1.98448
-18.1718 -11.5254 0.639105
-17.0997 -11.4782 -2.03419
-16.9449 -11.5856 -4.00967
-16.8964 -11.6269 -4.12506
-16.8308 -11.6175 -4.16964
-17.0569 -11.93 -1.07964
-16.1964 -11.7371 -3.26202
-17.2069 -12.217 -0.0594453
-16.4771 -12.3976 0.22596
-16.0196 -12.3133 -3.83027
-16.2895 -12.6742 -0.382502
-16.1617 -12.7422 -0.255672
-16.1478 -12.761 -0.27357
-15.6254 -12.7418 -3.15802
-17.6894 -11.7778 0.545679
-16.4656 -11.5468 -3.42003
-16.703 -12.1356 -1.32903
-16.5195 -12.4053 0.340005
-15.3641 -13.0285 -2.7297
-19.3492 -10.5779 -3.27232
-18.1434 -11.8756 -0.119054
-18.1027 -11.9635 -0.0441151
-16.1078 -11.9099 -2.26088
-16.7517 -12.1364 -1.20959
-16.7213 -12.1244 -1.26802
-16.412 -12.0735 -3.88719
-16.3509 -12.4784 -0.851458
-15.8694 -12.259 -2.43022
-15.5296 -12.5062 -2.22355
-22.5199 -7.91246 -3.47713
-16.36 -10.812 1.6902
-16.1967 -12.4964 -1.07027
-17.8642 -11.2219 -1.90764
-17.0752 -11.8476 -1.44013
-16.6992 -12.2013 -1.16634
-16.0402 -12.6324 -1.64499
-18.2984 -11.4823 0.671217
-18.1364 -11.4115 -1.15366
-17.855 -11.4389 -1.48526
-17.0389 -11.4385 -2.05044
-16.8796 -12.0717 -0.96495
-16.6409 -12.3264 -1.0143
-16.054 -12.2101 -2.13277
-16.0308 -12.2429 -2.39504
-17.2273 -11.9039 -1.3396
-15.9215 -12.314 -2.27768
-15.9061 -12.194 -2.58485
-21.4171 -10.546 0.936455
-21.4103 -10.5858 0.939679
-21.4151 -10.4827 0.714366
-21.4293 -10.5084 0.65292
-20.0635 -10.9754 -0.602814
-20.2851 -10.4472 -1.93859
-17.2984 -12.1225 -0.211973
-17.2447 -12.1682 -0.224561
-17.2841 -12.0314 -0.561107
-19.3074 -10.3868 -4.07066
-16.7098 -12.2659 -0.265603
-19.1874 -10.4585 -4.07046
-17.2903 -11.389 -1.98973
-16.4631 -12.2544 -0.391807
-16.4931 -12.2514 -0.475623
-17.0058 -11.4627 -2.135
-18.6885 -10.8437 -3.69578
-16.9926 -11.8977 -1.49127
-16.7745 -11.9579 -1.74253
-16.2032 -12.7053 -0.423928
-16.1328 -12.7527 -0.436011
-16.2117 -12.5159 -0.925433
-17.9776 -11.1032 -4.13023
-17.8643 -11.1888 -4.15303
-16.0188 -12.9458 -0.703411
-15.9689 -11.953 -2.37092
-15.9687 -11.9752 -2.35317
-15.9924 -11.99 -2.33273
-16.0093 -12.954 -0.738298
-16.0392 -12.8598 -0.936984
-16.0513 -12.0823 -2.35596
-16.2742 -11.6554 -3.31
-16.1824 -11.5523 -3.52281
-16.2647 -11.7091 -3.28847
-15.9221 -12.6819 -1.67372
-16.8801 -11.562 -4.15261
-16.8837 -11.5737 -4.15825
-15.9344 -12.3201 -4.01869
-15.5263 -12.5803 -3.97119
-14.8001 -12.9295 -4.08811
-15.5266 -10.9806 2.07194
-22.4158 -8.34331 -3.29685
-22.3996 -8.30251 -3.33653
-20.3991 -10.5564 -1.29999
-17.8427 -11.7403 0.670063
-17.8622 -11.6791 0.548038
-17.4141 -12.033 0.310307
-19.0136 -11.2557 -1.75052
-17.4065 -10.8836 -2.5817
-17.2583 -12.0573 -0.558981
-17.1457 -12.097 -0.58156
-19.0308 -10.5721 -3.9294
-16.5165 -12.2347 -0.471539
-17.0344 -11.3956 -2.14037
-18.9742 -10.4704 -4.35377
-16.2053 -12.7101 -0.27658
-16.2167 -12.6674 -0.410107
-16.255 -12.5389 -0.771576
-16.1933 -12.5754 -0.764255
-16.2376 -12.4043 -1.17898
-16.1864 -12.5422 -0.908917
-17.902 -11.1295 -4.19615
-17.8872 -11.1743 -4.17987
-16.5164 -11.4214 -3.4928
-16.1893 -11.5383 -3.48254
-16.2148 -11.7169 -3.32779
-17.0781 -11.4789 -4.16246
-17.0533 -11.5124 -4.11699
-16.9445 -11.5963 -4.0724
-16.9101 -11.5696 -4.12609
-15.9108 -12.5385 -3.1356
-15.3474 -12.9488 -2.90355
-22.3704 -8.2326 -3.42815
-22.4173 -8.28025 -3.48599
-17.8388 -11.1296 -1.99898
-17.8372 -11.1673 -1.98904
-16.4736 -12.3848 0.221268
-17.1886 -11.962 -0.931894
-16.1065 -12.6241 0.330319
-16.1482 -12.7092 -0.487188
-16.2998 -12.5192 -0.877611
-16.1557 -12.5815 -0.832041
-16.1268 -12.6267 -0.789094
-15.7715 -12.9226 -1.17587
-15.5506 -12.55 -2.18026
-17.1345 -11.3589 -2.1335
-16.1315 -12.5628 0.215248
-16.7586 -12.1151 -1.23588
-16.3454 -12.6361 -0.30066
-16.17 -12.7101 -0.421657
-16.424 -12.0726 -3.91151
-22.3896 -8.36511 -3.21114
-22.3791 -8.30677 -3.31373
-22.4069 -8.34945 -3.35455
-20.2929 -10.4497 -1.94331
-19.3624 -10.5676 -3.26349
-16.6742 -12.2699 -0.487518
-15.9553 -12.6768 0.23219
-16.1054 -11.8675 -2.33011
-16.4898 -11.501 -3.47649
-15.6611 -12.889 -1.49562
-15.895 -12.5825 -3.23212
-14.9908 -12.8969 -3.84913
-14.9383 -12.9225 -3.88018
-17.179 -11.0556 -3.35313
-15.4147 -12.6601 -3.93964
-16.9178 -12.0929 -0.90492
-17.106 -11.6725 -1.70283
-16.7025 -12.1346 -1.30231
-16.6929 -12.2224 -1.1273
-16.0608 -12.5265 -1.26699
-18.069 -11.0437 -1.95372
-16.6517 -12.2084 -1.2704
-16.0712 -12.1382 -2.48329
-15.7283 -12.7936 -1.56229
-15.6103 -12.7119 -1.72722
-15.8452 -12.571 -3.36359
-16.8966 -12.01 -1.30589
-16.4602 -12.4776 -0.536492
-15.5795 -12.4554 -2.1729
-18.5208 -11.3425 -0.866903
-15.5578 -10.9637 2.08684
-21.3321 -10.1423 2.41241
-19.9393 -11.3787 0.49854
-19.7645 -11.3824 6.08396e-05
-20.4254 -10.6912 -0.795331
-18.4937 -11.1097 -0.586628
-22.39 -8.32204 -3.25917
-16.1424 -12.6188 0.349971
-17.1721 -12.2491 -0.0869314
-17.2382 -12.1603 -0.19025
-17.1424 -12.1944 -0.219471
-15.9872 -12.6617 0.208979
-17.2917 -12.0616 -0.47504
-17.2276 -12.0508 -0.55755
-16.4833 -12.2184 -0.428408
-16.4161 -12.3109 -0.353651
-17.2829 -11.9686 -0.701241
-16.4774 -12.3025 -0.394194
-19.5072 -10.8074 -2.18653
-16.2516 -12.6575 -0.426935
-16.547 -12.5191 -0.591476
-16.171 -12.6799 -0.534348
-16.2561 -12.6061 -0.64902
-17.8453 -11.142 -1.96854
-16.2447 -12.565 -0.783904
-16.2281 -12.5174 -0.908521
-16.9936 -11.8737 -1.5057
-16.2082 -12.5142 -0.923375
-17.0296 -11.8013 -1.67967
-17.2535 -11.3637 -2.0494
-17.2471 -11.339 -2.09775
-16.241 -12.3784 -1.19047
-16.7895 -11.961 -1.73437
-19.9146 -10.0678 -3.88331
-16.6754 -12.0056 -1.75697
-19.2623 -10.5745 -3.39692
-16.5764 -12.0446 -1.74866
-16.5611 -12.0519 -1.74873
-16.4908 -12.1078 -1.71214
-19.3088 -10.3664 -4.04837
-16.2968 -11.8068 -2.30469
-16.0857 -11.9247 -2.31032
-18.5345 -10.8403 -3.97643
-15.992 -11.9908 -2.33818
-15.9616 -11.9376 -2.36932
-16.0311 -12.1185 -2.29408
-16.0208 -12.0929 -2.33444
-16.0199 -12.0747 -2.34617
-17.8963 -11.1669 -4.0834
-15.4374 -12.3015 -2.40568
-17.8557 -11.1801 -4.15429
-15.6776 -12.3031 -2.54879
-16.2561 -11.705 -3.2485
-16.245 -11.7009 -3.2841
-16.2859 -11.6583 -3.31184
-16.2434 -11.7254 -3.27433
-16.241 -11.7154 -3.29791
-16.0548 -11.7832 -3.26642
-16.0681 -11.7525 -3.30087
-17.1464 -11.4571 -4.13085
-17.0416 -11.5164 -4.08129
-17.0698 -11.4614 -4.12224
-16.9646 -11.5479 -4.02422
-17.0755 -11.5115 -4.09287
-15.5499 -12.9513 -2.61953
-16.9267 -11.5555 -4.19059
-15.5375 -12.7681 -3.33692
-15.1733 -12.9464 -3.3841
-15.5055 -12.5685 -3.9716
-15.4115 -12.644 -3.90428
-15.1608 -12.7017 -4.10496
-14.9742 -12.8741 -3.96408
-20.1208 -11.2579 0.422256
-19.949 -11.3663 0.408209
-16.3518 -12.4542 0.260549
-17.3118 -12.0314 -0.459039
-17.9126 -11.8501 -0.72476
-16.4812 -12.2342 -0.330286
-17.1453 -12.0768 -0.591718
-16.4978 -12.2418 -0.462062
-16.4878 -12.262 -0.509554
-16.3734 -12.5133 -0.3648
-20.1097 -10.4269 -2.46156
-19.5438 -10.8487 -2.06288
-19.492 -10.8388 -2.11635
-16.1308 -12.7691 -0.302828
-16.0789 -12.7443 -0.459951
-17.1008 -11.4764 -2.00429
-16.2061 -12.4016 -1.20754
-16.916 -11.7677 -1.96972
-19.6391 -10.2125 -3.93616
-15.7534 -12.9489 -1.17143
-16.2332 -11.833 -2.24826
-16.1965 -11.8552 -2.24904
-15.6305 -12.8314 -1.49857
-16.0608 -11.9159 -2.27313
-16.0654 -11.873 -2.324
-16.0525 -12.4575 -2.09113
-15.5973 -12.4486 -2.15236
-15.5678 -12.5382 -2.18288
-17.8901 -11.1289 -4.11701
-17.8923 -11.1771 -4.07999
-17.8465 -11.1876 -4.10423
-17.9183 -11.1363 -4.1831
-15.4361 -12.3839 -2.43914
-16.1781 -11.5575 -3.49877
-17.122 -11.4527 -4.15499
-17.0846 -11.4796 -4.1776
-16.9637 -11.591 -4.05764
-15.6154 -12.8839 -2.73406
-16.6907 -11.8468 -4.13157
-15.5536 -12.6025 -3.73398
-16.0084 -10.9685 1.53538
-18.0535 -11.6246 0.695589
-18.1301 -11.5496 0.611554
-17.8531 -11.6763 0.559443
-17.8197 -11.7144 0.49857
-19.5411 -11.4735 -0.0121974
-16.4648 -12.3171 -0.304057
-16.4454 -12.3284 -0.336667
-16.4079 -12.387 -0.376562
-16.5099 -12.3271 -0.485737
-16.139 -12.6587 -0.698147
-17.8129 -11.2209 -2.00429
-16.052 -12.6541 -1.60398
-16.2263 -11.809 -2.30797
-16.0715 -12.1112 -2.16038
-15.4312 -12.3378 -2.38629
-16.3558 -11.6155 -3.30367
-15.1538 -13.0221 -3.21541
-17.9172 -11.6815 0.68203
-17.202 -12.2269 -0.170515
-16.442 -12.2778 -0.343411
-16.9822 -11.9162 -1.54022
-15.7992 -12.9366 -1.13874
-15.5729 -12.6702 -1.79453
-17.8988 -11.1534 -4.15404
-16.2246 -11.7126 -3.32117
-17.0373 -11.5126 -4.18658
-15.6072 -12.7341 -3.23724
-14.9256 -12.9565 -3.80341
-17.5731 -11.8239 0.438721
-16.8197 -11.8482 -1.93549
-16.7793 -11.865 -1.96217
-16.4573 -11.5194 -3.45737
-16.1007 -11.7952 -3.25148
-15.5398 -12.9409 -2.66966
-15.4041 -12.6511 -3.96375
-17.0259 -11.953 -1.45775
-16.1646 -11.7377 -3.37031
-16.73 -12.1316 -0.876957
-17.0268 -11.4906 -1.77203
-17.2138 -11.436 -1.63962
-17.1073 -11.5944 -1.5539
-16.5416 -12.2783 -1.16116
-17.1111 -11.6284 -1.84196
-16.8911 -11.8265 -1.7985
-16.5406 -12.0759 -1.67648
-16.2725 -12.2219 -1.5839
-16.4513 -12.1387 -1.6973
-16.4798 -12.2433 -0.423574
-16.7384 -12.2471 -0.959471
-18.1757 -10.9719 -2.09641
-15.669 -12.5209 -2.17878
-17.9774 -11.1654 -1.63794
-15.8125 -12.642 -3.05728
-18.5767 -11.5012 -0.376348
-15.5106 -10.9434 2.13087
-15.4646 -11.1515 2.03983
-15.9128 -10.9793 1.30738
-20.4176 -11.2033 0.870776
-18.3994 -11.3883 0.648871
-19.9948 -11.3386 0.532703
-19.7413 -11.3784 0.0057692
-16.4329 -12.308 -0.364926
-16.4725 -12.2609 -0.395836
-16.471 -12.2215 -0.418468
-16.4018 -12.418 -0.418244
-16.4926 -12.3825 -0.431496
-16.5214 -12.2021 -0.4948
-16.1509 -12.6163 -0.766693
-20.3055 -10.4044 -2.00129
-16.2248 -12.362 -1.18423
-19.1495 -11.1279 -1.91508
-19.5837 -10.764 -2.13291
-17.8875 -11.1485 -1.89274
-22.5148 -7.91428 -3.44284
-17.0466 -11.4528 -2.08082
-16.2246 -11.8384 -2.20455
-16.127 -11.9007 -2.2344
-15.9966 -11.9976 -2.26177
-15.9981 -11.9197 -2.3507
-19.908 -10.0632 -3.88524
-16.0157 -11.9569 -2.49303
-15.5255 -13.0577 -2.32323
-17.1088 -11.0552 -3.36411
-15.5521 -12.9668 -2.65798
-18.2453 -11.0326 -3.83742
-16.2559 -11.6771 -3.27833
-16.287 -11.6635 -3.30632
-16.5216 -11.4058 -3.48923
-17.9127 -11.1509 -4.14355
-15.6202 -12.7261 -3.24937
-16.1354 -12.3588 -3.49527
-17.0195 -11.4968 -4.23281
-16.4788 -11.9542 -4.23716
-15.9386 -12.3041 -4.03414
-15.3923 -12.6163 -3.96415
-17.9326 -11.6905 0.69686
-17.7546 -11.7572 0.510948
-16.4476 -12.3264 -0.314911
-16.5989 -12.1541 -0.358978
-16.4525 -12.2626 -0.365301
-16.428 -12.3146 -0.33188
-16.4772 -12.2054 -0.408588
-16.3227 -12.4889 -0.366073
-20.3085 -10.3583 -2.19762
-20.3406 -10.3123 -2.27792
-16.0079 -12.7638 -1.2373
-22.3944 -8.30221 -3.24016
-16.0343 -12.0575 -2.21723
-16.0433 -12.1016 -2.22972
-16.1369 -11.8751 -2.26677
-15.6829 -13.0773 -2.01057
-15.5748 -13.1286 -2.0328
-15.4374 -13.1079 -2.35712
-15.5849 -12.9236 -2.70799
-18.5342 -10.8382 -3.9639
-19.5669 -10.1007 -4.45242
-15.4459 -13.0072 -2.68824
-15.4246 -13.0042 -2.68678
-16.0645 -11.8361 -3.21583
-16.0524 -11.8005 -3.27698
-17.0642 -11.5314 -4.05824
-17.1345 -11.4686 -4.11801
-17.1078 -11.4505 -4.15238
-17.1126 -11.4446 -4.17112
-17.0559 -11.5228 -4.15681
-16.5466 -11.9822 -3.98197
-15.1455 -12.9505 -3.40761
-15.298 -12.6994 -3.95684
-14.9641 -12.8756 -3.95079
-14.8205 -12.9399 -4.057
-18.0934 -11.5237 0.569477
-17.2885 -12.0119 0.584243
-16.1508 -12.6124 0.361681
-16.504 -12.2425 -0.355023
-16.5103 -12.2073 -0.357591
-16.5078 -12.27 -0.419822
-16.5239 -12.1858 -0.450205
-16.5199 -12.3104 -0.543171
-16.1983 -12.6128 -0.718637
-16.3307 -12.3794 -1.18184
-19.4996 -10.8294 -2.06635
-15.8217 -12.8895 -1.13483
-19.4981 -10.8517 -2.13671
-15.9289 -12.3616 -1.46348
-17.09 -11.4689 -2.00537
-17.0962 -11.5634 -1.99883
-16.0484 -12.628 -1.67248
-15.5538 -13.1192 -2.04026
-16.5964 -11.1896 -3.12132
-15.5987 -12.888 -2.72559
-15.4962 -12.9423 -2.68739
-16.0893 -11.8012 -3.28648
-17.9874 -11.0634 -4.14218
-15.2064 -13.0533 -2.91398
-15.9444 -12.4578 -3.50578
-16.9556 -11.5692 -4.04158
-15.1821 -12.9626 -3.2163
-16.5574 -11.9648 -3.99331
-16.5428 -12.2159 -0.282037
-16.4591 -12.295 -0.348196
-16.4978 -12.2381 -0.451355
-16.6944 -12.4316 -0.719426
-15.8179 -12.9211 -1.14381
-16.0542 -12.6431 -1.60605
-16.0638 -12.6422 -1.63024
-15.8302 -12.1764 -2.62937
-15.8078 -12.2059 -2.66982
-16.1089 -11.4812 -2.94584
-14.9975 -12.8557 -3.97391
-20.1229 -11.2583 0.475913
-17.5569 -11.8507 0.417663
-18.1425 -11.8602 -0.124173
-16.3868 -12.3719 -0.367498
-16.4801 -12.3719 -0.408044
-16.7028 -12.2273 -1.11631
-22.3743 -8.25072 -3.38848
-17.0997 -11.596 -1.97492
-16.0399 -12.0809 -2.25664
-15.6755 -12.4377 -2.18103
-16.0116 -11.9741 -2.5451
-15.5204 -12.9429 -2.66525
-16.3983 -11.5634 -3.37733
-16.1772 -11.7252 -3.29992
-15.3803 -12.6389 -3.93935
-16.6698 -12.3944 -0.650556
-16.0371 -12.1073 -2.02455
-15.5609 -13.0174 -2.35887
-15.8419 -12.6207 -3.14405
-17.2211 -12.1882 -0.192685
-16.5733 -12.225 -0.408917
-16.5905 -12.0335 -1.92751
-16.1454 -11.9738 -1.98372
-16.1433 -12.6792 -0.408409
-16.6948 -12.187 -0.855663
-22.37 -8.18987 -3.30065
-16.0446 -12.1192 -1.83769
-15.9741 -12.1054 -2.479
-16.6027 -12.0432 -1.65045
-16.4117 -12.1155 -1.70762
-15.424 -12.7235 -1.6943
-15.6516 -12.528 -2.22292
-16.4924 -12.3368 -0.233099
-15.9241 -11.9075 -3.19362
-15.6107 -12.3481 -2.55883
-15.5268 -11.2372 1.47219
-21.3713 -10.1801 2.41466
-16.049 -10.933 1.49124
-16.3317 -12.5333 0.457226
-16.5389 -12.385 0.363357
-15.9826 -12.6663 0.226591
-18.1366 -11.5281 0.601309
-18.2801 -11.4693 0.606375
-18.4938 -11.3484 0.633795
-20.5855 -11.037 0.571078
-19.9702 -11.3271 0.345397
-18.1232 -11.9508 -0.0160128
-20.2871 -11.0796 0.12073
-19.9225 -11.2935 0.031909
-16.363 -12.589 -0.344529
-16.3397 -12.4756 -0.333574
-16.4868 -12.2337 -0.321844
-16.4347 -12.3993 -0.356342
-16.1784 -12.6873 -0.46463
-16.4671 -12.3132 -0.373585
-16.3764 -12.4583 -0.41668
-16.5394 -12.1829 -0.343778
-16.5502 -12.2019 -0.458195
-16.567 -12.1389 -0.443985
-16.5163 -12.2181 -0.495501
-16.545 -12.1733 -0.474922
-16.5312 -12.1898 -0.495166
-17.2773 -12.0764 -0.482855
-17.7346 -12.0218 -0.496649
-20.3281 -10.8487 -0.56183
-16.6014 -12.2575 -0.864606
-18.1907 -11.5632 -0.788571
-16.1722 -12.5215 -0.965129
-16.7456 -12.2233 -0.960855
-15.7383 -12.9487 -1.17177
-19.7016 -11.0952 -0.969423
-17.2248 -11.8782 -1.00054
-16.0342 -12.7518 -1.24315
-16.1957 -12.4113 -1.19388
-16.2804 -12.3797 -1.20272
-19.6187 -11.0456 -1.27717
-15.7132 -12.7875 -1.41898
-20.7548 -10.3545 -1.2987
-15.8187 -12.7569 -1.62561
-15.9616 -12.6401 -1.66195
-15.9866 -12.5632 -1.74984
-16.5637 -12.054 -1.75383
-19.1108 -11.115 -1.87239
-15.9443 -12.5821 -1.87354
-17.1005 -11.6396 -1.75278
-15.6518 -13.0807 -2.02859
-20.3202 -10.415 -1.98855
-19.577 -10.7974 -2.17214
-20.3371 -10.3188 -2.15617
-17.0735 -11.4452 -2.04203
-16.7388 -11.8445 -2.15294
-15.4141 -13.0836 -2.34911
-16.1515 -11.9915 -2.17928
-16.0935 -12.002 -2.16924
-16.2388 -11.8405 -2.22717
-16.1468 -11.853 -2.23512
-20.3595 -10.1821 -2.6341
-20.2373 -10.2423 -2.66822
-16.2299 -11.8326 -2.26223
-15.987 -11.98 -2.26563
-16.1963 -11.8544 -2.28435
-16.1822 -11.8636 -2.28833
-15.9864 -11.9827 -2.35615
-15.5501 -12.9381 -2.63591
-15.968 -11.936 -2.38974
-15.4302 -12.3055 -2.4042
-15.5144 -12.9707 -2.6597
-15.3923 -12.5939 -2.49721
-20.4556 -9.96426 -3.15818
-15.4172 -12.8842 -2.99298
-15.8192 -12.6718 -3.06409
-20.2386 -10.0478 -3.44543
-20.2989 -9.98712 -3.43636
-20.2493 -10.0038 -3.47027
-20.1316 -10.0533 -3.45017
-22.4431 -7.94288 -3.3913
-15.4863 -12.8275 -3.17681
-19.6182 -10.3463 -3.58567
-15.771 -12.6172 -3.25601
-15.6129 -12.7483 -3.23157
-20.5946 -9.72449 -3.72534
-20.2977 -9.89717 -3.77309
-15.9009 -11.9282 -3.14356
-16.1306 -12.3785 -3.5007
-16.5329 -11.552 -3.33679
-15.5613 -12.6683 -3.4646
-16.0018 -11.835 -3.29704
-18.5281 -10.8459 -3.96483
-20.0576 -9.89989 -4.18507
-15.4309 -12.732 -3.63432
-16.5375 -11.3993 -3.50538
-17.7896 -11.2627 -3.95521
-16.1866 -11.5466 -3.51385
-18.2063 -10.9723 -4.1317
-19.5328 -10.1304 -4.4227
-16.4323 -12.0401 -3.97703
-16.4718 -12.0036 -3.9781
-16.5262 -11.9777 -3.99634
-17.5712 -11.3264 -4.17538
-16.7732 -11.7513 -4.11754
-16.0148 -12.2532 -4.04851
-16.8451 -11.5789 -4.14193
-16.8943 -11.5582 -4.16726
-15.0817 -12.8351 -3.92724
-17.1244 -11.4034 -4.2269
-16.9717 -11.5014 -4.22603
-17.4924 -11.3357 -4.37834
-15.0208 -12.8489 -3.98297
-15.0365 -12.8049 -3.98986
-14.9866 -12.8731 -3.98999
-14.9815 -12.8366 -3.97905
-16.2787 -12.0486 -4.27462
-19.6293 -10.0256 2.45359
-20.0542 -9.83793 2.52532
-20.1254 -9.90649 2.49855
-20.1454 -9.97269 2.47918
-20.1707 -10.0376 2.45491
-15.3889 -11.3133 1.42741
-21.4756 -10.12 2.41611
-17.7814 -11.7277 0.52064
-17.0196 -12.133 0.394671
-16.1412 -12.6851 0.088116
-18.3016 -11.5899 0.344023
-18.2801 -11.6555 0.31916
-20.0858 -11.2412 0.282201
-16.368 -12.566 -0.215446
-15.9757 -13.0397 -0.46342
-15.9319 -13.0553 -0.475211
-16.4488 -12.3519 -0.305119
-16.3433 -12.4562 -0.378537
-16.3714 -12.465 -0.39114
-16.4228 -12.3402 -0.371856
-16.4211 -12.4245 -0.406987
-16.5154 -12.193 -0.386779
-16.4743 -12.2546 -0.401449
-20.5064 -10.8534 -0.165433
-20.2575 -10.9915 -0.224054
-15.9849 -12.9496 -0.71716
-16.6389 -12.2191 -0.565827
-16.6704 -12.2465 -0.589995
-16.6774 -12.3748 -0.710882
-16.7047 -12.3354 -0.736136
-16.0239 -12.8744 -0.940986
-15.8812 -12.866 -1.12117
-15.7852 -12.9269 -1.15934
-15.7576 -12.9253 -1.1863
-17.8569 -11.7155 -0.998125
-16.1317 -12.4954 -1.16958
-16.2781 -12.3999 -1.19203
-15.7045 -12.9436 -1.31231
-19.5539 -11.0965 -1.30904
-16.975 -11.8184 -1.26955
-16.9425 -11.8738 -1.27113
-17.8531 -11.5007 -1.55286
-15.7728 -12.7248 -1.66571
-15.5543 -12.6346 -1.77474
-17.0112 -11.8326 -1.82427
-15.6943 -13.0755 -2.00693
-15.7239 -13.0222 -2.02939
-20.5517 -10.2476 -2.22179
-16.0355 -12.1543 -1.99692
-20.1563 -10.414 -2.27187
-16.6758 -11.8578 -2.10707
-16.0512 -12.1035 -2.07088
-15.5117 -13.0643 -2.30161
-17.1467 -11.3881 -2.08849
-15.5009 -13.0762 -2.33318
-16.0721 -12.1499 -2.14523
-17.166 -11.3548 -2.12615
-16.0174 -12.0467 -2.12546
-17.0274 -11.4465 -2.10957
-17.5269 -11.2805 -2.22306
-16.1845 -11.8784 -2.22771
-16.12 -11.8998 -2.22043
-16.0517 -11.9396 -2.24726
-16.0146 -11.9898 -2.24506
-15.9842 -11.9761 -2.24224
-15.4932 -12.84 -2.47564
-16.1255 -11.891 -2.31001
-16.2209 -11.8386 -2.30389
-15.39 -12.6104 -2.38107
-15.9929 -11.9753 -2.33935
-15.9865 -11.9329 -2.33106
-16.0333 -11.9147 -2.41394
-16.0593 -11.9593 -2.46012
-15.5252 -12.9411 -2.67201
-15.4738 -12.9994 -2.67614
-15.5032 -12.9645 -2.66081
-15.539 -12.906 -2.68204
-15.4202 -13.0092 -2.67903
-17.6777 -10.9579 -2.53367
-15.4437 -12.9842 -2.71753
-15.4209 -13.0022 -2.73389
-15.7983 -12.2013 -2.58684
-17.2393 -11.0202 -2.57847
-19.9014 -10.3629 -3.09252
-15.7262 -12.7853 -2.83501
-16.3945 -11.4895 -2.98361
-16.2224 -11.5208 -2.95923
-19.3188 -10.5169 -3.65591
-16.1851 -11.7455 -3.22449
-16.3235 -11.6752 -3.28354
-15.9551 -11.8963 -3.25825
-16.2521 -11.6944 -3.2855
-16.326 -11.6296 -3.32171
-15.9466 -12.4641 -3.51984
-18.8883 -10.6462 -3.97942
-19.7412 -10.1373 -4.09028
-18.3776 -10.9399 -4.04472
-18.4308 -10.7809 -4.02236
-15.1751 -12.8475 -3.64903
-19.6146 -10.154 -4.26521
-17.2877 -11.5284 -3.99885
-15.8361 -12.4484 -3.84114
-16.5681 -11.9594 -3.97608
-18.8742 -10.5314 -4.33204
-18.7997 -10.5709 -4.3356
-17.0525 -11.5586 -4.04147
-18.7385 -10.6215 -4.35659
-17.0834 -11.5222 -4.07396
-17.1102 -11.4911 -4.11825
-16.3132 -12.0703 -4.03505
-15.8686 -12.3638 -3.97621
-16.8708 -11.6052 -4.1009
-15.2887 -12.7012 -3.92687
-15.114 -12.7873 -3.94857
-16.4863 -11.9495 -4.20112
-16.7662 -11.7247 -4.23005
-14.9602 -12.8717 -3.95194
-16.234 -12.0827 -4.23734
-16.137 -12.1148 -4.22974
-14.9117 -12.8918 -4.00993
-20.1075 -10.1438 2.43356
-18.2436 -11.4951 0.675419
-18.2573 -11.491 0.632166
-18.2898 -11.6551 0.344856
-18.5841 -11.5369 0.361086
-17.214 -12.2392 -0.0595584
-18.1866 -11.8958 -0.100564
-16.8273 -12.3049 -0.205183
-16.2684 -12.6643 -0.386643
-16.3213 -12.535 -0.379277
-16.4892 -12.1581 -0.311855
-18.1691 -11.828 -0.30943
-20.3403 -10.956 -0.173725
-16.5364 -12.2219 -0.432915
-16.6142 -12.3068 -0.598996
-16.5934 -12.2256 -0.838345
-17.2328 -11.9303 -0.953312
-16.3332 -12.3837 -1.15928
-16.1493 -12.451 -1.19606
-17.9638 -11.6997 -1.15639
-16.4176 -12.096 -1.3868
-16.1648 -12.2502 -1.51442
-15.9811 -12.6464 -1.65835
-15.9902 -12.6222 -1.71821
-20.4283 -10.2837 -2.19693
-20.2091 -10.3601 -2.21769
-20.1215 -10.4164 -2.24257
-16.7808 -11.8136 -2.13929
-19.5581 -10.7065 -2.48924
-16.0318 -12.0924 -2.19201
-16.0482 -12.034 -2.16219
-16.1018 -12.1437 -2.24255
-16.0761 -12.1152 -2.29971
-16.0899 -11.9228 -2.21706
-16.0168 -12.0484 -2.26675
-17.3798 -11.2361 -2.32233
-18.8476 -11.0733 -2.64574
-16.0333 -11.9694 -2.32664
-16.0387 -12.0495 -2.50622
-17.3262 -10.9658 -2.54967
-15.8865 -12.6373 -3.06068
-15.9068 -12.5558 -3.1273
-15.7639 -11.8856 -2.94387
-16.6037 -11.321 -3.00617
-15.8897 -12.5715 -3.27293
-16.0852 -11.568 -2.93764
-15.747 -12.6351 -3.26506
-19.0022 -10.6416 -3.67263
-15.3684 -12.8675 -3.3274
-16.0218 -11.8372 -3.2566
-18.6839 -10.8164 -3.75687
-15.9879 -11.8426 -3.26711
-16.0548 -11.7879 -3.29442
-18.2516 -11.059 -3.86431
-18.9343 -10.5692 -4.00993
-16.2871 -12.1743 -3.76346
-17.758 -11.2702 -3.98288
-17.4391 -11.5019 -4.05324
-17.9028 -11.1704 -4.16758
-17.1778 -11.4657 -4.09558
-16.9121 -11.5969 -4.05873
-15.4492 -12.6289 -3.90859
-17.084 -11.4626 -4.12619
-17.6437 -11.265 -4.30297
-15.2599 -12.7166 -3.94746
-16.4058 -11.9903 -4.19956
-16.3273 -12.0205 -4.22552
-14.8999 -12.9243 -4.01836
-14.8795 -12.9154 -4.01949
-14.8709 -12.8881 -4.04231
-15.5341 -11.0379 2.08326
-19.1762 -10.0347 2.43334
-15.995 -12.6747 0.187649
-16.2596 -12.5252 0.190925
-19.8035 -11.4792 0.498231
-18.3716 -11.7029 0.269428
-16.4456 -12.3188 -0.324537
-16.4405 -12.2794 -0.342375
-16.4778 -12.2575 -0.443705
-16.4722 -12.3455 -0.478485
-17.827 -11.6756 -1.11214
-19.8751 -10.8178 -1.42114
-17.8688 -11.4701 -1.36408
-15.9371 -12.3495 -1.46992
-15.9017 -12.4109 -1.51138
-16.0274 -12.6081 -1.59053
-16.0234 -12.6544 -1.70091
-16.5156 -12.0869 -1.76948
-17.1217 -11.5685 -2.00443
-17.0784 -11.4443 -2.02104
-16.0565 -12.0895 -2.15532
-16.0477 -12.0386 -2.14408
-17.4999 -11.2546 -2.2453
-16.0354 -12.1059 -2.37962
-16.0256 -12.0375 -2.35673
-15.3361 -12.4783 -2.54625
-17.3919 -10.9097 -2.5988
-22.4055 -8.26718 -3.29973
-16.5853 -11.3917 -2.9495
-16.6447 -11.3282 -2.94454
-15.3882 -12.8576 -3.19205
-15.6782 -12.1843 -3.05541
-16.0622 -11.7662 -3.32034
-15.5801 -12.5778 -3.7425
-15.1222 -12.8838 -3.69039
-19.051 -10.4322 -4.33826
-15.6959 -12.4642 -3.82873
-16.9364 -11.5447 -4.04669
-15.3432 -12.6918 -3.90473
-15.97 -12.2856 -3.97974
-17.0395 -11.5243 -4.14401
-17.0073 -11.5281 -4.20468
-17.1217 -11.443 -4.18813
-16.8814 -11.5917 -4.23365
-16.3888 -11.9784 -4.21624
-14.7872 -12.966 -4.04357
-14.8151 -12.9067 -4.07439
-16.64 -12.2757 0.254504
-18.3722 -11.5651 0.289248
-16.414 -12.472 -0.318734
-16.3895 -12.4153 -0.309383
-16.4746 -12.237 -0.382479
-16.5453 -12.1661 -0.363543
-16.6522 -12.2474 -0.885383
-16.6949 -12.2441 -0.903755
-16.708 -12.2825 -1.10312
-16.7156 -12.2234 -1.09035
-16.6294 -12.2121 -1.13017
-17.7382 -11.6945 -1.12784
-15.784 -12.8473 -1.40078
-16.6195 -12.1817 -1.38976
-16.0327 -12.6192 -1.62642
-17.8376 -11.3753 -1.76659
-15.5964 -13.1222 -2.04867
-20.1294 -10.4751 -2.04655
-17.1217 -11.6114 -1.93278
-16.0607 -12.2553 -1.98256
-17.0925 -11.5886 -1.97575
-17.0922 -11.553 -2.03746
-16.087 -12.0075 -2.07938
-16.0818 -12.0285 -2.2111
-15.5585 -12.4576 -2.37174
-16.0047 -12.1336 -2.46308
-16.0537 -12.023 -2.54843
-15.8606 -12.3068 -2.63389
-16.2174 -11.7686 -2.54741
-15.8059 -12.2119 -2.61607
-16.113 -11.8316 -2.58467
-15.8673 -11.7398 -2.91513
-15.7981 -11.6705 -2.86381
-15.8349 -11.7181 -2.93926
-15.8226 -11.6601 -2.94469
-16.895 -11.2389 -3.40758
-18.0076 -11.6337 0.483501
-16.2645 -12.6782 -0.262279
-15.9024 -12.9779 -0.728879
-16.2332 -12.3658 -1.25203
-16.9039 -11.9908 -1.30909
-16.0529 -12.6031 -1.55511
-16.9975 -11.8697 -1.63437
-16.7844 -11.925 -1.77089
-18.0084 -11.3308 -1.81724
-15.5454 -12.4552 -2.21229
-16.1867 -11.8383 -2.32328
-15.9152 -12.126 -2.68114
-22.3523 -8.4206 -3.39735
-15.8802 -12.5023 -3.21662
-15.6128 -12.6956 -3.22068
-15.769 -11.8535 -2.97523
-16.7267 -11.7968 -4.12022
-15.1196 -12.7086 -4.14527
-18.4912 -11.5392 0.395943
-16.2309 -12.757 -0.349498
-18.197 -11.8563 -0.244944
-16.4059 -12.6005 -0.566647
-18.6048 -11.4127 -0.357229
-18.4519 -11.325 -0.781848
-16.698 -12.0702 -1.3811
-17.0742 -11.8224 -1.37115
-18.077 -11.1208 -1.75757
-17.0828 -11.5739 -2.10061
-16.9365 -11.5399 -2.2049
-17.024 -11.6202 -4.03842
-17.793 -11.9905 -0.314506
-17.6623 -11.7122 -1.24483
-17 -11.9367 -1.23046
-16.4721 -12.101 -1.74141
-16.5736 -11.9246 -1.80916
-17.0312 -11.6368 -1.83106
-15.7142 -12.0494 -3.07973
-16.661 -12.1895 -0.83301
-16.0725 -12.5323 -1.48334
-16.0597 -12.002 -2.69639
-17.1205 -12.0541 -0.478306
-16.0316 -12.7409 -1.43567
-15.976 -12.5966 -1.58508
-16.1334 -11.9325 -2.23909
-17.4129 -11.1065 -2.56686
-16.64 -11.2826 -3.06118
-15.6238 -12.4176 -3.22673
-16.7009 -12.4167 -0.259709
-16.9268 -12.1758 -0.294489
-15.6478 -12.8126 -2.31467
-15.7598 -12.6259 -3.22075
-16.0138 -11.5846 -2.91451
-16.5988 -12.3452 -0.483044
-16.0012 -12.134 -3.00279
-16.0043 -13.0379 -1.40365
-14.9935 -12.8779 -3.95572
-15.8597 -12.3573 -3.96193
-17.0865 -11.492 -4.05538
-17.0629 -11.5418 -4.04199
-15.8329 -12.4425 -3.82162
-19.6071 -10.1314 -4.28514
-16.1168 -12.3743 -3.48981
-20.1739 -9.96464 -3.83608
-15.7142 -12.6202 -3.35379
-15.5841 -12.7066 -3.25889
-19.6298 -10.3444 -3.56211
-19.9103 -10.1796 -3.53311
-15.5041 -12.8322 -3.16761
-15.1509 -13.0292 -3.03214
-15.5018 -12.9605 -2.66854
-15.5291 -12.9459 -2.68668
-20.2646 -10.2339 -2.68122
-19.7083 -10.6256 -2.49953
-15.631 -13.1061 -2.02863
-15.7712 -12.7412 -1.68842
-16.9509 -11.8159 -1.25906
-17.9625 -11.6831 -1.13812
-19.3176 -11.2493 -1.05901
-15.7167 -12.9676 -1.17004
-20.3224 -10.8338 -0.539346
-16.719 -12.4337 -0.71011
-20.4954 -10.8418 -0.171745
-16.4919 -12.2409 -0.40252
-16.4852 -12.1927 -0.379719
-16.4129 -12.4242 -0.423245
-16.4481 -12.3581 -0.366015
-16.3323 -12.5774 -0.344449
-18.4397 -11.6071 0.186257
-16.1328 -12.676 0.0929112
-16.5171 -12.3283 0.206918
-16.6388 -12.3068 0.304402
-20.1392 -10.0366 2.46337
-20.1485 -9.98266 2.4703
-16.9426 -11.5515 -4.09891
-17.1761 -11.4984 -4.07619
-16.0569 -12.4069 -3.52641
-19.5914 -10.6852 -2.48358
-20.2645 -10.4746 -2.30064
-20.4131 -10.3229 -1.97771
-15.857 -12.7255 -1.67481
-16.2669 -12.2633 -1.51802
-17.025 -11.917 -1.46423
-16.9903 -11.7927 -1.32922
-16.4832 -12.1981 -0.325656
-16.4511 -12.4 -0.403197
-16.1816 -12.7579 -0.281825
-15.9432 -12.8322 -0.168106
-20.1969 -11.2228 0.454014
-16.1208 -12.6919 0.0741765
-20.167 -10.1248 2.43966
-16.9971 -11.5444 -4.15315
-16.9735 -11.5507 -4.06543
-17.6094 -11.2955 -4.17669
-16.6067 -11.3846 -2.9661
-15.1939 -13.004 -3.17485
-16.1616 -12.0661 -2.10725
-16.4865 -12.3767 -0.48734
-16.4293 -12.3021 -0.360063
-15.3508 -12.7172 -3.9244
-15.4754 -12.3969 -2.61433
-16.1035 -12.0184 -2.1467
-15.5796 -12.4886 -2.18322
-17.0754 -11.5881 -1.96738
