-15.2741 -13.832 0.58521
-13.6834 -13.2494 -4.10656
-16.9062 -13.4859 2.08797
-17.2391 -10.3267 0.573609
-14.488 -10.8606 -2.35936
-13.8748 -13.9476 -3.26627
-12.477 -12.6129 -2.11885
-16.9377 -12.7603 1.63004
-13.8066 -14.4019 -3.30749
-13.0201 -14.2169 -4.63638
-15.5303 -13.4102 0.61752
-17.8954 -12.3482 4.03413
-15.6605 -15.3887 -2.38002
-15.1216 -13.584 -1.29879
-19.0474 -10.5045 2.70351
-17.3569 -12.1482 0.728634
-17.9107 -12.0771 2.05555
-17.6235 -14.2861 1.93121
-13.5659 -12.8861 -3.46843
-13.7301 -11.7246 -5.05983
-13.3721 -11.7878 0.0805054
-13.0677 -13.9406 -2.15805
-16.6123 -13.1414 0.153699
-11.1467 -13.0757 -2.82772
-16.1005 -12.6732 -0.686974
-16.8806 -12.6773 1.57554
-16.6272 -13.6563 1.27275
-17.1713 -13.9549 4.0187
-12.9088 -13.6192 -2.40519
-16.1754 -13.2761 1.28797
-16.5057 -12.7655 0.942704
-12.774 -13.6146 -1.41353
-13.768 -13.2025 -3.84603
-10.5387 -12.7522 -4.33422
-17.7714 -12.8727 1.60951
-11.8642 -13.2835 -2.71113
-14.1712 -12.1772 0.774255
-15.9383 -14.2215 -3.5263
-13.488 -13.5468 -4.6758
-12.8444 -13.1805 -0.203544
-13.6739 -14.8456 -4.81418
-13.1926 -11.0085 2.34532
-12.6273 -11.9251 0.0259626
-12.4837 -13.9804 -3.45797
-12.9688 -13.6301 -4.99413
-13.0788 -13.5295 -2.96849
-12.5226 -12.3728 1.09755
-11.7636 -13.1574 -4.02309
-13.8319 -13.923 -2.898
-12.4689 -12.5603 -2.27083
-12.5025 -11.6769 0.368234
-11.1287 -13.3921 0.654196
-12.6789 -12.4236 -2.58361
-13.3312 -14.2086 2.19869
-14.3162 -12.4833 -1.21078
-17.5997 -14.247 0.228197
-13.7474 -10.9349 -0.183952
-13.3851 -14.4757 -0.442448
-10.5469 -13.6062 -4.50872
-11.1504 -14.0176 -3.32939
-11.7955 -11.2702 2.21471
-15.4122 -11.5895 0.419981
-12.3166 -12.6023 -4.4244
-12.6792 -14.875 -2.63591
-12.9267 -14.3247 -4.16428
-11.8783 -15.4276 -4.29074
-11.7467 -14.0819 0.814557
-14.0063 -14.9098 1.76178
-13.1573 -14.2041 -1.18861
-13.0079 -12.5946 0.917894
-11.518 -14.7085 -4.73791
-14.0972 -13.5521 0.149715
-11.1272 -14.4187 1.55572
-12.2367 -13.4544 0.140457
-12.5402 -12.5731 0.73834
-14.6042 -13.2372 1.36872
-12.9823 -14.3125 -2.41063
-12.2078 -14.1573 -3.87737
-13.6633 -14.2205 -2.5451
-13.7994 -14.6116 1.00407
-11.5465 -12.7878 -0.811742
-13.6443 -13.529 0.594421
-13.3728 -14.2091 1.79324
-14.055 -13.572 -2.77268
-11.9365 -14.3978 -3.2201
-11.4648 -13.8747 -2.93668
-12.3748 -13.9448 0.121702
-12.7002 -13.9673 -1.97959
-13.8837 -13.9427 -2.93199
-12.1483 -13.0979 1.43581
-12.6274 -12.6778 -0.103823
-11.8304 -15.4857 -2.99548
-12.9035 -13.145 -0.330127
-14.0312 -16.5899 0.379026
-12.0788 -13.9104 0.222731
-13.0037 -14.001 -2.40858
-13.3065 -15.4491 -2.21988
-11.4215 -13.6581 -0.308421
-11.3223 -14.214 -1.2759
-17.2426 -11.3776 -3.65207
-17.5767 -9.65334 -3.37676
-16.9847 -12.9081 -3.5154
-16.1914 -11.8798 -3.78077
-15.7928 -10.1817 -2.34577
-17.6654 -12.7463 -2.61305
-17.4965 -12.1118 -1.3836
-18.0347 -11.8683 -2.65573
-16.531 -12.6582 -3.07559
-17.3156 -11.751 -1.83014
-17.9715 -11.4081 0.938532
-18.2298 -9.93901 0.270004
-15.1807 -10.7502 -4.18743
-15.4868 -12.4163 -3.39642
-18.9686 -11.5551 -1.51776
-15.0383 -13.2586 -1.32867
-16.5711 -11.2005 -1.38424
-14.2992 -11.3474 -2.45629
-15.6828 -14.714 -3.1045
-15.8883 -12.1682 -4.5482
-18.3411 -12.2068 -1.78741
-15.265 -14.9159 -4.63212
-16.6805 -11.9513 -1.58069
-15.434 -11.0557 -4.32314
-13.3608 -13.9603 -4.43076
-14.3997 -14.8276 -1.9724
-13.5835 -13.5008 -3.25053
-17.2364 -12.534 -2.47281
-15.1376 -12.7734 -2.91391
-14.9669 -13.4355 -2.43404
-17.3725 -11.503 -0.31871
-17.187 -11.9186 1.18684
-13.6845 -12.1796 -3.28955
-13.3236 -12.674 -3.49733
-15.3416 -10.4779 -1.08616
-15.1649 -12.4617 -2.16059
-16.7411 -12.3034 -2.26357
-12.1273 -13.0788 -2.95522
-13.0477 -14.125 0.0909258
-14.1332 -11.801 -4.93859
-12.9342 -13.7622 -3.83516
-18.785 -10.2659 0.68641
-15.7431 -11.911 -1.61856
-13.2801 -12.1603 -1.27338
-13.8155 -11.6625 -3.57224
-14.3777 -12.4967 -2.85355
-12.924 -11.8433 0.769576
-13.897 -12.6534 -3.61886
-12.8601 -13.8747 -1.63625
-16.6242 -13.2924 1.37367
-14.3842 -11.739 -1.32451
-13.3815 -12.8818 -2.87545
-18.7858 -12.3621 -0.37173
-14.1122 -12.7243 -2.18911
-12.5537 -11.2071 -4.99372
-12.551 -13.4502 -3.76639
-13.8619 -13.1272 -2.95049
-16.9751 -12.9115 3.76322
-17.4174 -13.3248 0.306754
-12.3968 -15.2122 -0.419412
-14.4489 -10.5348 1.2098
-13.1669 -13.1624 -1.31716
-15.158 -15.0365 0.420908
-12.0167 -13.0748 -4.17007
-12.2137 -12.0634 0.730874
-12.6805 -11.9001 0.70805
-12.302 -13.778 -3.42085
-12.1799 -13.3808 -2.18513
-10.7659 -13.4215 2.40748
-12.9741 -10.9309 0.0794069
-15.0174 -12.4373 0.995197
-12.8888 -14.7946 -4.15839
-14.1795 -12.4923 0.964913
-13.053 -13.4763 -2.8804
-12.757 -14.4794 -2.99739
-13.0464 -15.306 -4.47746
-12.7067 -12.7691 0.102716
-12.6378 -10.2781 -0.832863
-13.3205 -15.4157 -4.83919
-14.3437 -13.0409 0.390994
-12.635 -14.3606 -3.87408
-13.2686 -13.4623 -2.13263
-12.4577 -13.8178 -2.34743
-12.5307 -12.8921 1.18211
-11.1714 -14.665 -1.12489
-11.2744 -14.9368 -5.40271
-12.2741 -15.4155 -2.71058
-12.6645 -15.438 -4.06891
-15.4619 -13.489 -0.135373
-11.7855 -15.2422 -3.68164
-13.3545 -12.5883 -0.442826
-11.8072 -14.6375 -3.98691
-12.3167 -13.7018 1.32445
-14.2234 -13.7548 -1.30587
-11.971 -13.2272 -2.16601
-11.562 -13.8885 -2.11065
-14.6496 -14.1231 -1.19134
-12.7404 -12.2973 -0.65368
-12.7365 -14.3546 -0.934776
-11.8697 -15.7167 -3.61867
-13.4776 -12.7747 -1.61364
-13.7067 -12.5102 -1.73886
-13.0958 -14.8438 -1.78247
-13.3128 -13.4913 -0.0632124
-13.308 -13.3373 -2.46244
-12.6291 -15.1179 -0.966474
-12.821 -11.4046 -0.814802
-12.5837 -14.9327 0.655155
-12.8284 -15.5516 1.75083
-13.1183 -14.0283 -1.25493
-12.7697 -14.3244 -1.20438
-12.9682 -14.5823 -0.0836815
-14.0147 -14.9967 0.631398
-14.0982 -12.9187 -0.606585
-13.6787 -13.9127 -0.666407
-16.2296 -9.93281 -1.12907
-16.3273 -11.7776 -2.92343
-15.8794 -11.8719 -3.5897
-15.5185 -13.1387 -4.18238
-16.0115 -12.3078 -3.22007
-14.9257 -13.0332 -3.23014
-17.5277 -11.453 -2.20818
-15.6512 -12.4638 -2.56268
-17.6896 -12.9593 -2.43584
-16.8795 -12.8035 -4.07817
-16.6182 -12.4852 -2.9298
-14.742 -13.0461 -1.41398
-16.5178 -12.8772 -1.52062
-14.7626 -11.994 -3.08615
-16.8309 -12.226 -1.38734
-15.5844 -13.0454 -1.68303
-15.9558 -12.7226 -1.22175
-15.2727 -14.1871 -2.93258
-12.8885 -13.1411 -2.04118
-13.8815 -13.0724 -2.81275
-16.3952 -12.4838 0.761031
-13.3188 -12.7253 -3.96216
-16.53 -11.9803 3.10587
-11.8311 -13.4265 -3.19041
-13.9001 -14.3353 -3.26256
-12.8484 -13.0638 -4.59471
-14.203 -12.8523 -1.22635
-12.9691 -13.786 -2.37445
-12.9037 -12.2166 -2.23409
-13.0977 -11.6544 -1.34065
-14.1818 -12.526 -0.0279426
-16.5513 -12.3781 2.73377
-16.8055 -13.6539 1.64568
-17.0432 -11.3321 0.205601
-16.6173 -15.2222 0.0397807
-14.2073 -13.4548 -2.8596
-12.4968 -12.5272 -1.13651
-17.1695 -13.5071 1.46778
-12.8147 -12.5062 -1.79797
-14.3064 -13.3937 -3.45449
-17.8469 -13.6876 0.169415
-15.648 -13.0391 0.12878
-13.7156 -13.3446 -1.6268
-13.0448 -14.3916 -4.57553
-13.9801 -14.0514 -1.38515
-15.6481 -14.7261 -1.52169
-13.9166 -12.9269 0.89168
-12.0168 -13.2963 -5.71483
-13.3137 -14.5077 -2.84624
-16.6939 -14.0477 -0.315556
-15.3628 -13.1005 -0.218776
-15.5874 -13.1832 -1.2229
-15.0468 -13.4757 0.124452
-15.7586 -13.5488 0.571332
-15.0284 -13.2912 0.148939
-13.265 -12.3251 -1.04212
-11.7991 -13.6183 -4.48953
-11.5378 -14.2588 -5.18683
-13.6288 -14.9155 -3.76628
-12.0466 -11.8631 0.456944
-14.3692 -12.6274 0.817509
-15.3363 -13.729 -1.89893
-12.8364 -15.8797 -2.52411
-13.5066 -12.6008 -0.820238
-13.264 -15.7139 -1.29201
-13.7228 -13.2034 -0.235211
-14.6942 -13.1164 0.393488
-12.8054 -14.4489 0.624563
-13.4313 -14.2052 0.49655
-10.6205 -14.2899 0.420706
-12.2954 -13.4608 -1.83044
-11.7745 -15.5311 -2.49717
-12.0248 -13.0024 -0.141867
-11.1174 -15.2415 -3.20747
-11.8649 -14.3103 0.908326
-13.1413 -15.5323 -0.569905
-11.333 -14.9392 -0.181616
-14.0633 -13.4598 0.831804
-14.0863 -15.9623 -1.57426
-15.3309 -13.4647 2.40143
-13.4908 -14.2399 0.459608
-18.4477 -11.6368 -2.19593
-15.8037 -12.4104 -2.37332
-18.1599 -10.1442 -0.592331
-16.731 -13.5121 -4.079
-17.3493 -10.993 -2.85336
-15.3594 -13.2553 -2.21741
-15.2623 -12.3382 -0.993413
-14.23 -14.4544 -4.5
-12.9503 -12.3826 -4.76755
-13.7556 -12.5771 -0.085584
-15.7968 -12.6904 -2.60298
-17.1331 -12.6023 -1.62976
-14.7366 -12.6978 -1.91745
-12.454 -13.9676 -3.62647
-14.3718 -13.6109 -1.24498
-16.4672 -13.0972 -1.96649
-16.1663 -13.4955 -0.183868
-12.4198 -12.7226 -2.00812
-16.8138 -12.9959 0.057303
-15.3079 -11.7635 2.05669
-15.2388 -13.8953 0.752657
-17.1527 -13.7591 2.89414
-13.7322 -14.4938 -1.2123
-16.9067 -12.8162 1.99659
-13.3475 -12.9342 -3.39387
-12.2716 -13.2408 -2.55997
-11.449 -11.6454 -2.04313
-11.5813 -15.3374 -2.67798
-11.637 -12.1993 -2.51828
-13.4466 -14.4216 -4.61442
-14.7323 -12.8329 -1.58517
-14.9949 -13.1092 -1.64308
-13.5758 -11.5506 -0.580509
-15.7233 -12.3539 0.847737
-13.4283 -13.7738 -1.52868
-12.4131 -14.0918 -1.97217
-10.6911 -14.7799 -3.05745
-14.2734 -15.2825 -0.145116
-13.9049 -13.534 -0.464706
-12.2053 -14.579 -1.91208
-14.3749 -12.7408 0.876136
-11.8846 -14.2192 -1.88977
-13.7508 -13.6997 1.11024
-13.5218 -13.5926 -1.82211
-14.2055 -13.0841 -0.620891
-12.7039 -13.9192 -4.25196
-10.758 -13.7632 1.39386
-11.8858 -11.8822 -2.81178
-11.6326 -14.6065 -2.70805
-11.9722 -13.4074 -2.34687
-12.8029 -14.9093 -3.43456
-13.004 -14.4796 0.579402
-10.1577 -13.9755 -0.989592
-13.1799 -14.7952 -1.397
-13.3047 -15.0371 -1.72258
-11.9627 -12.4268 -0.0907946
-16.2982 -10.5428 -3.10149
-16.3012 -12.4864 -3.41412
-18.6335 -12.7648 -2.64901
-15.3897 -11.7876 -3.48488
-15.4345 -12.3629 -1.19707
-14.2717 -13.7313 -2.82891
-14.8964 -10.7639 -0.825565
-12.4764 -13.0967 -2.67002
-13.6386 -12.4694 -3.12246
-14.3343 -14.0369 -4.45591
-13.6518 -13.9217 -0.57076
-14.1912 -13.4503 -5.2682
-14.4862 -14.2057 -0.987828
-18.0307 -13.1142 4.60999
-18.5612 -11.7196 1.04812
-17.0595 -14.7221 2.25044
-15.8403 -13.5996 1.82902
-15.5302 -12.2848 -2.64134
-13.1059 -12.1208 -1.25154
-14.6635 -14.4268 -1.58364
-14.3352 -12.9163 -2.09437
-14.3447 -14.3785 -1.56975
-12.8663 -12.8127 -3.07672
-13.6791 -14.3814 -2.77438
-13.607 -13.4965 -2.74032
-13.1732 -12.5466 -0.489149
-13.4384 -11.8064 -0.621897
-11.9574 -13.6387 -3.06625
-11.0132 -12.4965 -2.50297
-12.9158 -13.155 0.0666314
-12.6614 -13.5483 -0.417621
-12.8931 -14.0051 -1.51459
-11.8349 -12.6445 0.0194142
-12.2398 -13.3613 0.776137
-11.2681 -16.5615 1.71519
-18.0256 -11.0257 -4.58243
-14.2463 -12.6314 -3.28097
-14.0892 -11.8928 -3.20451
-15.5479 -12.1837 -1.90331
-13.0565 -13.666 -3.35999
-16.2646 -13.6302 0.808903
-13.6198 -13.47 -3.05974
-13.3763 -12.0588 -2.77963
-17.6264 -10.9601 0.246778
-15.1662 -14.8231 0.284645
-13.3947 -14.2711 3.47639
-14.104 -13.3173 -0.677733
-13.7539 -15.4554 -2.65054
-12.1978 -14.7317 -1.84594
-13.1071 -14.9065 -0.529541
-11.277 -13.641 0.877786
-12.8697 -13.7279 0.660678
-13.9475 -10.5372 -1.52311
-14.671 -12.7364 -1.54322
-13.2388 -12.8547 -1.50636
-13.1977 -13.5334 -3.56036
-14.2351 -13.9608 -2.69794
-14.7235 -12.2221 -0.3628
-13.2881 -13.782 -1.36354
-15.3756 -11.5402 2.10353
-13.157 -12.7352 -2.90037
-13.7883 -13.9432 0.722427
-12.3603 -12.3093 0.545091
-13.5958 -12.2932 -2.01416
-14.7151 -11.4686 0.458765
-15.4377 -12.8741 1.22931
-13.9365 -11.2286 -0.487914
-15.1083 -11.6357 -1.71208
-15.1983 -11.6724 -2.88894
-12.9228 -13.995 -2.44639
-14.4376 -12.8936 -1.59711
-13.9294 -12.5571 4.08624
-11.3388 -13.1824 -1.81995
-13.6447 -11.8899 -5.2013
-16.2957 -12.4003 -1.16444
-13.2523 -13.5009 -2.23707
-13.5843 -12.4866 -2.18509
-15.8933 -14.7128 0.970733
-14.1726 -11.2654 -2.01072
-12.6694 -12.5121 -2.31945
-12.4343 -13.6452 -1.50395
-11.7128 -13.9959 -2.9647
-13.4072 -13.9553 -1.18299
-12.4199 -13.6699 -1.40392
-16.6563 -13.2712 1.25062
-11.9424 -13.9849 -0.996807
-14.5766 -11.2528 -0.879033
-18.5927 -9.7577 3.92613
-14.5167 -11.7804 1.8563
-17.3711 -11.041 3.25581
-18.2526 -13.2455 5.55075
-16.0519 -12.2851 2.48204
-15.0262 -12.9518 2.88721
-17.0179 -11.8462 2.41123
-15.4019 -11.0479 2.11515
-13.5883 -12.913 3.39518
-18.7503 -12.6143 3.57818
-13.6167 -13.0317 1.2124
-13.2297 -11.1691 3.51193
-12.5282 -13.2825 1.55404
-12.8443 -13.2943 1.62539
-17.8314 -11.7346 0.651197
-17.8381 -10.5298 -0.140146
-12.8599 -12.1916 -0.902772
-15.2239 -12.0952 2.10429
-16.2998 -11.923 -0.364524
-18.8093 -10.4339 -3.8602
-16.9754 -11.9983 0.854641
-16.5156 -12.5944 -1.27775
-17.4723 -11.3094 -0.379132
-15.5652 -12.3228 1.41595
-15.8782 -14.2573 0.589056
-15.8383 -10.9346 0.268802
-14.5856 -13.711 -0.186787
-16.6443 -11.9763 -0.575285
-14.8062 -10.1168 -0.317269
-16.9039 -11.2684 -3.93289
-17.9636 -11.3662 -1.45197
-14.1904 -13.8405 -0.974385
-13.5743 -12.393 -0.796997
-15.9143 -13.4517 -1.43447
-16.8616 -13.9371 -0.224632
-15.234 -10.3695 -1.32036
-14.4889 -12.9917 0.7382
-16.1999 -11.3322 -4.80968
-15.4988 -12.9556 -1.60213
-16.0235 -12.8547 -1.29971
-15.7157 -12.1827 -2.65207
-14.8132 -12.6403 0.588715
-15.1844 -13.9825 0.799495
-17.3981 -12.312 -3.37788
-17.7561 -12.8227 -4.39472
-16.7704 -10.4072 -2.44015
-17.4858 -11.6528 -2.44711
-17.4204 -11.3726 -2.96305
-14.282 -12.2397 -1.13371
-15.9547 -12.7398 -3.81406
-15.5578 -14.9021 -1.00208
-12.9384 -14.2725 -2.0978
-12.5512 -13.1349 0.124262
-14.41 -12.8892 0.174529
-13.9569 -12.7495 -1.94712
-15.7595 -13.907 -2.05295
-13.0404 -14.8189 0.0618829
-13.2157 -11.8485 0.296872
-13.3925 -11.0068 -0.051082
-13.4858 -14.0634 -1.93994
-12.5908 -14.3887 -1.63389
-12.4301 -12.9799 -1.01468
-12.5985 -14.2493 -0.400361
-16.5933 -11.5021 -1.24833
-15.528 -11.636 -1.67078
-13.7461 -13.7815 0.225037
-12.1316 -11.7306 -2.74132
-12.6968 -13.6263 0.0305759
-12.643 -12.941 -2.13134
-11.322 -12.8303 -1.13029
-13.9253 -11.5274 -4.04053
-14.8826 -11.6402 -3.42013
-12.4489 -12.8606 -1.37913
-12.9185 -13.3691 -0.842344
-12.0556 -12.9436 0.316039
-12.8235 -13.3634 -3.60527
-14.2193 -11.0025 -3.78701
-14.2559 -14.1953 -4.27197
-11.7137 -12.0843 -4.92978
-13.6797 -13.3051 -3.92978
-13.6603 -13.4216 -3.78156
-13.844 -11.5394 -3.52938
-12.9654 -13.1984 -3.11463
-12.625 -13.2681 -4.62894
-11.4876 -14.8544 -1.76138
-12.8686 -12.6736 -4.03451
-11.5635 -14.2198 -3.69358
-10.8628 -14.5018 -3.655
-15.1836 -12.8872 -1.80548
-11.02 -15.2906 -5.48271
-12.0457 -13.2968 -5.19893
-11.5545 -13.6204 -4.84753
-13.4978 -13.1266 -3.03779
-13.3803 -14.7035 -2.564
-13.4029 -12.9241 -4.28451
-13.6293 -13.8374 -4.95331
-11.8212 -13.9279 -6.16151
-15.5298 -14.3598 2.35749
-18.1238 -14.1504 4.08562
-18.7892 -13.3929 2.34287
-18.9693 -11.3463 -0.678073
-19.794 -11.8839 -0.292405
-16.38 -12.8326 0.906968
-15.7784 -14.1647 0.532606
-16.4357 -11.5463 0.437931
-15.5715 -13.9609 -1.85265
-17.5273 -12.2682 -1.07841
-19.6787 -11.9346 -1.69899
-16.4001 -12.5036 0.416039
-12.9812 -13.6958 0.469571
-18.6133 -10.6989 -1.19569
-17.9568 -10.0722 -4.88643
-17.8581 -11.0703 -5.00053
-15.6216 -14.7627 1.75737
-15.388 -13.1598 -2.20002
-14.2984 -14.7376 1.1066
-15.1933 -12.9868 -4.33405
-13.3955 -13.5918 -0.92833
-13.5334 -14.6048 1.37393
-14.6714 -14.963 -0.471997
-13.2771 -13.5876 -2.67103
-15.8022 -11.6842 -1.62313
-14.5049 -14.2958 -0.961881
-14.5548 -14.6144 -1.09406
-13.8783 -13.302 0.0160717
-12.7717 -14.0277 0.476671
-13.6111 -14.4438 0.0227457
-14.9304 -11.3725 -2.99977
-12.3293 -10.7664 -2.08192
-14.2304 -11.7179 -3.09761
-12.038 -13.0161 -0.288241
-15.7064 -10.7245 -3.70426
-12.117 -13.2014 -1.88327
-11.9572 -14.2578 -0.0520695
-16.0552 -11.9023 -2.95043
-13.5989 -12.4397 -3.52095
-12.587 -14.1608 -3.01721
-14.0989 -13.6383 -0.000181958
-13.1931 -14.5393 -2.14561
-13.346 -14.0529 0.333462
-12.8574 -13.7992 -1.76425
-14.3405 -14.0765 -0.805679
-13.0951 -12.8028 0.0356545
-13.8972 -14.4687 0.00938901
-13.0562 -15.666 -1.35693
-14.0795 -12.4714 -1.12091
-15.4988 -12.3625 -2.82942
-12.9167 -12.5994 -1.26935
-12.6133 -13.3583 -3.69807
-13.3991 -12.0247 -1.15995
-13.2424 -14.746 -1.95305
-13.0291 -13.3215 -4.17036
-12.8328 -13.5251 -5.22946
-12.0253 -11.6471 -5.06002
-13.5721 -14.3115 -2.78921
-13.32 -15.3275 -4.57335
-12.0483 -14.0434 -2.61039
-14.3666 -16.5016 -4.61384
-12.1391 -13.2701 -3.70344
-14.1055 -12.2413 -4.11619
-10.6769 -15.0384 -3.80543
-11.6363 -14.7977 -4.77209
-20.2618 -15.1516 0.818864
-16.0387 -11.7217 3.64906
-18.9667 -11.0403 0.40448
-14.8483 -11.0789 2.52622
-18.3117 -12.2428 -0.92236
-18.014 -12.3798 -0.233994
-14.1084 -11.6675 0.580234
-18.0163 -12.236 -1.19969
-14.5878 -13.439 0.14471
-14.8106 -11.8797 -0.193374
-17.8142 -10.6955 -1.74905
-15.4527 -13.3313 -1.29985
-16.7754 -13.5562 -2.32214
-13.0556 -13.6909 2.62553
-14.2137 -13.3593 -1.12346
-14.8835 -14.1146 0.265609
-13.9487 -11.4032 -0.81295
-16.2562 -13.6651 -0.355633
-12.5397 -12.5749 -0.0244033
-15.408 -14.7939 -0.401426
-14.2977 -14.5829 0.704647
-16.1844 -11.6113 -3.33689
-14.1268 -10.3756 -0.0505079
-13.7712 -13.599 0.255064
-12.2206 -12.1433 -1.32466
-16.3364 -10.6331 -4.22003
-13.6606 -11.3673 -0.550231
-13.6269 -15.9397 1.23387
-15.2019 -11.9187 -2.11865
-13.5115 -13.6415 -0.869742
-13.2041 -13.8821 -2.6476
-14.2702 -14.7921 -0.537226
-13.809 -14.3747 0.652035
-14.0798 -13.2959 0.433746
-16.8064 -12.9403 -2.24736
-15.2709 -13.7353 -0.583842
-11.1262 -13.828 1.67408
-13.4266 -13.3889 -0.913073
-14.7399 -11.8515 -0.895874
-12.4042 -14.9276 -0.839529
-15.9264 -10.7181 -2.56783
-13.0537 -13.6107 -2.95059
-14.0189 -11.0102 -4.08441
-13.5418 -12.5345 -1.11984
-14.145 -12.2958 -1.32479
-14.6103 -13.8342 -3.49799
-13.5063 -12.8109 -1.48162
-14.1555 -13.3384 -4.29637
-12.2284 -13.949 -3.2599
-11.239 -14.4846 -0.508998
-11.9365 -12.6733 -3.68322
-11.8362 -12.388 -2.533
-13.2097 -12.6936 -2.69619
-11.972 -14.728 -4.94883
-10.1234 -14.2901 -6.13141
-19.7052 -13.2394 4.78222
-17.9119 -11.7173 3.21831
-16.9814 -10.6706 2.56242
-16.7636 -11.7349 -0.900338
-16.4124 -11.3113 -0.96608
-16.7371 -13.8549 -1.0651
-15.4147 -12.654 -1.29011
-12.573 -14.803 1.85804
-14.3648 -13.844 -0.0430217
-13.7944 -14.7291 0.913553
-16.572 -12.1936 -1.58977
-15.3973 -12.1921 -2.86919
-15.2876 -14.824 -2.157
-14.439 -13.9855 -2.18554
-14.5928 -13.3235 -0.146873
-12.5498 -13.3205 -3.33727
-12.9619 -12.6168 -0.730738
-12.3092 -13.2938 -2.34664
-13.7183 -15.5584 1.12286
-12.2747 -13.8323 -1.28807
-14.8229 -13.053 -3.73384
-11.142 -15.1625 0.500935
-11.812 -13.3923 -1.59686
-11.9588 -13.5846 -1.02682
-13.2987 -14.7159 -2.14024
-13.4772 -13.6212 -3.35063
-13.947 -13.0482 -4.807
-13.7938 -14.339 -3.129
-12.9693 -12.2877 -2.75673
-13.683 -12.853 -4.44115
-13.4754 -13.2903 -4.40113
-13.1462 -14.3594 -2.31108
-13.6583 -12.7455 -3.56296
-13.1181 -14.6179 -3.6957
-11.1507 -13.7712 -3.73827
-12.7043 -13.2523 -2.96161
-14.7631 -13.0698 0.212591
-17.2501 -14.8177 1.07409
-17.1942 -13.5923 0.0966724
-15.3849 -13.796 1.66253
-16.2803 -11.4058 0.0622425
-16.2399 -11.5624 0.788405
-14.0579 -13.9572 -0.448368
-17.1069 -11.9657 -1.75884
-15.5028 -13.0109 -0.733892
-15.6403 -11.4961 -2.25094
-14.1219 -14.3465 -0.856736
-13.2297 -13.1694 -0.612572
-12.289 -14.1731 0.337244
-16.1524 -14.6563 -2.06286
-14.9108 -11.7908 -2.62823
-13.5679 -13.6265 1.69198
-16.0672 -12.1245 -4.72414
-13.3076 -13.0379 -0.952322
-14.6325 -12.6697 -3.27327
-11.476 -14.134 -1.89057
-13.2299 -12.8286 -4.70522
-13.9217 -12.3447 -1.43019
-14.5413 -12.9756 -3.913
-12.0228 -14.097 -2.54419
-16.5727 -12.9624 0.62812
-12.7161 -13.085 3.0782
-13.9199 -12.1774 1.42539
-14.3877 -12.8943 -0.335709
-13.7987 -13.2887 -2.19904
-14.8633 -12.848 -1.20798
-12.4852 -13.1267 -0.36587
-13.6499 -13.8231 -2.85349
-13.794 -13.3176 -0.673643
-13.1906 -12.9169 -3.67752
-16.1425 -11.8311 1.6596
-15.974 -12.6196 0.494346
-16.3096 -12.6233 -1.0236
-15.3013 -11.7003 0.926124
-15.7407 -10.9799 1.98442
-13.5669 -11.6572 -0.769894
-14.9311 -12.2354 -0.660794
-14.8968 -14.3359 -1.72442
-13.7106 -13.528 -1.11074
-15.1764 -12.6858 -1.16504
-15.0864 -13.957 -1.03958
-14.1657 -13.3546 -2.84666
-12.4534 -12.8773 -3.6821
-12.1201 -12.3459 -5.17894
-12.9368 -13.1087 -2.50754
-13.1478 -15.806 -1.35067
-11.1976 -14.2956 -3.21193
-11.7334 -13.8603 -5.77208
-16.3361 -11.9582 0.00599416
-15.1964 -13.5381 -1.05518
-14.1509 -13.3554 -0.793
-17.2748 -12.5608 -0.358793
-12.3929 -14.735 -2.07337
-13.865 -13.3973 -1.66344
-11.3421 -12.7954 -0.269368
-11.3527 -14.7106 -1.80358
-13.4612 -13.0391 -2.93432
-12.2513 -14.4868 -0.324033
-14.0357 -14.0592 -1.33921
-14.1726 -13.2638 -1.42868
-14.3526 -15.4497 -0.700583
-12.5666 -14.624 -2.91285
-12.3488 -14.2615 -2.28445
-12.7278 -13.8636 -4.05073
-12.5012 -11.8191 -3.12921
-11.8578 -13.313 -2.92635
-13.1782 -13.5591 0.864574
-12.5784 -12.9473 -2.37057
-14.4327 -13.5693 0.232937
-14.8212 -11.0902 3.41834
-16.7031 -14.276 4.55715
-18.3496 -11.9974 2.29315
-16.2957 -13.3322 1.09261
-10.3722 -12.1646 1.49627
-12.3668 -12.7907 0.42752
-16.8979 -13.0807 1.27572
-17.5219 -13.656 -0.233589
-14.2677 -13.4126 1.3805
-16.8844 -13.5726 1.83384
-15.5419 -13.2623 1.60117
-16.6728 -13.853 0.0150371
-16.3917 -13.7459 1.37851
-16.0114 -13.1437 1.24342
-16.7555 -13.1462 0.746056
-17.5662 -12.3913 0.946113
-18.6548 -12.9624 0.508722
-17.3746 -13.4788 2.17437
-15.3828 -14.3204 -0.333737
-14.6078 -15.786 0.29914
-11.9071 -14.4558 0.304181
-13.703 -15.2575 0.124523
-16.2559 -12.0974 -1.1585
-17.0564 -11.8948 -0.375086
-13.898 -13.7896 -1.42086
-17.1211 -11.4267 0.413292
-14.4732 -12.3409 -1.76778
-12.9543 -11.5351 -0.333393
-18.2461 -11.5703 -0.611458
-11.2886 -13.7 -0.484947
-15.5061 -13.5356 -1.83912
-14.625 -12.6403 -1.9361
-14.4312 -11.3524 0.0467976
-14.3537 -11.7441 -0.753788
-13.9929 -13.2707 0.371101
-16.1517 -12.2334 0.449614
-12.6729 -14.8064 -1.26251
-12.087 -14.9214 0.929582
-13.932 -13.3374 -0.401685
-14.2633 -14.2064 -1.25711
-14.9424 -14.198 -1.82032
-16.5382 -12.3199 -0.574282
-16.2415 -13.0147 -0.541058
-12.0101 -13.6026 1.05185
-12.5461 -13.8308 -0.0403978
-14.6143 -13.9732 -0.846962
-18.5554 -11.2596 -2.04356
-18.5136 -11.1261 -1.66218
-13.2981 -12.5799 -0.699454
-13.5008 -14.37 0.130152
-13.6396 -11.304 -1.20109
-15.2457 -12.8515 -0.884005
-16.6844 -12.0153 -1.98641
-12.5147 -12.4698 0.174131
-17.755 -11.5471 -1.52527
-17.1594 -12.3712 -3.4645
-13.1891 -13.591 1.68417
-13.8339 -15.8731 -2.05775
-17.3672 -12.2948 -1.37032
-13.5196 -13.9697 -1.67904
-16.3483 -13.6295 -1.10771
-16.5958 -12.8918 -0.838058
-17.2418 -12.4412 -1.96504
-18.7036 -10.268 -1.10069
-15.0913 -13.0839 0.0935687
-14.2567 -13.4408 -1.60103
-15.8462 -12.5857 -0.979661
-15.076 -11.5638 1.04163
-13.836 -13.3221 -5.46993
-15.7708 -12.9675 -3.88846
-16.3628 -13.1258 -2.75209
-11.9488 -14.5691 -2.62392
-12.5897 -13.8929 -0.910042
-18.7729 -11.4944 -1.8961
-16.2421 -11.6294 -0.597728
-16.0493 -10.7462 -1.80474
-16.5195 -12.6924 -3.86304
-15.4307 -13.2069 -1.93425
-17.7767 -11.4271 -2.10713
-18.2205 -11.0246 -2.60251
-18.1235 -12.8212 -3.79735
-13.4999 -14.0856 -1.6243
-13.663 -13.2343 -1.42365
-15.6641 -11.3182 -2.66201
-15.9673 -12.3712 -0.766278
-16.6892 -11.9077 -3.22405
-17.5786 -11.5876 -4.87164
-17.1383 -13.3575 -3.0414
-12.8291 -15.3352 -1.55168
-16.6001 -12.5202 -3.25515
-15.0078 -13.1038 -2.63279
-11.0978 -15.3927 -2.85983
-12.7128 -13.0516 -2.46338
-15.2617 -11.2796 -4.50986
-14.5269 -12.179 -3.28924
-12.437 -15.6876 -2.00182
-13.5403 -14.3405 -3.64742
-12.2753 -12.8478 -2.94892
-14.6598 -13.689 -2.9384
-15.571 -12.3887 -1.49353
-13.8599 -12.7361 -2.90497
-13.0731 -14.77 -3.77788
-14.2149 -13.5299 -2.52471
-13.591 -14.3791 -2.76373
-11.7235 -14.9236 -3.93735
-12.9532 -14.8271 -4.01982
-12.5135 -14.4531 -4.528
-14.8318 -14.7254 -5.33787
-13.5626 -14.3769 -1.85541
-11.613 -13.8483 -3.89704
-14.6427 -13.3241 -4.41777
-13.1039 -13.4491 -1.35947
-12.7578 -11.8879 -3.45537
-12.2463 -13.9636 -2.90251
-13.525 -12.612 -3.30121
-12.9164 -14.592 -5.0192
-14.9772 -15.0852 -3.51814
-12.0909 -13.4997 -3.3676
-14.3085 -13.0067 -3.41878
-12.8549 -13.0112 -4.20145
-12.8226 -13.6811 -3.76125
-12.7425 -13.6653 -3.76816
-12.1466 -13.7499 -4.98023
-12.2609 -14.7717 -4.71368
-13.3606 -12.1798 -6.0692
-12.4853 -14.441 -4.63495
-11.5274 -14.615 -3.47404
-11.8027 -14.4121 -5.41393
-17.0139 -13.1753 3.13761
-18.1861 -13.2934 3.61395
-13.48 -11.5905 0.972042
-16.4483 -12.0165 0.838988
-17.2798 -13.2619 2.86515
-14.0181 -11.3254 2.08339
-13.2133 -13.0204 1.53111
-10.525 -10.3964 2.17524
-18.9556 -10.6906 2.81937
-15.1486 -13.4757 -0.821487
-16.6765 -11.1188 1.38661
-13.9159 -15.2674 1.16698
-13.6685 -14.5288 -0.559567
-15.3232 -13.3769 2.16132
-14.7253 -12.3083 1.03174
-17.7866 -11.6373 1.74986
-12.3302 -14.0603 0.576782
-12.515 -15.8447 0.967059
-10.7869 -12.0497 1.62524
-13.925 -12.9559 -0.541122
-14.0516 -11.7688 0.154657
-13.9996 -13.1366 -1.56474
-14.598 -15.8687 -0.0163443
-14.111 -13.3524 0.13795
-14.9439 -12.477 -1.56872
-13.5145 -12.4106 -1.95957
-13.481 -12.9257 -1.74901
-14.0014 -14.1773 -1.21948
-11.1212 -13.9708 -0.0685226
-12.1528 -13.3432 -1.03235
-12.7819 -14.8353 -0.304244
-12.0187 -13.679 -1.90445
-13.8223 -12.7234 2.34592
-13.4889 -12.8219 -0.894065
-14.0244 -14.3756 -1.82953
-12.2673 -12.5213 0.283096
-14.8388 -13.6593 -1.93686
-13.7085 -14.4619 0.339261
-14.6298 -15.0595 -3.31851
-12.9478 -14.6177 -0.61407
-13.307 -10.5255 0.445503
-15.0587 -14.0657 0.122668
-13.2363 -12.8038 -0.606595
-14.2819 -13.9141 -2.63576
-13.8552 -10.4299 -0.351038
-15.5394 -13.8326 -1.75828
-18.3082 -11.1402 -0.528056
-11.4064 -14.4369 -2.25621
-12.873 -12.6685 -1.01382
-14.9411 -13.3141 -1.13077
-16.997 -10.8051 -1.3342
-13.2832 -14.4494 -2.14935
-12.9626 -14.3347 0.690476
-18.2307 -10.9113 -2.00605
-16.4148 -14.7164 -2.24034
-15.8551 -12.6609 -2.2516
-13.6219 -12.4592 -0.788173
-12.4862 -11.973 -0.524713
-18.2174 -14.0749 1.03449
-13.7554 -13.3203 -0.259451
-12.4048 -11.8226 -0.224168
-12.5165 -13.1145 -2.28866
-17.0198 -13.1469 -0.698286
-15.0069 -12.2855 -2.05726
-16.668 -11.8454 -3.49871
-18.14 -13.0046 -0.715428
-14.4091 -12.0021 -2.27908
-15.3153 -14.1565 -1.92446
-12.4596 -10.837 -2.51604
-13.6187 -13.5974 -3.28487
-13.9573 -13.0793 -1.62369
-12.9735 -13.6554 -1.59583
-13.9193 -13.7119 -1.93038
-15.7231 -11.3655 -2.05792
-14.683 -12.1978 -2.72998
-15.985 -10.5943 -2.67733
-17.0172 -11.9214 -2.61779
-13.4958 -11.5088 -0.228954
-12.779 -14.7282 -2.03487
-17.7971 -12.6312 -2.13186
-18.2837 -12.6398 -4.39806
-14.274 -12.9446 -1.68854
-16.134 -11.5811 -3.0694
-19.1875 -12.3908 -2.14021
-15.304 -13.7922 -2.57608
-14.7545 -12.3841 -0.887362
-15.7042 -10.3601 -1.32538
-12.4067 -13.5075 -1.29461
-13.7397 -12.7285 -2.40858
-12.3397 -12.7291 -1.59585
-13.2553 -11.9598 -2.75352
-13.1639 -13.4565 -0.927252
-15.2786 -12.6164 -3.9073
-14.8663 -12.6795 -1.68014
-15.836 -10.786 -2.61051
-15.7159 -12.914 -1.32192
-12.1647 -12.6307 -3.19896
-16.4503 -12.7465 -5.8263
-12.0816 -14.3345 -1.29625
-13.9915 -13.4994 -4.12597
-14.7852 -13.3583 -0.784555
-17.0915 -11.8345 -5.29665
-14.7498 -12.5083 -2.44862
-12.6125 -11.9879 -4.20938
-15.022 -14.2251 -2.26973
-15.8154 -12.5357 -3.88349
-15.6595 -12.5143 -3.0215
-14.0543 -11.6338 -3.23454
-13.9762 -13.312 -4.65623
-13.4715 -12.9864 -3.07949
-12.086 -13.7266 -3.73641
-13.5001 -12.3564 -4.32808
-12.6383 -13.8411 -3.90319
-12.5932 -15.3435 -4.979
-12.406 -14.9026 -3.95839
-12.5609 -14.2872 -3.14752
-13.4869 -14.8027 -4.25823
-12.1827 -13.741 -4.71675
-13.71 -13.1348 -5.31642
-12.4982 -14.5462 -4.17782
-12.6855 -14.136 -3.79518
-13.9998 -11.7725 -3.87928
-12.64 -13.5372 -2.15189
-10.9738 -13.0398 -4.39141
-12.6857 -15.1664 -5.0363
-11.5904 -14.6388 -5.31063
-12.6961 -13.9376 -4.23221
-12.426 -13.8288 -3.63758
-13.5661 -14.1132 -3.08843
-10.9383 -11.6904 3.59635
-16.483 -9.75293 2.90529
-16.9006 -13.9319 2.50858
-17.1533 -14.2901 0.674253
-15.4606 -11.9513 3.49273
-17.2715 -14.8247 2.16918
-17.4072 -13.9114 0.219252
-13.191 -15.2577 1.12025
-11.1469 -15.4858 -0.67121
-12.4071 -13.414 1.88736
-13.0745 -15.4142 -1.46052
-13.4197 -13.5016 -0.486444
-16.4308 -12.6924 -0.217268
-16.4234 -12.0307 1.58042
-15.2055 -13.0827 -0.0396957
-15.9207 -11.8233 0.444399
-13.3272 -14.25 1.0065
-15.2448 -12.6759 0.0878931
-14.4837 -13.3113 -0.865004
-14.4582 -12.6695 0.232772
-14.8748 -14.422 0.535542
-12.7304 -13.3134 -0.938299
-13.1906 -12.2613 -0.0523372
-17.2339 -11.3125 -0.669538
-15.9543 -14.2376 -1.07739
-16.9908 -12.4533 -1.93483
-13.0306 -13.9496 -0.12551
-11.997 -11.398 0.776137
-15.7037 -12.1215 -0.695222
-13.0986 -12.9343 -1.79352
-19.4038 -10.6325 -0.735444
-11.8176 -12.7734 -0.678544
-18.5577 -11.8069 0.638801
-13.1852 -12.6734 -0.567005
-12.1028 -14.4532 -0.418244
-13.5478 -14.2377 -0.993368
-12.7521 -14.259 -0.839732
-12.9234 -12.9407 -1.27439
-16.5163 -13.4892 -1.92322
-11.354 -13.9259 -1.3919
-13.9198 -13.0249 0.584179
-16.9913 -12.5979 1.41795
-16.3226 -13.2544 -0.250038
-14.7667 -14.4892 -1.61754
-14.4382 -12.708 -2.50672
-16.8585 -13.2299 -1.77137
-13.7768 -14.5041 -2.04652
-17.0868 -11.8349 -3.47037
-13.0412 -13.4139 -2.67407
-14.5389 -14.2385 -2.57576
-14.6594 -12.5692 -1.98994
-18.5303 -12.1164 -1.58377
-16.9812 -11.626 -2.51864
-12.3492 -13.0177 -2.5671
-14.8207 -13.7112 -2.72655
-19.3856 -11.9478 -3.24443
-12.5887 -12.6107 -2.19112
-13.3014 -12.519 -2.23402
-15.9605 -12.058 -2.25159
-18.137 -11.9098 -4.43618
-11.4349 -10.8884 -3.38671
-12.0573 -14.3016 -3.1293
-18.4678 -10.8837 -4.11471
-15.9507 -14.1026 -4.79229
-14.1524 -11.4904 -2.55444
-17.178 -13.0302 -3.98917
-13.1467 -12.1865 -1.95011
-14.7827 -13.0128 -4.06808
-15.2848 -13.3592 -3.84698
-12.1632 -13.5044 -3.80929
-13.9771 -14.5747 -4.0392
-12.8692 -14.0402 -3.43707
-13.6807 -13.6353 -5.75538
-11.4421 -13.1799 -3.67217
-12.4984 -15.18 -3.22755
-12.8013 -13.4197 -4.30899
-11.8618 -12.7329 -4.08531
-11.2125 -13.5871 -4.77315
-12.6883 -13.2881 -4.21477
-12.3843 -15.6609 -4.28074
-16.258 -12.3242 3.29099
-16.8156 -14.0169 2.4492
-16.5557 -13.0142 3.22231
-16.7598 -12.6094 2.93273
-13.3871 -11.3278 0.914075
-17.6497 -14.392 -0.377264
-13.902 -16.0621 0.617273
-14.3938 -13.8975 0.138907
-13.4961 -12.5013 1.79251
-17.813 -12.9099 -1.06772
-18.1014 -13.3441 0.176538
-9.56096 -14.2937 0.673203
-14.9307 -13.1367 -0.187886
-12.534 -12.0503 -0.528749
-15.9555 -14.0677 -0.509923
-13.8397 -15.7547 -1.69683
-15.6959 -14.0321 0.778477
-13.9711 -14.3481 -0.342106
-16.0529 -14.4843 -0.880808
-14.1646 -14.0274 -0.769052
-13.5811 -11.2399 -1.13331
-14.617 -14.3011 -1.14625
-15.5506 -13.6639 -1.32454
-13.4682 -12.8133 -0.46516
-16.6699 -12.1014 -1.30865
-13.9643 -15.1676 -3.56761
-13.0582 -14.6877 -0.830641
-12.8815 -12.3106 -2.0832
-12.5948 -13.1983 -2.44291
-15.3935 -13.1476 0.234151
-14.2643 -12.716 -1.70286
-14.2319 -12.5388 -2.0832
-14.4275 -13.444 -0.817909
-12.6826 -16.2333 -1.16658
-13.1024 -13.299 -1.09395
-12.5835 -13.2187 -3.54565
-14.5915 -11.41 -2.13525
-13.2763 -12.223 -2.73859
-12.8752 -14.1993 -1.07916
-14.6262 -10.3923 -2.97925
-16.7972 -12.3891 -4.6241
-12.5783 -13.465 -1.8867
-12.3605 -12.3221 -2.88788
-12.3854 -13.2222 -1.65001
-12.9634 -12.1096 -2.38562
-16.653 -12.653 -1.00955
-14.4749 -10.4789 -2.24675
-15.1013 -10.5837 -3.82937
-14.9931 -10.426 -3.05589
-12.9117 -13.6981 -3.83296
-14.3464 -12.8918 -5.37043
-11.776 -14.8889 -4.17705
-13.5938 -12.9253 -5.28357
-13.4038 -14.2907 -3.88821
-12.2764 -14.4239 -3.98257
-12.51 -13.6523 -5.56336
-10.7956 -15.19 -5.08232
-18.4312 -10.2048 2.1862
-14.3005 -14.3692 0.431404
-15.8611 -14.2131 0.225175
-13.5624 -14.1458 0.951334
-12.1161 -14.0054 0.43671
-12.1113 -15.199 -1.06452
-12.1651 -15.2878 0.248398
-14.5726 -12.0661 -0.877928
-12.533 -12.6645 -2.74712
-12.195 -14.2383 -2.97756
-13.2089 -13.1145 -1.87
-13.5236 -13.4713 -1.44844
-10.9616 -13.4724 -1.73161
-13.8425 -12.8488 -0.300588
-12.3511 -13.9035 -0.0260183
-14.0584 -15.3067 -0.664266
-11.8433 -13.6765 -1.5166
-11.8229 -12.0987 -3.23586
-13.7167 -11.8599 -1.73284
-11.6766 -16.4251 -2.29742
-18.3501 -11.6804 -3.33668
-11.6129 -14.5647 -2.79783
-13.4619 -13.6746 -3.9976
-15.8236 -13.2868 -4.68167
-15.9169 -12.9198 -3.54702
-12.4125 -11.5533 -1.43541
-15.6685 -10.9592 -2.88278
-13.5801 -12.8422 -3.63064
-13.1775 -14.4657 -2.71576
-10.7767 -14.0311 -3.13037
-17.0596 -13.1544 -5.3014
-13.2058 -12.3919 -4.24169
-13.4544 -12.4899 -3.98145
-11.8922 -11.9166 -4.06265
-14.6684 -13.5798 -4.03777
-13.1991 -13.6764 -3.24922
-16.8105 -14.7541 2.65063
-16.4995 -13.6027 1.32311
-16.2113 -11.4811 -1.27772
-15.7015 -12.1558 0.750984
-15.5145 -12.2772 1.57071
-12.3753 -13.1311 0.751356
-13.7464 -14.9198 -0.22751
-14.9241 -13.0591 -0.102773
-14.6287 -13.7961 1.02273
-13.965 -12.0028 -0.389552
-16.7479 -10.7264 -0.78503
-13.9924 -13.3877 -1.53013
-13.1017 -13.955 -3.94619
-11.9991 -14.4617 -1.52116
-13.7116 -12.9976 -2.24658
-12.5427 -14.5508 -3.11573
-14.5972 -12.1581 -2.21333
-13.8397 -11.9039 -4.13385
-12.9231 -12.5572 -2.61275
-14.8475 -13.3053 -1.98987
-13.392 -13.8559 -2.7351
-16.1136 -13.4072 -4.83777
-13.6618 -14.3292 -5.23717
-13.5962 -14.5865 -3.19955
-18.0958 -12.258 4.50969
-18.4192 -14.0962 0.0789602
-16.0137 -12.1391 0.318002
-16.887 -12.4267 1.01279
-14.7655 -13.87 0.601815
-17.5462 -12.8263 -0.294555
-14.4579 -10.6132 1.55438
-11.9756 -12.3299 -0.884656
-14.8635 -12.4086 -0.985407
-13.5629 -12.6304 -0.66733
-12.5524 -15.2929 -0.0562147
-13.1295 -14.6881 -0.463741
-12.7235 -14.1012 -2.63569
-13.3138 -11.369 -3.01321
-15.0766 -11.1773 -2.26127
-12.8729 -13.9099 -1.17843
-13.4259 -13.9112 -3.08249
-13.6855 -11.9166 -4.29924
-11.4353 -12.2336 -4.07931
-13.2461 -13.328 -1.73225
-12.6221 -13.7613 -1.56307
-14.8265 -13.5985 -0.999888
-15.0019 -13.1367 -1.9908
-11.1088 -14.7279 -3.35316
-16.2353 -13.086 0.20412
-15.4522 -15.2152 -2.61522
-13.5901 -12.7707 -0.246079
-13.3581 -13.1748 -1.34799
-12.2847 -14.1147 -2.34801
-14.4318 -14.1247 -1.92477
-13.3045 -13.9034 -1.77457
-14.5251 -13.36 -1.18183
-13.9835 -14.2343 -0.461023
-11.3295 -13.5635 -0.31676
-14.2422 -12.0911 -2.20203
-13.0891 -14.4796 -2.46408
-18.6902 -13.4133 1.52017
-11.4021 -14.7029 1.01928
-13.596 -14.086 -3.40696
-12.8733 -14.2398 -3.65556
-10.7456 -13.276 -2.98062
-12.2819 -15.9158 -5.94929
-15.7772 -14.0475 -4.68777
-14.3601 -11.8613 -4.23131
-15.7593 -12.0401 -3.43671
-13.5333 -14.1395 -4.00556
-11.768 -14.0052 -4.28956
-14.8832 -11.8645 -4.31402
-15.2644 -11.4693 -2.18987
-11.759 -12.9968 -3.6214
-17.5586 -9.1945 -2.21865
-14.2501 -14.38 -3.84422
-13.292 -13.8654 -2.5485
-17.6432 -10.657 -3.25036
-15.2737 -11.0931 -3.08782
-16.9717 -13.0242 -2.88529
-13.9262 -13.3929 -3.89678
-17.0221 -11.5754 -2.25381
-19.0002 -11.8417 -3.00858
-14.0271 -13.1349 -3.05908
-12.7011 -14.4383 -2.8976
-17.4609 -10.3928 -3.13597
-14.239 -14.7825 -2.03009
-18.6353 -11.1074 -3.05465
-17.2353 -11.9307 -4.02553
-13.0576 -13.6059 -2.57052
-14.7933 -13.0362 -3.57682
-18.506 -13.1861 -2.19111
-16.911 -12.553 -3.36462
-17.0023 -13.0121 -3.45473
-20.0498 -10.8003 -1.63576
-17.6355 -12.8338 -4.27547
-17.3803 -11.9661 -3.28837
-14.4816 -12.3766 -3.00799
-13.5689 -14.3389 -2.05136
-16.0286 -13.6291 -1.29924
-16.8312 -12.1399 -0.773604
-17.0494 -13.0789 -2.31346
-15.9473 -14.1916 -3.57821
-17.493 -12.7982 -1.68432
-18.1067 -13.0756 -2.23847
-17.0512 -11.675 -1.42323
-16.1598 -10.0512 -1.06677
-16.6133 -10.9718 -1.16499
-16.0863 -11.777 -2.18704
-15.4943 -11.3744 -0.902524
-16.6034 -13.9215 0.181503
-18.5641 -11.9029 0.749526
-16.7344 -12.8874 -2.05038
-15.7381 -14.5428 -0.817205
-16.8302 -10.6503 0.46688
-14.954 -11.5697 1.35871
-15.9499 -11.3563 1.05629
-12.3718 -14.5636 -0.39567
-15.5997 -13.288 -1.75231
-14.766 -12.5819 0.105101
-14.0954 -13.2113 -0.311745
-16.1019 -12.6434 -0.470136
-13.8333 -12.7284 -1.14703
-13.6897 -13.9311 -1.01801
-11.045 -12.5663 -2.81329
-15.8571 -13.1228 -0.311752
-14.3939 -14.0443 0.275261
-16.5621 -12.3821 -0.122457
-13.3078 -14.2069 -2.59763
-14.3063 -13.4871 0.851126
-14.0141 -15.1974 0.962586
-14.2141 -13.8249 -0.420988
-11.7363 -13.709 0.142141
-12.6966 -13.7824 0.0641517
-12.7493 -13.2212 2.24264
-12.2452 -12.9782 -1.38727
-13.1448 -12.9179 -0.842107
-15.455 -11.9089 2.07308
-16.3592 -12.0923 1.2943
-14.0974 -14.4288 1.58908
-17.7403 -13.324 0.994096
-17.3708 -13.5 1.26971
-14.1446 -12.2731 -0.954462
-13.8209 -14.2169 1.91622
-16.8069 -12.4556 1.82027
-16.7863 -14.2984 1.3226
-10.7451 -13.8924 -2.23956
-13.5673 -12.2007 -2.43622
-18.0257 -11.649 -3.39461
-13.9089 -14.846 -3.35462
-11.9298 -14.0243 -2.76082
-17.2335 -12.6542 -3.03484
-18.6491 -11.9169 -3.73673
-11.6799 -15.4375 -4.50876
-13.264 -13.9567 -4.55972
-16.0293 -10.6565 -2.20417
-16.2614 -11.477 -1.93794
-13.9993 -15.0341 -1.89688
-16.227 -13.8629 -3.12061
-10.4866 -14.8666 -4.83204
-12.0733 -14.4936 -3.8969
-16.3498 -12.82 -2.63319
-16.0929 -15.2988 -2.80725
-13.0093 -12.8027 -3.40336
-13.2207 -13.6999 -3.4528
-13.6857 -13.8272 -3.37477
-17.0216 -11.3427 -2.78833
-12.5464 -13.7294 -1.9628
-16.1899 -13.0908 -1.84977
-15.3782 -13.0922 -2.42545
-16.518 -12.9055 -1.80186
-12.6508 -13.1717 -2.25646
-13.6238 -11.9478 -3.45338
-13.5006 -14.8612 -1.80663
-12.0863 -11.6825 -2.49162
-12.7752 -11.4408 -3.06144
-12.6635 -14.1345 -2.28427
-12.2681 -14.6969 -1.37709
-16.7254 -11.7748 0.405487
-11.9142 -12.9024 -1.18503
-13.3696 -15.4482 -1.71357
-15.0816 -12.7082 -0.169686
-11.4769 -14.5806 -1.72334
-16.0053 -12.6915 0.272678
-12.7509 -13.5654 0.188657
-14.618 -14.7422 -2.89997
-13.3792 -14.0497 0.55879
-17.0847 -12.325 -0.0902025
-14.2636 -11.2422 -0.90299
-13.6858 -12.5749 0.490806
-11.8499 -14.333 0.381765
-12.3138 -12.6429 0.515222
-13.7586 -11.836 -0.526295
-12.7814 -13.3571 -1.3349
-16.872 -12.1144 1.42765
-13.424 -15.022 -0.217036
-17.0604 -12.854 -0.778195
-15.1866 -12.6523 0.870848
-17.439 -12.0386 0.321096
-16.4612 -14.1448 0.329064
-12.8923 -14.7397 1.67476
-14.209 -13.0617 1.16825
-13.913 -13.5351 -0.655755
-12.8013 -14.381 1.10284
-15.8727 -13.9552 1.04776
-11.8343 -13.5725 1.73135
-13.0041 -12.869 3.04321
-13.2522 -12.692 0.987981
-15.4851 -13.7041 2.59371
-12.2793 -13.5651 2.54416
-14.3825 -10.286 -4.55371
-16.923 -12.2393 -2.10303
-12.5344 -15.0587 -2.80858
-15.0982 -11.3477 -4.17557
-17.1265 -12.2566 -3.69746
-14.3978 -14.1432 -2.98948
-11.8904 -12.2944 -4.14509
-12.2497 -15.6917 -0.99511
-16.1629 -10.9627 -2.29351
-13.3668 -14.457 -2.20632
-16.5815 -11.1344 -1.78274
-11.1998 -12.786 -2.67003
-13.6286 -11.4395 -0.332249
-16.432 -11.5379 -2.5815
-16.4544 -13.2835 -2.30242
-14.8681 -13.3027 0.136258
-12.8379 -14.1614 -1.20906
-18.6448 -12.4373 -0.594502
-13.49 -13.9672 -1.67776
-16.4237 -9.61149 -1.16229
-12.4836 -13.7223 -1.60428
-13.3721 -13.0214 -0.910483
-13.5004 -13.7678 -1.01941
-19.0867 -13.485 -0.116556
-13.1847 -13.0444 -1.04688
-15.5968 -12.5083 2.6315
-15.437 -12.2836 1.4487
-18.3773 -10.4889 2.53291
-17.2415 -13.6985 0.785594
-11.2905 -14.3274 -3.96478
-11.7798 -13.9775 -4.71336
-15.0678 -13.0824 -3.53268
-11.7263 -13.9008 -5.0874
-14.5206 -12.7572 -4.10516
-12.9051 -15.8152 -3.35835
-14.7276 -12.3315 -3.26371
-15.9389 -12.1754 -2.6894
-14.2845 -12.2957 -2.56823
-14.1557 -14.5852 -4.21785
-15.0932 -11.8213 -1.62557
-15.4891 -11.7235 -2.60875
-16.7037 -12.2006 -2.29072
-14.0133 -15.8388 -1.9189
-10.8243 -13.36 -2.34269
-13.4874 -11.9299 -2.49122
-12.3651 -11.9416 -0.408779
-14.0743 -14.0529 -1.08823
-13.6457 -13.1781 -0.070342
-12.6191 -12.2651 -1.88783
-15.8559 -12.1623 1.61417
-14.4145 -13.5185 0.868618
-15.4195 -12.4227 -1.17909
-13.8064 -14.817 -5.59386
-14.1415 -11.2155 -5.31328
-13.6897 -15.4005 -4.19275
-14.1235 -12.5142 -3.97633
-15.4408 -12.6927 -3.42055
-17.2067 -13.2829 -5.11842
-12.8223 -13.794 -3.62182
-13.5003 -12.0053 -1.44828
-13.3636 -14.4634 -2.23448
-17.256 -12.4476 -2.72399
-14.2176 -15.0031 -0.514984
-14.4676 -13.2342 -0.95669
-13.1703 -15.0193 0.455272
-15.2789 -15.1245 -0.253153
-12.7166 -15.0221 -0.0155065
-12.7778 -13.3459 0.519177
-12.5907 -12.8662 -1.50977
-13.4507 -14.639 1.26528
-13.0859 -14.1767 -0.0333552
-11.1889 -12.8644 -0.571262
-13.954 -13.9023 0.719179
-15.7326 -11.2883 0.810551
-11.4704 -13.0067 1.9481
-12.217 -12.2215 -2.91114
-12.1112 -13.7929 -2.06874
-12.5546 -13.541 -1.81516
-14.178 -14.2747 -0.582845
-13.6422 -14.7 -0.580928
-13.85 -13.3692 0.661042
-13.8931 -14.4219 -2.55595
-14.1238 -13.6608 -1.44934
-13.16 -13.8811 -0.0799227
-13.0401 -12.1504 1.21498
-11.8851 -12.6811 -1.92285
-14.3879 -13.4952 0.359754
-14.4333 -13.7008 -3.00823
-15.4871 -10.9627 0.398247
-10.6895 -15.4667 -0.634499
-14.9623 -11.4004 -3.72651
-11.357 -13.8324 -1.21761
-13.9467 -12.6208 0.0772377
-12.847 -14.5705 -2.01417
-14.9454 -16.0641 -0.0474254
-13.4253 -13.4102 -1.7467
-13.2589 -12.6519 1.07198
-14.068 -13.0224 0.0277332
-18.5269 -9.63042 -3.55992
-18.5495 -10.2616 -2.72597
-17.6926 -10.8826 -4.32349
-17.6794 -11.0699 -2.94582
-14.6787 -12.5608 -2.38216
-16.2804 -10.6039 -4.22666
-16.807 -12.2918 -2.57748
-16.1848 -10.8805 -3.23693
-17.139 -12.7542 -2.399
-16.3531 -12.3957 -2.53506
-16.9687 -13.3873 -4.29757
-15.6567 -12.8695 -2.91227
-16.396 -14.2158 -3.41531
-17.4752 -11.5736 -3.55323
-14.2005 -12.7068 -3.85578
-19.3566 -11.8433 -0.933785
-14.5816 -12.4923 -3.00542
-17.0752 -11.474 -2.91178
-15.9679 -11.8845 -1.86327
-16.7677 -13.2194 -1.03602
-17.1307 -12.4285 -2.75915
-16.587 -10.7098 -2.44465
-16.6813 -12.6687 -0.946182
-17.6361 -12.7046 -1.13734
-15.9144 -13.2952 -4.26983
-13.9518 -14.753 -2.94889
-18.0202 -12.4061 -0.0590623
-13.98 -12.321 -2.57538
-16.9733 -11.9171 -0.793477
-13.0129 -12.7739 -3.14183
-15.3679 -13.5004 -1.14183
-14.4342 -10.6551 -2.56056
-14.0571 -13.3157 -1.00006
-13.5852 -14.0738 -4.98288
-12.7922 -15.1072 -2.48821
-12.3308 -13.5431 -3.14692
-15.1553 -13.2291 -2.43694
-12.6301 -14.0808 -3.24507
-14.6321 -13.5071 -2.05633
-11.7453 -13.7688 -4.01613
-17.0194 -11.8699 0.607957
-14.8924 -13.4843 -4.53067
-12.3211 -14.0978 -1.09741
-20.0237 -12.7225 -0.798094
-18.1332 -14.4579 0.783324
-12.1014 -15.07 -3.51367
-11.3556 -13.3558 -3.16997
-13.312 -13.5358 -3.7776
-13.5478 -14.9132 -3.69221
-14.1686 -13.0264 -0.382848
-15.7013 -12.0576 -2.88066
-14.5446 -11.9102 -1.91547
-10.8995 -14.4841 -2.84052
-15.601 -13.5547 -2.87845
-14.9091 -12.6773 -1.0794
-14.4492 -12.9502 -5.02808
-14.2561 -13.1646 -2.12098
-12.0304 -13.5538 -2.95814
-16.855 -11.9764 -0.64416
-16.0841 -15.3421 0.534678
-16.9631 -12.693 0.660586
-15.9868 -12.9865 -0.0331041
-14.5264 -12.5564 -1.35637
-17.6909 -14.5499 0.11024
-12.5216 -13.1835 -3.9011
-13.3596 -12.5674 0.00830249
-12.6485 -16.7285 -3.72393
-13.9725 -13.6033 0.031271
-15.5227 -12.7124 0.208021
-12.4591 -12.8753 -0.909654
-9.88899 -15.3517 -1.73574
-11.767 -14.0559 -3.78499
-12.5654 -13.1773 -2.66681
-13.4171 -14.0501 -2.00972
-16.4684 -12.6418 1.10884
-16.9283 -15.4085 0.977811
-16.2907 -12.2433 -0.376608
-14.1489 -13.9344 0.663674
-13.2784 -13.5243 0.906979
-12.3408 -13.5509 -1.20757
-15.3439 -14.8204 -1.0341
-15.624 -12.7545 -0.382125
-12.2064 -14.788 -3.37856
-17.4147 -13.162 2.75378
-13.3639 -13.3442 0.888906
-13.2536 -13.3138 -1.10318
-12.3175 -12.2983 1.67516
-12.7468 -13.8153 -1.60516
-15.3961 -10.5704 0.632028
-15.3018 -14.1061 -0.00102546
-13.5177 -13.3353 -1.01638
-11.296 -13.2322 0.556249
-14.5325 -12.716 -0.823865
-12.3211 -13.3765 1.99494
-13.5341 -13.4406 -1.7914
-11.501 -13.0479 1.99868
-13.9339 -11.9126 0.958186
-12.3471 -14.4748 1.08926
-12.4425 -12.4713 4.04769
-14.9091 -12.1219 0.524378
-12.9669 -12.8521 -0.868826
-13.9349 -13.575 -1.01154
-12.5161 -13.4069 1.62728
-13.1048 -14.614 2.07655
-12.6462 -14.6569 0.702268
-17.5539 -10.3748 -5.11934
-17.1487 -12.0188 -3.51316
-17.8727 -10.0239 -4.02932
-16.5653 -11.889 -1.35723
-19.1658 -10.4438 -3.5674
-17.9321 -11.0607 -2.95292
-17.3301 -12.7383 -4.3213
-17.3606 -10.6289 -2.52194
-16.0076 -12.8768 -3.65107
-16.5277 -12.8224 -3.27563
-18.25 -12.5745 -2.35478
-16.2828 -11.108 -3.00571
-15.5171 -13.4098 -2.47584
-18.7755 -11.3863 -3.26514
-17.3491 -11.4949 -1.84967
-14.443 -13.5026 -3.63711
-16.127 -12.0001 -4.93799
-16.2705 -13.6642 -3.5962
-16.8656 -10.9023 -2.74415
-16.3934 -11.685 -1.19376
-13.9527 -13.2204 -3.35374
-17.0653 -9.91902 -1.00181
-16.4515 -13.1932 -4.02528
-17.1813 -10.403 -2.99809
-17.5384 -11.4137 -1.16647
-13.1735 -13.2744 -3.78766
-14.4537 -11.4116 -1.41689
-17.8905 -12.2083 -3.35094
-17.3649 -12.818 -0.90022
-16.3421 -12.4598 1.04577
-12.5363 -11.8475 -3.53527
-13.5948 -12.085 -2.96833
-15.9102 -12.3521 -2.02781
-15.3409 -13.1975 -1.5839
-13.919 -13.3079 -3.41122
-12.2158 -14.8562 -3.56622
-13.7848 -15.303 -2.62546
-13.7136 -14.3025 -2.37428
-14.451 -13.5843 -2.83097
-16.2834 -12.3635 -0.540359
-13.2737 -13.1826 -2.84916
-12.9003 -14.3413 -2.1648
-14.0958 -13.1388 -2.08292
-16.6634 -13.1223 -0.468374
-16.1142 -11.6361 2.13342
-19.3396 -10.2711 0.338533
-12.3838 -11.81 -2.59564
-11.4735 -13.586 -3.54999
-13.8141 -14.0638 -0.215993
-14.9611 -12.7998 0.200757
-16.0539 -13.2943 -0.542986
-11.7061 -13.9269 -2.99636
-14.4885 -12.0198 -3.34036
-12.2003 -13.8949 -2.94745
-14.7789 -13.1399 -3.80467
-11.1466 -15.2702 -3.23473
-12.116 -14.7848 -1.93683
-12.9581 -12.9807 -5.07147
-14.0937 -13.5066 -3.502
-13.438 -11.6942 -0.896618
-12.7757 -13.6538 -2.50733
-14.3964 -13.6183 -0.34845
-13.5836 -14.7747 -1.94231
-15.068 -12.5243 -0.204872
-15.3949 -13.3385 2.72866
-14.1623 -15.7256 -5.6617
-10.4913 -13.8467 -2.50518
-14.403 -12.4175 0.529853
-16.064 -12.5388 1.00746
-16.0158 -13.1676 3.35361
-14.2299 -14.0427 0.44127
-12.4296 -13.6902 -1.94213
-17.1537 -13.7178 -1.62725
-13.385 -12.8505 -2.03963
-12.4848 -14.5689 0.302384
-14.3282 -12.1506 0.453872
-10.6405 -14.5904 -0.0508379
-15.0686 -14.1897 2.49076
-13.9956 -14.5101 0.536679
-15.3675 -12.5342 -0.205922
-13.4269 -14.5166 -0.637332
-13.6239 -13.9394 -0.810196
-11.5987 -15.1729 -0.839135
-13.5846 -10.5746 2.2974
-12.397 -14.2618 0.726721
-10.7328 -11.9964 2.84718
-12.8385 -14.8009 -0.516809
-10.5463 -14.7331 -0.540587
-14.0441 -13.8741 -2.18475
-14.5844 -13.5344 0.901675
-12.0644 -14.8739 0.591405
-13.6669 -13.6178 -2.69883
-12.2472 -13.928 -1.62044
-13.6023 -14.4308 -0.740897
-12.6912 -14.2187 -0.166701
-14.02 -13.7744 -0.675159
-12.8127 -14.8964 -2.11686
-13.6222 -15.0958 1.76644
-15.2481 -11.1236 -2.46728
-18.0999 -10.1532 -2.5245
-16.3322 -12.2944 -3.16704
-15.7487 -11.986 -3.77314
-16.101 -12.5782 -4.25053
-15.3171 -11.0662 -4.03703
-15.0385 -12.8686 -4.09107
-16.9253 -11.7977 -2.88858
-12.642 -13.1948 -4.72821
-16.9765 -12.4938 -2.50201
-13.4739 -13.2165 -4.50225
-14.8517 -13.4758 -2.01908
-15.9074 -12.5686 -2.38463
-17.1349 -12.4532 -3.18725
-14.4798 -13.389 -5.56189
-15.7654 -10.4469 -2.87034
-18.2808 -13.5915 -1.87821
-17.0993 -11.9747 -2.52492
-16.7216 -11.9131 -2.04811
-13.0467 -13.9989 -3.14292
-17.8239 -13.7182 -2.04368
-16.2132 -13.3835 0.0109376
-13.2595 -12.9431 -2.76966
-12.4861 -11.6559 -4.75237
-12.6556 -13.9046 -2.07951
-12.6666 -11.8909 -3.11544
-11.9301 -12.5059 -4.74493
-13.2418 -14.2027 -0.404803
-12.487 -14.4573 -2.96726
-17.5422 -11.7755 0.451834
-12.9711 -13.7439 -1.02227
-12.7083 -16.0419 -4.87172
-12.9511 -12.151 -2.66429
-14.9334 -11.8977 -1.659
-12.7456 -14.3368 -2.97092
-13.2575 -13.8512 -2.44074
-16.6822 -12.0789 -2.47943
-11.8499 -13.7736 -3.27558
-13.734 -13.6032 -1.54613
-15.1022 -13.556 -0.687931
-14.1631 -13.3413 -1.68547
-16.9889 -12.051 2.41806
-14.5427 -12.9167 0.183509
-12.0267 -13.7122 -2.22497
-13.1343 -13.1866 -4.48318
-18.7769 -11.0568 1.07845
-12.6034 -14.5375 -2.34233
-15.6043 -14.6638 -0.323336
-14.5388 -12.8575 1.67844
-13.3938 -13.5175 -0.207888
-13.3693 -12.0084 -0.992714
-13.4614 -15.3275 -0.980973
-16.4666 -13.2018 0.71221
-14.4127 -13.7035 -1.49874
-14.7076 -12.6649 0.376559
-13.6107 -12.1132 0.200384
-15.2051 -10.7717 -0.261021
-12.7888 -15.9875 -0.835376
-13.3388 -13.2351 -0.841567
-12.103 -14.3425 0.98435
-13.8455 -13.7292 0.766033
-12.5366 -15.8199 -0.570992
-17.2126 -11.9434 -2.13837
-18.6931 -10.9534 -3.13088
-16.0986 -13.4626 -2.38392
-15.9626 -12.8992 -4.42011
-16.7695 -10.2324 -1.98163
-15.2244 -15.0817 -2.43863
-14.8876 -12.3648 -1.43712
-14.974 -14.178 -2.9584
-14.1363 -14.7261 -2.48576
-11.892 -13.3935 -1.97809
-16.0128 -11.9429 -0.72442
-14.1147 -12.6792 -3.4994
-13.127 -13.6566 -2.78926
-12.175 -13.0769 -4.86403
-10.5612 -13.6466 -3.15567
-14.644 -12.5569 -2.17045
-13.5575 -14.9881 -3.98521
-11.5771 -13.3794 -3.1189
-12.6771 -13.928 -3.8013
-11.1094 -12.8759 -4.41738
-18.3913 -12.9369 -0.543422
-13.9177 -13.3876 -4.75436
-11.6166 -15.4019 -3.08499
-14.2458 -14.188 -5.58008
-13.6358 -13.9893 -2.38597
-14.6021 -12.0132 -1.76419
-12.8691 -14.3987 -1.13191
-13.5791 -11.4827 -1.72941
