-14.6112 -13.1544 -3.45347
-14.8348 -11.4497 -2.60598
-13.4186 -10.9162 0.866044
-14.448 -12.1632 1.30454
-16.1779 -11.3595 0.36379
-15.1692 -10.6672 -1.41799
-18.7591 -13.4916 -0.778029
-14.4239 -11.7032 1.30368
-15.1192 -12.1408 2.16812
-17.1925 -11.6014 0.233827
-16.0323 -11.7724 -1.56382
-15.927 -9.87789 0.209089
-17.3072 -12.068 -0.125087
-17.3949 -13.2952 -0.858187
-14.329 -10.6924 -0.275893
-17.2766 -11.4999 -2.38593
-17.9392 -13.6988 -2.62037
-17.2402 -12.7047 -4.87123
-16.279 -11.5157 -1.8584
-18.0565 -11.357 -1.60445
-17.4661 -11.9002 -1.34359
-17.448 -10.6592 -2.25638
-18.9477 -11.3852 0.139099
-17.0943 -13.5114 -1.92148
-19.1634 -10.8705 -2.50727
-17.8505 -11.1241 -1.46588
-16.0962 -10.9304 -0.600884
-16.2538 -12.1211 -2.05537
-19.9177 -12.1403 -0.513583
-16.9749 -10.8295 -1.50986
-18.737 -10.4013 -3.28918
-17.4585 -13.3816 -2.74075
-16.7909 -11.8318 -0.0667388
-18.0037 -10.045 -2.44666
-16.8004 -14.208 -0.378424
-18.1619 -12.7955 2.67872
-18.5359 -11.9989 0.153469
-19.1079 -12.9302 1.17154
-16.6569 -10.0514 -0.645983
-16.7695 -11.6422 0.361368
-17.2414 -9.77171 -0.488062
-18.6756 -11.8784 -0.505708
-16.7458 -11.6813 -0.59223
-19.5462 -13.4766 -0.605576
-18.2539 -11.818 -0.994643
-17.1865 -14.1892 -0.673881
-17.4566 -13.03 0.872885
-18.7801 -10.7401 0.116594
-14.5031 -12.3099 -0.600151
-14.4647 -12.0431 -1.92977
-16.0024 -12.1055 0.385105
-18.2425 -12.1275 -0.971884
-17.4134 -11.465 -0.619736
-15.9061 -12.8468 -1.61231
-16.0338 -11.7783 -0.0612635
-17.8641 -12.9944 -0.328977
-18.1864 -11.1173 0.573398
-13.9512 -13.3343 -1.39265
-16.4248 -10.7369 0.118565
-19.1868 -11.9508 1.17764
-19.3203 -10.2616 0.382281
-18.1228 -12.8538 1.41558
-15.5995 -13.8668 -0.486514
-17.1277 -13.795 3.18276
-18.0953 -11.8164 -0.340898
-14.5851 -12.3019 -0.644122
-18.1234 -12.0587 0.525147
-17.5514 -12.6342 1.12029
-16.8466 -11.8115 -0.535423
-18.7606 -10.9159 1.05795
-15.7749 -12.4315 -0.825136
-16.4467 -12.4305 -1.15987
-18.5971 -10.7869 -0.00199741
-17.5255 -15.4643 0.446332
-17.9959 -11.0557 0.439305
-18.9121 -12.8248 1.10422
-17.4854 -11.5439 0.892088
-17.8465 -11.7981 0.0636694
-16.5632 -12.2044 1.47081
-13.7113 -10.847 -2.04469
-17.5276 -13.1377 -3.08986
-18.102 -11.8893 -3.29719
-16.8079 -12.5646 -3.55531
-17.2239 -11.8964 -2.73227
-13.5035 -12.748 -3.85565
-19.1645 -11.9579 -2.18464
-16.2644 -13.0344 -3.23613
-17.5857 -12.6857 -1.56593
-17.0764 -11.9724 -0.838534
-16.9725 -10.9693 -0.0349068
-16.883 -11.7125 -0.638278
-17.0618 -13.0957 -0.466854
-17.6622 -12.0178 -0.394067
-16.8821 -11.4437 -1.52338
-18.2283 -9.40474 -0.23923
-18.0216 -11.8616 -0.931009
-18.9616 -12.6713 -1.57181
-18.5674 -12.6133 0.425429
-17.3927 -11.5532 -1.2315
-15.2854 -11.5042 -2.37345
-16.8903 -12.1375 -0.542391
-19.0469 -11.767 0.468767
-17.0621 -11.0923 -0.593434
-18.3448 -11.5537 0.382839
-19.0475 -12.4455 1.4758
-16.8252 -10.994 -1.25305
-14.8081 -12.1056 -0.46569
-19.5016 -11.67 1.79158
-17.3017 -12.4085 -0.349949
-17.6964 -11.2697 -0.877676
-17.4772 -13.5136 -1.44278
-17.2422 -13.6719 -1.14909
-16.7453 -11.6266 -0.680613
-18.16 -11.9633 -2.3567
-16.1759 -11.7067 0.032638
-15.5248 -11.4138 -0.83587
-17.0468 -13.0837 -0.17245
-12.4057 -12.5493 0.073584
-17.8111 -12.8012 0.948327
-13.3057 -11.5022 -1.99911
-17.5833 -12.8406 0.623908
-13.2987 -13.0846 -0.794936
-17.6281 -11.328 -0.583366
-15.2729 -12.1046 0.17912
-17.395 -9.95138 0.721917
-15.9035 -12.1267 0.268253
-13.9879 -13.3424 0.290197
-17.5222 -11.8002 0.614329
-13.8441 -11.0736 0.168507
-16.9597 -11.5422 1.00843
-14.7643 -11.7558 0.544267
-15.2899 -12.5845 -1.50988
-18.0357 -11.0518 -0.689241
-17.9194 -11.3147 -0.201061
-18.461 -11.3247 0.486505
-17.1526 -15.2784 0.277666
-18.2991 -10.9971 -0.192474
-17.3251 -13.7651 -0.497952
-17.2695 -13.1552 1.36787
-15.4877 -12.0113 1.10149
-13.0834 -11.8876 1.52482
-16.9546 -11.7331 2.1296
-17.2505 -11.9331 1.66869
-18.5905 -12.8622 -0.788846
-20.2802 -14.6735 1.34657
-18.1073 -12.8581 0.0241022
-14.7296 -12.6863 1.26338
-12.9652 -10.5011 -1.4714
-18.2423 -10.0995 -1.56042
-17.0044 -14.1531 -2.20176
-16.6914 -9.7517 -1.3473
-17.6585 -13.3384 1.07861
-14.0417 -12.2202 -0.0428205
-14.9056 -12.3557 -2.0437
-17.6921 -12.0037 -2.05843
-18.8267 -10.6184 -0.947344
-18.7582 -11.6903 0.615961
-14.705 -13.4995 -0.786043
-14.3226 -11.7915 -0.257557
-18.1341 -12.633 -0.331559
-19.4841 -13.5724 0.0713405
-17.1626 -12.3214 -2.12401
-17.6824 -12.8935 -1.17328
-15.3676 -12.6783 -1.51446
-18.4972 -12.667 -1.08082
-18.1489 -10.4498 -0.25432
-19.3608 -12.9494 -1.94239
-15.5689 -13.0139 -0.0148107
-15.2952 -11.6381 -0.604737
-18.8716 -11.8166 -0.220101
-15.3482 -12.7886 0.0985819
-14.5206 -13.8842 -0.468675
-15.3697 -12.6356 0.8981
-13.1179 -13.8068 0.966432
-14.045 -12.2429 -0.48926
-18.4616 -11.8215 0.596898
-13.4326 -11.8007 -1.22144
-16.0374 -11.7396 0.904778
-15.4275 -12.9753 1.04243
-17.4269 -12.4365 0.0929749
-19.3398 -13.3069 -0.401799
-15.6494 -12.7168 1.27303
-19.55 -12.2733 -1.15139
-18.5588 -12.0374 0.533468
-15.3958 -9.66362 0.0645445
-16.0279 -10.7519 0.280281
-17.4289 -12.17 -0.351989
-17.2167 -13.0103 0.632466
-17.3019 -10.9061 -0.711323
-15.8359 -12.5331 1.14999
-16.4819 -12.7384 0.551745
-12.706 -11.4011 -1.70776
-15.9058 -9.85665 2.3359
-17.1232 -11.775 2.3156
-17.3861 -11.7853 -1.01095
-16.3629 -10.3773 -3.54445
-17.0429 -12.3314 -1.86241
-19.301 -10.7636 -1.73893
-16.9904 -11.2938 -3.22281
-19.0878 -13.222 0.43994
-16.1533 -12.1871 0.453702
-18.2952 -12.6892 -1.67281
-18.3615 -11.6573 -0.804694
-18.3504 -11.2068 -1.98906
-17.1236 -11.8966 -2.6645
-17.5521 -11.7652 -0.973167
-18.7172 -12.8706 -1.38427
-18.1108 -13.3243 -0.31227
-17.59 -10.8597 -0.783399
-17.6097 -10.9319 -1.3916
-18.8098 -11.3501 -0.260036
-14.6622 -12.3875 -0.624446
-15.4933 -12.6649 -1.41615
-14.2163 -13.0715 0.646805
-14.7547 -11.5892 -1.05909
-14.5749 -11.2018 1.0672
-17.4349 -12.2136 -2.3223
-19.6149 -11.6012 -0.288287
-14.3457 -12.7027 -0.466635
-16.7738 -11.4843 1.18102
-14.8449 -13.2931 0.256239
-17.1164 -12.1391 -0.035671
-16.7158 -10.7439 1.03552
-18.0997 -12.0428 0.296179
-18.4617 -13.4275 1.25129
-18.3888 -13.1577 1.12452
-17.1385 -14.703 0.342761
-17.2918 -11.5127 0.592041
-17.7522 -11.473 2.71046
-18.9653 -11.7062 3.00457
-16.4079 -13.001 1.85913
-16.7781 -12.1161 2.58586
-18.7038 -12.778 0.680781
-17.894 -11.4109 1.69936
-17.4499 -13.9765 -2.16311
-13.9046 -10.4974 1.65698
-15.6188 -13.9684 1.75542
-20.0812 -10.967 3.24794
-18.3842 -13.8639 -2.35871
-15.576 -12.0319 -1.01625
-15.6039 -11.3697 -3.52668
-17.0407 -10.8901 -2.67571
-19.7169 -11.6194 -4.13208
-17.1934 -12.388 -1.20334
-16.5333 -11.6135 -1.16526
-14.7584 -12.5869 -0.943677
-13.1611 -12.3912 -1.43563
-16.2719 -13.4939 -1.21081
-16.2832 -13.0303 -0.950411
-18.3072 -12.6908 -0.509807
-16.839 -13.2917 -1.50833
-16.2723 -12.6202 -1.59702
-18.3533 -12.1226 -0.74979
-17.904 -11.3461 -0.437568
-15.8246 -11.0012 -1.55559
-15.5225 -11.4897 -1.24299
-13.0739 -10.0393 -1.24088
-13.7647 -11.5447 -0.966823
-16.3301 -11.9593 0.725593
-18.1348 -11.8456 1.33969
-14.4423 -11.8831 1.02039
-16.3867 -11.6191 2.29729
-14.1259 -11.4672 -1.00944
-17.387 -12.0989 0.0386926
-15.447 -13.3055 1.41654
-15.8729 -13.2067 2.0669
-17.0845 -11.2966 2.07334
-16.2125 -12.8169 2.61054
-16.1651 -11.0311 0.0533797
-18.9276 -13.4472 1.19185
-16.2098 -13.407 0.897938
-13.7504 -11.7713 2.14695
-17.4365 -12.6731 0.852709
-16.8399 -12.0861 1.09627
-14.5272 -9.66587 1.26388
-16.7274 -10.8079 -2.46057
-18.3368 -11.7762 -1.61364
-16.6208 -11.8303 -0.118319
-15.5014 -10.9723 -1.15168
-14.5465 -10.1935 -0.832497
-16.8303 -12.9464 -0.212641
-15.0057 -11.9554 -2.1579
-15.5305 -14.2761 0.113484
-13.7787 -12.6375 -1.06335
-16.0075 -12.0694 0.877544
-14.1663 -10.0172 0.606703
-14.6535 -11.9775 0.0439536
-16.7181 -13.2924 1.07848
-18.8855 -13.7713 1.16411
-17.563 -12.9305 2.79207
-16.8671 -12.0748 1.57269
-18.0818 -13.2663 2.37893
-13.6813 -12.6515 2.76556
-14.3558 -10.9518 -0.702361
-19.0683 -10.3358 -0.399623
-16.6502 -12.1445 0.25855
-17.7117 -11.716 -1.02016
-18.4904 -11.5959 -0.244898
-16.1456 -14.2985 -0.949549
-15.8923 -12.2246 0.250189
-16.2974 -11.5465 1.69397
-17.3832 -12.9109 -1.27331
-15.653 -12.187 0.273635
-15.6983 -12.1934 -0.807466
-17.2133 -13.0297 -1.43208
-15.3564 -12.3062 0.578588
-13.4301 -12.5984 1.57578
-16.0704 -12.0333 -0.200822
-17.2656 -11.9784 0.942743
-14.414 -10.8581 -0.128797
-16.0471 -11.2391 0.596651
-15.224 -10.9273 0.0687215
-16.9262 -11.9951 1.5452
-15.6492 -11.3575 -0.456606
-17.0376 -11.5217 -1.74009
-18.4409 -11.8955 -0.136395
-19.8527 -12.0594 0.1957
-18.2248 -10.6149 0.698694
-18.7387 -11.4226 1.28061
-17.3325 -13.005 0.906632
-17.1099 -13.518 0.38485
-17.9262 -11.04 -1.64919
-18.0659 -12.4697 -3.00983
-17.9527 -12.6901 -1.93651
-18.1832 -10.4655 1.44339
-17.7339 -13.4378 1.0325
-19.5307 -13.2975 1.0676
-18.1157 -12.6301 -0.964134
-16.6818 -11.835 -1.09446
-18.6882 -12.2477 0.865201
-16.9053 -12.1973 2.06825
-15.5411 -12.0986 0.291762
-17.149 -12.5561 0.4212
-16.3582 -13.0798 -1.99684
-16.1356 -12.6669 -0.464392
-17.3363 -13.1712 0.426298
-14.6309 -12.0949 -0.146493
-12.1652 -12.6882 1.39103
-14.3944 -13.3218 -2.17173
-12.8999 -13.4334 -1.28536
-14.8771 -12.5038 0.557738
-14.7823 -12.0528 0.0289681
-13.0956 -12.1384 2.19226
-19.9335 -12.7664 -2.09221
-17.7341 -13.63 -1.50154
-17.0177 -11.7447 -0.0258909
-18.8763 -12.0417 -0.101168
-17.7607 -11.8338 -1.38606
-16.8514 -11.1275 -0.275461
-18.5244 -13.1882 -1.06606
-17.0262 -12.6926 -0.544044
-17.7586 -11.8742 0.737465
-16.888 -11.0969 -0.286542
-18.4565 -11.7246 -0.745732
-16.0386 -11.4788 0.0628761
-18.6739 -11.1734 -0.639799
-16.02 -11.919 0.563183
-15.8353 -12.4031 2.60805
-17.0423 -11.7635 -1.0187
-18.0199 -13.3505 0.00217727
-18.0836 -10.5624 1.29753
-15.945 -10.6531 2.78267
-14.2874 -12.6074 -2.95509
-15.4041 -10.7709 -0.707779
-14.6224 -13.3152 -1.72751
-14.1398 -12.8091 -4.02401
-15.6202 -12.6784 -0.745401
-14.399 -13.9479 -1.36404
-14.5531 -13.3766 0.299597
-16.3095 -13.2772 2.01163
-16.8231 -11.2035 1.39043
-11.3358 -11.8433 -1.50573
-15.4177 -13.1454 -1.17148
-14.1772 -12.2949 1.35051
-15.0076 -13.9944 -0.446328
-14.7801 -12.9282 -0.569305
-18.1942 -12.3383 2.73549
-14.7796 -12.0262 0.197905
-15.1444 -13.0138 -1.11779
-14.5402 -13.5747 -0.0521814
-15.2364 -11.1318 0.557806
-14.2166 -13.0153 -1.93444
-11.7784 -13.3601 1.20466
-18.2891 -11.6004 -2.34852
-18.2114 -13.2196 0.564161
-17.0118 -12.4309 -0.684524
-17.2111 -12.1 -0.405625
-17.07 -11.6287 -0.422016
-16.9746 -12.3372 0.265295
-18.1107 -12.0783 0.205934
-19.0721 -13.0962 -2.04374
-17.6498 -10.3353 -0.366852
-15.0413 -11.0716 -2.06527
-18.0453 -11.2179 -1.56502
-18.1728 -12.757 0.446
-16.2759 -11.1912 -2.69672
-17.2028 -13.1602 0.594012
-18.7839 -10.5576 2.01904
-17.5562 -11.8296 -1.11772
-16.6295 -13.5106 2.61373
-17.7299 -12.6157 3.24538
-16.3404 -11.5383 -0.22525
-14.8675 -13.3987 -4.22018
-15.6589 -10.0184 -1.18275
-15.9557 -11.7369 -1.65229
-16.3596 -13.1234 -1.25476
-15.0527 -11.8576 -3.91949
-15.8052 -13.3877 -0.744906
-16.7323 -12.4414 0.414048
-14.6143 -11.8847 0.0215569
-16.5313 -12.819 -0.120193
-16.452 -11.2045 -0.637636
-16.533 -12.2261 -0.754853
-14.6003 -11.6517 -0.909638
-15.393 -11.3104 0.818842
-15.7688 -13.2529 -1.84118
-15.1113 -12.5228 0.226515
-13.9461 -12.1812 -1.2055
-12.8647 -13.1596 -1.48941
-14.6856 -12.8361 0.294264
-13.9775 -11.4885 -2.54497
-14.8402 -12.5908 -1.7552
-14.5551 -11.3649 -1.54759
-15.4288 -10.8488 -0.404088
-16.6117 -12.8843 0.96473
-14.7516 -11.7538 0.862197
-13.3972 -12.3377 0.65072
-14.8932 -12.0303 0.406738
-13.3516 -11.5728 2.36981
-20.8254 -10.2892 -1.08207
-17.0276 -11.2305 -2.04862
-17.9819 -11.1117 2.55815
-16.1382 -11.337 -0.33056
-20.493 -11.7575 -0.600402
-16.1765 -11.9868 -1.71622
-18.0811 -12.7884 -0.38319
-18.137 -12.5669 -1.84185
-16.747 -12.4288 -1.91832
-17.7023 -11.079 0.589309
-19.4741 -10.8079 -1.31813
-15.5505 -11.1885 -1.25508
-17.3088 -13.986 0.650675
-17.5697 -12.7742 0.268399
-17.165 -12.1318 1.0059
-17.0961 -12.4308 -0.87466
-19.4538 -12.8134 1.11682
-16.1013 -11.9188 -1.42322
-14.7562 -12.4055 -2.68252
-15.3857 -13.3796 -1.61221
-15.0228 -12.1406 -0.437816
-15.604 -11.0981 2.3475
-14.85 -12.5502 -1.87304
-16.3145 -12.2289 -0.178896
-15.8928 -10.2194 1.97184
-14.8342 -10.8255 -0.556405
-15.5633 -12.6024 2.065
-16.1302 -12.9031 0.265569
-13.881 -12.2773 -0.460966
-15.0989 -14.3611 -1.26742
-14.1813 -13.1494 -2.1705
-12.7035 -13.0354 0.335014
-15.1453 -14.6849 0.312913
-14.3675 -12.2679 1.62043
-19.6677 -10.2231 -0.169641
-16.9718 -11.8802 -1.50123
-18.0956 -10.8296 -1.40895
-19.341 -10.4222 -3.13914
-18.7933 -12.6974 -1.71809
-18.1669 -13.1511 -0.252278
-17.1951 -11.9414 -1.09022
-17.4375 -10.9427 -2.98428
-17.0116 -12.4856 -1.76732
-18.0765 -11.7113 0.747454
-18.5478 -12.7517 -0.573969
-17.539 -15.4516 -0.365503
-15.8557 -10.8114 -3.92394
-14.4295 -11.9354 -0.447442
-16.5154 -13.005 0.413416
-14.7931 -11.1217 -2.97483
-17.1391 -12.5382 -3.56933
-15.3755 -12.4038 -2.28634
-17.8377 -13.9539 0.517952
-14.5737 -11.6554 -0.494887
-15.9364 -12.8359 0.0189035
-17.2906 -12.6493 -1.48336
-16.7138 -11.5912 -0.932379
-13.6773 -10.4839 -2.78681
-15.086 -13.86 -4.07637
-15.3871 -12.9621 -1.58694
-14.1272 -11.7124 -1.21229
-13.8665 -12.1129 1.81181
-15.1073 -11.7014 -0.0149301
-13.7025 -13.5081 -1.80468
-14.1693 -12.5549 -0.0156194
-15.3826 -12.6884 0.284825
-13.8424 -13.8751 -1.98698
-15.3413 -12.9336 0.730298
-15.4446 -12.0709 0.741718
-13.1006 -13.3695 0.661344
-16.7259 -13.415 2.7611
-15.3122 -13.304 0.706803
-13.9049 -13.009 -0.816024
-18.7602 -11.8476 -1.82179
-15.9956 -12.1296 -2.49274
-18.2774 -14.0401 -1.91075
-18.3908 -12.4691 -2.20634
-16.7194 -13.235 2.09538
-17.5657 -14.1144 -0.565349
-18.8355 -11.195 -2.04519
-17.4018 -13.8696 0.339318
-17.2538 -13.4132 1.052
-15.5101 -12.088 -4.44701
-18.0746 -14.363 2.25328
-14.4245 -11.6426 -1.87173
-15.9471 -12.4476 -1.68402
-17.3288 -13.0235 -1.61331
-13.1134 -11.8211 -0.0708244
-13.1914 -10.6247 -3.53329
-15.7849 -12.4951 -3.54779
-17.004 -11.6705 1.10471
-15.5007 -12.6826 -1.71892
-13.7256 -11.3557 1.28551
-19.4531 -11.7409 -2.89675
-19.5305 -13.2461 -0.765778
-18.7137 -10.7546 -0.381056
-20.2139 -12.4413 -0.678458
-20.801 -12.4105 -0.277722
-16.1448 -10.3985 -1.41676
-18.3429 -10.4966 -0.0812506
-18.9014 -12.2824 0.693554
-15.2267 -11.7889 -0.650245
-15.438 -12.8665 -1.28123
-14.9468 -10.3643 -2.14203
-15.0108 -11.545 0.315123
-17.1528 -13.7092 -0.10899
-14.186 -12.6246 -1.55473
-14.4006 -11.9365 0.768467
-18.8984 -11.6866 -0.182545
-16.0699 -11.4382 -1.85789
-14.6818 -12.126 -3.03378
-16.4699 -11.9725 0.949546
-15.0346 -14.5183 0.521337
-17.8923 -13.6428 0.0833738
-16.9626 -13.1267 -0.0832215
-15.1842 -11.7502 -2.96076
-13.9919 -11.0027 -0.246629
-16.4569 -11.6531 -0.71505
-14.4919 -12.749 -2.56069
-14.3749 -11.4596 -1.62812
-16.8645 -10.7244 0.567064
-13.6258 -10.6881 1.47421
-15.4285 -11.0136 0.324907
-14.7163 -11.1199 -0.425615
-15.619 -12.8283 -0.876241
-16.3523 -9.67603 -1.17362
-17.8329 -12.7564 0.372405
-18.3049 -12.3383 0.818183
-19.2422 -11.4837 0.366273
-17.0482 -13.2018 2.38032
-18.0363 -11.4788 0.864818
-18.3305 -12.3414 -0.326243
-18.8004 -14.9854 0.891514
-17.1509 -11.9262 -1.90838
-19.9768 -11.7158 -2.06019
-16.9059 -10.8136 -0.341863
-18.2852 -10.4791 -2.00002
-17.8298 -14.3295 -2.53375
-18.4266 -11.4505 -1.1789
-16.1227 -9.69833 -0.0658496
-16.2733 -10.802 -1.74489
-15.9513 -13.1267 0.800709
-16.8238 -11.3135 -0.849195
-17.9148 -13.6874 -0.351026
-14.9837 -10.7595 -1.25312
-15.9763 -12.5065 -0.655458
-14.0976 -11.1705 -1.95125
-13.35 -13.0273 -2.28182
-17.7513 -10.1902 -1.76456
-17.2963 -12.096 -0.853397
-17.6422 -9.3243 -1.97842
-17.9743 -12.927 2.28442
-18.5741 -10.8279 0.457618
-19.3507 -10.8279 -2.21969
-17.9078 -12.6077 -0.319468
-20.5032 -14.0031 1.59414
-16.883 -10.3952 1.32834
-16.393 -12.896 -0.0661721
-17.8158 -11.4558 1.62523
-18.0889 -13.0566 -1.35848
-18.3099 -11.1892 0.576418
-17.684 -13.0621 0.451974
-16.3465 -11.5092 1.38413
-18.5954 -11.3878 -0.466514
-16.2932 -10.2265 -2.43996
-15.4968 -11.7846 -0.836366
-18.0639 -12.5941 -1.6025
-17.952 -12.9745 0.89916
-18.4902 -12.7516 -1.93694
-17.4872 -11.9566 1.43581
-18.5242 -12.8638 -2.79434
-17.3516 -10.1152 -0.485956
-16.7723 -12.2629 -0.0877936
-17.109 -12.5981 -2.5097
-16.241 -13.3854 -2.97262
-16.2404 -10.5789 -0.195568
-14.3725 -12.3749 -3.02874
-15.1771 -13.2391 1.10677
-17.1742 -12.553 -0.776968
-17.0515 -13.8342 -1.0497
-15.2221 -11.8686 -0.66835
-13.9329 -12.6147 -0.705984
-15.3083 -12.4884 -1.93736
-15.9106 -11.8645 -0.642044
-18.1333 -11.0784 1.12905
-18.2465 -13.107 -0.170366
-18.8782 -12.1675 1.97056
-16.9384 -13.3666 0.49756
-19.694 -11.064 0.536445
-19.1985 -12.146 1.89903
-17.2989 -12.5396 0.440513
-18.4054 -11.5806 0.781735
-18.3955 -13.4226 -0.231841
-19.3595 -11.7995 -1.68296
-18.0799 -11.0802 -1.75134
-18.6515 -10.3191 -1.97951
-16.0034 -10.9696 0.175024
-15.9774 -12.3595 1.09214
-17.8142 -13.4321 -1.22402
-18.6545 -12.044 -1.49728
-17.759 -12.4437 0.200369
-17.1121 -11.2086 -1.53165
-19.1112 -11.6645 -2.28773
-17.7458 -12.4237 0.71453
-16.1 -14.32 -0.865976
-17.7782 -11.3713 -2.28365
-16.7682 -12.053 -1.94322
-15.4214 -12.6375 -0.270878
-14.4102 -13.5961 -0.682012
-15.6481 -12.4749 -0.203578
-14.8879 -12.1614 -0.284511
-14.4149 -12.7251 -1.76737
-13.9108 -13.7338 1.44871
-14.4679 -14.8535 -0.345909
-15.3421 -11.7877 -3.45957
-14.0955 -11.4597 -1.49887
-14.5475 -10.4823 0.634148
-15.4444 -13.4795 -1.72768
-13.4129 -12.5483 -3.11933
-13.3537 -10.3112 1.3469
-16.5665 -13.2073 -0.0984411
-17.5948 -12.511 1.95711
-17.9308 -12.3235 -0.448053
-20.2394 -11.1427 0.731448
-17.9103 -11.7179 -0.678654
-18.6816 -11.6201 1.13284
-16.1299 -12.4916 -0.941644
-17.7698 -13.7304 -0.220071
-17.7006 -10.2717 2.01718
-17.6959 -12.3161 -1.60681
-17.7941 -11.3073 -3.15282
-17.8785 -11.8395 -2.02485
-17.317 -10.4688 1.28175
-18.2538 -11.7847 -1.92801
-18.1931 -12.5493 -3.81933
-16.3018 -12.1962 -0.285206
-15.4581 -12.4604 -0.695754
-15.8377 -14.6793 -1.75357
-15.1942 -12.7373 -3.6334
-13.9322 -14.4774 -2.22369
-17.1903 -12.477 -0.176333
-14.7636 -11.7241 2.71408
-13.9194 -10.8782 -1.1682
-16.3742 -11.2932 -2.07553
-14.4251 -13.0246 0.00640509
-12.6386 -12.6039 0.989197
-14.1097 -12.8739 -0.813617
-14.6004 -12.8045 -0.639533
-18.5706 -13.1189 1.08317
-17.5784 -11.5963 1.41244
-17.613 -12.8097 0.926481
-18.9342 -13.1958 0.295174
-17.5655 -11.4932 0.716833
-17.3825 -12.0564 -0.044658
-18.8208 -10.4241 -1.07951
-19.6794 -12.4997 -0.57524
-16.9537 -12.3768 2.15602
-17.7743 -13.2316 -0.263251
-16.8773 -11.7074 -0.502092
-17.572 -12.8787 -1.64109
-17.5006 -11.4731 -1.44553
-16.079 -11.9431 0.700257
-14.9097 -10.0552 -1.80168
-16.3878 -11.9638 -2.63181
-14.4771 -11.8026 -1.60198
-16.4127 -12.0871 -0.258858
-15.6632 -12.2437 0.11083
-16.3525 -13.1831 2.03638
-13.2728 -11.7524 -1.03784
-14.2283 -12.0552 -0.948882
-14.9535 -11.1541 0.431327
-14.4658 -9.2964 1.83976
-14.3618 -12.5333 -2.38934
-12.8797 -11.7241 -0.502114
-14.6271 -14.1019 -1.52622
-15.2369 -12.5216 -2.6786
-12.794 -10.9603 -0.905634
-14.9328 -9.8938 -2.93174
-16.8733 -11.6365 1.57775
-15.4643 -12.6296 3.63016
-16.8218 -10.9533 -0.698596
-17.2826 -13.9635 0.340187
-17.4602 -10.1614 -1.13113
-16.6137 -12.7456 -0.255684
-17.1419 -12.2088 1.74561
-17.4817 -11.7336 -0.00725237
-18.4395 -12.9521 -2.07738
-15.2669 -12.0759 2.03459
-16.9044 -14.0286 -0.720968
-15.0229 -13.4471 2.3102
-15.4145 -13.0659 -3.37838
-16.7164 -13.2478 -1.18146
-17.1697 -9.486 -3.05365
-15.8397 -11.3083 -2.04009
-14.4642 -10.078 -1.59727
-14.9038 -13.0853 -0.775655
-14.8499 -13.5545 -1.34493
-14.7678 -11.8463 -2.19555
-16.8032 -11.4477 1.78827
-17.9865 -14.5425 0.480672
-18.6399 -13.5745 1.77119
-18.591 -12.7649 -1.8281
-17.8412 -14.0187 -1.81568
-18.31 -12.4984 -2.64558
-17.3758 -11.4948 0.36751
-14.4727 -11.7563 -1.30096
-16.6489 -11.3075 0.104673
-14.9164 -14.1502 -2.29764
-15.0674 -12.3495 0.488665
-13.8968 -12.8472 2.22317
-12.6234 -13.0682 -0.325832
-18.0827 -13.3686 -0.530941
-18.0449 -12.3224 2.03212
-16.7665 -12.8399 0.970838
-17.9123 -10.9971 0.366619
-18.0596 -12.3228 -0.641507
-17.53 -12.742 -0.287103
-17.844 -13.9274 0.489543
-14.7241 -13.1246 -1.96995
-14.0144 -13.7439 -1.88999
-13.9235 -12.491 1.9707
-18.046 -12.286 -0.99874
-16.0028 -11.4267 -0.71387
-15.9825 -10.7098 -0.913756
-15.12 -10.4232 0.253386
-14.3603 -13.38 -2.26376
-14.2028 -12.4726 -3.30369
-15.84 -10.9816 -2.01482
-13.2839 -10.9838 -1.88269
-14.6606 -11.774 -3.39239
-13.5636 -12.0326 -1.62382
-13.5041 -13.0686 -2.64114
-16.3481 -11.3559 0.988574
-16.0161 -10.7398 -1.4431
-16.5611 -12.6133 -0.19275
-16.1025 -12.1172 -2.71598
-15.4007 -12.6732 -1.06508
-15.0638 -12.5189 -2.48317
-18.1079 -13.6347 2.11293
-16.7623 -12.3839 1.62354
-14.3841 -11.2748 2.69908
-17.0672 -10.5763 0.592612
-17.6813 -10.1754 1.97576
-18.2363 -12.4249 -0.2157
-18.2814 -12.3243 0.784243
-17.3129 -12.7955 -0.382359
-18.0172 -11.248 0.279616
-18.0514 -12.653 2.30542
-18.7636 -11.9672 -0.706814
-17.5153 -12.1443 1.47166
-17.2496 -11.9502 -0.619441
-19.3928 -14.6836 -1.9588
-17.8414 -12.4848 0.713062
-18.2791 -12.2579 1.14619
-16.8602 -11.6303 1.96715
-16.3732 -11.7986 -0.971599
-17.611 -10.7182 -1.38051
-19.1668 -13.2443 -1.2507
-17.2603 -12.9286 1.12645
-18.3407 -11.1626 -0.228484
-16.8097 -11.8026 0.513759
-16.3206 -11.2899 -0.84197
-17.8427 -11.8127 -0.127989
-18.5037 -12.5889 -2.00867
-19.5133 -12.3902 -1.75732
-14.8479 -11.3002 0.400917
-14.1504 -12.6228 0.406164
-18.9402 -12.0639 -0.115952
-17.8187 -13.5221 -1.71177
-18.4924 -13.179 -0.817335
-17.43 -10.9414 -0.493748
-15.1199 -12.1147 0.858015
-18.6237 -11.7494 -1.05666
-18.1445 -11.1533 -0.98331
-19.177 -11.1562 0.294975
-19.6136 -11.4886 -0.833481
-17.0577 -13.8376 -0.229866
-18.297 -8.68886 0.418055
-14.9802 -12.8388 0.263023
-18.1398 -12.0866 -2.64038
-14.9358 -13.5091 -0.389288
-16.3095 -11.6684 -1.09884
-16.5287 -13.5075 0.82784
-17.3651 -11.5191 0.25266
-14.0907 -12.3863 0.30919
-14.4919 -11.4901 -0.855764
-15.2662 -12.356 -1.11966
-15.4982 -12.561 -1.80023
-21.3147 -13.1413 -1.90476
-15.7263 -11.9185 0.0703272
-14.818 -11.5831 -1.10642
-14.4349 -13.0026 0.579982
-17.2397 -11.3674 -0.75909
-17.9167 -13.3804 -0.167123
-18.1804 -10.8538 -2.41933
-19.2609 -12.7095 -0.455544
-17.7169 -10.9148 -0.0806337
-17.7722 -10.0133 -2.40233
-17.8826 -10.7044 -0.555475
-17.978 -13.1617 -0.110565
-16.7054 -11.7625 -1.43102
-14.6492 -13.4047 -0.226101
-17.4271 -12.2641 -0.658448
-16.9323 -10.1941 -0.306401
-17.9222 -10.6651 -0.875392
-16.0106 -12.4502 -0.716666
-17.7872 -14.1366 1.22802
-17.3662 -13.4703 -0.960463
-14.4178 -11.9003 -1.02016
-19.3629 -12.0596 -2.52426
-17.8567 -12.0232 1.81431
-18.5149 -11.6586 1.5852
-18.7185 -11.6687 0.0793453
-15.8023 -12.402 -0.208585
-16.1134 -13.1582 2.56281
-17.2283 -11.5796 -0.793376
-17.2741 -12.7947 -0.636472
-16.9208 -13.2945 -0.889396
-18.2171 -12.0632 -0.733991
-16.4606 -10.6571 1.62206
-20.0488 -11.9208 -1.1166
-17.288 -11.162 -1.42647
-17.4805 -12.2222 0.649291
-18.659 -11.2672 0.578203
-17.3712 -11.9968 -1.27439
-17.1729 -11.3931 1.03136
-17.0323 -11.0072 -1.19398
-17.519 -10.424 -0.195301
-19.3761 -12.8906 -0.574202
-15.9464 -12.2318 -1.45315
-18.3023 -12.55 -1.86145
-18.6038 -12.5064 0.447963
-18.9123 -11.9693 -0.108397
-16.6356 -10.0726 -1.60473
-14.9468 -13.2133 -1.42956
-16.4218 -12.0971 -1.74205
-17.0468 -13.8775 -1.58058
-15.1001 -13.503 -1.56179
-15.5731 -11.3762 -0.564961
-15.8903 -12.8035 0.076567
-16.505 -12.5318 -1.09443
-14.3651 -12.9144 -0.473812
-16.7198 -12.5869 -0.727526
-14.9244 -13.1448 -0.840941
-17.4586 -11.2205 -1.72791
-13.4112 -13.0719 0.0377554
-13.5491 -12.775 0.151877
-15.3034 -12.4332 -0.413866
-13.9701 -12.1003 -1.16556
-15.1474 -12.3359 -1.21669
-19.3594 -12.3145 -0.0553878
-14.391 -12.5618 0.55983
-13.8194 -11.0086 -0.308139
-16.1395 -12.6162 -1.44266
-14.436 -11.38 -1.64987
-17.4068 -11.4081 -1.22825
-18.8771 -12.7507 -1.6542
-17.3743 -11.5248 -2.47456
-18.3168 -10.8952 -3.0866
-14.6738 -12.9965 -2.14196
-17.8312 -11.474 -1.31332
-14.1737 -13.167 -0.646549
-16.1164 -12.0653 -3.87985
-17.3748 -12.8947 -3.30363
-14.1189 -12.9135 -1.47936
-18.6899 -13.7515 0.831895
-17.8442 -12.4646 -0.275547
-18.3832 -13.3746 2.49527
-17.2646 -11.298 2.12764
-17.7589 -13.4331 0.00664349
-17.6277 -13.7503 0.489842
-18.115 -12.5534 -0.0706064
-18.0716 -12.5752 1.94137
-18.7969 -11.5347 -0.064459
-19.491 -12.1978 -0.556068
-14.8072 -9.22289 2.27909
-14.9073 -11.0227 1.49612
-14.058 -11.9274 1.70781
-17.8686 -13.8814 0.163225
-17.5401 -11.156 -0.198175
-17.1022 -13.8412 -0.116872
-17.6037 -11.9439 -0.882681
-18.5011 -10.3809 -0.639282
-13.7093 -12.8941 -0.542804
-15.8482 -13.3002 0.27493
-18.5537 -12.2279 0.669085
-18.1304 -12.4 -1.6672
-18.9166 -9.85154 -0.821333
-20.8984 -9.99764 -0.756291
-15.7627 -12.3471 2.04268
-18.6821 -11.7628 -0.830998
-16.8407 -12.4506 -2.18669
-17.0303 -14.9894 1.27152
-17.6158 -15.1785 -0.0799658
-14.7138 -12.0186 -0.129914
-19.4612 -13.0232 -0.793652
-14.2759 -14.4155 -1.86029
-15.9729 -12.2172 -0.502658
-14.7636 -11.9949 -0.588034
-16.8542 -12.5926 -1.03839
-17.5579 -11.1097 -1.09264
-14.5175 -12.4322 -1.08707
-15.0201 -10.9547 -1.73659
-15.963 -11.5139 -1.35328
-15.4332 -12.8408 -2.78687
-14.1911 -14.3971 -3.76392
-12.7584 -9.85816 -1.45496
-18.4416 -12.4583 -0.232955
-17.9605 -10.9865 1.39944
-18.6763 -11.3861 -0.857272
-17.5911 -11.3596 0.849975
-18.5767 -11.6925 -0.230524
-17.7513 -11.9635 0.27322
-19.1209 -9.62288 1.36083
-18.2544 -12.7064 1.81371
-15.9205 -11.0296 0.699488
-17.1934 -12.1721 -0.76983
-18.5401 -11.3956 0.460869
-15.4988 -13.0025 0.88172
-16.0123 -12.1734 -2.59157
-14.4059 -12.7858 -0.33991
-18.7126 -10.7896 -2.82694
-17.4783 -11.1752 -0.267584
-13.9074 -12.3611 0.0892544
-15.7973 -12.5181 -0.337631
-14.3968 -11.9383 0.802972
-15.7705 -12.8631 -1.33167
-14.6976 -11.9024 1.42202
-13.8479 -10.8568 -0.367722
-18.2854 -11.3685 -2.14812
-16.3044 -12.7382 -0.662603
-17.2201 -12.7316 -2.88484
-16.9347 -12.5211 -3.14852
-16.4844 -11.923 -2.03068
-15.752 -12.5103 -2.08691
-16.4906 -11.9588 -3.1923
-17.236 -11.2104 -1.37038
-16.8179 -11.9267 -1.55243
-16.7779 -11.7643 -1.57139
-16.7417 -11.7286 -4.01807
-14.6674 -10.4247 -1.34247
-16.3208 -13.6594 0.553043
-19.9517 -10.7133 0.447133
-19.045 -12.1103 0.0583649
-17.382 -11.7055 2.38026
-16.1825 -12.5508 2.03258
-18.6535 -10.9951 -0.0141867
-15.2379 -10.2941 2.16499
-17.6489 -10.9845 -0.272789
-16.6321 -11.6583 0.366016
-16.6623 -12.6375 1.7571
-17.5038 -12.3196 -1.23405
-19.1736 -11.0919 -2.4986
-14.9601 -13.2204 1.55787
-16.8368 -11.3509 -0.0783924
-17.2088 -11.9601 -1.16266
-13.7494 -10.9249 1.04383
-20.272 -11.8131 0.226959
-16.7512 -10.8723 -1.13418
-13.9357 -11.5417 -0.581373
-18.0693 -12.0811 1.11444
-15.7822 -13.2582 -0.918032
-18.6884 -11.6857 -0.575133
-16.3389 -13.05 -1.85154
-18.22 -11.9779 -2.12489
-15.8544 -12.9152 -1.16275
-14.3383 -11.1745 0.791662
-15.9993 -14.1368 0.0128932
-15.7659 -12.7106 -1.1464
-13.7374 -10.1082 -2.37433
-20.3262 -12.1971 -3.06102
-17.075 -12.5496 -2.06477
-15.9865 -11.1185 -1.97241
-15.5236 -13.0328 -1.24157
-16.4236 -11.2657 3.22389
-15.4852 -11.2875 1.03287
-19.6068 -11.7283 1.64508
-17.7431 -12.7535 0.641862
-15.0839 -12.807 0.874634
-17.4546 -12.1151 -0.0774112
-16.4599 -12.6557 -0.208467
-15.6779 -12.8443 -0.141367
-15.1275 -12.5384 1.02619
-17.2001 -13.4621 -2.10135
-13.6664 -11.8041 1.40364
-15.8032 -12.5482 0.723202
-17.8121 -14.1968 -0.161953
-15.5114 -13.9967 -1.77103
-19.0855 -12.2595 -1.21094
-14.1065 -14.5282 -2.04119
-15.8749 -11.3113 -2.04292
-17.5979 -12.9304 -2.19431
-15.4418 -10.6182 -2.45538
-15.5241 -10.6318 -0.572868
-14.7751 -11.3662 -2.5082
-14.8299 -11.2755 -2.22837
-14.0755 -11.6941 -3.15172
-18.4005 -12.7052 0.703859
-17.956 -13.3953 1.10151
-17.8897 -12.4215 2.34758
-16.4291 -12.3477 1.57283
-18.4172 -12.5517 1.19705
-17.2973 -11.6325 -0.261164
-20.4673 -12.4598 0.544482
-13.2945 -12.7756 1.2564
-15.5625 -12.0938 -0.755605
-15.3975 -12.2034 -1.20678
-18.4257 -10.1835 -0.95699
-17.06 -12.426 -2.31749
-18.158 -11.913 0.0183831
-14.1287 -11.5706 -1.51541
-15.1656 -10.6963 2.14062
-17.9076 -12.6416 1.22772
-14.9445 -13.4528 0.482192
-15.3333 -12.5498 -0.24683
-15.2171 -12.9752 -0.345932
-16.5142 -12.3428 0.565902
-17.6017 -12.6697 -0.442777
-14.7362 -11.238 -0.766616
-17.1103 -13.1021 -0.59983
-17.09 -13.288 0.218759
-15.1622 -12.3625 -2.18532
-15.2771 -12.7777 -0.0577905
-14.8619 -14.2976 0.379222
-16.7569 -13.3271 -1.6473
-17.3301 -10.0429 -1.37422
-18.6149 -12.7522 -0.456827
-18.6617 -12.8804 -1.48832
-17.6475 -11.8786 0.0561096
-18.01 -11.9769 0.983837
-17.7524 -11.8125 -2.73735
-17.4295 -11.1497 0.893485
-17.1633 -12.1043 -0.552531
-18.0725 -10.3364 -0.0953798
-18.4348 -12.7882 -1.31051
-18.677 -12.5418 -0.878823
-15.3778 -12.8102 -2.01252
-17.9813 -13.0505 -1.34827
-15.1873 -14.4277 -0.787429
-19.1292 -13.2668 -0.310079
-16.8914 -11.3282 0.800222
-17.0286 -11.9614 -1.98162
-13.6099 -11.5645 -0.719836
-16.024 -13.377 0.853152
-17.5983 -12.0011 0.0912522
-18.5265 -13.844 1.33567
-17.0836 -11.4106 -0.530027
-18.1058 -12.7497 1.10975
-19.858 -13.7519 0.340071
-14.8285 -11.1738 2.30975
-16.1662 -11.877 2.26252
-17.8323 -11.9714 -2.45348
-14.577 -12.6119 -1.81888
-17.7142 -11.5084 -0.888463
-18.8008 -12.618 0.393427
-18.0903 -11.9307 0.669843
-17.0989 -11.0713 1.6654
-15.0834 -12.5062 -2.52224
-17.6999 -13.0394 -0.504606
-17.7194 -10.3016 -1.54563
-18.4488 -11.2675 -0.468888
-18.521 -12.8713 0.868888
-19.0203 -11.0577 -1.75053
-17.7583 -12.798 -1.4016
-17.8224 -11.8838 -0.430356
-16.4592 -13.1819 -0.917411
-18.0647 -11.4318 0.706786
-17.7172 -11.7813 -0.025445
-14.4601 -11.4273 1.87821
-13.9035 -10.7319 -0.0403742
-16.7274 -11.3451 0.228868
-17.4316 -12.8725 0.132197
-17.8689 -12.6208 -0.0788517
-14.7513 -11.3942 -1.26564
-15.2411 -12.3179 -1.57517
-16.4276 -13.0536 1.08967
-18.3696 -11.6717 0.404063
-16.4535 -14.1238 0.386047
-17.7422 -14.3536 0.955405
-19.7616 -12.0433 1.40134
-18.3674 -11.8355 1.61752
-16.9336 -12.1557 -0.142481
-18.9646 -12.4734 0.122501
-13.074 -11.8322 -0.404789
-18.8954 -12.0602 0.207689
-14.4444 -12.5234 -0.452022
-16.3988 -14.5576 2.22476
-17.9126 -11.6623 1.4067
-19.8293 -12.6443 -0.0120294
-17.7985 -12.631 1.93819
-18.5544 -13.4052 0.289335
-18.5432 -12.2867 0.316818
-16.4312 -12.5781 2.03436
-16.4188 -12.0609 1.52384
-17.5871 -11.901 -0.594371
-17.0507 -10.8983 -0.810135
-14.5789 -12.769 -2.34993
-15.29 -10.432 0.0343725
-17.965 -12.4188 -0.797835
-15.3813 -12.6112 -1.65502
-15.0861 -12.6664 -0.935595
-18.8125 -14.2483 0.309161
-16.5282 -13.4693 2.32692
-15.2164 -12.1495 2.50051
-18.2109 -12.9281 2.70175
-15.9278 -12.8899 -2.81556
-15.6266 -12.5455 -0.383953
-14.0943 -10.6257 0.19796
-16.6101 -11.4733 3.20759
-14.9417 -11.1334 0.679658
-17.806 -11.496 1.68648
-16.5587 -12.1501 -1.03508
-19.2456 -12.4836 0.286891
-15.6641 -11.4457 0.148074
-16.9016 -12.7928 0.50669
-18.3831 -14.2533 0.536872
-16.1312 -11.4311 -0.774674
-17.9664 -11.6316 -1.13832
-16.9107 -14.4428 1.04531
-18.7662 -12.5031 -0.992411
-17.3873 -13.1797 1.39997
-14.6113 -13.9273 1.95788
-16.3423 -11.3109 2.29161
-14.952 -11.4488 0.417031
-15.2754 -12.8401 -0.17265
-14.2852 -12.3735 -0.375673
-18.0813 -12.9967 2.60464
-13.8322 -12.4834 -1.77953
-18.9678 -11.7891 2.45424
-14.517 -11.066 0.124889
-16.1795 -11.2858 -0.538342
-15.8053 -11.0198 -2.49934
-17.8776 -13.0338 -0.237037
-16.1098 -12.8598 1.61406
-17.3434 -12.4019 0.589268
-16.014 -13.1374 1.22312
-14.7395 -13.0244 -2.76389
-13.5915 -11.2095 2.51984
-18.305 -9.8833 0.807136
-18.5623 -11.3962 -2.42287
-17.6989 -10.7176 -0.644256
-17.5164 -12.1644 -1.26274
-17.0943 -12.4816 -1.47537
-18.3984 -13.6709 -0.414352
-19.7105 -12.6673 -1.15592
-17.8328 -11.2481 -3.18562
-18.7668 -11.3952 1.19473
-18.3347 -11.3636 2.11494
-16.529 -13.1019 1.20458
-18.7789 -11.1784 -0.665813
-17.2588 -12.7771 -0.698081
-14.8633 -12.3082 -1.12402
-17.6942 -11.05 -1.0143
-18.1003 -9.89274 -0.109395
-17.3067 -12.8781 3.18603
-16.2091 -12.9834 -0.510958
-18.753 -12.8826 1.69744
-17.6007 -13.2406 1.82753
-15.9656 -12.1465 -1.09007
-15.1635 -11.3101 -0.881806
-15.5779 -14.4075 -0.390406
-17.4595 -11.2413 0.806195
-14.7938 -11.6539 0.26596
-15.1694 -11.7595 -0.677578
-14.9283 -13.0341 -1.27194
-14.8728 -12.2628 0.734643
-15.884 -11.8682 -1.52684
-16.0345 -12.4881 -0.766288
-14.8557 -11.496 -1.64362
-18.9279 -11.57 -0.776027
-17.0975 -11.2129 -1.45371
-18.7662 -12.1897 1.47783
-17.4603 -11.1155 0.226614
-15.7834 -12.2368 -0.503756
-16.9468 -13.1663 -0.949513
-17.7473 -12.824 -3.58399
-18.3759 -12.2908 1.62116
-17.3106 -12.1597 -0.984865
-18.615 -11.0137 0.802022
-18.404 -13.4461 -0.501954
-17.9652 -11.7518 -0.906166
-16.146 -12.2839 -1.64745
-16.8394 -13.9598 0.735691
-17.3715 -11.2794 3.34398
-16.9238 -12.4739 1.22194
-14.9904 -13.2065 0.978455
-18.1882 -13.5968 -0.794511
-15.883 -12.3974 0.690649
-16.77 -11.5342 -0.715169
-12.9803 -12.3233 -0.0244539
-13.0758 -11.5117 -0.733687
-14.929 -12.9022 -0.329766
-14.1841 -11.9622 -0.0297372
-18.9575 -12.3443 -0.0930227
-18.7528 -10.2109 -0.66554
-18.9565 -15.1331 -0.775105
-18.3682 -11.6834 -0.0999871
-17.5728 -12.5717 -0.43286
-18.7737 -12.6472 0.764986
-13.9541 -12.1984 -3.05791
-20.1603 -12.9674 -1.52166
-18.2266 -12.6324 0.674667
-17.5603 -13.4163 2.00646
-19.4111 -13.7478 0.82667
-16.3263 -12.9634 2.22512
-14.5884 -11.9219 -1.76891
-15.4765 -12.301 -0.143953
-18.7763 -12.7234 1.82539
-14.8906 -13.0766 -1.9353
-18.3081 -10.95 1.2698
-15.1808 -11.6207 -0.159963
-15.5554 -11.815 -0.20174
-13.7041 -13.7557 1.2075
-14.8618 -10.7438 -0.72825
-14.4245 -12.8916 0.585074
-15.4127 -11.6729 -0.895399
-13.226 -11.943 -0.586983
-15.3087 -12.741 -0.225896
-12.6915 -11.039 -2.30215
-14.607 -12.5796 -0.210864
-14.8085 -13.2393 -0.443776
-15.2977 -12.4124 -0.393821
-18.709 -11.656 0.845173
-16.5197 -11.5593 1.97807
-17.1835 -12.7666 -1.87911
-16.4667 -12.3476 0.391474
-18.0026 -12.9607 -1.04682
-19.1494 -12.7191 0.574466
-18.9839 -11.5767 -1.28917
-14.7764 -14.021 -3.17696
-16.3814 -14.228 1.20105
-16.9656 -13.894 0.937091
-14.4152 -12.7719 -1.46301
-14.3938 -13.1676 0.510464
-16.851 -12.9554 1.05088
-14.9562 -11.8549 2.30601
-13.7202 -11.778 -0.332397
-16.0589 -11.9683 1.62794
-12.6751 -12.5726 0.0138307
-12.9669 -13.6854 -1.07993
-14.2797 -11.5322 1.68638
-16.4901 -11.0271 1.68445
-17.4852 -11.4598 -2.62019
-16.7394 -11.1186 -2.57805
-17.4227 -11.9575 -2.877
-16.1382 -10.1963 -0.739835
-15.9938 -11.096 -1.97143
-16.2497 -11.0501 -0.960938
-17.8224 -12.8747 2.15268
-17.4614 -10.549 2.07472
-17.5715 -12.4884 1.09736
-17.1337 -14.472 1.47741
-13.8373 -11.9103 -0.858785
-16.462 -12.6122 -1.82732
-14.088 -12.7898 -2.07223
-15.1663 -11.1834 -0.195585
-14.0728 -12.3352 -1.54485
-15.5454 -13.0703 1.61357
-17.2225 -11.9296 0.876715
-14.238 -12.3235 -0.644993
-14.3067 -13.2468 0.0268588
-15.7833 -13.0531 1.5682
-18.385 -13.9859 0.351497
-15.2747 -12.1374 -1.80792
-17.276 -10.8495 -0.337938
-13.4952 -12.7288 -2.53305
-16.4674 -12.5479 -0.115776
-16.1633 -12.3103 1.08357
-14.7082 -12.0374 -0.775786
-14.4565 -11.6871 -0.316529
-14.2432 -13.0145 -0.107257
-14.8682 -11.3643 0.925264
-15.8523 -13.0724 -1.94429
-17.2218 -11.0949 1.1841
-17.3705 -12.7416 0.467627
-16.1917 -12.4196 -2.45507
-19.1045 -10.1773 0.447588
-19.1967 -12.324 0.442361
-16.9427 -13.0918 -0.855019
-16.5251 -11.0056 -3.50341
-18.2918 -11.7384 1.17557
-16.3478 -11.7955 -0.59345
-15.4441 -11.4534 -2.01453
-15.2537 -11.8918 1.53566
-15.457 -11.6327 -0.60408
-15.6043 -12.8984 0.16117
-15.1197 -12.3396 0.998325
-13.2509 -13.4916 -1.40389
-16.0936 -11.5043 -1.15355
-19.1701 -13.5503 -0.803878
-17.8696 -12.2463 -1.09814
-17.252 -11.4721 -1.14399
-17.8406 -12.902 0.564609
-18.2347 -12.8402 0.62676
-20.0323 -13.9165 -0.202526
-15.5921 -12.0916 2.53418
-17.5102 -11.6305 2.08378
-17.9119 -12.1233 2.55217
-18.9588 -12.7662 1.27723
-17.0986 -11.7165 2.52649
-17.0213 -13.1115 1.51563
-16.5724 -14.5319 0.0939458
-17.0112 -13.0122 -1.92807
-17.1062 -13.0566 -1.13939
-18.7716 -11.3088 0.73368
-15.755 -11.7545 1.17609
-18.3668 -12.2972 -0.796898
-16.7718 -12.7245 -1.64292
-16.0633 -11.5894 -0.49645
-15.867 -11.2157 -0.620651
-15.3737 -11.6573 1.02124
-15.3515 -11.6766 -0.585709
-14.4357 -12.9005 -0.357094
-17.9802 -11.9155 0.124845
-14.7565 -11.6487 1.05253
-13.061 -12.5639 1.35784
-16.0951 -9.12055 -1.78009
-18.651 -10.7705 0.0499677
-17.9946 -12.1695 -0.242109
-18.5798 -13.5402 1.07811
-17.9808 -12.9755 0.882294
-17.2326 -10.2045 0.327738
-17.6837 -10.8523 -0.389886
-17.467 -13.096 0.960746
-18.1907 -11.9904 -3.816
-17.0773 -14.9049 0.303908
-16.037 -12.7452 -0.115929
-16.601 -10.4053 0.764794
-14.497 -11.5801 -0.878586
-14.359 -12.3137 -1.01714
-14.3182 -10.4308 -0.505658
-17.3776 -11.4054 1.06096
-15.9664 -13.2946 -1.18465
-13.4175 -11.9569 -3.08399
-15.9238 -14.0276 0.355593
-14.9459 -12.5711 -2.20929
-13.0152 -12.7795 -1.65759
-15.2301 -12.8901 1.29697
-13.9352 -12.5375 -0.0666622
-15.4181 -12.4943 -1.23994
-16.3922 -11.7507 -0.752654
-14.6118 -12.2362 -0.660851
-13.3876 -14.4116 0.149834
-15.0377 -13.9094 -0.270017
-15.3268 -11.8094 1.27972
-16.433 -14.1531 -0.730822
-17.9336 -13.1265 1.29273
-17.368 -12.9262 1.53591
-17.2706 -12.3155 -1.00048
-17.3836 -10.7441 0.495683
-16.7373 -11.348 -0.398211
-15.0522 -12.2455 -2.49882
-15.4062 -12.3968 -1.26046
-16.5551 -12.2976 -2.58911
-14.44 -12.8664 -0.216754
-16.3488 -13.5741 -2.34703
-17.3664 -11.4788 0.244809
-14.7409 -12.7413 -0.616566
-14.642 -13.1429 1.35326
-14.2433 -12.5354 0.391434
-14.2087 -11.6689 1.30577
-14.5164 -12.2244 -0.615583
-14.106 -12.5423 -2.89658
-14.9433 -13.4881 -0.488149
-16.9163 -12.3976 1.18801
-15.3612 -12.1319 1.34569
-17.0485 -12.0897 -1.66691
-16.9749 -13.993 0.352458
-18.4558 -12.2827 0.651604
-15.6763 -12.4862 -3.99916
-15.1313 -11.659 -2.05596
-15.9047 -11.9923 -2.80448
-16.3591 -10.5717 1.26132
-15.6767 -12.8964 -1.43528
-15.9602 -12.3023 -2.1695
-15.3285 -13.1318 -1.0044
-15.6369 -10.9947 0.357759
-14.9041 -11.1513 -3.08238
-14.2994 -12.679 -3.66763
-12.5742 -12.3791 -2.04146
-14.5886 -11.8516 1.33607
-19.5162 -10.8002 -0.196435
-17.8089 -11.4804 -1.91821
-17.5041 -10.9545 1.94223
-16.9578 -10.7107 0.29238
-15.299 -13.9424 -0.314466
-18.1022 -13.0748 -1.706
-16.825 -11.8749 -0.699158
-17.1592 -11.3618 -0.268339
-17.7476 -13.5919 -0.743759
-16.7123 -12.4355 1.35029
-17.8544 -11.2367 -0.0259025
-15.3685 -12.6795 -0.232542
-16.4117 -10.3591 -2.35367
-16.159 -12.8099 -0.996906
-14.6836 -12.0517 0.418482
-16.5164 -11.8302 -0.846456
-15.7799 -11.9037 -0.798849
-19.5017 -9.25566 0.758369
-20.487 -10.8431 0.829228
-17.6667 -11.0975 -1.31788
-19.4309 -12.7165 -0.423918
-19.6738 -10.8146 -0.518554
-18.0545 -11.5058 -0.685663
-17.7326 -10.6905 -0.421712
-18.0361 -11.0281 -0.170022
-16.9764 -13.0685 -0.190877
-18.0516 -13.1431 -1.17279
-15.2028 -13.0533 0.885178
-17.1955 -11.5768 -0.109773
-16.0609 -11.2804 -1.0847
-16.2052 -11.1604 -1.82056
-14.2473 -9.92696 -1.6213
-15.1934 -12.2957 -1.22027
-14.0599 -11.9852 2.92137
-17.9087 -12.4071 1.96982
-18.639 -11.4636 1.1585
-17.4437 -12.8152 1.19846
-17.7984 -12.6004 0.129586
-18.5966 -11.8259 1.34896
-19.0064 -12.614 -0.159733
-18.4864 -11.7558 0.397359
-16.7711 -11.6244 -1.90019
-18.6258 -11.8401 0.437911
-18.0008 -12.6059 -0.447708
-17.2145 -11.6865 -1.55058
-18.381 -13.8798 -0.448333
-18.2992 -13.3085 -0.487306
-19.9622 -12.1771 -0.387391
-17.7001 -11.2327 0.328172
-18.0302 -11.4741 0.376501
-18.4677 -11.8203 1.28856
-17.7132 -13.6658 -0.456323
-16.3942 -11.9844 -3.88079
-17.7012 -13.599 -3.25752
-14.4615 -12.7917 -0.536536
-15.3559 -10.8279 -0.270275
-13.9802 -10.5649 1.86261
-14.9857 -10.7381 2.2929
-13.8977 -11.787 -1.44785
-15.6892 -12.7088 -1.70207
-15.4693 -11.89 0.0727111
-15.1285 -11.608 1.21474
-17.2027 -12.2531 3.61571
-19.567 -12.1594 3.41827
-18.9268 -12.8052 -0.436013
-19.0867 -11.6177 0.903623
-16.6748 -11.9855 -1.28968
-17.8193 -12.4544 -0.636703
-16.2986 -11.6432 -0.73267
-16.6001 -11.6941 -2.97005
-16.1835 -12.2813 -0.441542
-17.2549 -12.119 2.74706
-15.3339 -11.8851 1.20309
-17.0008 -11.8305 -0.762895
-16.9009 -12.215 -1.47556
-16.3218 -11.5185 -0.0613223
-15.7653 -12.0921 0.725496
-17.0055 -12.6586 -1.13559
-15.7827 -12.334 2.54354
-18.8316 -12.092 -2.00166
-15.5163 -11.4404 1.55681
-15.2168 -11.9442 -0.490594
-15.0203 -13.9426 -1.66244
-15.9393 -12.5623 0.545646
-15.8924 -10.4311 -1.60158
-15.2015 -12.2847 -2.64531
-13.5573 -11.5441 -0.480185
-14.244 -11.9582 -0.316042
-14.7766 -12.5384 -3.20131
-15.2298 -13.2211 1.01431
-18.3599 -10.0891 0.985263
-17.6588 -11.2102 0.286497
-15.3171 -10.9273 1.14396
-17.612 -12.24 -1.94347
-16.619 -13.1043 -1.22821
-17.8122 -11.3143 -3.10058
-16.4843 -13.1169 -0.505638
-17.666 -11.7161 1.21153
-14.9017 -13.4711 1.31127
-16.7141 -10.8999 -0.00533709
-18.0401 -11.079 0.374199
-17.0798 -11.9742 -1.95921
-18.0742 -11.6538 -3.73078
-17.4602 -11.8437 -3.42451
-13.6104 -12.9521 0.278267
-13.5603 -10.5509 -1.14764
-14.4427 -11.0689 -1.48674
-15.6828 -11.9759 -1.19095
-14.7369 -12.1041 -3.49001
-13.8975 -11.3821 1.1015
-18.6827 -11.3135 0.20966
-16.6261 -14.1218 0.040262
-17.1144 -11.2778 -1.93499
-18.6267 -12.3865 -2.9089
-17.9185 -11.7158 1.96385
-16.4368 -12.1937 1.18643
-18.3229 -11.9543 1.18258
-17.6184 -10.516 1.53484
-17.793 -9.72312 -0.806187
-16.3562 -11.2271 -1.67112
-19.8766 -11.681 0.474916
-18.2452 -10.9331 -1.29095
-15.8188 -12.5149 -2.29541
-17.3134 -13.3905 -1.52378
-17.0801 -11.4936 -0.144166
-17.9981 -11.9929 -1.90218
-15.0408 -11.1129 0.698674
-16.5175 -14.8194 -0.402503
-15.7004 -11.7596 0.253687
-15.9733 -12.158 -0.443744
-17.7417 -11.0553 -2.78865
-14.6876 -13.2206 -1.49347
-17.4272 -10.9985 0.134085
-18.8873 -13.116 1.62527
-18.5729 -13.9616 -0.139397
-16.5633 -11.6451 -0.481688
-17.4211 -11.9992 0.025848
-17.3557 -12.3942 -0.259374
-16.891 -11.2518 0.0145918
-14.2505 -12.5484 0.660858
-16.9678 -13.5639 0.335832
-15.3359 -13.4139 -0.544718
-14.036 -13.0273 -1.39813
-14.761 -11.0756 0.674316
-14.4123 -10.8848 3.15897
-18.0932 -11.9698 0.984243
-16.7167 -13.4333 0.737723
-17.9221 -12.3484 0.327939
-19.5863 -12.3818 -1.68814
-17.8006 -12.6643 1.16884
-20.8266 -12.7972 -0.23042
-17.5029 -12.6422 0.385789
-18.4807 -13.4528 0.393716
-16.4264 -11.6832 -4.00109
-15.8695 -12.8404 -0.676245
-16.1425 -12.511 -2.08513
-15.9451 -13.1055 -0.596217
-16.779 -10.7763 -0.0898957
-15.7259 -11.6042 -0.826003
-17.1914 -12.0603 0.329018
-17.1659 -11.1401 -0.610188
-14.2144 -12.4027 -0.991215
-17.1652 -12.9204 0.989424
-15.0582 -11.5451 -0.523287
-16.7157 -13.9947 -1.6201
-15.5873 -13.4995 -0.97869
-17.0124 -11.6119 -1.70398
-19.1417 -11.9255 1.94343
-17.2677 -14.1187 0.783404
-17.2987 -12.7113 -0.0760033
-18.1126 -13.251 1.31801
-17.0471 -11.9424 -0.563466
-18.1534 -12.7884 0.683802
-17.7627 -11.9716 0.307118
-19.0824 -11.3783 1.73152
-19.1782 -11.778 0.107776
-18.8321 -11.3695 -1.21238
-17.5565 -12.3961 -1.30295
-17.923 -12.6203 -0.785792
-17.7021 -12.3006 -1.2269
-18.0337 -11.8011 -0.856553
-19.2338 -11.5979 -1.89181
-17.1924 -11.4524 -1.84428
-18.7793 -9.90875 0.761637
-19.4016 -10.8765 -2.15147
-17.3355 -11.465 -0.322363
-18.5894 -11.0554 -0.6732
-17.0056 -11.3778 -2.06236
-17.8239 -12.532 0.779565
-18.0445 -12.8215 -0.251435
-17.8837 -11.6046 -0.428037
-18.4222 -12.7282 0.363937
-17.4592 -13.2291 -0.233704
-15.8263 -13.4997 -1.51245
-19.5729 -13.0208 0.642278
-18.6692 -11.1081 -1.29063
-18.8909 -13.5201 -1.94351
-18.927 -10.7534 -0.691421
-14.4482 -12.545 -2.49304
-16.5853 -13.1243 -0.846152
-16.0271 -12.0095 -0.893622
-16.2712 -11.1903 -0.166064
-17.473 -12.1804 -2.10058
-17.8407 -12.6561 -1.37399
-14.2293 -10.6519 -2.57252
-14.4806 -13.9052 -3.46398
-17.481 -11.1411 -2.82702
-14.0852 -11.4489 -0.989079
-15.4962 -11.2238 -1.79451
-15.9051 -11.8361 -3.74421
-18.9301 -12.2965 1.03177
-17.9098 -11.8063 2.45098
-19.0318 -12.6086 2.74199
-19.8965 -11.1154 0.799271
-16.5828 -13.3497 2.88565
-16.9658 -12.588 0.0507761
-15.9752 -11.4407 2.44551
-18.6595 -11.0609 0.471543
-19.6358 -12.4947 -0.000784751
-18.2922 -12.7863 -1.69358
-16.9848 -12.0444 0.950104
-20.5062 -11.7214 -0.239931
-17.3585 -13.9893 1.45222
-17.7195 -12.2592 -1.03487
-18.5877 -13.9475 0.0543425
-18.9317 -12.9325 0.731369
-17.7993 -11.3905 0.275016
-18.6716 -11.7171 -0.197431
-21.2715 -12.3793 -1.03111
-15.8878 -12.4885 0.435613
-16.1241 -11.2468 0.322493
-18.038 -12.9504 -1.66475
-17.9022 -13.0077 -0.0914413
-15.3212 -11.6247 2.00457
-19.2822 -11.252 0.0841028
-16.6784 -14.9105 1.10238
-15.5599 -12.5633 -0.562037
-19.2677 -11.1335 0.839992
-18.6508 -12.9101 -1.13592
-15.2499 -11.474 0.603732
-15.2492 -11.8161 0.0442358
-15.0912 -11.7248 -0.16883
-15.098 -11.7197 -0.670191
-16.1191 -13.2816 0.455038
-15.2973 -11.3509 -1.59222
-14.6475 -13.0369 -0.845996
-15.7086 -11.982 1.31046
-18.1527 -12.9687 -1.29684
-17.3974 -12.9845 -0.51529
-15.536 -12.9878 0.241748
-15.5771 -12.6248 1.84959
-14.642 -12.9693 -0.260135
-14.354 -12.2506 -0.358879
-15.3349 -12.089 0.932669
-14.0333 -12.7793 -2.19102
-14.0928 -11.8902 0.0516928
-17.6076 -10.9141 -3.05754
-15.9781 -13.5681 -3.22795
-16.4306 -12.3309 -1.71697
-14.3263 -12.9943 -2.23383
-14.1887 -12.6235 -2.0959
-17.0783 -11.378 2.94809
-16.7735 -13.1681 0.175727
-17.6736 -12.6014 -0.649043
-17.9543 -12.8912 0.138894
-18.3566 -11.2034 -1.64738
-15.8954 -10.7259 -0.761665
-17.542 -9.35608 1.58718
-14.934 -12.6087 0.148224
-17.5803 -13.1329 -1.10729
-14.7463 -11.0428 1.71923
-17.4166 -12.1662 -1.02963
-16.6988 -13.299 -0.781362
-15.4183 -12.809 0.0548597
-17.8341 -10.0606 1.11675
-17.3233 -10.9797 -1.44185
-18.5942 -11.9579 0.592478
-16.3806 -12.4003 -0.304105
-18.253 -11.915 0.297287
-15.4484 -11.1009 0.32907
-16.5552 -12.7193 1.53604
-14.09 -13.351 -1.26222
-17.7467 -13.092 0.302707
-17.5629 -13.7016 -1.14349
-16.7754 -13.748 -1.81221
-15.5493 -13.5084 -0.934609
-13.7942 -12.4656 0.130101
-13.9092 -13.0012 -1.31824
-12.3577 -10.6885 0.628219
-16.7033 -10.9489 -1.67176
-14.9067 -11.7058 0.291986
-15.8674 -13.0862 1.50861
-16.0924 -13.4411 -3.1528
-18.8605 -12.4214 -1.78563
-14.0346 -12.8815 -0.697984
-16.9336 -10.1295 -1.31069
-16.5416 -12.2829 0.406856
-16.5106 -11.656 0.0843533
-14.7907 -11.8596 -3.28777
-17.4361 -11.6255 -2.3435
-17.2371 -13.4848 -2.76402
-14.5821 -10.5628 -3.00247
-14.9938 -10.7253 -2.02891
-18.2607 -13.1656 1.46724
-17.087 -14.7632 2.03889
-17.656 -13.0224 0.0372866
-19.6719 -10.8726 0.0103787
-20.0515 -11.7436 1.48603
-15.2738 -12.1504 2.09607
-18.5505 -11.1533 1.37808
-16.4072 -12.6424 0.212815
-17.6466 -12.1422 -0.736165
-17.5325 -14.3278 -0.732848
-18.6649 -14.2719 0.678113
-12.5187 -9.55031 2.46207
-17.9915 -10.323 0.276346
-18.2245 -10.4032 -1.35807
-17.9994 -10.6441 -0.148074
-17.0964 -13.3694 -2.90406
-17.2279 -12.1806 -2.44747
-14.4172 -11.9668 0.556924
-14.749 -13.2406 -0.0153673
-15.583 -11.9046 0.764548
-13.3062 -12.0526 -0.849421
-13.4785 -11.6286 -2.70405
-16.9188 -13.4398 0.72896
-14.413 -12.0023 -1.34409
-17.7669 -9.41183 -2.29591
-15.4857 -11.9546 -0.216795
-17.2415 -10.8649 3.42366
-17.3893 -11.7741 0.179185
-19.7591 -12.0984 0.723821
-15.7736 -13.7244 2.93641
-19.6653 -14.0365 0.246456
-16.7324 -11.2827 -0.433093
-17.3284 -11.7341 -0.67363
-15.7464 -12.1151 0.24119
-16.9041 -11.8457 -0.746849
-12.0756 -12.5524 -1.53837
-16.0607 -12.1164 -0.934802
-15.3296 -13.6322 -0.80371
-14.8104 -10.7205 0.659222
-14.729 -13.7314 0.0851472
-13.9216 -11.2321 0.164015
-15.7567 -12.9873 -1.97776
-16.6789 -12.3667 -2.65376
-15.0526 -12.9065 -2.40648
-19.1148 -14.0084 0.546613
-17.7976 -11.3712 3.84391
-20.2195 -12.2183 1.87852
-16.9492 -12.4983 0.888518
-17.7578 -10.8997 1.49188
-18.4224 -12.1366 0.716315
-16.952 -13.2235 1.09973
-18.7865 -11.4471 -1.33594
-17.5356 -12.0933 -0.426708
-14.4186 -13.169 -0.64459
-18.5289 -11.3175 -2.6816
-17.5182 -10.86 -0.683869
-16.6764 -12.7464 0.740661
-15.2964 -9.83411 1.33352
-19.6499 -12.8704 0.180223
-16.3636 -11.7213 -2.47833
-18.439 -13.3701 -2.54461
-15.9032 -11.8508 -1.87087
-16.5542 -11.948 2.63152
-17.1831 -13.7396 1.51549
-19.1962 -11.71 1.01133
-15.1481 -12.8935 1.07333
-12.8781 -10.2336 -0.0148616
-16.3435 -11.6668 -1.80306
-15.3383 -12.6686 -0.0525322
-15.6122 -12.2119 0.286781
-15.793 -10.28 -0.972396
-15.5406 -10.523 -2.09685
-16.6798 -13.5105 0.684031
-18.2109 -11.184 -0.71355
-16.3568 -13.5165 1.66888
-13.9895 -13.3454 -1.43978
