-13.391 -13.8806 0.0942613
-14.9288 -13.3798 0.929323
-14.323 -13.7165 -1.15844
-13.9241 -14.1335 -3.91617
-15.2509 -13.2401 -1.08655
-14.1736 -15.0617 -2.70693
-10.3436 -12.9002 -1.4821
-14.5274 -14.3876 -0.308793
-12.9883 -13.2421 -1.74188
-13.4508 -13.2731 -1.91441
-13.7515 -12.4412 -2.17335
-14.6334 -12.2271 0.572255
-14.305 -13.4886 -1.91077
-12.9236 -13.4086 -0.554532
-16.6857 -14.5916 -1.18759
-12.1901 -14.6922 -1.29832
-18.4074 -11.9941 2.94438
-17.5915 -9.63475 -1.79037
-17.5247 -11.7347 -1.78822
-17.3408 -11.3477 -2.46766
-15.1344 -14.2182 -2.21026
-13.5899 -10.538 -3.69928
-14.3768 -13.9896 0.72715
-13.5983 -14.5643 0.491098
-13.3611 -10.597 -0.0813539
-12.5177 -13.3069 -0.806886
-12.3105 -13.9287 -3.16546
-15.0331 -13.5622 -2.88892
-12.4595 -13.1916 -2.84105
-16.7176 -13.1505 1.85412
-17.0058 -12.8314 0.860541
-14.8733 -13.2455 0.360037
-15.4971 -14.2468 -1.95041
-11.978 -12.109 -0.41819
-12.8063 -14.6411 -2.97644
-13.1393 -14.1336 -3.91228
-12.7652 -13.1153 -1.33117
-17.9952 -12.3219 4.18231
-13.7941 -11.8991 -1.62867
-12.6882 -13.3118 -1.67259
-14.4746 -12.1954 0.131017
-12.945 -15.1203 -2.44801
-19.5195 -13.192 3.03513
-13.7835 -13.0253 -0.589573
-13.8752 -12.1805 -0.271766
-14.5511 -12.5383 -2.01598
-14.9249 -12.9583 -1.03035
-12.9532 -14.1065 -1.50891
-11.4861 -12.8164 -0.552814
-11.6159 -13.161 -0.0841795
-12.4692 -12.7464 -2.39668
-15.3192 -14.4219 -3.6711
-17.8436 -12.6397 1.83422
-17.6598 -11.961 2.22272
-17.8829 -13.6246 -3.82646
-12.6997 -12.5409 1.58426
-13.9032 -12.1675 0.120297
-13.4432 -14.0401 -0.736459
-14.0722 -15.7725 0.546112
-12.8562 -15.5768 -0.850579
-11.3471 -14.4607 -2.05323
-17.7719 -11.7977 4.0453
-17.5938 -13.2707 0.820185
-12.7122 -12.8025 -3.76174
-12.0703 -14.7747 -0.736233
-14.8137 -13.9254 -3.15827
-14.2885 -13.1626 -1.06151
-14.1593 -12.7685 -3.32233
-14.3799 -14.227 -3.44217
-12.2062 -13.6552 -2.30302
-10.7241 -12.4971 -1.44598
-13.9489 -13.327 -1.25224
-12.5485 -12.9849 -1.93803
-12.6584 -14.4221 -0.115794
-15.0514 -12.9991 -2.23631
-14.6776 -13.5698 -0.688252
-12.6961 -11.7878 -3.8996
-15.4273 -12.1121 1.5286
-16.3931 -12.6703 0.918135
-16.5453 -12.1795 0.67884
-13.0754 -13.8801 0.365536
-14.4109 -12.0046 -1.03595
-14.6856 -12.5831 -3.62423
-10.5789 -14.5647 -1.19465
-16.9343 -13.2734 0.860986
-13.9341 -12.8028 0.90013
-12.5867 -14.3292 0.289952
-13.8244 -13.268 -1.54619
-13.1533 -13.3896 -1.94689
-13.1345 -14.0029 -0.635396
-12.1292 -13.0799 -4.06824
-12.2187 -12.9152 -3.66019
-13.1143 -13.2479 -6.19666
-13.7993 -13.6341 -4.04768
-12.1856 -14.8748 -2.23812
-13.6302 -12.4277 -2.33517
-13.289 -13.0386 1.6777
-13.5322 -14.2286 -1.31936
-12.2556 -12.4486 -2.59759
-13.8584 -15.0014 -1.84539
-14.1539 -13.8277 -1.61659
-14.4782 -16.5356 0.197903
-12.2842 -14.4703 -2.11708
-13.4171 -13.0444 -2.04892
-13.9911 -11.7624 -1.9645
-14.3576 -12.3763 0.31682
-16.841 -13.4671 1.50118
-12.7573 -13.8669 1.3688
-13.2665 -13.7423 0.126836
-13.9322 -14.1209 -1.04775
-12.0286 -14.5019 -0.951273
-13.5131 -14.5642 -2.95117
-14.7853 -13.0643 -2.73959
-13.3083 -15.266 -2.79617
-13.0377 -11.5971 -1.64578
-13.7791 -13.4216 -0.108359
-13.285 -13.6503 -2.116
-15.6379 -14.3261 -2.95514
-15.9403 -12.8202 -1.37881
-14.3508 -15.1851 -2.26911
-16.0128 -12.9326 -0.616139
-14.116 -14.3981 -4.40217
-13.1775 -14.4116 -4.23789
-14.9212 -15.4883 0.265314
-13.6585 -13.0986 -0.907978
-14.4494 -12.3459 -3.40917
-10.6951 -14.1764 -4.76985
-13.9898 -13.0341 -2.90645
-12.2032 -15.7873 -2.30917
-14.6669 -11.8369 -1.95567
-12.8552 -13.0949 -3.43088
-12.9215 -14.4426 0.171102
-14.2601 -14.4156 -5.60455
-13.9532 -14.0764 -0.3547
-14.4861 -13.9601 -1.26835
-12.8905 -12.6055 -3.46438
-15.7493 -12.1268 2.26278
-14.15 -13.3436 2.27851
-12.8003 -14.1542 -0.662582
-12.87 -12.4223 -1.23179
-11.6837 -14.4267 -4.53178
-13.8566 -14.2636 -4.6293
-15.8126 -12.2364 -3.91299
-13.9034 -13.933 -3.90042
-17.4049 -13.7732 0.913046
-14.646 -14.5033 0.39491
-13.3271 -14.1263 -2.44304
-13.6489 -13.6448 -2.54437
-14.0283 -13.2885 -2.83711
-13.388 -13.1457 -2.33507
-12.46 -12.9177 -1.91066
-16.2704 -13.4395 -0.647241
-12.1798 -13.3844 -0.389412
-12.0914 -15.3539 0.201443
-12.693 -14.577 -3.99266
-13.4514 -11.9332 -2.88684
-15.4713 -11.6591 -2.33573
-13.1737 -12.5522 -0.494253
-13.9523 -13.7625 -4.69712
-11.2281 -11.8248 -2.98997
-12.9132 -12.8182 0.39317
-14.5132 -13.7776 0.679521
-15.2065 -13.5885 -2.89761
-14.4616 -14.7486 0.830543
-12.4543 -11.7273 -1.17271
-15.6902 -13.3343 -3.04411
-12.0977 -13.2393 -0.493084
-13.2775 -15.3839 -1.20564
-16.3426 -13.6527 0.905776
-15.7055 -14.3029 -0.265418
-13.6223 -14.5922 1.39324
-13.0118 -14.0315 -2.67116
-16.2289 -12.1343 -0.927178
-11.5274 -12.3062 -3.02615
-13.0275 -12.8248 -2.00705
-13.1352 -14.5253 -3.16916
-14.0038 -14.4956 0.706612
-14.5216 -14.6056 -0.0305629
-13.1659 -13.8741 -0.0428391
-11.9414 -15.1146 -3.71684
-12.9511 -12.7796 -1.54796
-13.4018 -13.6438 -1.21962
-14.1847 -13.5887 -1.58462
-13.2557 -11.9627 -2.6136
-13.7242 -12.861 -3.97003
-14.184 -12.496 -0.516299
-13.6604 -13.6922 -1.93163
-14.5824 -12.7866 -1.22452
-12.9467 -14.3131 -2.11048
-13.3793 -12.9236 -2.36906
-12.8935 -15.1812 -2.62857
-13.4202 -16.5367 -3.41911
-12.2988 -12.8373 0.472015
-13.8056 -12.8197 -1.77827
-14.083 -13.4828 -0.0660982
-12.1913 -11.4212 -0.789973
-12.3377 -13.1142 -0.635084
-12.5145 -13.8028 -2.34438
-12.3742 -14.2249 0.649435
-14.2222 -12.5575 -0.159089
-12.3149 -13.9411 -3.74154
-13.4003 -12.8366 1.61644
-12.0575 -12.522 1.86458
-12.5083 -12.1382 1.93686
-17.0844 -12.5071 2.11327
-12.7854 -14.0101 1.11317
-13.0778 -13.0206 0.668685
-15.1597 -12.9859 0.751322
-13.7079 -13.5384 0.264837
-15.3016 -15.3573 0.79642
-12.8743 -13.6588 0.390277
-11.7521 -13.8179 1.41624
-17.7162 -12.1754 1.88999
-15.0865 -15.3036 -0.913875
-15.851 -13.5817 -0.137948
-17.3631 -11.9646 0.764488
-13.1019 -13.8414 -1.13024
-12.7561 -13.7416 -0.848009
-17.6377 -12.7288 1.02896
-17.0941 -12.3511 -0.493465
-12.8092 -13.1702 -0.501981
-17.104 -14.3297 -1.18156
-13.8483 -13.7892 -0.899014
-11.5573 -14.4361 -2.49249
-13.41 -14.4251 -2.40183
-13.1441 -14.0276 -2.72734
-15.2631 -12.9931 0.995404
-12.5993 -11.8001 -1.82591
-12.7715 -12.8521 -2.10927
-13.0557 -13.2276 -3.09503
-16.3422 -12.6405 -2.1015
-16.8154 -11.5549 -2.63611
-13.4886 -12.4545 -2.48585
-17.2334 -13.96 -4.15123
-16.8151 -12.3449 -3.37011
-17.7077 -12.0254 -1.80619
-12.5788 -10.4393 -3.04262
-17.7378 -13.0692 -3.88324
-10.3312 -13.1533 -2.82841
-10.8827 -13.9203 -3.66861
-15.04 -12.3331 -3.51178
-12.7779 -13.3382 -1.46613
-14.1471 -14.2202 -5.06894
-11.8405 -13.192 0.170162
-14.2859 -13.9654 0.91111
-13.721 -13.6934 0.186613
-14.2604 -14.8861 -0.319454
-12.6415 -12.1246 0.614817
-14.9954 -12.55 -0.286767
-16.9949 -11.1701 0.27945
-13.344 -14.411 -0.0813588
-15.7187 -13.762 0.597619
-14.5945 -16.0353 -1.52356
-15.4622 -14.4412 -2.05932
-12.3056 -14.8416 -1.18116
-13.3973 -14.7537 -1.99381
-11.704 -14.9096 -1.04724
-17.6866 -13.2236 -1.41991
-17.5371 -13.0411 0.0364897
-18.9518 -12.1443 -2.54979
-14.6621 -12.8861 -1.63912
-12.2386 -12.8388 -0.518915
-14.0726 -12.9308 -1.6328
-15.4687 -12.5016 -1.26092
-14.7293 -12.9219 -0.712844
-13.0942 -15.21 -2.17049
-16.7456 -12.2167 -2.69066
-13.6177 -10.7754 -0.309776
-12.1981 -14.8286 -4.78604
-14.0063 -13.3246 -3.44167
-11.5561 -11.5225 0.873622
-13.4787 -15.4318 -0.703001
-16.2862 -13.4645 1.23889
-12.4487 -13.9102 0.734997
-15.3721 -11.1313 0.418687
-17.7735 -12.1154 1.15084
-13.5734 -15.4643 -0.0240646
-14.4091 -14.2 -2.10645
-13.5989 -12.9452 -1.93516
-14.4908 -13.385 -1.7127
-12.5859 -11.9759 -1.25346
-13.4983 -12.2163 -1.74707
-16.9035 -11.1684 -1.40866
-14.3568 -12.317 -1.0908
-15.0998 -12.2555 -2.31479
-13.4693 -15.3246 -2.39877
-14.7943 -12.5946 -3.01049
-14.9612 -11.4084 -3.6751
-12.5261 -11.6874 -3.31744
-12.5369 -16.1338 2.52462
-16.2904 -13.0701 1.09543
-13.3067 -12.7932 -1.62322
-11.2807 -14.8634 -2.29094
-15.5742 -12.8296 -1.10923
-17.184 -13.5007 -0.848363
-13.2694 -10.881 -2.27325
-14.7258 -12.8025 -3.02404
-12.517 -12.8867 -2.32021
-16.0252 -13.6502 -3.67862
-12.9242 -14.8595 0.313264
-12.7887 -13.7301 -0.38515
-17.1549 -13.8127 -0.571838
-13.3938 -14.3512 -2.17443
-13.488 -14.1593 -2.11925
-14.3985 -12.3331 -1.67998
-11.742 -14.3088 -1.47145
-12.323 -14.0285 -1.1252
-13.5566 -15.6143 -1.80846
-13.1498 -14.4573 -0.54625
-11.8667 -14.0807 -6.98406
-14.5544 -14.8023 -4.20331
-11.1481 -14.3103 -3.33352
-12.9873 -16.0313 -4.78132
-13.2473 -14.7437 -4.6795
-13.1644 -13.9406 -2.95817
-14.4842 -14.0858 -3.95052
-12.4959 -14.5671 -4.81308
-12.4399 -15.5856 -4.27245
-13.961 -15.6332 -3.38124
-14.0836 -13.2666 -3.5295
-13.2114 -12.501 -3.33565
-13.0291 -14.1018 -4.19302
-12.5883 -13.1469 -3.36348
-13.0921 -13.8864 -4.58671
-12.6035 -13.5854 -2.71635
-10.5307 -14.4553 -2.58938
-12.0821 -13.2117 -4.77557
-12.9017 -12.9296 -2.9327
-15.3332 -13.0244 -1.1196
-12.2275 -14.7714 -1.41881
-13.7065 -13.0808 -4.10368
-12.8448 -11.9828 -1.87575
-14.6643 -13.0933 -3.60497
-14.3639 -14.9987 -2.92798
-13.022 -14.5919 -2.88371
-13.027 -14.5146 -2.81663
-16.4398 -13.0963 -4.10459
-13.0568 -14.5198 -2.09122
-14.0706 -14.2932 -3.25044
-11.8857 -15.6653 -2.08696
-11.1841 -15.0475 -2.34675
-18.7219 -13.0862 -2.87966
-16.0434 -13.2217 -0.988014
-17.0884 -10.2989 -1.21009
-14.8954 -13.5621 -1.8936
-14.8757 -13.9596 -1.9441
-17.5147 -11.3523 -2.72924
-14.695 -14.1812 -1.93444
-16.0079 -12.104 -1.42716
-13.6513 -14.167 -2.07842
-11.1881 -14.6452 -4.08633
-13.2568 -14.6877 -3.13195
-16.0907 -12.0279 -2.13335
-12.1096 -14.4018 -2.79096
-15.6967 -12.0787 -3.06684
-12.056 -14.0249 -3.861
-12.634 -14.5881 -0.937821
-18.7645 -11.6279 -2.21021
-17.8432 -10.9998 -1.37208
-18.8237 -11.0777 -0.820144
-13.0502 -13.549 -1.06617
-12.2101 -14.9226 -3.19336
-11.6868 -13.6342 -1.70979
-15.4105 -10.3535 -0.771551
-18.1235 -12.211 -1.11128
-16.6159 -9.43906 -1.50404
-15.7953 -11.888 -3.35088
-16.2766 -12.8473 -1.0075
-16.4775 -11.8694 -0.316974
-15.7782 -13.475 -0.701114
-14.1172 -13.1691 -0.644333
-15.6793 -12.9424 -2.11169
-13.5189 -13.6985 -1.9806
-13.5669 -12.2373 -2.29168
-16.235 -13.1046 -1.60686
-16.3385 -12.3642 0.43751
-17.4074 -12.1749 -0.214244
-14.9143 -12.11 -3.55045
-13.9154 -13.7976 -1.54382
-15.1107 -10.3261 -0.304265
-12.314 -13.3416 -1.19141
-13.4313 -14.8256 -1.89978
-14.673 -13.3193 -0.388922
-16.9546 -11.1744 -0.630328
-15.6508 -13.3558 -1.13613
-13.83 -15.2967 -1.48981
-12.8463 -15.0873 0.939168
-13.2196 -12.6511 -0.2952
-12.1066 -13.3437 -0.283183
-13.6578 -12.3135 -0.195958
-11.8413 -14.5437 -0.809153
-16.1557 -12.5126 0.734445
-11.9757 -15.3692 -1.58101
-14.6747 -15.55 -0.352953
-16.1602 -13.1225 -0.578165
-17.9124 -13.0499 -1.53272
-15.2608 -14.8664 -1.42192
-14.4912 -14.3458 0.476966
-16.0442 -14.8351 -1.22868
-13.941 -12.1287 -0.102635
-14.0916 -14.1983 0.0568589
-17.4155 -11.8751 -0.942157
-13.793 -12.2944 -2.00433
-14.1648 -13.5665 0.232768
-18.0931 -13.9807 0.940518
-11.4553 -13.2028 -0.836918
-11.6769 -13.0628 -0.925485
-12.9031 -12.8675 1.12356
-13.7052 -12.6908 0.0385095
-14.7025 -12.4022 -0.466402
-15.5672 -15.6271 1.42001
-15.7937 -12.403 1.44549
-16.0467 -13.9584 1.83061
-14.9729 -13.9298 0.551344
-17.9834 -12.7232 1.03017
-16.004 -11.3461 1.61369
-16.7592 -11.194 -0.810899
-16.6118 -10.4612 0.968761
-13.1395 -13.7494 2.51574
-12.6629 -12.7466 1.79228
-13.1903 -14.0237 0.653524
-14.8494 -14.6396 1.59507
-14.5292 -11.9204 -0.112013
-11.7213 -14.9435 -0.210274
-18.2559 -11.7625 1.35902
-11.9256 -13.0692 2.19759
-14.0769 -12.0417 0.0876362
-15.4926 -13.4814 1.42344
-15.0366 -13.9111 1.2226
-12.4444 -16.2667 0.315112
-13.8542 -13.5827 2.42045
-11.7905 -14.542 1.39532
-15.9968 -11.6947 2.42786
-15.6408 -12.8446 2.90541
-15.8086 -12.8107 3.14371
-15.1982 -14.2166 0.507398
-16.3793 -12.2568 4.22165
-17.7296 -11.598 3.10836
-12.9719 -11.0317 2.26403
-12.8689 -13.2266 2.63135
-13.885 -11.057 -3.62352
-12.7604 -15.5898 -3.63709
-11.8083 -14.1786 -1.71989
-11.0395 -14.8483 -3.43265
-13.9368 -11.8745 -4.76516
-10.9525 -14.5461 -3.64825
-11.9598 -12.1597 -4.07835
-12.7153 -16.2034 -4.12935
-14.8643 -14.5226 -4.6104
-13.3663 -15.8455 -4.14374
-10.1276 -15.2397 -4.34684
-12.4781 -16.6088 -2.5401
-16.0875 -12.9611 -2.36028
-16.2977 -13.3545 -1.38533
-12.023 -15.8193 -3.53971
-13.3198 -14.7105 -1.95596
-10.849 -13.7282 -3.48856
-15.5664 -12.4225 0.097441
-16.45 -12.2973 -1.67413
-18.1562 -12.9928 -1.70575
-16.0383 -11.9331 -1.50269
-16.9738 -10.0373 -3.43894
-17.9633 -12.9762 0.188096
-11.0903 -12.9982 -2.95657
-14.4533 -12.3994 -2.5456
-17.3731 -11.3037 -3.70441
-13.6443 -12.1762 -2.23631
-13.7242 -13.4653 -1.96716
-16.9896 -12.3445 -2.40462
-15.9586 -10.8344 -2.17395
-15.5335 -11.4533 -1.23556
-16.451 -12.4969 -1.47558
-13.6667 -12.6428 -0.271421
-17.2619 -11.7717 -0.17473
-14.7136 -12.9435 0.162153
-15.3014 -13.4223 -1.48317
-16.5053 -12.0597 -1.50902
-17.9965 -11.4486 -0.987288
-16.211 -12.2608 -0.661139
-12.1048 -12.0973 -3.03049
-16.5764 -14.3071 -1.5623
-12.9023 -14.014 -1.52856
-14.1519 -14.9822 -0.483403
-14.7918 -12.3237 -3.08616
-14.0864 -12.754 -0.596974
-16.9446 -12.4136 0.637818
-17.6592 -12.585 2.11975
-14.8441 -14.8953 -1.88145
-12.7436 -12.7804 -0.749698
-13.1122 -15.0476 -0.0808374
-14.7762 -14.3618 -1.04879
-14.3438 -14.736 -1.0045
-18.7841 -11.1474 -0.521665
-16.3388 -11.742 0.465726
-13.808 -13.9128 -0.077575
-16.8613 -12.5731 0.758306
-17.4425 -13.3268 1.37837
-16.4817 -12.9082 1.34982
-14.2391 -14.2368 -0.0869387
-17.6737 -10.999 -1.82573
-15.6889 -13.2085 1.12792
-12.9923 -14.5263 -2.07817
-13.1731 -13.9914 -1.1934
-14.3619 -13.5589 -1.41387
-12.1139 -12.9804 -0.920495
-12.0312 -14.1241 0.976683
-12.3702 -13.487 -0.0385629
-13.6559 -15.0141 -1.93653
-13.872 -14.7884 -0.965199
-14.2788 -13.1912 0.0129812
-12.2374 -15.288 -0.978904
-11.8124 -13.9744 -0.0860347
-16.2558 -12.7139 0.611574
-12.3847 -14.7887 -1.1544
-14.2645 -12.6449 1.00784
-13.0764 -14.9364 1.2358
-16.5972 -14.2081 1.59431
-12.8954 -14.4501 -0.512855
-15.0766 -13.1481 0.163954
-15.4417 -12.4558 -0.44608
-14.138 -11.8041 0.241564
-17.5282 -12.7092 0.19045
-16.4274 -12.5595 -0.73949
-16.1824 -12.4822 1.71682
-14.6676 -12.2095 2.19081
-18.1601 -10.9081 3.86006
-17.108 -14.473 0.068986
-16.945 -13.0485 1.38702
-12.8045 -15.4214 -1.29858
-13.1935 -15.4363 1.60878
-12.6447 -14.4862 0.0901899
-15.7151 -13.274 0.469133
-12.2147 -14.4456 -0.0058684
-14.1406 -14.8438 -1.56157
-15.011 -13.9341 2.36068
-15.016 -12.4772 0.37916
-15.3814 -14.4518 1.44429
-17.0538 -13.5142 2.16117
-16.9556 -13.4525 0.942425
-14.3089 -16.1595 1.29122
-15.8068 -13.3754 2.17651
-17.9209 -14.1387 3.33754
-13.3692 -11.3927 1.58158
-11.6373 -13.8368 -0.111145
-16.6677 -12.8576 3.10254
-10.9161 -13.7083 0.387615
-13.3444 -13.0397 2.09252
-12.1918 -15.0529 -5.34639
-12.7058 -14.3531 -3.00271
-13.046 -11.9621 -3.94018
-11.4613 -14.0606 -3.99341
-12.2369 -15.4698 -3.11113
-13.0708 -13.8607 -4.084
-13.1323 -14.3472 -3.72945
-12.9606 -13.8003 -4.25242
-11.8055 -16.0468 -3.50298
-10.9703 -14.8705 -3.60496
-12.2659 -12.706 -2.6954
-10.9661 -12.5773 -2.63148
-13.627 -14.9902 -0.922989
-12.6156 -14.0004 -2.91992
-11.7564 -14.7092 -2.80898
-17.4614 -13.4014 -2.06242
-13.0318 -14.9855 -2.09179
-13.5951 -14.5378 -1.48034
-16.1476 -11.8798 -1.09292
-15.7935 -11.8287 -2.85871
-15.9582 -12.1424 -2.11337
-17.471 -13.3507 -2.38666
-18.2751 -14.5658 -1.99393
-16.663 -11.7888 -1.8066
-15.4785 -12.3971 -3.619
-13.1486 -13.4496 -3.42538
-15.5065 -12.1151 -1.83281
-13.4016 -15.5675 -0.558538
-15.2467 -13.7999 -2.52002
-13.0616 -12.9183 -2.9916
-12.4423 -13.0677 -1.68862
-17.2895 -14.4051 -1.43911
-15.2309 -11.4599 -1.87696
-15.2836 -11.9769 -0.472736
-11.5877 -14.2978 -0.856266
-13.7585 -13.242 -1.86899
-16.5829 -14.2426 -1.44687
-15.2956 -14.2604 -1.03709
-13.6016 -13.8861 -1.06804
-11.7454 -14.6357 -1.75893
-14.2316 -14.5235 -2.51935
-16.9978 -12.2102 2.02636
-16.2985 -11.5481 1.15028
-14.8429 -14.1845 -1.79045
-14.4207 -14.2637 -1.021
-12.3066 -14.3758 -1.03213
-15.7325 -14.6567 -0.425486
-13.0793 -14.1554 0.752555
-13.788 -14.415 0.45928
-15.352 -14.3818 1.13174
-16.0215 -13.0619 0.232278
-15.8994 -13.1022 0.355422
-12.8889 -13.9508 -1.29538
-13.3167 -14.6106 1.19008
-12.7704 -14.4835 0.631937
-13.6873 -13.1074 -0.556504
-14.3493 -15.0879 -1.39108
-17.1047 -13.9052 0.0364509
-16.7443 -13.9674 0.951228
-14.3513 -13.9002 0.524356
-13.3409 -14.848 0.732181
-13.3778 -13.7028 0.753783
-16.8725 -13.1257 2.52436
-16.9642 -12.0675 1.35248
-13.7537 -13.9065 0.689456
-12.8618 -14.247 -0.960496
-16.9932 -13.5129 0.940809
-17.6891 -13.2236 3.62242
-11.5505 -11.945 0.588639
-18.0602 -12.596 4.13621
-13.5897 -12.3008 2.47582
-12.4554 -12.2147 1.71558
-10.15 -12.5663 0.70883
-12.4359 -11.926 -0.064064
-15.0407 -13.3739 -1.96107
-12.8062 -13.6294 -2.95421
-12.1209 -13.6209 -1.48804
-12.3699 -12.4289 -3.48453
-15.4509 -13.5203 -4.2861
-11.6453 -13.0127 -4.05555
-12.6768 -14.6283 -2.29368
-12.4281 -13.7167 -3.69049
-12.2056 -14.4099 -3.01916
-13.0836 -13.2203 -1.39386
-16.4931 -10.7156 -1.93975
-17.4502 -11.788 -2.40697
-11.4565 -15.8879 -2.44367
-12.8584 -11.9879 -1.92245
-13.1527 -12.9949 -1.67167
-13.7789 -14.1675 -2.10467
-10.6561 -13.0641 -2.10201
-12.8192 -13.2827 -0.926028
-12.5833 -13.4175 -0.912106
-15.9046 -12.2081 -3.25926
-16.4247 -12.5528 -0.682085
-13.1969 -15.4361 -2.87986
-12.4286 -14.821 -1.18094
-14.7895 -11.48 -1.99933
-13.6709 -12.2318 -3.4981
-14.5994 -12.9734 -2.39659
-13.4127 -14.5255 -1.56322
-14.1976 -12.8649 -0.578854
-12.8283 -14.1327 -4.42546
-13.7849 -14.3693 -2.35243
-13.6013 -11.2381 0.576301
-13.9107 -12.8417 -2.01648
-13.7336 -14.4696 -0.740235
-16.0546 -10.6397 -1.91301
-16.3748 -11.9896 -1.50796
-13.3068 -13.9567 0.393227
-12.3325 -15.1985 -0.611908
-12.2947 -13.6781 -1.50125
-16.4127 -11.8882 0.804384
-12.0763 -14.8343 -2.75071
-18.1385 -11.8207 0.1572
-13.6909 -14.2716 3.14451
-12.9894 -13.5426 -0.927898
-14.2401 -15.3442 -0.853638
-12.3162 -14.4116 -1.32114
-14.7553 -14.4256 0.607233
-10.9295 -12.7134 2.29648
-13.6153 -14.175 0.75665
-10.751 -15.0623 -0.644415
-12.7723 -13.9184 0.596308
-17.0873 -11.5172 1.6762
-14.285 -15.2324 1.45427
-11.5195 -14.8057 -0.820615
-13.3257 -12.6342 -0.676873
-14.5128 -10.0591 0.98413
-13.423 -13.7015 1.20871
-14.977 -14.312 1.08377
-14.3394 -13.1997 0.777768
-12.2274 -11.6249 0.437119
-17.1575 -15.7902 4.34139
-14.0485 -12.2557 4.1951
-13.8805 -13.5577 -4.6779
-13.214 -13.7248 -1.93867
-11.3841 -13.9843 -3.13652
-13.1657 -13.1183 -2.46839
-10.9803 -14.3441 -2.70189
-11.5197 -13.1136 -2.93253
-12.8735 -16.1046 -3.53725
-12.6114 -13.6382 -1.72744
-13.7301 -13.2602 -3.0281
-11.8068 -12.6002 -3.66956
-13.9112 -13.5356 -2.91769
-14.2953 -14.7935 -0.861975
-11.52 -14.003 -3.13413
-13.0456 -13.5626 -2.87312
-14.0386 -14.036 -0.378722
-14.1091 -14.3263 -2.35189
-12.4502 -14.4849 -1.4122
-15.5756 -12.105 -2.24352
-13.5184 -12.1623 -0.257473
-16.8133 -10.6916 -0.181957
-16.0414 -12.5381 -0.514923
-13.8035 -13.6573 -0.545139
-13.1332 -15.2619 -2.24527
-16.9158 -12.8461 1.28589
-12.2362 -13.8958 -0.803737
-13.8681 -15.6556 0.4168
-14.5676 -12.3547 -1.09272
-14.1627 -13.0152 0.486995
-17.3429 -14.1634 -0.138841
-15.1791 -13.7626 2.98484
-15.7607 -12.6153 1.32315
-18.3674 -13.3274 2.39548
-16.8212 -14.5758 0.135774
-18.3455 -13.7685 2.12571
-12.4166 -12.2202 -2.00671
-12.8833 -13.9621 -3.5302
-16.6414 -13.644 -2.63394
-17.5648 -12.2479 -0.278201
-17.5722 -14.1938 -1.59702
-16.9992 -10.7235 -0.627382
-11.3394 -15.9917 -1.07091
-16.9492 -13.6507 0.0693676
-15.6298 -11.1594 -1.04993
-13.5422 -13.4172 0.930885
-14.7772 -12.8752 1.2341
-14.6087 -13.3483 -0.705308
-16.4162 -14.0889 -1.20994
-15.5592 -12.9909 0.303023
-13.6659 -13.1409 -0.436271
-14.2396 -12.4182 -0.538573
-11.5963 -11.8399 0.168411
-12.11 -14.7699 0.911518
-13.4464 -12.3264 -0.802472
-16.4479 -10.9496 2.63256
-11.9179 -13.6965 -3.72732
-12.2828 -11.9044 -2.07697
-14.4189 -13.8665 -1.59855
-14.8768 -12.3627 -0.443839
-14.2534 -12.5001 -0.262743
-12.7296 -11.9568 -0.921144
-14.0276 -12.6397 2.08593
-15.4337 -12.66 -0.528347
-14.4972 -15.055 -0.226314
-12.141 -14.1726 -2.92263
-17.3772 -12.2929 0.704669
-17.1928 -12.9981 -1.95085
-12.7676 -15.542 -2.56586
-15.5639 -14.8975 -1.80187
-13.0009 -14.035 -1.57441
-13.8021 -14.5593 -0.48746
-13.9872 -12.3325 -0.434054
-12.4172 -12.7971 -2.83978
-12.3884 -13.6027 -1.90011
-13.69 -14.6929 -1.44801
-14.1595 -13.5076 0.313778
-15.9522 -11.561 0.407417
-13.2171 -12.266 -0.366128
-13.9071 -12.8638 -3.60222
-12.6674 -14.1338 0.38973
-14.5311 -13.2065 -0.0339851
-13.9484 -10.8138 -1.15591
-14.2927 -12.7025 0.611131
-19.3057 -10.3174 -1.4731
-17.698 -12.1435 -2.96125
-16.7497 -12.2992 -1.90355
-16.9688 -12.4464 -1.31144
-16.435 -11.1332 -0.991151
-17.3776 -12.6948 0.261586
-15.7985 -12.4992 -1.94568
-15.3025 -11.8735 -2.15938
-18.496 -11.5457 -2.68287
-16.3741 -9.93512 -2.99743
-16.8318 -15.3151 -0.303126
-17.6152 -10.8758 -2.66042
-15.7265 -12.7016 0.99098
-16.7169 -12.3384 -3.47591
-16.5034 -12.7963 -2.19639
-15.8607 -11.2529 -1.37485
-17.7967 -12.326 1.71052
-17.6558 -11.8728 -3.44801
-14.0852 -12.2767 -0.747859
-17.1768 -13.9771 -1.3504
-17.0563 -12.5134 0.00271424
-16.4484 -13.0607 -1.93048
-16.041 -13.6294 -1.56639
-17.3354 -14.5617 0.252275
-14.5183 -14.3578 -3.3045
-15.5604 -12.4695 -2.35935
-14.5561 -12.4194 -2.57133
-18.4823 -13.2673 0.477011
-15.5682 -13.3753 -0.363658
-15.263 -12.1377 -0.0102487
-13.7661 -13.1302 -2.17438
-17.3715 -11.0096 -0.0915987
-15.8075 -12.8108 -1.47328
-13.8059 -12.2775 -2.03407
-16.2335 -12.3088 3.29036
-16.9981 -13.5503 2.77081
-15.9615 -12.8282 -0.811838
-15.8246 -13.3112 -0.67656
-13.6104 -13.4373 -0.598905
-14.7474 -11.4886 -1.9705
-15.9959 -12.8031 -2.0491
-15.1894 -13.7849 1.49778
-12.5065 -14.057 -3.2428
-17.3991 -11.7162 0.0600952
-16.0028 -11.2684 1.23381
-15.4241 -13.5169 -0.631786
-14.028 -11.5445 -3.7274
-15.5579 -12.2968 2.19178
-18.0411 -13.6892 1.61685
-16.5907 -12.6816 1.56491
-13.0284 -12.2871 0.438459
-16.4678 -12.295 -1.50325
-13.9974 -12.7373 0.198113
-15.401 -12.7478 -1.10538
-11.6556 -13.5037 -4.6401
-14.0383 -12.8415 -0.62949
-15.4525 -12.8029 0.354013
-13.2122 -13.7252 -4.17045
-15.1936 -14.0736 -2.13103
-13.7562 -15.2894 -5.57532
-15.4983 -13.7518 3.15094
-12.9241 -13.9403 -3.2495
-13.1657 -12.9146 0.66888
-11.3497 -14.228 -4.1237
-13.4006 -14.8871 -3.98878
-14.8491 -12.232 0.280915
-13.8701 -12.8971 -0.927467
-12.3657 -11.8703 0.506112
-13.3849 -13.9026 -1.10716
-14.2026 -12.8069 -1.13015
-11.8295 -14.7251 -3.51423
-14.7427 -13.2391 1.99793
-12.1344 -13.9609 -3.01836
-13.6601 -13.0676 1.99156
-11.9447 -15.0198 -4.30946
-15.7306 -12.0149 -1.31741
-12.5937 -13.2396 -0.517382
-12.8318 -12.6823 0.118225
-12.9448 -12.2925 -4.06496
-12.6205 -12.2251 -3.14075
-13.4254 -12.0032 2.21989
-10.7286 -12.6295 3.2389
-12.0553 -12.8181 -3.06853
-12.9465 -13.9391 -1.72407
-14.4561 -13.3577 -3.7086
-14.6196 -14.9073 -1.41736
-11.8033 -14.1957 -3.25695
-11.1584 -15.1925 -5.31874
-13.624 -14.7991 -2.97264
-12.6877 -14.0444 0.285919
-12.4323 -14.2528 -3.99209
-12.5894 -13.8081 -3.47728
-11.7492 -14.1384 -2.63325
-14.2754 -14.7056 -0.0375521
-10.2707 -12.3871 0.839618
-13.6974 -13.5979 0.881872
-12.9173 -12.9119 -0.947284
-12.7613 -10.9356 2.19461
-14.6258 -13.5413 0.955787
-11.0879 -11.8429 0.514311
-13.2748 -13.2098 -0.446309
-13.0515 -13.3907 -6.02042
-14.0443 -12.9325 -0.901846
-14.4814 -12.3142 -2.76242
-11.7887 -14.1401 -1.862
-13.0228 -14.1046 0.152621
-10.0519 -12.6215 0.427171
-13.7583 -13.1403 2.21655
-11.8414 -13.1981 0.823021
-10.6129 -13.7851 -4.88008
-11.3366 -15.3098 -2.06144
-13.2464 -13.9605 -2.93498
-12.4512 -11.6864 1.365
-14.8107 -12.8259 1.68802
-13.1856 -14.7901 -4.27769
-12.3959 -14.3675 -1.87495
-12.5786 -14.659 -0.120527
-12.5401 -13.4393 -2.1747
-13.6463 -14.2988 -0.636031
-14.7333 -13.9341 -0.495073
-11.855 -16.4806 -0.369069
-11.4835 -13.2583 1.1661
-16.6516 -11.2023 -1.16976
-15.2524 -10.3936 -2.63224
-17.5819 -10.8906 0.0467162
-17.7688 -12.7254 -2.29159
-17.6616 -10.091 -4.14419
-16.5476 -12.6498 -2.98783
-17.921 -12.5925 -1.31578
-16.0477 -11.7662 -4.12101
-15.8483 -11.8941 -0.863622
-16.1476 -14.4351 -3.37225
-16.5369 -13.2822 -0.024845
-17.7043 -14.6484 0.576415
-15.738 -11.4604 -1.4191
-18.9104 -13.6474 2.20755
-13.3988 -13.1065 -1.18262
-14.7686 -11.014 0.795472
-16.9878 -13.7584 0.560493
-18.4727 -11.0845 0.944945
-14.2548 -13.2543 -0.60466
-17.2218 -12.9107 3.23664
-15.634 -13.0959 4.56167
-12.3756 -12.2103 -1.55327
-15.4604 -12.6223 -0.470279
-14.5008 -14.7769 -0.966394
-13.5175 -15.0124 -4.83471
-17.7989 -12.4141 0.275905
-15.7087 -13.7468 2.9162
-15.1832 -13.4394 -0.996346
-16.1664 -11.8005 1.51101
-14.6235 -13.9761 -1.99079
-14.8149 -14.5659 -1.42157
-12.299 -12.7989 0.268581
-13.8346 -12.5862 -1.13645
-11.5634 -12.2208 0.0168429
-11.9888 -13.3566 -4.00683
-14.2061 -14.5073 0.508935
-15.0847 -14.6202 -0.481677
-12.536 -13.6816 -4.36817
-12.9065 -14.0197 -2.61938
-12.7778 -13.6701 -2.8857
-13.1803 -13.6653 -2.66471
-10.8618 -12.2954 1.76493
-12.2023 -13.9044 -4.38911
-13.7835 -12.4664 -1.21022
-13.2553 -11.9458 -1.27543
-13.4697 -16.9335 -2.43853
-13.3497 -13.2628 -0.377353
-11.7276 -13.8519 1.0202
-13.3592 -16.6289 -1.78752
-14.246 -13.779 0.754082
-13.4178 -14.1249 -1.57953
-14.5124 -11.762 1.26196
-15.3538 -13.8839 -0.746827
-11.5141 -15.5217 -5.03967
-14.6368 -14.6467 0.013983
-13.1595 -12.2478 0.495293
-13.1328 -13.811 -2.65586
-13.9858 -17.2648 -3.43441
-11.39 -15.3707 -1.53396
-11.8965 -14.4372 -1.25094
-13.0802 -13.8588 -0.204567
-10.4567 -14.8055 -0.75291
-13.6243 -16.5539 -0.902855
-14.8354 -13.6237 -0.437613
-14.0169 -14.3152 -0.522845
-17.7843 -12.568 -2.61279
-17.0788 -10.8285 -0.493492
-16.0981 -11.3524 -1.22466
-16.0049 -12.7941 -1.17376
-15.5348 -13.3389 -2.6276
-14.7669 -12.3397 -3.59932
-12.4018 -13.139 -2.58607
-15.9715 -13.6368 -0.396728
-12.5075 -14.1718 -3.34393
-16.9801 -11.5334 2.10817
-13.6518 -14.6883 -2.75079
-16.5538 -14.221 0.780617
-17.3157 -13.5881 1.50694
-15.963 -12.2111 0.910148
-15.2677 -14.0989 1.61261
-14.2994 -13.0063 -0.398414
-11.606 -13.2812 -3.77727
-15.0585 -13.2543 -0.174007
-13.395 -13.8793 -3.76011
-11.0527 -13.808 -1.21799
-15.7428 -11.5023 1.24924
-14.479 -12.9013 1.61642
-15.6178 -11.8188 0.999715
-12.2472 -16.0416 -2.15557
-11.6932 -11.7291 1.96472
-13.5319 -12.4784 -1.5896
-12.7005 -14.7342 -1.2781
-11.7292 -13.2579 -2.55526
-13.5647 -15.1115 0.834131
-13.5625 -13.8485 0.521277
-14.0588 -14.4914 -1.19624
-12.1426 -13.2382 0.419814
-16.98 -9.87275 -3.1742
-16.0466 -11.0399 -1.72435
-17.2242 -10.6547 -0.104501
-14.5807 -11.088 -1.48174
-14.1685 -13.6092 -3.71403
-13.5401 -13.4933 -2.95432
-14.4581 -12.764 -1.46504
-15.546 -13.0644 0.482772
-16.2745 -11.3515 0.182312
-14.4411 -13.21 -3.5341
-16.6379 -13.442 2.00248
-12.9456 -13.0947 -3.55058
-13.9328 -14.6386 -0.892789
-12.5595 -13.6462 -1.3534
-13.5685 -13.3276 -1.17263
-13.8434 -14.526 -0.309017
-13.2143 -12.8835 -0.78692
-13.195 -14.0971 -4.23688
-14.3059 -13.8449 -1.40288
-14.5444 -15.1825 -0.262475
-13.9249 -13.7762 1.35606
-12.4085 -15.062 -1.88093
-13.8099 -14.1366 -2.47935
-17.301 -12.5833 -2.3096
-14.9553 -12.9482 -2.96483
-16.5143 -12.79 -1.70425
-18.0122 -12.2931 0.359205
-13.157 -13.431 -4.38804
-17.0551 -14.0547 1.36038
-16.8554 -11.7623 1.59816
-18.2737 -11.2755 2.49969
-18.2903 -12.6789 0.252599
-16.8806 -12.2246 1.27715
-18.1523 -13.0447 1.56394
-12.005 -15.769 -2.24806
-13.842 -10.7351 1.49741
-14.7387 -14.7218 -1.21722
-12.0325 -15.6784 -0.00274484
-13.038 -15.0655 0.317003
-14.3282 -15.0273 2.68624
-15.5368 -13.0415 -1.20996
-14.4014 -12.8007 -1.19882
-14.9719 -12.275 -1.25586
-16.6883 -12.7271 3.76256
-14.0804 -12.3927 -1.78049
-14.0629 -13.3994 -1.55381
-14.292 -13.2219 2.02953
-11.47 -14.6127 -1.49155
-12.0445 -13.3382 -0.818809
-11.3286 -15.2405 -1.47128
-12.9565 -13.8708 -0.938096
-16.5705 -12.6057 2.15053
-15.6738 -11.7175 1.50804
-17.0793 -11.6846 2.88444
-14.365 -14.3465 0.404805
-15.275 -13.8325 0.660778
-11.699 -14.8209 -3.54439
-13.2564 -15.2365 -0.842394
-12.3428 -14.7004 -2.14934
-15.1874 -12.5143 -2.57355
-18.567 -12.3692 1.67476
-11.6237 -14.1977 -0.322195
-13.8367 -13.5254 0.477195
-12.9125 -13.9737 -2.79316
-15.9456 -11.9655 0.596384
-15.3033 -14.118 -0.30907
-13.8281 -13.0934 0.435866
-13.7212 -13.1609 2.35267
-13.7229 -15.4896 -0.808639
-13.2579 -13.9256 -1.31472
-15.4704 -12.3044 -2.66766
-14.8525 -13.7747 -0.394395
-12.8364 -13.9185 -0.91194
-13.4096 -14.2827 -2.57729
-12.2264 -11.0387 3.42027
-19.0281 -12.4079 1.65162
-16.5979 -12.9235 1.69649
-15.5867 -13.0742 4.04771
-16.1771 -11.8989 1.01357
-18.9034 -12.8955 1.05863
-10.795 -13.367 0.970986
-15.8148 -12.9063 1.4318
-17.16 -11.0787 -0.46874
-13.0739 -11.8099 1.89776
-18.1083 -12.9053 1.35948
-12.4356 -12.2059 0.471702
-15.1895 -13.9142 0.741212
-12.0972 -14.2374 2.45992
-18.6045 -11.4825 -3.40134
-15.0164 -12.3991 -1.03264
-15.6597 -11.069 2.47811
-17.3812 -11.3967 -0.452938
-12.1559 -15.1836 1.0714
-15.3112 -10.6398 1.55329
-16.7752 -9.41183 -2.95992
-17.7472 -11.4033 -1.77447
-16.2327 -12.0435 -1.15338
-16.3016 -9.87966 -3.11928
-14.1675 -14.0847 -0.920043
-16.994 -10.6628 0.102768
-16.6219 -13.0342 -0.465258
-17.5815 -12.3599 -1.27085
-17.4076 -12.6806 -0.429326
-13.426 -11.9505 1.10457
-14.1891 -15.0511 0.472583
-16.0739 -14.7591 -1.62105
-15.6337 -12.4817 -0.996653
-15.3503 -12.7118 -1.93977
-18.0481 -10.2778 -2.05073
-14.4748 -12.8584 0.689754
-14.9817 -13.2609 -3.11128
-14.6706 -12.8501 -2.5682
-14.1028 -13.5155 -2.15924
-15.1766 -11.8847 -2.37877
-17.5061 -10.497 -4.75969
-15.7922 -13.1687 -3.56658
-16.4864 -12.7923 -0.854219
-14.3801 -11.235 -0.331838
-16.2414 -12.7225 -0.12042
-11.298 -13.8991 0.0688552
-15.6472 -13.2854 1.51183
-18.2709 -12.376 -2.67737
-15.1093 -13.7505 -1.2492
-14.2361 -12.3711 0.887804
-14.7569 -12.779 -1.54022
-13.0885 -12.795 0.365487
-15.6334 -12.025 0.313441
-16.5374 -12.6479 -1.80153
-14.5291 -13.2071 -3.8393
-12.5779 -11.4764 -1.19299
-16.6746 -11.8306 -2.40279
-13.8835 -11.6538 -2.14305
-16.1094 -12.5435 -0.797268
-13.6505 -14.4788 -1.14502
-13.2735 -12.0782 -0.401926
-15.5243 -12.931 0.0990521
-15.4255 -12.9768 -2.78508
-13.6621 -12.3797 0.335213
-16.1788 -11.8791 -3.01706
-13.9493 -11.3736 -2.69594
-14.735 -12.4465 -2.11173
-13.7664 -11.5276 -3.47496
-12.7505 -14.5905 1.00493
-13.9357 -14.5149 -0.668753
-14.2235 -15.5605 0.195711
-12.6977 -14.1561 0.16841
-12.973 -12.7707 0.348452
-13.8769 -14.3024 -0.575454
-13.8588 -13.3781 -0.833503
-12.7481 -13.1695 -1.49742
-11.1069 -13.1623 0.102429
-13.5606 -12.9062 0.808351
-13.1278 -13.3491 -0.974508
-13.8711 -13.2766 0.835286
-13.8359 -13.2814 0.168134
-11.7391 -15.5936 -0.721077
-14.9028 -13.621 -0.78897
-13.3905 -14.7435 -3.65524
-14.077 -14.0067 -2.82619
-10.1977 -15.3192 -3.33326
-11.6669 -13.1585 -3.26655
-13.1091 -13.9723 -1.98567
-14.0319 -15.0191 -2.91681
-11.0888 -14.0959 -2.55648
-10.9535 -13.3212 -4.80468
-13.8428 -13.9752 -4.88683
-13.6006 -14.0379 -3.80948
-13.0609 -14.4427 -4.03235
-10.9458 -14.0486 -3.51781
-11.5993 -13.3478 -2.81917
-13.2831 -14.0303 -4.8711
-11.8997 -14.3448 -2.09994
-12.407 -16.5355 -3.93673
-16.1903 -11.889 3.78771
-16.6786 -13.6365 2.52817
-17.4143 -12.1308 1.72558
-17.8571 -14.9083 2.2259
-14.919 -13.1017 3.3787
-12.8317 -12.4426 1.35876
-16.4851 -12.6504 2.05711
-15.0669 -12.5389 1.28919
-14.2438 -12.4407 -1.3189
-11.7894 -12.2813 2.89641
-16.8612 -14.4616 -0.188344
-17.7008 -13.5458 -1.87087
-13.9645 -12.249 1.15089
-14.7783 -13.3008 1.93843
-16.7386 -13.8113 1.16825
-17.0532 -12.6946 1.72031
-15.5257 -12.4483 -0.0353287
-12.2462 -13.0681 0.756309
-15.4372 -14.4354 0.374569
-12.4023 -13.4785 2.10856
-16.3056 -12.4521 1.08595
-14.5304 -12.2846 0.142409
-14.6238 -12.058 0.477916
-16.8249 -11.915 -1.74225
-14.7182 -13.5324 -2.36902
-17.0546 -11.7429 -0.880176
-12.7608 -12.8889 1.61477
-12.3598 -13.405 -0.128148
-16.2349 -11.6961 -1.62094
-13.6818 -13.3048 -0.299528
-14.9109 -11.5319 -0.99297
-16.6074 -11.9223 -1.80729
-15.3456 -13.0364 -1.70131
-15.8505 -14.0594 -0.946793
-14.3203 -14.4533 0.4578
-16.0166 -12.1441 -1.70845
-15.9457 -10.5674 -2.9421
-14.5892 -13.1495 0.459412
-15.2918 -12.0267 -0.55916
-16.1741 -11.5111 -1.59281
-14.6016 -13.2222 -1.87979
-15.0791 -13.8475 0.817454
-13.3318 -13.5988 0.456797
-13.2853 -12.2051 -0.336555
-12.5681 -14.4469 -0.177712
-12.6908 -12.3722 -0.102457
-14.6325 -15.3104 0.412647
-13.2465 -12.6354 -0.957271
-12.7854 -14.3821 0.513945
-13.6915 -13.0065 -1.23869
-12.6755 -14.4671 0.589633
-13.8249 -14.0165 -0.450489
-13.3592 -13.6929 -0.2369
-12.0422 -15.7717 -1.73782
-11.8 -13.2001 -1.41334
-14.281 -14.1647 -3.80983
-13.9403 -12.3795 -3.89918
-14.1989 -13.0395 -1.02473
-13.5177 -14.1936 -1.25067
-12.7224 -13.2081 -2.27819
-11.9482 -12.7107 -2.09151
-14.1147 -15.2879 -2.46123
-10.6526 -13.3816 -1.92067
-12.3486 -15.3972 -1.87415
-13.6958 -12.1862 -5.33198
-12.5764 -12.137 -4.30837
-11.907 -14.7707 -3.35155
-14.2941 -12.4555 -3.2681
-11.2719 -13.7476 -2.51979
-12.6019 -13.9831 -2.60466
-12.4843 -13.7074 -4.91394
-12.0708 -13.0937 -4.65407
-11.7938 -14.915 -4.33404
-13.0312 -14.5594 -4.6382
-12.2108 -16.0207 -5.43072
-18.1307 -11.7667 2.68664
-16.4846 -12.4921 1.21506
-16.677 -14.489 1.39878
-13.4002 -11.4163 1.69884
-15.8138 -12.9356 2.75785
-18.3785 -12.2226 -1.76901
-14.3315 -12.3422 0.641057
-17.6783 -13.5307 1.2714
-17.9789 -13.042 1.26386
-15.5044 -13.06 -0.272893
-13.7252 -13.7581 -1.93181
-15.3641 -13.2778 0.768712
-16.0929 -12.1604 0.0275533
-14.224 -12.8366 0.643646
-15.0876 -12.3853 1.18418
-14.748 -15.2242 -1.17217
-14.6986 -13.1781 -0.819641
-13.7949 -13.2445 0.749342
-13.0587 -11.8807 -1.14998
-14.6336 -13.536 -2.83569
-14.1653 -15.1801 0.0343093
-13.192 -15.3724 -2.36013
-14.3371 -13.5179 1.07121
-12.1262 -13.1965 -1.18707
-12.7787 -14.3463 -1.93751
-14.2697 -14.5075 -2.19804
-13.7385 -12.3261 -1.1285
-12.5406 -14.2827 0.2207
-13.4792 -14.4882 -0.645932
-12.5119 -14.1363 -1.6409
-12.3026 -13.4981 -0.511923
-12.5459 -13.7936 -2.87392
-13.5401 -14.2171 -0.938099
-12.6086 -14.3202 -2.11206
-11.3042 -12.2448 -3.90662
-14.1479 -12.7047 -3.88616
-14.4271 -11.5948 1.63065
-17.346 -14.3769 -1.392
-17.8899 -11.5902 -1.81811
-17.3394 -13.0389 -1.61154
-17.363 -11.7373 -3.19068
-14.3965 -12.1265 2.39966
-16.5459 -13.2882 -1.35598
-18.8396 -11.888 -1.69166
-16.7637 -14.0847 -2.27118
-14.2496 -14.5092 -1.00729
-16.1258 -12.9365 -1.75106
-14.7328 -13.0434 0.147589
-15.6303 -12.1835 -3.44507
-13.304 -14.2052 -0.138234
-16.0217 -13.0131 -2.52355
-15.4778 -13.5347 1.07488
-13.7564 -12.4273 -1.23748
-14.8707 -15.5107 -0.820956
-14.3626 -13.7529 0.731459
-15.1911 -13.0642 -0.722333
-14.1117 -13.9442 -2.25567
-11.9625 -16.4709 1.41775
-12.3197 -13.3287 -2.31824
-13.0314 -11.9566 -3.57275
-12.2641 -14.5434 -2.7723
-13.3085 -12.0215 -2.22561
-13.0378 -13.3593 -1.41832
-14.0969 -13.7745 -1.4795
-14.9096 -13.3183 -3.31147
-12.7492 -10.8018 -2.57063
-13.5163 -12.8689 -2.47105
-12.2769 -14.8876 -2.35643
-16.4687 -11.57 1.79803
-15.7987 -12.2753 3.73431
-16.2104 -10.242 2.50805
-17.2245 -10.0728 2.18243
-16.858 -13.2001 1.25727
-15.7758 -12.9157 0.560094
-15.9486 -14.5815 -0.298787
-13.4655 -12.6465 0.242794
-16.9794 -10.5071 -1.99127
-15.9566 -15.9292 1.27998
-13.3929 -12.4213 0.401728
-14.9934 -12.8756 -1.02922
-12.5261 -15.1595 -2.54723
-13.227 -14.7145 -1.02523
-12.5979 -13.4676 -3.40816
-14.0615 -14.7124 -0.0909854
-12.8864 -14.6207 -3.11042
-15.4599 -13.6387 1.27473
-12.2848 -12.7524 0.616992
-13.887 -12.5506 -3.80758
-12.614 -12.7382 -1.37171
-13.098 -12.2662 -1.62805
-12.3312 -15.8908 -1.37747
-12.5191 -12.5109 -0.230508
-12.657 -13.4016 -2.02881
-14.6739 -11.6825 1.15768
-15.6259 -13.0753 3.43713
-12.8354 -14.043 -0.833173
-16.4404 -14.2695 1.92044
-13.2845 -12.9187 0.163832
-17.05 -11.6984 -2.68326
-14.4958 -12.3797 -2.45767
-11.7743 -16.2242 -5.32742
-12.2001 -14.206 -2.8517
-12.4238 -13.4852 -2.18194
-13.6375 -13.7804 -0.989564
-11.607 -11.4423 2.52064
-14.7666 -12.7303 -3.28763
-14.0644 -14.8922 0.274312
-13.3681 -10.7497 1.8086
-13.9599 -12.2635 1.94716
-13.034 -12.3121 2.48558
-12.9443 -11.2617 4.40754
-14.8237 -11.7139 0.450972
-15.9484 -12.3105 4.11228
-16.126 -13.0212 2.67967
-17.0087 -10.524 2.98394
-17.4811 -13.019 0.670314
-14.5679 -10.1481 1.80093
-11.8628 -11.2746 1.30384
-12.1474 -11.4972 0.510116
-17.1168 -12.3639 1.80838
-18.6954 -12.3124 1.05746
-16.1751 -12.924 2.53232
-11.299 -13.1057 0.821737
-17.1493 -12.66 0.114039
-17.9776 -12.4785 2.80727
-14.9011 -11.799 -0.0973351
-14.7488 -14.9986 0.320744
-14.2136 -13.1531 1.21975
-14.2328 -13.3903 1.15572
-17.7124 -15.0369 1.25646
-14.0894 -13.5851 1.16541
-16.6319 -12.3872 -0.340645
-16.3146 -12.058 0.555519
-13.1092 -13.3255 -0.0495079
-14.9282 -13.4065 0.169402
-19.4126 -12.7574 0.555272
-15.2236 -11.1614 0.43542
-13.522 -14.5539 0.0276724
-17.3391 -11.7476 -0.423891
-16.0623 -12.5703 0.189573
-12.2736 -12.5121 -0.559419
-14.5855 -15.8274 -0.740349
-16.8515 -11.1516 1.24514
-14.2045 -14.1144 -0.434408
-14.387 -12.4672 0.316569
-14.1664 -12.8503 1.63075
-11.8311 -13.694 -0.811395
-15.4298 -13.6427 -1.6921
-16.6193 -13.2294 0.406624
-14.4866 -12.786 -0.174761
-12.0284 -13.6958 -0.612415
-14.6557 -13.8233 -0.625342
-15.4978 -12.5375 1.09594
-13.1527 -14.5094 -1.1468
-14.6953 -12.4913 0.441042
-12.6183 -14.2946 -1.0291
-13.2566 -14.8102 -0.841572
-16.4209 -13.6619 -0.308293
-17.5302 -10.9054 -0.636006
-17.1939 -14.1236 -0.112363
-16.657 -12.3379 -2.51663
-16.6049 -11.9319 -2.15626
-16.0212 -12.2421 -0.822605
-17.1589 -12.305 -2.29768
-16.5829 -11.7015 -0.526068
-13.5824 -13.64 -1.9154
-12.6818 -13.3612 0.0474728
-15.2659 -13.1219 -1.70045
-13.926 -13.3453 0.663503
-13.2903 -13.1986 1.03602
-12.4355 -14.128 0.713922
-12.522 -15.7949 -2.05901
-13.5457 -13.3963 0.599376
-13.8895 -9.64361 -2.53941
-12.6987 -12.582 -0.772135
-16.8262 -11.8158 -1.20753
-14.493 -13.7454 -0.309557
-13.2705 -13.5123 -0.393611
-16.9761 -12.4516 0.506723
-14.4704 -13.6674 -1.92157
-17.6056 -12.9145 -1.00107
-14.5669 -13.6538 -1.24375
-15.0505 -14.3234 -1.4046
-14.1261 -13.5857 -1.10212
-17.5574 -13.2822 -1.01494
-18.7391 -10.9041 -2.25268
-13.098 -13.7118 -2.7167
-12.7274 -14.4319 -0.906504
-17.7373 -14.5018 -0.728861
-15.7647 -14.3826 -0.463164
-18.0187 -11.5997 -2.4648
-17.7211 -12.3246 -1.54115
-12.8701 -14.6341 -0.858071
-16.8466 -12.1707 -3.29663
-15.5933 -10.512 -1.87704
-11.9754 -13.9471 -0.548737
-16.5987 -10.5009 -2.74433
-13.4715 -14.1257 -2.13276
-16.3972 -11.6344 -3.13879
-15.9907 -11.5097 -0.937408
-13.3358 -12.3245 -2.81669
-15.3793 -12.4305 -3.64075
-16.5889 -11.9507 -1.82063
-16.2784 -12.8812 -2.41566
-17.2805 -12.7796 -3.64373
-18.5566 -12.4916 -2.97225
-14.5607 -14.0899 -1.53769
-15.3006 -12.2285 -2.16696
-12.7813 -12.7004 -1.98021
-15.0066 -11.4115 -1.3953
-14.7872 -12.3692 -1.86876
-16.2586 -11.4563 -1.80527
-13.1166 -13.7578 -3.48644
-15.6573 -12.0005 -3.76749
-15.6317 -13.0987 -2.50369
-13.3236 -13.6894 -4.14275
-11.4102 -15.6602 -2.32985
-12.9089 -13.5479 -4.19711
-12.828 -13.1917 -5.34074
-11.8937 -12.7418 -3.54041
-14.2745 -15.4895 -3.00552
-12.9105 -14.1565 -3.18916
-11.1918 -13.8001 -2.46137
-13.7754 -13.8486 -2.39948
-10.6271 -13.5472 -5.21762
-11.7025 -12.8325 -3.14626
-13.7515 -13.6023 -3.83895
-12.7143 -10.9306 -2.74576
-14.3028 -13.1612 -3.19611
-12.8527 -15.7751 -2.91252
-10.9786 -14.3571 -4.14324
-13.1552 -14.2926 -3.12367
-13.6506 -14.8832 -4.05345
-11.3623 -15.0416 -4.58587
-10.583 -14.2282 -4.3479
-12.5681 -12.4441 -3.25574
-16.1994 -12.1732 3.31511
-16.0908 -11.9034 3.47493
-18.1007 -12.0773 0.638534
-14.068 -14.0128 3.51394
-11.8799 -13.6186 0.767667
-16.7556 -12.8416 1.94454
-15.8492 -12.9048 1.75161
-11.9519 -12.2199 0.501919
-12.1526 -12.6058 1.19799
-10.6907 -13.3588 -0.0718979
-15.2619 -12.4365 1.57079
-16.6215 -12.0491 0.91874
-17.27 -11.7654 1.7306
-16.4727 -13.722 1.17793
-14.3593 -13.5055 0.0777577
-14.951 -13.6522 1.98862
-14.8375 -13.8609 1.19452
-12.7187 -13.0205 0.165956
-17.0227 -12.8726 1.42432
-16.8145 -14.1507 0.811014
-13.5047 -14.5321 -1.64043
-14.134 -13.8364 2.20609
-18.8747 -13.2155 -0.366468
-12.109 -13.5586 0.0960009
-17.2437 -12.6136 0.978607
-14.2383 -13.9278 0.0619298
-16.3768 -13.1082 1.26051
-12.4786 -15.146 -0.052747
-15.899 -13.8038 -0.0656876
-13.5706 -13.4351 0.980595
-12.4128 -14.8719 0.848043
-13.1029 -13.432 -0.301542
-14.9814 -11.7915 0.699341
-16.1362 -13.9996 -0.107576
-11.6907 -13.3137 -0.779719
-12.7401 -14.1024 -0.226442
-13.8797 -13.7025 1.05978
-14.6476 -14.5316 0.115317
-13.3422 -13.878 -0.740475
-11.6963 -14.5462 -0.16279
-14.0675 -13.053 -1.28829
-13.2926 -13.217 -0.906331
-13.7978 -13.0227 -0.568689
-13.457 -14.1089 -0.579379
-11.8796 -13.6511 -0.4938
-13.63 -14.0567 0.0181858
-14.4173 -13.8122 0.968096
-13.7264 -13.2247 0.382109
-12.0786 -14.9411 -1.26924
-13.4301 -14.0734 0.920024
-14.7711 -13.0153 -1.97782
-13.9072 -13.3353 -0.795611
-17.3349 -11.617 0.283789
-16.8028 -12.4676 0.499138
-16.4387 -13.4761 -1.99277
-17.5878 -11.7812 -1.51554
-18.6786 -13.8787 -0.885722
-11.728 -13.327 -0.547045
-13.8448 -13.8849 -0.427656
-12.7686 -14.0581 0.478149
-12.3331 -13.796 -2.56359
-15.3151 -12.3242 0.463401
-11.2658 -11.4573 0.0249849
-14.1056 -13.373 -0.516093
-13.7748 -15.2928 -1.83754
-17.3084 -12.9759 -0.867684
-17.4598 -12.2431 -3.36462
-15.7849 -10.313 -3.33305
-14.89 -13.1616 -0.789911
-15.3195 -13.8155 -2.6735
-16.3693 -11.9206 -2.13516
-11.88 -13.6691 -3.65842
-12.0767 -10.9575 -1.55705
-17.649 -11.619 -1.26667
-15.9054 -11.445 -1.25571
-13.1428 -13.6284 -2.18762
-15.4463 -12.8493 -0.366583
-13.3891 -12.0901 -3.35975
-16.2646 -11.6054 -3.74927
-15.8871 -12.494 -3.98312
-13.4101 -12.8384 -2.75271
-16.5728 -11.1367 -3.30072
-14.4108 -14.3736 -2.82206
-12.4941 -15.0224 -3.62857
-10.7657 -15.4101 -3.13379
-11.4029 -15.6277 -3.56741
-10.6276 -13.1833 -2.77841
-11.2772 -13.1787 -4.15973
-14.5004 -14.6401 -2.86783
-14.6813 -14.9993 -3.27024
-12.3087 -14.4789 -4.20349
-12.2569 -13.8001 -2.8048
-12.8235 -14.3872 -3.07854
-13.0721 -13.4271 -2.52952
-11.8582 -15.2828 -6.15965
-11.8146 -14.2971 -3.74262
-17.1649 -12.2096 2.09665
-11.7848 -11.4277 1.07728
-11.8847 -12.8284 2.34461
-16.8594 -12.6199 1.01744
-16.7906 -13.0536 1.54649
-17.6937 -12.8598 3.26565
-16.6205 -12.6227 1.71144
-16.3636 -12.8667 1.31882
-16.2193 -13.6181 0.757941
-14.1451 -12.5131 0.815697
-15.1769 -11.035 1.89485
-14.9346 -13.3675 2.19424
-12.9921 -15.3568 -0.0474971
-16.4777 -13.575 0.857234
-16.2925 -12.894 0.367077
-13.1187 -12.521 1.58583
-12.1428 -12.7938 0.833617
-17.5945 -14.4378 0.964465
-14.2407 -14.2119 0.579892
-16.2681 -13.236 -0.549943
-16.7513 -11.2649 -0.723162
-13.0546 -13.8327 -0.637969
-16.3195 -11.9014 -1.56427
-14.1162 -13.5996 0.411596
-14.4823 -14.0863 0.721223
-14.3623 -13.9116 -2.20488
-14.3478 -11.8518 1.17165
-17.2929 -11.6854 -0.82559
-13.2432 -13.9391 0.325275
-12.7289 -13.5753 -0.60735
-17.1637 -12.5147 -2.02878
-15.5817 -12.6548 -1.41889
-13.2663 -14.9328 -1.35613
-17.3872 -12.943 -1.94633
-15.5159 -13.4948 -2.32579
-12.9397 -15.3916 -0.62536
-10.1715 -15.0907 -1.30124
-14.5592 -10.9897 -2.65393
-13.6091 -11.7503 -1.34285
-14.2668 -13.7389 0.578796
-12.7127 -13.3144 -2.01499
-16.7356 -13.518 -1.9547
-15.7611 -12.2602 -1.22856
-16.4648 -12.6686 -2.17061
-12.5935 -13.7411 -2.23959
-12.7008 -13.3595 -1.20634
-15.1299 -13.4507 -4.92475
-12.6084 -14.2568 -4.64435
-13.4636 -15.2932 -3.37757
-15.6189 -12.6147 -4.87725
-12.2293 -13.9602 -1.30219
-15.255 -12.7658 -2.85104
-13.202 -14.2279 -2.39985
-13.1029 -13.7166 -3.67505
-11.9538 -14.2984 -2.26651
-11.8114 -13.9171 -2.26632
-13.4437 -14.4861 -1.28824
-14.5359 -14.1013 -4.02347
-13.3988 -14.0361 -4.49854
-11.1033 -13.4313 -4.66316
-12.7862 -13.7447 -3.97981
-14.5509 -14.0112 -3.85082
-12.1644 -12.9926 -3.85929
-11.3331 -15.0868 -4.44602
-12.9032 -13.9116 -3.39463
-10.99 -13.6077 -2.80726
-11.8072 -14.4738 -2.74287
-16.1761 -11.3964 2.57323
-17.1343 -12.3713 3.31893
-17.3747 -12.8852 2.59535
-14.9143 -13.9677 -0.704682
-17.9865 -11.3861 -0.653712
-15.9321 -12.4383 0.505288
-16.5261 -12.1609 0.838922
-17.5803 -12.6972 0.806022
-13.5951 -13.1004 -0.499121
-13.9942 -14.0325 0.775981
-14.0338 -12.552 -0.277256
-14.7775 -13.241 -0.138009
-13.8438 -13.5814 -0.613474
-13.0069 -14.6537 -1.59903
-15.0692 -12.3215 -1.29659
-14.3316 -13.9868 -2.08436
-15.606 -13.4691 0.0244692
-12.9032 -14.8614 -1.89671
-12.44 -13.8288 -0.411132
-15.8352 -11.5319 -3.47089
-13.1227 -14.1166 -0.777259
-15.2402 -12.5091 -0.593835
-15.1635 -13.6651 -1.86069
-16.4564 -11.0589 -2.7906
-14.365 -12.3241 -0.527253
-13.1944 -14.3549 -1.26821
-13.7241 -13.0121 -2.75654
-14.0403 -12.5767 -1.7604
-13.4124 -13.136 0.378857
-14.5922 -12.9334 -0.555546
-11.5839 -13.3495 -2.70147
-13.9328 -12.5998 -0.795494
-12.8589 -11.8924 -1.97845
-13.0734 -12.9912 -2.01202
-16.4417 -13.7638 -3.64049
-14.0237 -15.4862 -1.56362
-14.0648 -13.1361 -4.71995
-13.4917 -12.0662 -1.92305
-12.5068 -13.5694 -1.07822
-13.9266 -13.0669 -3.57421
-12.9147 -15.2363 -1.84008
-15.3758 -15.4715 -2.88345
-13.1752 -13.4102 -2.94427
-12.6631 -13.9255 -3.11786
-11.7323 -14.979 -1.98027
-13.0219 -14.2056 -4.27797
-15.8456 -14.3194 -0.93805
-15.7256 -12.0519 -1.54972
-14.0299 -13.3814 -0.438726
-12.9097 -13.8017 0.444026
-11.6704 -14.7108 0.968618
-12.693 -14.4478 -0.363962
-15.2149 -11.4956 -1.1042
-14.5346 -14.8688 0.147565
-12.4807 -12.9804 1.59998
-14.4607 -13.3495 -0.453055
-13.4349 -13.0736 0.321884
-11.3354 -12.3543 -0.149355
-14.5838 -14.5067 -1.05285
-17.0188 -12.2819 -0.275607
-12.2001 -14.0537 -0.976617
-13.2547 -16.1195 -1.51229
-14.9814 -15.175 -0.568847
-12.7487 -15.37 1.14124
-12.7231 -11.6468 -2.32532
-17.8949 -12.0117 -1.81375
-12.9033 -12.4676 0.424803
-16.3598 -14.8758 -1.3015
-16.8466 -9.52389 -4.65585
-15.6335 -12.1036 -2.84634
-13.1698 -14.0143 -0.566619
-13.559 -12.771 -2.49725
-14.7178 -12.8756 -2.70893
-13.1166 -13.5947 -1.61844
-12.1295 -15.8505 -5.34896
-12.6749 -13.6166 -1.99642
-13.5842 -11.747 -3.21604
-13.4587 -13.69 -4.5876
-10.2299 -14.7586 -4.83257
-11.3443 -14.5712 -3.21078
-17.3047 -11.5381 2.77173
-18.338 -13.526 -0.334971
-15.8326 -14.1021 0.696491
-14.6242 -11.5032 1.73692
-13.865 -13.5584 -0.0613207
-12.635 -12.6803 -0.548148
-16.5319 -13.0741 -2.54515
-14.7643 -14.4031 -2.20286
-14.1286 -13.1015 -1.48709
-12.5282 -13.6641 -1.72781
-13.267 -14.8102 -1.14539
-12.0849 -13.0922 -0.959403
-12.6577 -13.4475 -1.16912
-12.9751 -14.2967 -3.82283
-15.8222 -14.2396 2.63782
-13.3497 -11.9446 1.0379
-16.521 -12.2247 -0.57146
-14.3075 -14.972 -2.0836
-16.2051 -11.0335 -0.281237
-14.7218 -14.5725 0.759597
-13.1381 -12.7966 -0.0461854
-14.2149 -13.2323 -0.229835
-14.7576 -12.7544 -2.31343
-13.3071 -14.9057 -1.81468
-12.8596 -13.3578 -2.03163
-12.992 -12.0949 -1.35662
-13.8286 -12.7509 -3.38071
-11.1072 -13.4971 -0.548749
-13.987 -15.1899 -0.773873
-12.3668 -13.4636 -4.15051
-10.652 -14.8016 -4.44705
-16.8924 -12.702 4.5439
-17.0145 -12.9865 0.332801
-14.9595 -14.1557 -1.80641
-14.6867 -15.5684 -1.51076
-13.4659 -13.4713 -1.84079
-16.584 -12.2734 -2.69484
-15.0591 -13.4274 0.0518957
-12.8883 -15.9926 0.606256
-16.5416 -13.366 2.3038
-12.8764 -13.9328 -1.85825
-12.9785 -13.848 -1.61745
-16.0448 -13.6289 -0.204136
-12.8825 -13.4689 -1.88681
-13.1126 -15.3176 0.394857
-13.496 -14.2478 0.990024
-13.6187 -13.9811 -2.52029
-15.5525 -15.3852 -0.0772802
-12.9624 -13.5922 -4.78765
-14.0772 -14.8767 -1.62868
-12.4682 -14.0383 -2.34996
-14.4272 -12.1646 -3.57563
-11.8737 -15.5295 -3.46362
-12.1592 -15.431 -5.91227
-14.1533 -12.5594 -4.15916
-13.5338 -13.81 -5.28638
-13.1074 -14.4934 -6.18089
-15.7747 -12.3186 -5.23603
-16.5447 -13.1766 -2.27002
-11.4429 -13.3509 -4.04455
-13.2665 -12.9251 -2.6875
-17.124 -15.0859 -2.5606
-11.0279 -13.3372 -1.8435
-11.9218 -14.1557 -2.49975
-11.7339 -12.5894 -3.02935
-16.971 -10.0279 -2.6493
-16.3299 -11.8741 -2.95154
-16.8879 -12.2319 -2.40398
-15.4228 -13.54 -3.14286
-14.1365 -12.7583 -1.17354
-16.4908 -14.0737 -2.11031
-17.7939 -13.0459 -1.94689
-17.9989 -12.5745 -1.3578
-12.2126 -14.5353 -2.69572
-15.9667 -9.83948 -3.0978
-18.1494 -10.8074 -1.98029
-16.1167 -13.617 -0.605701
-17.0968 -11.0951 -1.27125
-13.4947 -12.163 -1.40251
-14.8995 -12.7286 -0.43395
-14.6098 -12.111 -0.345979
-18.6644 -12.1215 -2.08474
-18.4884 -12.9117 -1.49844
-18.6186 -12.6127 0.0454856
-15.2768 -12.2563 0.268
