-16.8821 -13.0537 1.47938
-17.4552 -11.1807 1.51211
-15.4986 -13.0583 0.819418
-17.1472 -14.0493 2.11377
-16.5384 -10.6509 1.46403
-17.1492 -11.5341 0.564093
-15.5555 -13.0928 0.714298
-16.9186 -13.3852 0.570084
-12.5292 -14.2228 -0.608186
-17.4494 -14.9964 2.92396
-17.961 -13.5641 -0.225571
-16.5853 -14.2259 -0.087479
-17.121 -13.3821 1.45013
-14.6881 -14.4277 0.738559
-15.0494 -11.9933 1.22051
-14.1342 -13.4736 -0.0116798
-12.9085 -12.8837 -0.497668
-12.9778 -14.115 -0.247016
-15.3135 -11.2711 0.278877
-16.1349 -12.3749 2.2987
-16.1116 -14.2533 1.55351
-17.5376 -13.969 0.00178062
-14.8138 -13.0396 2.54187
-14.1911 -12.07 0.922404
-11.6764 -10.9039 1.49099
-16.9912 -13.2528 1.04895
-17.2299 -13.9047 2.19139
-12.227 -11.4465 2.87277
-16.0936 -13.6215 -2.4264
-17.4492 -12.9669 -1.21363
-16.2863 -11.468 -1.15059
-13.2244 -13.76 -1.87883
-15.7697 -12.4898 -1.06652
-17.7741 -12.1387 -0.684551
-15.5572 -13.2356 -0.322577
-15.7053 -14.6746 -2.15055
-16.1374 -11.4541 1.60694
-12.8141 -13.6664 -1.55771
-17.3968 -13.3466 -0.919687
-19.0605 -12.4236 -0.384706
-17.3103 -12.7478 0.800123
-12.4609 -13.8975 -2.49707
-13.66 -13.5875 -1.10317
-16.209 -12.7087 -1.636
-14.4857 -12.9123 -1.2388
-16.1191 -14.6813 0.984031
-15.9562 -13.1525 1.3906
-16.3176 -13.012 2.80688
-15.3976 -13.2683 -0.126196
-16.6123 -13.3271 1.48088
-16.679 -15.1496 0.635498
-16.0088 -13.4221 1.41085
-13.8508 -12.8704 -0.51772
-15.3387 -14.9614 0.121124
-15.0245 -13.5404 0.420293
-18.4072 -14.2754 1.50053
-13.9863 -14.6462 1.32446
-18.381 -13.3983 1.31509
-16.8334 -14.5461 0.990453
-13.0447 -12.2127 2.25195
-13.7038 -10.9505 -3.01998
-15.5582 -12.388 -0.928256
-17.0017 -12.353 -1.91987
-16.4135 -13.5998 -0.344026
-16.3486 -14.9943 1.0295
-16.8122 -14.9046 1.53476
-16.095 -12.8072 0.701905
-16.1711 -12.7108 0.757732
-16.3078 -12.2478 -0.528309
-16.7917 -10.7563 1.32415
-17.9004 -10.3341 1.11123
-16.8652 -12.2676 2.32498
-18.1302 -13.5248 0.862265
-16.0779 -12.7284 1.90564
-13.3768 -12.2722 -2.13589
-15.6637 -11.3439 0.201974
-16.8442 -12.1293 -1.12348
-19.2296 -10.8181 -0.0434412
-15.8372 -11.757 1.24126
-16.6397 -13.8628 1.35441
-13.4492 -13.6478 1.32801
-14.212 -12.3905 0.278891
-16.3939 -12.2088 1.39164
-14.5192 -13.4796 2.71802
-15.8962 -12.2867 1.88793
-13.5939 -12.0599 0.639762
-11.5268 -10.9046 2.19231
-13.859 -13.3087 -1.32763
-15.8336 -12.5229 -1.13059
-15.7131 -11.6032 -0.715254
-15.8735 -12.6119 -0.0289497
-15.0356 -13.4273 0.983105
-16.0607 -12.7934 0.442979
-13.8668 -10.662 1.66255
-14.0894 -13.9493 -1.00464
-13.1519 -12.3873 0.0246034
-13.1039 -14.3279 -1.82492
-14.92 -11.646 -2.34029
-15.2999 -13.2731 0.0822142
-16.3609 -12.225 0.0216369
-14.7872 -11.8012 1.82676
-13.8751 -12.7872 -4.55532
-14.7189 -13.6105 -3.15513
-13.5179 -13.9093 -1.05829
-14.1962 -12.1209 -0.411474
-13.8922 -11.5404 -0.683057
-15.5878 -13.1222 -1.38121
-13.239 -12.7455 -0.86077
-12.1064 -12.8277 -0.0105876
-12.1504 -14.0018 -2.68587
-15.8004 -14.0456 -1.12115
-17.9449 -13.2821 -1.58077
-14.5591 -11.7437 -0.827252
-13.0022 -12.4734 -2.86648
-17.7191 -11.6662 -0.309478
-17.2527 -10.8347 -0.448482
-15.5854 -12.9075 0.29253
-12.8959 -13.3274 -1.48876
-13.7115 -13.0287 0.252173
-13.2963 -14.8495 -0.546809
-15.7006 -13.3359 1.33341
-17.5449 -13.1968 0.113604
-17.8839 -13.1866 0.985863
-15.7156 -13.476 1.46775
-16.7882 -11.6205 1.64903
-12.9166 -13.6832 -1.31336
-11.5727 -13.834 -1.48468
-14.8527 -13.794 1.2214
-15.0812 -14.4234 0.796561
-16.8134 -14.4212 1.5254
-16.2145 -12.4161 4.04867
-18.9341 -13.4208 1.432
-18.6531 -13.6093 0.678952
-16.1761 -14.4419 2.60214
-15.9105 -12.7279 3.27424
-14.5804 -12.7617 0.919366
-16.2269 -12.402 1.58508
-17.0061 -12.028 2.21829
-16.3592 -12.9707 0.698707
-13.9215 -11.5595 0.870364
-16.8341 -14.0303 3.04121
-13.7178 -12.9086 0.61951
-16.0245 -12.6097 2.32738
-14.9937 -13.1595 1.57626
-16.0102 -14.4454 3.96085
-15.9892 -12.6913 3.71389
-12.4898 -10.9025 0.224169
-17.496 -12.813 0.628992
-15.8841 -12.956 -0.615595
-15.3603 -11.7572 1.99002
-15.14 -14.3646 -0.292194
-16.8261 -13.8466 2.08485
-16.8888 -12.2384 1.285
-14.2535 -12.0116 -0.397861
-19.4837 -14.0424 0.00837035
-14.5577 -13.6315 2.16479
-15.7151 -13.2962 1.19359
-13.1557 -12.4487 -2.3764
-17.4208 -13.3155 -1.29498
-14.8281 -13.7772 0.10379
-14.4019 -13.2449 0.808002
-19.0137 -12.84 -0.484751
-15.4799 -12.5885 -1.37332
-13.4653 -13.2372 2.1843
-17.1216 -11.9483 2.39019
-15.2921 -12.3895 2.37398
-11.5134 -11.2093 1.68981
-14.6291 -12.6829 -2.40199
-15.0731 -11.4502 -0.377913
-15.5867 -10.4419 0.625744
-16.7482 -13.25 0.331188
-16.006 -12.8986 1.02714
-13.1796 -12.1726 -0.227619
-15.6944 -13.2759 0.111454
-14.0312 -10.851 2.88484
-13.5934 -14.6341 -1.87143
-15.0126 -13.4764 -1.72951
-14.8406 -9.78704 1.09212
-17.4862 -12.3954 -1.38411
-16.1743 -11.2037 1.01917
-15.641 -12.4913 2.00289
-15.6159 -12.8438 -1.51499
-14.3983 -10.7301 -0.977654
-13.6796 -14.4982 -0.62756
-15.9504 -12.8663 2.15869
-14.9225 -13.0052 -2.17737
-17.6703 -13.7328 0.946756
-15.7062 -12.8915 -0.164923
-14.0662 -13.2012 0.967594
-13.4147 -12.0464 -1.55574
-14.7849 -12.5744 -0.580783
-13.24 -10.547 0.250205
-17.4074 -12.0306 -2.932
-16.7833 -14.607 -1.07647
-14.4676 -12.9459 -1.31846
-15.823 -13.3336 1.35426
-15.2301 -13.6665 1.29798
-17.1427 -13.9177 1.28862
-16.741 -12.2667 1.72051
-13.6595 -12.79 0.0416761
-16.9771 -12.6266 -2.31977
-17.2483 -13.9024 -2.00909
-15.2446 -12.5532 -1.51102
-17.5996 -12.6464 -1.40857
-16.886 -10.5759 -0.671693
-16.7943 -13.4242 1.01327
-14.6845 -13.1834 -0.214786
-15.6 -14.0989 0.906726
-14.8876 -13.5957 1.54183
-14.4864 -13.97 3.53356
-15.0978 -13.46 2.07808
-17.5709 -11.5408 3.68895
-15.2315 -13.3842 -0.0711054
-14.199 -13.2285 -1.11258
-14.7072 -15.1655 -2.5356
-16.9698 -12.3329 1.3177
-15.3986 -14.0653 2.41775
-18.2604 -13.0446 -0.105483
-14.9201 -11.4801 0.481512
-13.7536 -12.2491 -2.45545
-12.8239 -13.0826 0.225381
-13.5639 -12.5686 -2.80928
-17.0274 -10.6896 -2.72244
-11.4851 -13.8791 -4.84486
-14.9628 -12.9846 0.157828
-11.7632 -13.4543 -0.712553
-17.7825 -11.9154 1.28666
-14.643 -12.3032 -0.171573
-15.5893 -12.8279 0.437605
-16.8052 -14.8805 1.60401
-17.4759 -13.5443 1.22567
-12.931 -13.3723 -1.13451
-15.3834 -10.2218 -1.22843
-14.9159 -11.0229 -0.736124
-17.3439 -14.2165 -0.779513
-12.9458 -12.9229 -0.0777718
-12.1911 -13.2146 -1.52201
-16.7199 -13.207 0.765766
-16.8448 -14.2497 -0.381992
-16.5952 -12.5264 -1.1579
-16.762 -15.2627 1.43687
-16.0846 -12.419 1.20255
-15.0886 -11.5974 1.89509
-13.4013 -14.5865 -2.22227
-13.0837 -15.0555 -2.24909
-17.9928 -11.6328 -1.05782
-15.5417 -13.3268 1.11513
-15.9272 -12.5658 0.818369
-12.7343 -13.7125 -3.93087
-16.2937 -11.9018 -1.95705
-15.5502 -13.2298 -1.9203
-14.7484 -13.6726 -1.91491
-16.3461 -11.41 1.85982
-16.7567 -14.3798 0.707137
-17.7056 -12.4159 2.40264
-15.5518 -13.5235 -0.523234
-14.4466 -13.2427 2.0189
-14.3174 -16.2219 0.401423
-12.6179 -11.889 -0.428992
-16.0615 -11.5909 -0.165826
-12.4192 -15.2635 -1.0649
-13.4853 -12.5557 -0.0135654
-13.863 -13.2797 -0.433944
-12.6754 -15.4693 -1.59749
-17.1814 -12.634 0.548995
-16.3072 -11.1821 1.7202
-13.7647 -13.2277 -1.5822
-15.537 -12.749 -1.0144
-13.8368 -13.943 -1.7825
-15.2194 -14.1238 -2.11732
-13.7297 -11.4327 1.80915
-15.3187 -14.4054 -2.09534
-17.6412 -11.4355 -1.36667
-13.0208 -14.1829 -1.81976
-16.0388 -11.6477 0.63754
-17.6517 -11.612 1.34979
-15.0705 -12.4691 0.347695
-14.6218 -13.0644 0.546441
-13.3383 -11.2434 1.94918
-13.2764 -12.5698 0.34289
-12.0898 -13.9946 -1.47623
-16.1238 -11.3669 -2.4703
-15.5526 -13.3676 0.0560475
-14.0127 -13.763 0.148706
-15.3517 -11.7078 0.418427
-12.2523 -13.1481 -1.42531
-16.8698 -11.67 0.499469
-15.1201 -12.3241 -1.32327
-13.6672 -13.5444 -2.33222
-13.5213 -14.4827 -1.83471
-15.3816 -14.7073 -1.17882
-15.6793 -12.3777 1.24333
-15.76 -12.8913 1.90406
-13.4943 -15.1178 -1.37991
-15.7921 -12.531 3.95272
-13.2406 -12.3355 -0.557717
-11.8733 -14.1424 -0.832252
-18.0371 -11.4214 -1.76746
-15.3206 -13.1401 1.10175
-17.1071 -13.3311 1.10388
-15.5232 -13.4005 -3.31623
-18.7797 -11.3594 -0.95044
-17.8757 -12.5125 0.0507197
-16.0673 -13.1936 1.8771
-16.749 -13.4325 0.295196
-16.0836 -10.9596 1.6654
-16.7112 -10.7673 0.965417
-16.2795 -12.6017 -0.696425
-16.4362 -13.8705 1.11672
-17.4582 -12.8652 -3.64214
-15.9018 -12.418 -1.55624
-12.1227 -14.4099 -0.614829
-11.8285 -13.4152 -1.11944
-18.7481 -13.2362 -0.207495
-16.2549 -14.9187 -0.874465
-16.695 -11.8744 -0.742911
-14.3765 -12.3909 -0.885152
-13.7174 -14.445 -0.579613
-16.4224 -14.1142 0.259681
-13.9434 -13.514 -0.494448
-16.1161 -12.8288 -1.02868
-15.048 -11.6484 -2.38143
-14.3949 -13.7848 -1.32838
-11.6626 -15.0459 -0.476931
-17.5592 -13.5857 2.07118
-15.3373 -12.6701 2.73885
-14.4392 -12.1912 1.34822
-11.2942 -12.9412 -2.91322
-13.5753 -13.5325 -1.09686
-18.4062 -11.7765 -0.109984
-17.4318 -12.3107 -1.35198
-16.5642 -12.8022 -0.54224
-14.4504 -11.7587 -2.04436
-17.055 -14.907 1.00365
-16.2697 -13.7452 -0.0440102
-16.1986 -13.1169 -0.0230725
-18.7103 -13.1062 0.276305
-16.2639 -14.2692 0.51344
-14.6019 -11.7853 -2.09483
-15.0677 -10.6114 -0.484395
-12.3495 -13.7907 -3.51031
-13.9467 -13.8262 -1.7243
-18.628 -11.8008 -1.15588
-16.9575 -13.5202 -1.45724
-16.6128 -12.7897 1.27263
-17.8845 -11.3442 -0.513484
-14.0664 -14.9019 1.46865
-14.5411 -15.1214 -2.18628
-14.3627 -14.4747 -1.54828
-13.544 -11.8427 0.155765
-13.8073 -12.763 -2.1203
-12.6399 -13.7759 -1.60535
-16.7431 -12.9732 -1.11131
-16.4167 -12.8379 0.392403
-16.2077 -12.6377 -0.550039
-14.7235 -10.6581 -1.50374
-12.0416 -12.0955 -2.69428
-13.3298 -15.455 -0.78565
-16.5845 -12.9036 1.84996
-16.9414 -11.3481 0.166354
-15.2631 -11.8706 0.921811
-14.8374 -11.6841 -0.428338
-14.3971 -12.2852 -1.09729
-18.3593 -11.7558 -0.550603
-15.6653 -13.2469 0.269208
-12.1862 -14.8377 -0.280971
-13.8232 -12.8269 -1.79688
-10.9693 -12.6045 -2.84079
-16.4733 -13.6723 1.05766
-13.9976 -13.9053 -2.04659
-14.7038 -12.9644 -1.79996
-13.2292 -12.7243 -2.38504
-15.778 -13.1091 -2.97786
-13.0843 -14.4501 -1.64028
-14.3209 -13.7956 -1.43399
-18.2054 -13.9325 0.598444
-17.7719 -14.0515 2.10002
-18.4789 -11.9412 0.604037
-16.887 -13.4563 -2.06386
-17.2078 -11.9812 -1.72931
-17.8335 -12.3048 -0.924513
-17.4767 -11.4524 0.0625736
-17.2407 -14.1799 -2.06789
-14.8292 -11.8209 -1.75323
-15.3977 -12.2644 -1.45546
-16.4088 -12.88 -2.635
-14.6143 -12.4111 0.513902
-14.3494 -12.7844 -2.2542
-15.3447 -12.0289 -3.08315
-12.8403 -13.8206 -5.85869
-11.4579 -13.7262 -4.12393
-18.4537 -12.7074 -1.59545
-17.1403 -13.2166 -2.4316
-19.0792 -12.4135 -2.08966
-16.1114 -13.5385 -1.3514
-13.7035 -13.3097 -2.77839
-13.4495 -14.1244 0.655826
-12.9844 -14.2654 -0.0625966
-16.8573 -13.5591 -0.690456
-17.0955 -12.3847 -2.05442
-17.1458 -11.6914 0.781401
-16.4514 -13.6125 -0.557527
-16.1942 -13.3119 -0.798226
-16.596 -12.6681 -4.18062
-16.8496 -12.8206 -1.24914
-14.6475 -14.8036 1.37503
-12.0624 -13.6249 -0.715826
-12.3585 -13.7014 -3.47254
-17.8313 -10.2451 0.257533
-17.0057 -12.9519 0.0826041
-18.4647 -12.3292 0.362422
-16.5581 -14.0544 -3.43173
-14.7607 -12.4037 -2.24636
-13.5003 -12.2826 -2.27796
-11.7751 -13.2726 -1.99656
-13.3145 -11.6436 -2.72115
-11.5046 -13.4946 -2.77026
-16.9653 -14.4393 -0.382888
-12.1824 -13.973 -0.576987
-13.2823 -13.9167 -6.77105
-15.7118 -13.0565 -2.36549
-13.474 -14.4203 -1.41292
-13.1369 -12.6131 -2.10159
-11.5217 -15.0998 -1.12835
-17.8155 -10.9373 1.07212
-16.6882 -12.9981 0.754669
-17.7085 -14.6453 -0.697122
-15.6567 -11.8662 -1.62401
-18.5425 -11.7753 -1.42378
-15.6263 -12.3599 -1.21287
-17.42 -11.8628 -1.17874
-15.605 -14.0151 -0.901667
-15.9942 -12.4276 -2.98537
-11.9421 -13.1502 0.989602
-17.1311 -12.2766 0.282861
-16.0477 -12.1086 -1.95976
-16.9664 -10.035 -1.11907
-18.0868 -12.9679 -1.11827
-15.28 -14.8464 -1.30574
-15.7107 -11.7965 -3.1387
-17.973 -13.1085 -2.23968
-14.9458 -13.3799 -1.45675
-15.2849 -13.1524 -2.02186
-14.7094 -16.0598 -0.948763
-12.2534 -12.706 -1.72816
-17.984 -12.8846 3.0515
-17.6575 -12.5437 1.4998
-17.7746 -12.1922 1.38519
-15.4626 -13.77 -0.981799
-14.7456 -12.7379 0.543196
-14.2556 -14.0681 0.527681
-14.7471 -12.6104 0.268444
-17.1945 -12.6242 -1.10402
-13.7753 -13.1859 -1.71746
-12.8608 -11.7008 0.342496
-11.812 -14.3756 -1.37145
-13.5696 -13.1633 -2.64246
-15.8112 -11.8712 1.56579
-17.6998 -13.0728 -0.176127
-17.9033 -11.1204 -0.509876
-15.2727 -11.5352 -1.7484
-13.93 -14.7023 1.08535
-17.0702 -12.912 -1.16908
-15.1783 -13.5958 0.0834479
-13.3833 -11.5159 -0.0864451
-13.6328 -15.1008 0.435375
-14.8525 -15.1391 -0.698413
-14.2638 -11.7247 -1.22662
-13.5008 -12.6956 0.741969
-13.1982 -12.8171 -0.117875
-14.2228 -14.5719 -0.783627
-13.2416 -11.9219 -0.276531
-12.3194 -12.4562 -0.589301
-12.2586 -12.0714 -2.56073
-17.842 -14.2467 0.0678977
-16.4662 -11.5879 -1.63232
-15.714 -11.6276 0.817666
-14.5207 -12.8521 0.170603
-15.5396 -11.3884 0.432263
-13.7009 -12.765 -2.45521
-12.6291 -14.8634 -2.69275
-12.7668 -12.3885 -1.44748
-15.9813 -12.7902 0.646946
-15.3307 -12.9516 2.10976
-18.7902 -12.2962 -0.204984
-18.3431 -11.8335 -0.236326
-13.7369 -13.1089 0.938692
-16.7865 -13.6778 0.241546
-17.6308 -10.6348 0.155112
-16.7556 -11.323 -0.783453
-17.9827 -11.9011 -0.242641
-18.2521 -10.6135 -1.96492
-14.5161 -12.6922 3.20972
-16.4484 -11.042 -1.15148
-14.5655 -11.6807 -0.578222
-15.121 -12.3466 -1.03656
-14.1755 -13.6181 0.38295
-17.5756 -11.0637 -1.66568
-16.2752 -11.0166 -1.23951
-15.4343 -13.3283 -0.711592
-17.2907 -10.4675 -2.21024
-13.2728 -12.1943 -1.64498
-15.6209 -12.1715 -1.62837
-12.4306 -11.8296 -0.438429
-11.2247 -14.1588 -3.12525
-17.298 -13.0194 1.43971
-15.6338 -12.9911 0.399982
-19.2358 -10.7437 -0.435095
-13.0051 -11.37 0.692236
-17.3455 -13.423 1.21382
-14.3003 -12.3529 0.914547
-14.3938 -14.2161 0.823836
-14.7955 -12.7605 -0.223674
-13.566 -13.3979 -0.245639
-13.9359 -14.2013 -0.796097
-15.7483 -12.7735 -1.97134
-15.1499 -12.8967 -1.5859
-14.8224 -12.2116 -0.0470071
-14.3299 -11.5848 -1.61153
-13.8612 -12.6041 -1.43415
-12.1772 -13.3885 -0.896961
-13.81 -14.6609 -1.6111
-14.6072 -13.623 0.481553
-12.2722 -14.0958 -2.57779
-16.7168 -12.432 -1.33727
-16.267 -12.7272 -0.0605741
-15.884 -10.2619 -2.74608
-13.6754 -13.2262 -0.329818
-15.2747 -14.5087 0.320536
-12.6477 -15.2523 -2.65458
-12.3416 -13.2011 -0.554544
-15.5547 -11.8583 -2.14149
-12.3592 -12.5641 -1.44772
-17.6234 -13.5603 3.5362
-14.3991 -13.2747 2.98493
-17.253 -12.7266 -0.523661
-12.5983 -13.6218 1.39885
-15.6186 -12.8509 -0.825394
-13.5748 -14.4063 0.0643338
-14.6705 -12.6545 1.34206
-13.5266 -12.1262 0.397677
-14.1387 -12.993 0.145625
-11.852 -14.0807 -1.15398
-12.6654 -14.4289 -0.804931
-12.6524 -13.3863 0.761964
-17.3438 -13.2903 0.99148
-12.1675 -11.7481 1.54001
-13.8668 -13.112 -1.43125
-16.7031 -13.8005 1.66281
-14.1559 -13.66 -0.0841708
-14.5437 -13.2575 0.0948181
-13.2705 -11.923 -2.17361
-17.7004 -11.5701 -0.300272
-18.5432 -13.608 0.616662
-15.7439 -12.51 0.263211
-12.728 -12.1865 1.74605
-17.1386 -13.6879 -0.787081
-12.6411 -13.023 0.547612
-13.3443 -14.8315 -0.373532
-12.3829 -12.4027 -0.110424
-14.9818 -11.8916 0.463702
-16.9722 -11.4268 -2.00648
-13.5117 -12.1625 0.858005
-17.2061 -13.1663 -1.20732
-15.274 -13.6571 -1.77982
-14.609 -10.8745 -2.04745
-13.1185 -14.56 1.24576
-12.0883 -12.2211 -1.65381
-15.0246 -12.9542 0.013441
-15.7551 -13.4972 0.358154
-12.2199 -11.3704 4.36586
-12.1367 -12.3445 1.1891
-16.6593 -12.6404 -0.71237
-16.3789 -12.5938 -0.90173
-13.0107 -13.7717 -0.378292
-14.6604 -12.1837 -1.10569
-13.4338 -11.834 -0.814944
-13.4108 -12.2115 -0.0428775
-14.9972 -13.2166 -2.80272
-14.8862 -12.6672 -2.09495
-16.8458 -10.8957 -0.0984642
-13.8769 -13.887 0.455669
-18.214 -13.1201 0.744281
-15.8559 -13.3919 0.875684
-13.1171 -11.7151 3.0651
-14.1369 -12.496 1.2357
-13.628 -12.6032 1.03264
-17.0621 -9.36796 -0.973071
-14.7467 -12.2837 1.62357
-12.112 -11.5432 0.331405
-13.4253 -11.1529 2.75361
-13.3752 -13.2963 0.770141
-14.3702 -14.1304 1.19644
-11.6856 -12.6948 1.87178
-11.9547 -13.4125 1.64749
-16.3972 -12.6494 0.0236507
-15.7549 -13.6172 -1.97026
-14.0383 -12.9704 -0.0613823
-16.651 -10.7867 -1.19077
-14.0854 -13.6815 0.715599
-12.4218 -12.8454 -1.10748
-14.1312 -13.9107 -0.651132
-13.8456 -11.5564 -1.0436
-15.6138 -12.3683 -2.20988
-13.6133 -12.0554 -3.08238
-18.0626 -11.3987 -0.58452
-17.4642 -11.8552 -1.37786
-16.9241 -13.0791 1.19263
-14.2894 -13.2089 1.77461
-15.8158 -13.2626 1.54297
-12.7957 -12.4706 2.89886
-13.4148 -11.8114 0.933787
-13.2301 -12.4285 0.418956
-11.7638 -13.0546 -1.07503
-14.369 -14.6356 -0.275717
-18.1278 -12.8144 1.24114
-17.1974 -12.3458 -0.194988
-14.2123 -14.2136 -0.376269
-13.6483 -14.3588 0.541272
-14.5705 -12.338 -3.46035
-15.1194 -12.3696 -2.08806
-13.9759 -13.5476 -1.01665
-15.8598 -14.9907 0.181976
-13.4278 -14.0368 -1.08847
-10.154 -12.281 -2.58744
-14.1963 -13.2406 -1.75323
-11.9216 -11.2431 0.626106
-14.9862 -13.2713 -0.162206
-12.53 -11.0375 2.77967
-14.8687 -11.7236 0.475179
-14.112 -13.1369 -0.233453
-13.5791 -11.7623 -1.03707
-12.9187 -10.5811 0.359228
-17.8472 -12.0524 1.23102
-17.0391 -13.6373 -0.725521
-18.9462 -12.6211 -0.679102
-17.308 -11.7296 0.0601698
-14.1146 -13.2328 -0.0918892
-17.8726 -13.547 -2.05285
-12.5317 -12.2047 -0.608309
-16.3553 -12.1422 -1.33653
-14.865 -12.6748 -2.40799
-18.1024 -11.9366 -2.1081
-13.9374 -13.6811 0.23764
-12.6582 -12.8359 -0.986034
-15.1873 -11.0507 -0.90585
-15.2725 -12.0549 -0.631383
-14.1599 -12.0066 -1.40964
-14.3613 -13.2982 -4.08643
-14.2364 -12.8156 1.88383
-16.6985 -13.3912 0.0860997
-12.8799 -12.099 0.382191
-17.4199 -12.5749 0.879508
-18.7585 -12.9169 -0.808406
-17.8989 -12.4275 -0.677253
-15.1286 -12.4791 0.107199
-18.5618 -11.9194 0.0566667
-12.9662 -13.7827 0.132186
-15.0294 -14.0241 -0.46848
-16.5651 -10.7801 -1.35465
-17.9834 -12.5505 -1.28814
-13.1866 -14.6346 1.50024
-15.5497 -11.8499 -1.62561
-14.4103 -11.0685 -1.56692
-12.0188 -13.1506 -1.21983
-13.0992 -14.0235 -1.94611
-17.6556 -12.0131 -1.19559
-16.7504 -11.6162 -1.63366
-16.1351 -11.192 -3.21628
-12.9834 -12.4618 1.37797
-17.0067 -12.0323 -0.844396
-17.4645 -11.0501 -1.55119
-16.5058 -14.2494 0.31346
-16.9383 -11.8476 0.113431
-15.1529 -13.8976 -0.836756
-13.1836 -13.8295 -0.814064
-17.1928 -11.8249 -3.08167
-14.8375 -12.1414 2.22253
-13.593 -10.8613 2.49984
-14.1964 -13.0787 1.1569
-16.4759 -13.9843 0.579488
-15.5601 -12.839 0.482748
-12.6264 -13.6297 -0.853393
-13.9381 -14.3766 -2.66144
-12.8281 -11.4878 -3.6237
-12.7449 -13.1886 -3.02191
-14.3606 -13.0107 2.56267
-19.1369 -13.1863 1.85079
-18.8664 -12.5609 -1.68785
-13.0957 -12.4929 -1.12689
-15.9075 -11.4342 -0.0545948
-12.6559 -14.6238 -3.42919
-13.9883 -14.7332 -0.227821
-12.3033 -14.7259 -2.29782
-17.1665 -14.2472 -0.581502
-12.7292 -12.473 -0.249626
-16.8442 -13.4714 1.08967
-13.336 -11.1765 0.981039
-16.9396 -13.0895 1.55467
-15.8296 -11.9359 0.365676
-18.8452 -12.4519 0.530715
-17.6411 -12.7429 1.27637
-17.781 -12.7101 -0.497471
-14.2653 -11.3845 0.0510844
-16.3732 -11.6478 -0.101056
-13.9777 -14.368 -0.092386
-16.4402 -11.6708 0.912047
-17.7005 -13.4439 0.686268
-15.7646 -11.9458 -0.303679
-16.222 -11.9153 0.978997
-15.2059 -10.6766 1.16617
-16.1387 -11.5284 0.951159
-14.8354 -12.1029 -1.58118
-18.2618 -14.2404 -0.574181
-19.3145 -11.4851 1.74394
-17.0935 -10.671 -0.753897
-16.1496 -12.67 -1.4002
-14.9557 -11.7217 -0.940108
-13.4221 -14.4584 -1.51615
-17.6986 -12.3154 -0.724689
-14.5181 -14.7287 -2.35453
-16.3995 -12.5614 -1.08489
-12.0046 -11.8712 -1.29168
-18.7696 -13.0752 -0.66548
-15.7044 -10.56 -0.0222728
-12.7222 -11.9243 -2.62476
-15.9593 -11.5075 -2.13571
-15.4745 -13.9663 -0.198892
-15.0004 -13.0423 -1.96493
-14.1866 -10.614 -3.7391
-15.1995 -11.2277 -2.08777
-12.6807 -12.9528 -2.79418
-14.2948 -12.8859 -3.40469
-12.8018 -12.0447 1.08051
-18.791 -13.2282 1.3395
-17.2108 -14.3899 0.00939286
-17.0689 -12.5598 0.677311
-17.2506 -12.5756 -0.631071
-13.4734 -12.893 1.71447
-13.9082 -12.2118 1.99352
-16.8272 -12.8482 -0.419528
-18.4832 -12.0201 1.65865
-13.1614 -14.8852 -0.120429
-18.5101 -13.6234 -0.926733
-16.2956 -10.3398 -0.08324
-16.4447 -12.749 -2.88653
-14.3396 -12.8934 -0.180913
-13.6107 -13.9189 -1.44466
-17.1218 -14.4355 -2.2588
-13.6765 -11.4542 -1.56916
-15.4974 -13.7029 -1.44345
-16.1598 -11.6323 1.05908
-14.4785 -12.7272 1.94381
-15.1369 -12.2308 1.49618
-16.3043 -12.5485 0.0381603
-12.6196 -12.5878 0.835718
-14.6496 -15.6056 -0.80453
-17.637 -13.8204 -1.84105
-16.1301 -11.7721 -2.99045
-16.2021 -10.9555 -1.70299
-15.8108 -11.2183 -3.71658
-16.4273 -13.2757 -0.615074
-15.484 -13.9065 0.650275
-14.5987 -12.3661 1.20117
-14.082 -13.5776 -0.969676
-14.7556 -12.6566 -0.678356
-12.7937 -13.3164 0.235814
-14.4919 -12.5952 -3.03214
-15.2133 -13.4209 -0.709149
-17.24 -12.4906 1.61676
-16.9136 -12.6162 0.43133
-17.8785 -14.221 0.42505
-13.2105 -12.9573 -1.08291
-15.2195 -12.7987 -1.69773
-14.2704 -13.2916 -1.76569
-15.3289 -11.1245 -5.01421
-15.9417 -10.849 0.516061
-13.3721 -12.4032 -2.3501
-14.3984 -11.18 1.64399
-13.9329 -12.5231 -0.307957
-14.1144 -12.7091 -2.18524
-13.5042 -11.2922 -1.87972
-14.4306 -13.231 -0.71014
-13.789 -14.2325 -1.30861
-13.2894 -11.895 1.66098
-17.6126 -10.6355 4.02108
-16.9937 -12.5291 0.798522
-15.7658 -14.7294 0.146454
-16.7308 -13.1057 0.604381
-13.5454 -12.8295 2.19902
-14.0301 -11.9522 1.43262
-15.6825 -12.9154 0.940228
-14.8181 -12.8267 0.690828
-14.5573 -12.1434 1.26168
-16.3042 -13.4324 0.68331
-17.178 -13.7196 1.47384
-14.7625 -14.284 -1.6024
-16.0936 -13.2826 0.306557
-16.4095 -12.7512 1.53113
-13.8978 -12.1323 0.440667
-15.4744 -12.356 2.05454
-17.0423 -14.8388 1.11527
-13.9332 -12.0405 -1.29639
-16.5368 -11.7173 -0.373863
-13.366 -15.5234 0.0803449
-16.6473 -12.5705 0.797739
-13.7756 -14.9497 -2.43513
-16.4652 -12.9585 1.16108
-13.2351 -12.9501 0.492857
-15.8936 -12.7337 0.678073
-15.9473 -11.6715 -0.786416
-16.7688 -13.0811 -0.669178
-13.1494 -13.3973 0.302728
-16.7377 -11.7773 -0.480847
-17.3665 -12.6993 -1.01387
-16.4783 -12.0326 -0.581432
-17.5057 -12.6072 -0.123769
-15.4773 -12.2681 -1.88518
-17.3354 -12.669 -0.388091
-16.7035 -11.8075 0.330226
-16.8161 -12.6173 -0.0251234
-16.8446 -12.6461 -0.213861
-16.3738 -12.9304 -0.90302
-15.1758 -13.9533 -0.675891
-15.4038 -11.8331 -2.25459
-16.679 -12.7057 0.257692
-16.3667 -12.406 -1.98623
-16.9594 -13.4246 -0.722242
-15.351 -10.9578 -2.88839
-16.9414 -13.2555 -1.48577
-15.7143 -11.7108 -2.2085
-16.0492 -13.2088 -3.12108
-16.9636 -14.1111 -1.46503
-16.311 -9.36212 -0.59714
-17.9743 -9.78587 -2.20931
-13.6565 -12.409 -1.2711
-14.2029 -12.5292 -5.43967
-17.4783 -12.0467 0.785701
-13.075 -12.0817 -1.78839
-13.9262 -13.4059 -2.26467
-16.1947 -13.6661 -2.11864
-12.3285 -14.1974 -4.49238
-13.193 -11.124 1.56318
-16.41 -13.0657 2.9259
-15.6812 -13.7884 3.12309
-18.779 -11.5754 0.110271
-15.9965 -12.8412 1.87446
-15.1825 -13.871 2.0537
-17.0099 -16.2324 2.55542
-16.8701 -14.9443 0.997354
-14.7864 -13.7788 1.94808
-15.9652 -12.8343 0.991137
-15.9779 -11.9872 0.531681
-13.6019 -12.5897 -0.763945
-15.1312 -15.6168 0.556771
-16.6146 -13.6388 1.51109
-16.1512 -13.2837 1.93122
-15.5921 -13.1904 -0.718597
-15.7004 -13.0038 1.35059
-14.6103 -12.2232 2.2295
-15.6298 -13.6717 1.88128
-16.7452 -14.3262 -0.302175
-17.3395 -9.91938 1.33841
-17.0587 -12.5883 -0.780502
-16.7009 -11.2908 -0.17366
-17.1085 -10.7818 -0.581141
-15.9373 -12.1984 0.130641
-16.0361 -13.9813 -2.07581
-16.483 -13.4126 -0.0363006
-14.0707 -14.3251 -3.11219
-17.1455 -12.1314 -1.35468
-17.0133 -10.8036 -0.18611
-18.5918 -12.4214 -2.44655
-19.2926 -11.4858 -3.9435
-16.0004 -10.2114 -0.873833
-13.2969 -11.5664 -3.80372
-16.5132 -13.2882 1.14225
-15.0246 -12.895 0.538943
-15.9068 -13.8048 0.757143
-16.8404 -15.6489 2.29216
-16.3718 -11.9324 -0.367695
-15.915 -12.8693 -0.996535
-16.89 -12.073 0.299313
-16.1518 -13.6911 0.476802
-12.5705 -13.6953 -0.903718
-12.0655 -13.3534 -1.86594
-12.8345 -14.7339 -1.54481
-16.1687 -11.1854 -3.4811
-18.6656 -11.8075 -1.32451
-15.4234 -10.7898 -0.468417
-17.7854 -10.8305 -2.15906
-16.825 -11.7545 -1.59698
-16.3867 -13.4431 -0.994157
-13.4331 -13.5942 -0.817489
-14.4725 -12.3389 -4.05226
-14.7473 -12.9675 -5.7692
-12.6112 -13.3669 -3.17613
-17.0864 -13.5719 0.888549
-15.8773 -13.441 1.36735
-15.1375 -13.8205 0.171893
-16.4216 -12.8156 -0.75981
-15.8078 -13.2484 -1.87064
-15.0042 -11.8052 -2.29223
-12.2711 -14.0402 -1.88224
-12.2566 -11.4271 -2.02963
-16.7773 -12.0366 -1.43448
-13.2919 -12.5141 -1.37176
-12.285 -15.1337 -4.59443
-15.0739 -11.8578 -2.23573
-16.1277 -13.1198 1.59419
-17.4934 -12.7964 2.07263
-17.6446 -12.3751 -0.328009
-11.9985 -13.1226 -0.383154
-13.1331 -13.4181 -2.56169
-17.3676 -11.8331 -1.31216
-14.5601 -12.1281 -2.62057
-12.6379 -12.2543 -3.08352
-15.7765 -12.2253 3.95598
-14.6312 -14.347 -0.744561
-15.3302 -14.8634 0.594769
-14.5204 -12.2118 0.14495
-17.1424 -10.8174 -1.5324
-16.8629 -12.1521 -2.87375
-15.2796 -11.7928 -4.64731
-12.482 -12.6812 -1.33067
-15.5553 -12.7572 0.686609
-17.0432 -12.512 0.624093
-13.5748 -12.6144 -1.66453
-13.0767 -14.6659 0.942358
-13.5178 -14.1065 0.956156
-15.0979 -12.0328 -5.1511
-16.4951 -11.4392 -2.61604
-15.9197 -11.6794 -1.85383
-16.5501 -12.7446 -1.63946
-16.7593 -11.5092 -1.92454
-16.2919 -12.2733 -2.37106
-15.2065 -13.9493 -0.80787
-16.6074 -12.7357 -3.5915
-13.4015 -12.0075 -3.15501
-19.109 -14.1233 -0.560325
-17.4442 -12.6273 -2.20926
-15.9793 -12.672 -1.49308
-14.1087 -11.4989 -2.18037
-14.1818 -10.6098 1.00322
-16.1087 -11.8359 0.509948
-17.0669 -11.6624 -2.84902
-16.8826 -11.8173 0.0939764
-17.4182 -12.6921 -2.55488
-15.8089 -12.6007 -0.689034
-15.6552 -13.4355 -1.22857
-16.3279 -11.3116 -0.0308161
-16.8575 -13.1087 -2.13044
-16.7857 -11.3568 -1.18805
-17.0893 -14.6471 -1.10002
-17.2498 -11.1866 -1.95973
-15.4389 -11.4921 -0.30625
-13.5169 -11.4403 -1.19946
-17.7278 -12.8257 -0.815495
-15.8702 -12.8457 -0.937014
-17.0498 -11.251 -2.76175
-16.6672 -13.5724 -1.33112
-14.9607 -12.3333 0.955798
-17.8372 -12.8033 -0.329974
-16.4096 -11.4352 0.54864
-18.5775 -13.03 0.385572
-13.0554 -12.2217 -3.59088
-15.7383 -13.1769 -1.42021
-14.2321 -11.207 -1.97763
-16.8468 -13.1494 -0.796353
-16.1537 -11.9492 0.411704
-12.9143 -13.3143 -2.57473
-13.4403 -10.2476 -1.35905
-13.4017 -13.629 -3.83329
-15.465 -12.0293 -1.0496
-16.2595 -12.3468 -0.084979
-14.6364 -13.6105 -0.941721
-14.0445 -11.3123 -1.23248
-12.5778 -13.8923 -1.27679
-17.3118 -11.8406 0.450734
-16.8264 -10.4362 -0.593707
-17.9483 -14.599 0.390834
-19.044 -11.7336 -1.68562
-15.2402 -12.5209 -0.470425
-16.6383 -11.3458 2.12831
-16.1317 -12.9756 -0.344815
-16.5188 -11.679 -0.25385
-17.317 -12.6856 -1.23465
-16.9909 -13.1143 -0.681135
-16.1487 -13.27 -0.170438
-15.7985 -15.8243 0.0150376
-13.2516 -14.2245 0.355141
-13.8675 -13.4815 -1.68915
-17.7593 -13.2077 0.460282
-16.2708 -12.7406 -1.4855
-17.0179 -13.2626 0.335935
-18.3121 -12.3559 0.938737
-16.7692 -13.541 0.878641
-17.7956 -11.5652 -1.07116
-15.1201 -12.1035 -1.15786
-14.8 -12.6862 -1.08212
-16.1156 -11.1043 -0.0261723
-14.9946 -12.7022 -0.927155
-17.9381 -12.0213 1.12547
-15.6574 -14.3864 0.786974
-13.2276 -14.1913 -1.59424
-16.6143 -11.3976 2.14878
-16.8784 -12.3145 1.31251
-16.2827 -12.2148 1.13265
-18.2801 -13.0699 0.561379
-15.7841 -13.051 1.0179
-17.6344 -10.7913 1.47708
-17.1412 -11.3665 0.613802
-15.8393 -13.0467 2.53463
-16.3269 -13.111 -0.537948
-17.0028 -12.5272 0.959403
-16.9504 -13.3015 -0.383247
-18.9179 -12.4038 -0.497158
-16.1224 -13.5118 1.87883
-14.7969 -15.0865 1.63347
-13.5659 -11.7572 -1.22265
-15.0485 -14.0652 2.51097
-15.0003 -13.7695 1.21331
-15.0382 -13.0041 0.860901
-17.6821 -13.902 0.757869
-11.2596 -13.6667 -0.99328
-14.2679 -12.0567 0.295495
-16.5184 -14.618 1.57753
-16.3148 -14.6098 1.64859
-15.3326 -12.7395 2.69091
-16.6236 -12.0787 0.595444
-15.8201 -11.9128 2.75992
-17.5254 -13.7434 1.10406
-16.9534 -13.9162 2.30714
-16.0837 -12.493 1.01432
-17.2647 -12.9191 0.889312
-16.2261 -12.429 0.498175
-15.9289 -14.3303 2.31426
-15.5578 -12.2757 1.99832
-17.5332 -13.7328 0.700896
-12.2118 -11.9405 -1.91746
-17.5859 -12.8326 -2.91608
-17.4877 -12.4531 -2.8034
-15.3774 -12.4807 -2.09671
-17.2417 -14.0907 -1.84541
-15.9111 -12.7105 -2.52987
-16.6862 -12.4248 -1.74021
-16.5185 -14.4366 -1.11932
-15.2157 -12.4324 -1.73577
-17.7832 -12.6514 -2.53921
-18.3039 -12.9157 -3.118
-12.5837 -13.0682 0.956672
-18.3405 -12.5915 -1.12689
-18.7293 -13.7978 -1.17763
-14.8949 -12.2898 -3.11986
-17.4251 -12.542 -0.0530839
-16.2243 -11.1547 -2.24931
-15.5138 -13.2324 -2.93355
-17.6844 -13.7347 -0.741067
-16.7646 -11.8162 -1.91804
-15.6973 -11.5554 -2.89465
-16.4283 -14.3023 -0.263966
-17.6506 -13.1439 -1.55491
-17.3478 -12.6738 0.266284
-14.293 -12.3993 -1.95398
-18.6383 -10.8183 -1.66705
-16.8645 -13.0067 0.352812
-18.1376 -11.6656 -2.37323
-16.5438 -13.6898 -1.21248
-17.3904 -11.9629 -2.93647
-15.7885 -13.4696 0.58481
-15.536 -12.7912 -0.945116
-15.2297 -14.0959 -2.08928
-14.7265 -14.0017 -2.36309
-15.7178 -13.741 -3.96403
-17.1656 -12.9135 -1.08326
-16.3975 -12.2717 -2.36444
-16.3388 -13.8618 0.633904
-16.6878 -9.72565 0.103097
-15.7976 -13.5198 -1.9151
-13.4861 -13.2256 -1.26533
-16.5942 -13.4181 -1.2588
-19.6249 -12.3663 -0.638732
-12.0272 -13.9565 -1.58796
-15.3727 -11.4467 -2.16116
-14.2299 -13.9501 -0.880221
-15.7671 -11.706 -0.0688228
-16.5414 -12.6014 -0.85257
-15.8529 -12.8541 -1.19059
-15.784 -11.9458 -1.51543
-18.2335 -12.1174 0.807779
-15.752 -13.4411 -1.05043
-17.4037 -10.9923 -1.44751
-15.9374 -11.6314 -1.05821
-17.0552 -15.2194 -2.52703
-16.1625 -15.1041 -0.464412
-18.6208 -13.5171 1.56667
-12.2115 -13.2866 -3.45469
-15.6824 -11.8622 0.170513
-18.3012 -13.1478 0.45948
-18.4 -10.6937 1.72743
-14.2504 -11.0447 -1.35981
-14.7978 -13.6595 0.17843
-17.2172 -13.149 -1.21882
-16.4748 -11.9665 0.192181
-15.1137 -14.0414 0.912533
-16.3076 -11.0561 -0.404739
-16.203 -12.8837 -1.9129
-16.4591 -12.6053 0.294019
-17.1794 -12.0181 0.855054
-15.7487 -11.869 0.367948
-15.018 -11.6948 -2.07805
-17.8869 -10.9703 -0.594649
-12.4655 -12.7094 -2.59904
-15.7699 -11.5045 -0.447609
-13.8734 -12.1612 -0.97432
-13.4113 -13.1023 0.907823
-14.3351 -11.9585 -0.98078
-11.9696 -13.9753 -2.33371
-14.7786 -13.7271 -1.95516
-13.2779 -14.0208 -0.725246
-17.5491 -12.5225 -0.991021
-17.0386 -14.1695 0.121595
-16.5506 -11.3895 0.973691
-15.1488 -12.8981 -1.36192
-13.7803 -13.002 -0.250221
-14.5769 -14.5124 -0.197968
-16.27 -12.5962 0.353088
-16.8795 -11.1115 1.00395
-15.3415 -14.7906 1.15961
-17.7531 -11.8273 0.980412
-13.3544 -12.5461 -0.898524
-14.5682 -14.7045 -2.13291
-15.3437 -13.8463 -2.30967
-13.762 -13.3168 -0.254626
-16.6379 -13.2294 -0.247115
-17.1657 -12.8142 1.43869
-17.4877 -14.1069 0.684187
-17.3829 -12.2182 1.12355
-17.7119 -14.9867 0.280276
-14.7726 -12.8074 0.402839
-17.1376 -13.6438 0.427858
-17.7791 -12.8399 0.712024
-17.7473 -14.1415 1.32002
-17.48 -12.6279 1.02169
-16.0014 -12.2785 -0.725644
-14.9498 -13.9668 3.13711
-17.441 -12.6781 1.28399
-15.1918 -12.9081 0.543304
-13.0161 -13.5773 -1.5751
-15.8217 -14.358 1.16091
-16.634 -13.275 0.0821921
-12.9034 -14.1157 0.925553
-17.0025 -14.7434 2.80045
-12.3327 -13.6765 -0.66463
-15.3655 -12.2988 0.455402
-17.3111 -13.271 0.885931
-14.9589 -13.0766 2.22542
-12.6842 -12.7692 1.45681
-15.248 -13.8347 0.935576
-18.8636 -11.7243 0.292689
-17.7506 -12.2563 1.68563
-17.4326 -11.8962 2.51193
-17.7373 -13.4736 3.06106
-15.9507 -13.0618 1.24448
-15.1965 -12.0873 2.56217
-15.715 -11.9636 2.41734
-16.1045 -12.4708 1.71813
-13.2545 -11.7996 1.86727
-13.0105 -11.1599 -0.410753
-14.4301 -12.8811 0.948486
-12.735 -11.9096 1.18466
-12.4658 -11.6798 1.55054
-12.2042 -12.3942 2.1946
-16.8433 -14.2342 1.99091
-16.7565 -14.2996 2.20537
-12.8756 -15.7258 -3.95245
-16.3439 -13.8588 -1.71554
-15.8345 -12.487 -2.28188
-17.5525 -9.49657 -1.47022
-17.374 -13.4394 -0.237589
-17.3668 -9.5823 -2.21624
-17.4943 -10.881 -1.08103
-15.8297 -10.9032 -2.1199
-14.0181 -11.2183 -3.38914
-19.1596 -13.3677 -2.50349
-15.0084 -12.2182 -1.19854
-15.8398 -12.6898 -1.55044
-17.3121 -13.2421 -1.21749
-15.1428 -11.3973 -0.503312
-16.632 -12.7812 -0.898768
-15.8951 -11.9641 -1.36966
-16.1651 -14.3852 -0.121917
-16.7395 -11.552 -1.00936
-16.8532 -13.0951 -2.43572
-16.7752 -13.1944 -1.112
-15.9243 -11.4655 0.152842
-17.1287 -12.3025 -1.22894
-15.4523 -13.4607 -1.26026
-17.7296 -11.042 -1.53685
-17.6019 -11.5668 -0.289096
-13.7867 -11.7027 -1.49606
-15.347 -12.8106 -0.83538
-13.0811 -14.414 -1.08066
-15.7065 -12.538 -1.12082
-15.4613 -13.1567 1.56359
-17.8069 -11.9299 1.53747
-16.6278 -12.4187 0.67104
-11.3549 -13.3338 -2.05656
-15.2706 -13.0309 0.00950169
-17.8201 -13.1549 -0.614997
-15.7185 -15.4512 0.273939
-16.0674 -12.5111 0.437268
-13.971 -13.626 0.472328
-17.3945 -13.9923 0.420428
-14.9143 -12.3854 0.497108
-15.1926 -14.8139 -0.465709
-15.1941 -14.5844 1.11173
-15.3542 -14.205 -0.806853
-14.9916 -15.0172 -0.410628
-15.9888 -14.8943 -0.402005
-17.0624 -12.0495 0.109847
-15.5797 -14.235 -0.162051
-16.0769 -13.3569 -0.997447
-16.116 -14.6085 0.473899
-17.5968 -13.4384 -0.187621
-16.804 -13.7248 2.75959
-16.6941 -12.853 1.35453
-16.5446 -15.3861 -0.915941
-14.9369 -15.346 1.35665
-17.8483 -15.0054 2.05834
-15.1194 -11.4033 -0.65759
-13.8732 -12.8938 -0.292136
-14.1383 -13.6952 -0.44381
-15.8096 -13.6803 1.32397
-15.3328 -11.6758 0.671614
-12.2069 -14.3463 -2.03212
-15.8261 -12.2209 2.03547
-16.509 -13.0064 -0.691136
-17.0414 -14.4574 2.01144
-16.9401 -12.0953 1.68336
-16.3708 -12.1532 0.442134
-13.459 -13.3993 -0.692394
-13.2256 -13.3417 0.957969
-18.6185 -12.4919 2.36816
-16.3676 -14.2963 0.74266
-15.2249 -12.9132 2.15819
-17.3747 -10.981 1.25098
-15.8851 -12.307 2.90787
-17.2038 -16.2851 -0.0644611
-16.5759 -12.2978 1.61136
-15.3133 -12.7978 0.980382
-17.4622 -12.6802 2.09444
-17.4154 -12.6384 3.68997
-17.0388 -12.4253 1.97518
-16.3943 -11.8368 -0.808424
-14.0035 -12.4324 0.423974
-15.2771 -13.6137 2.70428
-12.2762 -10.8596 2.40849
-12.0012 -12.4295 0.62429
-13.6025 -12.1462 1.58137
-14.7312 -12.7321 3.26353
-12.3922 -13.0593 0.296263
-14.7433 -11.2423 -4.35608
-14.7577 -14.6285 -2.55013
-13.3509 -11.7293 -3.0756
-13.9601 -12.5702 -4.16011
-16.2288 -11.9093 -3.08517
-16.3748 -13.5524 -2.0235
-16.2095 -10.6477 -2.04001
-16.3866 -12.2255 -2.3168
-18.9647 -13.2195 -0.885303
-16.0643 -10.7072 -2.40193
-14.6425 -12.9504 -1.84799
-17.8876 -12.5778 -1.80253
-18.6655 -12.3596 -1.25791
-15.0413 -11.1466 -1.42066
-17.4051 -12.996 -1.16772
-16.9998 -12.6457 -2.52846
-16.8556 -11.9571 -1.48321
-17.0408 -14.047 -1.82171
-15.021 -12.5244 -1.84497
-17.1928 -12.7476 1.82234
-16.2303 -13.1443 -0.105657
-17.2771 -11.2752 1.59334
-17.5887 -11.8386 0.951489
-16.3016 -13.1024 -1.17772
-14.2407 -13.0334 -0.261887
-15.5395 -11.7933 1.33182
-11.7813 -12.9122 0.0524082
-15.0451 -14.0436 0.0739795
-13.7879 -12.8983 -1.43604
-14.2937 -14.0162 0.629896
-16.5581 -12.2502 -0.242135
-16.1948 -14.2877 -0.453578
-14.8307 -11.3199 0.552695
-18.4819 -12.1384 -0.752677
-15.498 -11.6901 -1.75464
-17.3313 -13.6349 1.15969
-17.1592 -12.8024 0.729934
-18.1857 -12.2655 0.326347
-14.996 -11.2996 0.526697
-18.011 -13.7682 0.102097
-16.5204 -12.2845 0.74671
-15.6765 -13.6203 -0.399029
-13.5157 -12.2669 0.170216
-14.6338 -13.3923 -0.387563
-18.2204 -13.3665 0.930001
-15.1504 -12.1471 2.16464
-16.5895 -13.8335 2.71491
-15.389 -11.0496 0.602324
-17.0025 -13.5703 2.0677
-15.5713 -12.4173 2.05813
-15.9869 -13.5068 1.62695
-17.352 -14.1112 1.21794
-16.1781 -11.914 2.58699
-19.3484 -13.7687 2.96
-17.0325 -14.1126 0.820273
-16.5132 -12.3395 2.12896
-14.425 -13.6198 1.03527
-13.2805 -11.4193 1.49114
-15.7018 -12.6812 1.96111
-16.7107 -13.7063 2.69949
-12.9826 -11.7626 0.0667973
-14.2233 -13.5864 1.48738
-13.7377 -12.0225 1.01205
-12.7018 -10.5302 -0.772017
-12.5284 -14.4509 2.20191
-13.555 -11.4132 1.55493
-16.3432 -14.1448 -2.15262
-16.7187 -13.0023 -1.13049
-17.9916 -10.9752 -1.95492
-15.8168 -12.5066 -2.05156
-15.5334 -12.985 -2.48798
-13.0247 -12.0565 -3.86977
-13.3957 -11.7482 -2.38812
-17.7532 -13.2289 -0.917532
-15.5588 -12.9668 -1.35004
-14.4605 -15.9146 -3.01128
-16.7219 -12.3535 -1.24699
-18.6998 -12.4402 -0.844444
-16.4033 -12.2276 -1.97497
-16.0614 -11.7161 -0.878585
-14.2124 -10.9311 -2.63491
-17.939 -12.7251 -0.967353
-15.1631 -13.2997 -2.27058
-13.2297 -13.1766 -1.16294
-15.6547 -13.364 -1.11316
-17.4768 -12.0572 -1.67474
-16.6798 -11.5895 -0.781033
-14.3967 -13.3707 -0.0199132
-13.3348 -15.6968 0.261409
-14.2406 -10.9582 -0.193952
-14.7733 -14.3331 -1.77205
-15.3442 -11.4516 -0.120773
-15.0594 -11.8926 -1.23525
-12.8601 -11.2054 0.592045
-16.5874 -12.8259 -0.940562
-13.5253 -13.2992 -0.756449
-14.9723 -13.2122 0.207614
-12.6972 -13.9723 0.962274
-14.6364 -12.7961 -0.266819
-15.0057 -12.0133 -1.88644
-15.9919 -10.5858 0.457139
-14.2209 -13.5993 -0.735544
-15.3723 -13.128 -0.0334109
-16.4085 -14.6329 -0.697204
-16.9305 -12.9415 2.40025
-14.9379 -13.4788 0.872825
-17.2247 -13.4075 0.898359
-16.7169 -14.3055 0.931022
-15.2088 -12.118 1.11819
-15.197 -11.3378 -0.286114
-13.479 -13.7457 1.16684
-17.0748 -13.3972 1.16228
-14.6217 -13.3093 0.996615
-15.4347 -11.1324 0.600457
-18.5001 -11.1356 1.14991
-15.4915 -12.0289 0.833138
-14.1959 -11.9224 2.86439
-16.7051 -11.3208 1.85015
-15.5695 -13.0474 2.77746
-14.1895 -11.6826 -1.21452
-16.2513 -9.53851 -2.5518
-17.3115 -12.8526 -2.26038
-12.9371 -11.1995 -2.61989
-17.5846 -12.2698 -1.19543
-16.8941 -11.855 -1.8744
-16.0217 -12.5859 -2.29923
-15.7774 -13.9968 -3.88568
-16.2848 -12.3581 -0.0420846
-15.7419 -12.4099 -1.32643
-17.037 -12.286 -1.74924
-16.4194 -13.5696 -0.796435
-12.5929 -12.1133 -0.924303
-13.3155 -13.1208 -2.05968
-16.2264 -13.7199 -0.367134
-15.197 -14.0472 -1.4839
-13.0035 -14.0364 0.811613
-11.0118 -12.1483 -1.42738
-14.9712 -11.893 -2.23717
-16.2989 -12.4563 0.0136021
-16.2476 -13.4795 0.709375
-15.8391 -11.5177 -0.0144868
-13.4337 -13.0576 -1.84134
-16.3092 -12.6681 1.18914
-15.5249 -12.342 1.68156
-14.295 -12.7917 0.235922
-19.0139 -12.9009 0.952326
-16.0223 -12.7488 0.776681
-13.6949 -10.5962 1.2451
-15.0955 -13.366 1.52222
-16.6636 -12.8994 3.54836
-15.5266 -13.9923 1.69135
-14.8556 -12.9309 2.12225
-16.401 -13.0366 -1.30401
-13.7876 -12.6014 -0.861621
-12.845 -14.7509 -1.40156
-16.9887 -12.4723 0.340325
-17.1335 -12.2767 0.230987
-16.6059 -11.5079 1.21778
-17.5909 -13.9377 -0.450777
-13.6856 -11.9932 -0.660447
-14.2999 -14.9983 -0.705951
-16.615 -12.9133 1.34153
-15.9577 -12.6276 0.559955
-16.3979 -13.048 2.25456
-14.9949 -12.742 1.73583
-15.2916 -12.7459 1.15688
-10.7608 -10.2615 1.66561
-15.5169 -15.2614 -1.98178
-16.3111 -11.0816 -1.59969
-14.1336 -12.4178 -1.91095
-13.7729 -12.8991 -1.55678
-13.1083 -13.8314 -2.07637
-15.4477 -13.4841 2.34085
-16.5314 -12.4308 0.343237
-15.0307 -12.124 1.2625
-12.2338 -14.4892 1.48456
-14.7559 -12.3423 1.45411
-15.1018 -12.1152 -2.25933
-13.2495 -10.1631 -1.61497
-13.5591 -11.092 -2.37046
-17.3616 -12.0683 0.177898
-15.0869 -11.7078 0.133812
-18.4701 -11.7902 1.235
-13.6687 -14.3199 1.95486
-12.377 -12.7845 1.25946
-15.1917 -11.061 -1.26041
-15.9163 -12.6543 -1.58632
-18.6399 -11.3172 -1.59459
-17.2545 -11.3382 -0.572149
-14.9503 -14.9156 -0.732848
-14.5771 -12.2449 -0.560562
-14.3914 -12.1707 -1.17013
-14.9946 -12.7819 -1.09861
-16.0599 -13.0002 0.937756
-15.4034 -12.8637 2.93455
-12.8874 -11.3822 3.64632
-14.8832 -12.5891 4.14907
-13.0788 -15.1154 -1.94271
-14.0703 -14.4075 0.97099
-16.1321 -12.9753 1.52591
-14.3394 -11.5231 -1.44948
-18.0308 -12.3214 -0.472448
-17.9638 -10.678 0.156798
-16.8386 -12.0595 -1.94956
-17.29 -11.9708 -0.137898
-17.6851 -11.8729 -0.140633
-18.3468 -10.3782 -1.81339
-18.5121 -9.61862 -1.97143
-17.5254 -13.0183 -0.393615
-17.579 -10.8969 -2.27897
-17.9622 -12.0435 -0.687946
-17.4547 -11.4514 -0.507674
-16.0001 -12.5263 -1.90156
-17.9852 -13.552 0.286556
-17.8444 -13.6804 2.53801
-17.575 -11.1466 -0.622576
-17.3457 -11.3353 0.943558
-17.4433 -12.3128 0.667518
-16.2739 -13.4242 -1.12061
-16.6849 -12.669 -1.64895
-17.5352 -12.662 1.00516
-16.8717 -12.4595 0.839099
-18.5367 -13.4386 0.20576
-17.6245 -13.1355 -0.570689
-13.5851 -13.1128 -3.70388
-17.404 -12.1289 -0.156853
-16.7028 -13.8343 -2.50171
-16.909 -13.0004 -2.21524
-16.6816 -12.7439 1.477
-17.0251 -13.7488 0.215108
-17.9403 -13.7473 2.00524
-16.8704 -14.4901 -1.59289
-18.0846 -11.778 1.75832
-15.4742 -12.6071 2.20873
-15.6168 -12.8577 -0.459978
-16.1248 -13.1443 0.62091
-14.825 -13.4995 -0.48331
-16.9637 -11.282 1.07354
-14.8181 -12.3288 -0.901714
-17.1668 -12.21 0.373577
-15.6375 -12.3761 0.435462
-16.5999 -12.9969 -1.11387
-14.8339 -13.2876 -1.48292
-16.8206 -13.9654 1.66317
-17.2959 -12.4576 1.85447
-15.883 -13.6118 0.978176
-13.778 -12.7277 3.4907
-15.3095 -13.7469 1.54141
-13.5627 -15.4013 1.9432
-15.1579 -11.8521 -1.66549
-13.5977 -11.2329 -0.766334
-13.7355 -12.6604 -0.00656522
-15.2084 -12.9698 -0.595846
-16.715 -14.9243 1.4846
-15.5258 -14.5663 0.587737
-15.8128 -14.1183 2.27574
-15.3311 -13.6563 -0.724448
-14.7002 -12.5059 0.142509
-16.0113 -12.4983 0.917597
-13.6195 -14.9852 -1.40465
-13.7703 -13.8853 -2.92543
-14.7943 -11.3575 0.261071
-13.5614 -14.0017 -2.51519
-12.879 -13.6322 -1.39712
-16.8255 -12.9589 0.533746
-15.0851 -11.7908 -1.63713
-14.3768 -12.9246 0.0645213
-14.1014 -13.5374 1.38354
-11.6621 -15.1331 -3.44952
-14.2004 -13.3898 1.48756
-11.8655 -13.8258 -1.84298
-12.6424 -14.3449 0.463244
-16.2022 -14.3304 0.0927858
-14.5371 -13.0852 0.582233
-12.9264 -12.4367 -0.249245
-13.9168 -14.4325 -1.09418
-12.5199 -14.4495 1.46227
-11.5077 -12.1256 1.06594
-13.9609 -11.5119 2.6519
-17.2651 -13.1403 -1.07722
-17.4517 -11.8806 0.203566
-15.9549 -11.9499 -1.76358
-16.7604 -12.0356 0.591789
-17.8576 -11.2582 -2.1785
-17.9089 -10.9475 -1.78287
-14.3993 -13.5482 -0.378511
-15.6171 -12.7549 -0.743054
-16.2149 -13.7979 0.0738223
-15.8376 -12.3982 -2.18335
-16.1342 -13.4216 -2.40518
-14.6384 -12.7876 0.37397
-15.8452 -12.4225 -2.27655
-17.7649 -12.4085 0.697067
-16.1628 -11.255 -0.926152
-16.0868 -12.3347 -2.36105
-17.4213 -11.4659 -1.14333
-17.423 -13.1544 -0.192942
-17.2524 -11.9198 -0.628416
-18.538 -12.6483 -1.61488
-17.1133 -12.303 -1.06736
-14.5214 -13.3724 -1.19431
-15.8841 -12.1275 -1.96244
-18.6836 -11.3179 0.13238
-16.4793 -13.4693 1.94495
-16.3551 -14.1517 2.95864
-16.5599 -12.5079 1.6834
-17.9405 -15.4631 1.41839
-18.1123 -11.1729 1.51232
-15.0925 -10.981 1.07087
-17.4113 -11.2348 1.86362
-17.5122 -14.2228 0.567829
-15.8603 -11.4585 3.71792
-15.5212 -12.5888 1.45571
-16.0818 -12.22 0.963275
-16.2942 -13.5362 1.85097
-14.4731 -11.9121 -0.428954
-17.0459 -10.6046 0.880535
-17.151 -13.7492 -2.79563
-15.626 -13.5554 -1.3176
-16.3243 -11.4325 -0.56261
-16.6809 -12.1112 -1.42174
-16.0602 -12.3738 1.4877
-17.8677 -13.8201 2.42212
-16.4424 -12.5597 0.0663845
-15.8983 -13.9279 1.14476
-17.4276 -11.9421 0.919512
-15.3096 -10.8961 -0.6504
-15.4484 -13.7546 -1.70895
-15.6619 -12.7456 0.725968
-15.7495 -13.7685 -1.04817
-16.5439 -12.1072 -1.87894
-15.2831 -14.7219 -1.35727
-13.5393 -13.1363 -1.73702
-17.6471 -14.2363 -0.660836
-16.6191 -12.3581 1.25168
-14.8781 -13.693 -0.113063
-14.437 -11.0266 1.97087
-14.6585 -11.6899 1.64365
-15.2632 -14.5457 2.83805
-14.5428 -14.8492 1.35437
-16.6029 -11.3308 2.46447
-15.0261 -12.1823 -0.64693
-14.4833 -12.3826 -2.24452
-13.5873 -12.2377 -1.94746
-13.6939 -12.651 0.442491
-15.4438 -12.7945 0.354586
-14.9212 -10.2797 0.657357
-15.5639 -11.7111 -2.04474
-15.1799 -14.2494 -1.79879
-14.7392 -13.0517 0.160966
-14.0377 -12.8762 1.18138
-14.5511 -12.8218 0.44947
-13.5779 -11.9027 0.438842
-13.5394 -14.1974 -3.51791
-14.9637 -13.3127 -1.02319
-16.2082 -14.3473 -1.5348
-14.1816 -14.3892 0.895705
-12.6315 -13.5729 -0.139328
-12.4134 -11.2774 -0.818458
-11.8592 -12.6677 -2.4339
-13.1146 -12.6838 -3.90637
-11.7249 -12.5654 0.249404
-13.1091 -12.8316 -1.51607
-12.036 -14.0366 -1.15161
-12.626 -15.8935 -3.6047
-11.6782 -14.4318 -0.996682
-13.0849 -12.5674 -0.83762
-14.4867 -13.8437 -0.371648
-11.9317 -13.8965 -1.3954
-13.1939 -12.9312 -0.202018
-11.6854 -12.4946 0.079133
-10.9132 -13.9983 0.393757
-13.1533 -11.8003 -0.405109
-12.5454 -12.523 1.63406
-17.3174 -13.4015 1.37235
-17.6117 -10.8892 -2.5933
-17.7318 -12.1817 -0.535481
-16.2595 -11.7384 1.20472
-17.9927 -12.1872 0.29172
-17.7699 -10.9992 -1.03453
-17.9766 -11.1098 -1.10775
-16.8041 -10.9765 -2.37322
-14.6554 -12.7296 -2.54733
-15.8061 -12.3481 -2.02754
-16.8956 -11.4165 -2.71299
-16.7384 -11.306 -0.570722
-17.5255 -10.2936 0.984473
-17.3688 -11.9969 -2.40211
-15.3687 -14.2778 1.46828
-16.9665 -11.4071 2.66223
-15.1576 -12.2744 -2.61938
-16.3052 -12.4026 0.639835
-16.4634 -11.8044 0.191366
-17.6531 -12.9298 0.308048
-16.7127 -11.634 -0.0686831
-13.634 -11.576 0.762745
-17.193 -13.6698 2.89772
-16.6785 -12.9408 0.19283
-18.0981 -13.7417 1.42083
-17.4358 -14.9976 0.515836
-16.8502 -12.1237 -0.551181
-16.1028 -14.7655 -0.530295
-16.2443 -13.1459 1.23279
-16.5404 -13.6438 1.93325
-17.931 -13.427 0.837597
-14.4814 -11.7622 -0.338781
-15.176 -11.7395 -1.97683
-15.6059 -12.6276 -1.18962
-15.7379 -13.0347 -1.9973
-15.3215 -11.9968 -2.92929
-16.1639 -12.8125 3.02067
-16.2153 -13.0259 1.7596
-16.7103 -12.1135 -1.69206
-17.4858 -12.7618 2.27817
-13.2856 -12.6325 -1.04279
-13.7208 -13.6383 -0.038557
-18.3228 -12.3792 0.365221
-14.0862 -13.3688 -1.84983
-15.6423 -11.4726 2.16704
-14.4746 -12.847 -1.65116
-16.07 -12.6856 0.103552
-16.1277 -11.023 1.33292
-16.4782 -10.9523 0.239098
-17.0406 -13.7547 -0.814085
-16.1082 -12.8379 1.89399
-14.9657 -12.4117 -3.26654
-15.4635 -11.1881 1.53817
-12.8712 -11.9704 -2.50577
-14.3834 -13.0588 2.63889
-15.0392 -10.4361 -0.968211
-14.7443 -13.1736 1.671
-14.0559 -12.5443 0.315378
-15.1525 -14.2925 -0.501882
-15.9667 -13.0347 1.69968
-13.1157 -13.6867 -0.260432
-14.2501 -12.5838 0.642648
-14.7692 -13.9957 -0.13581
-14.9353 -11.7087 0.0693006
-15.0006 -12.7932 2.85617
-11.862 -13.3147 -2.03561
-10.996 -12.0222 -2.83871
-13.6317 -14.073 -6.11069
-13.4203 -13.2111 -2.76786
-14.3772 -13.5481 -0.251841
-14.6796 -13.8312 1.25738
-12.9555 -13.0789 0.219446
-15.2775 -12.7788 -0.368703
-14.8002 -13.175 0.551026
-14.3869 -12.0614 0.575471
-13.7958 -13.9599 1.85457
-13.8088 -12.4409 -1.29253
-13.3849 -14.2124 1.45414
-13.004 -11.6681 -1.05197
-14.1629 -12.9313 -0.550391
-11.6232 -12.8613 0.288323
-13.761 -14.4058 0.302193
-14.1835 -12.7705 -0.894799
-14.657 -13.5128 1.76432
-12.0231 -14.4657 -1.19463
-12.7956 -14.5359 -1.55279
-14.9876 -14.6668 -1.26987
-11.8778 -15.024 -2.49105
-13.1951 -12.1522 2.84103
-11.4143 -10.1506 2.20511
-11.5834 -11.2089 0.71974
-14.862 -12.3357 1.83276
-13.683 -11.8772 2.60672
-14.1483 -11.2456 2.09705
-12.6463 -13.1263 0.949689
-17.7302 -13.361 0.573064
-16.8408 -12.3864 0.0936335
-17.6303 -12.5643 -0.4176
-17.8909 -12.8988 -0.643846
-16.2191 -12.9045 -0.409055
-17.1991 -12.9573 1.23668
-18.0928 -10.9926 -2.3954
-16.3334 -14.0737 1.01074
-16.234 -12.5508 1.9331
-17.1142 -11.6416 -2.62468
-17.0174 -12.3318 -2.49405
-19.4651 -13.3987 2.5844
-16.0592 -13.3973 -0.499301
-14.4946 -13.4107 -0.177304
-15.6005 -12.7129 -1.71518
-15.8698 -11.4157 -1.19515
-17.2824 -12.5927 -0.147093
-15.7444 -11.8018 -0.0473585
-15.6146 -14.3386 -2.18323
-13.7013 -13.0728 -1.28545
-13.9782 -14.6548 2.31477
-16.9251 -12.7173 -1.8387
-13.539 -13.4035 -2.29853
-14.3008 -11.3538 -1.41306
-13.687 -11.0145 -1.81513
-16.3977 -12.9837 -0.027711
-14.8983 -11.5133 0.383149
-15.4084 -11.8244 1.74845
-14.9382 -12.5299 0.62968
-15.5036 -11.9 1.0057
-15.46 -12.6249 -0.232688
-17.227 -13.2079 0.744956
-14.4004 -12.2187 1.64308
-15.6322 -12.5709 -0.240343
-13.9139 -13.7791 -1.86036
-16.2286 -13.0521 -2.23687
-14.4869 -14.246 0.0944293
-13.1294 -14.8201 -1.24086
-13.7165 -12.8282 -0.606878
-14.2021 -14.3593 -0.0134766
-14.024 -13.4166 -1.45665
-15.8203 -11.8648 1.65433
-12.3785 -12.064 2.31219
-13.921 -12.0393 0.307132
-14.4903 -15.2404 -1.14857
-13.6633 -13.7492 -0.730928
-13.4841 -13.5137 -0.859776
-13.4934 -13.838 -0.8349
-12.6932 -12.8781 -0.844363
-14.4976 -14.5518 -0.800291
-14.6231 -13.4355 0.754873
-11.2456 -13.5577 0.844227
-12.9194 -10.4763 1.57687
-12.1007 -11.078 1.90736
-13.7818 -14.7989 -1.17427
-11.6806 -12.0371 1.65678
-12.3056 -11.6007 1.70487
-17.1286 -13.4357 -2.33119
-16.145 -13.3775 -1.97284
-16.8695 -12.7976 -0.29216
-18.5971 -12.3611 -0.136419
-18.2482 -12.1264 -0.244802
-18.8833 -13.4038 1.07888
-16.431 -12.5662 -0.632093
-17.5601 -11.579 -0.090295
-16.5606 -15.4471 -3.21697
-18.5177 -11.8571 0.36753
