-11.9814 -15.6788 -2.51664
-10.9592 -16.9009 -1.09893
-11.9139 -15.4515 -2.18356
-10.7065 -17.1803 -0.805523
-12.8717 -14.6602 -3.23765
-11.0336 -16.7134 -1.00401
-10.7635 -16.7907 -0.834988
-13.0477 -14.3183 -3.09226
-13.3328 -13.7663 -3.6772
-12.3474 -14.9737 -2.43198
-11.3155 -16.1822 -1.55281
-12.8285 -14.3952 -2.86009
-13.6145 -13.4852 -3.3883
-12.8639 -14.438 -2.70453
-11.1074 -16.654 -0.868612
-10.982 -16.9037 -0.770729
-11.3939 -16.2404 -1.22213
-13.8969 -13.1404 -3.72613
-10.8427 -17.2372 -0.556677
-11.2297 -16.467 -1.07244
-10.5685 -17.1057 -0.376016
-11.2378 -16.7283 -0.923142
-13.771 -13.2955 -3.72999
-11.0852 -16.6442 -0.805045
-11.0541 -16.9958 -0.499289
-13.1774 -14.0713 -2.81173
-11.0596 -16.9008 -0.654175
-10.8484 -17.0775 -0.478778
-10.8993 -16.999 -0.582067
-11.2147 -16.9416 -0.39084
-11.1358 -16.8735 -0.504327
-11.1651 -16.6904 -0.42589
-11.225 -16.6357 -0.646674
-11.1745 -16.8428 -0.473503
-10.9003 -17.1173 -0.312247
-13.5895 -13.748 -2.62296
-11.4532 -16.6739 -0.500062
-11.3845 -16.5442 -0.500743
-11.5365 -15.674 -0.191479
-12.0143 -15.001 -0.841087
-12.0608 -15.0365 -0.67466
-14.0228 -13.5065 -2.21819
-13.926 -13.5351 -2.27135
-14.694 -12.7807 -2.678
-11.0881 -17.0203 0.173295
-13.6859 -14.0464 -1.87926
-11.5637 -15.5026 -0.0195786
-11.2171 -16.9001 0.234407
-12.2237 -14.8169 -0.486571
-11.5796 -15.6118 0.0420875
-11.5569 -15.679 0.0452484
-11.4821 -15.5115 0.104079
-11.8347 -15.9157 0.160144
-12.0962 -14.7218 -0.373941
-14.4268 -13.3204 -2.24161
-14.2969 -13.1553 -2.13009
-14.3758 -13.1995 -2.29502
-14.5074 -13.2634 -2.20159
-14.1051 -13.5388 -1.63474
-14.783 -12.6909 -2.46032
-14.0144 -13.6987 -1.77205
-12.2119 -15.3957 -0.0601688
-11.6889 -16.0431 0.425221
-14.5791 -13.1935 -1.97115
-11.5672 -16.8113 0.623221
-14.5472 -13.1019 -1.66748
-14.3831 -13.5592 -1.32246
-12.4825 -15.2212 0.131696
-13.7469 -14.1914 -0.895566
-14.2905 -13.7576 -0.96611
-11.7433 -15.9424 0.746818
-15.2162 -12.6405 -1.79648
-13.1311 -14.3902 0.0105935
-13.9128 -14.0557 -0.542018
-13.4722 -14.2798 -0.0248272
-14.3923 -13.7064 -0.522459
-12.4225 -15.5924 1.04014
-15.4519 -12.8426 -0.846336
-12.5311 -15.4293 0.930429
-12.2863 -15.5767 1.16826
-12.3249 -15.5863 1.29714
-12.3018 -15.558 1.20138
-12.0261 -16.0828 1.2107
-12.5079 -16.1093 1.21026
-13.7037 -14.3359 0.510998
-12.5755 -16.0687 1.36561
-13.1284 -14.6573 0.80694
-12.7214 -15.2513 1.10915
-12.3467 -16.0563 1.46457
-12.5634 -15.0845 1.50655
-12.4609 -14.835 1.35954
-12.6087 -14.7839 1.63356
-12.8003 -15.2347 1.51845
-12.6155 -15.8086 1.71763
-13.3028 -14.7198 1.32706
-12.4597 -15.5256 1.6555
-13.807 -14.3702 0.867212
-13.4018 -14.8449 1.21302
-13.8667 -14.6472 0.93162
-13.9356 -14.253 1.12567
-13.3901 -14.8408 1.42073
-15.1765 -13.2135 0.469189
-15.5884 -12.9991 0.383729
-15.576 -12.9202 0.51238
-16.5876 -11.8363 0.107292
-15.609 -13.0912 0.67709
-15.6377 -12.9604 0.697604
-14.4064 -13.5 1.50865
-11.9411 -13.4335 2.8331
-11.8979 -13.5966 3.15467
-16.4848 -11.7744 1.61032
-12.3078 -13.3871 3.21403
-12.312 -13.8291 3.39041
-10.4646 -16.978 -1.37009
-10.2285 -17.4514 -0.799677
-10.5849 -17.2062 -0.959786
-11.0397 -16.4423 -1.60251
-10.5083 -17.2522 -0.830966
-11.8277 -15.6416 -1.90799
-10.7762 -16.7399 -1.13132
-11.9555 -15.3879 -2.46497
-11.0803 -16.5616 -1.22661
-10.8037 -16.9162 -1.23495
-12.0354 -15.1251 -2.47816
-12.1867 -14.9852 -2.50523
-12.1596 -14.9805 -2.33282
-11.296 -15.8552 -1.09337
-12.8466 -14.3574 -2.66179
-13.7435 -13.3767 -3.49712
-11.0683 -16.857 -0.739767
-11.1763 -17.0118 -0.625162
-11.0117 -16.9366 -0.556488
-10.8782 -16.7725 -0.527793
-10.8034 -16.9305 -0.282868
-10.7613 -17.0666 -0.379986
-10.8793 -16.8242 -0.47745
-11.0066 -16.9948 -0.6028
-14.0638 -13.2334 -3.66886
-10.7932 -16.9685 -0.299708
-11.1377 -16.8856 -0.542169
-12.9259 -14.4116 -2.19613
-10.9796 -16.4259 -0.337652
-11.1952 -16.8052 -0.349822
-13.4072 -14.4721 -2.56474
-11.4472 -15.4238 -0.620108
-14.3495 -12.8222 -3.30145
-14.3252 -12.9873 -3.32002
-11.2505 -16.6957 -0.369462
-11.1602 -16.5979 -0.319684
-11.0009 -17.1452 0.132998
-13.6704 -13.843 -2.22708
-13.7585 -13.9607 -2.35384
-14.1968 -13.1888 -2.60135
-11.418 -15.7752 -0.0165281
-11.5691 -15.5815 0.0310139
-11.6063 -15.6369 -0.00021749
-14.4532 -13.209 -2.11448
-14.4573 -13.314 -2.15709
-12.4225 -14.6025 -0.386893
-14.0601 -13.5731 -1.84425
-15.0544 -12.6944 -2.43614
-14.2938 -13.1555 -2.05069
-14.0034 -13.8548 -1.48321
-11.7321 -16.7361 0.676268
-12.2272 -15.3732 0.424337
-12.1785 -15.3839 0.220582
-11.8515 -15.9152 0.540494
-14.5507 -13.4608 -1.25099
-12.0252 -16.0855 0.664353
-12.0165 -16.2407 0.711271
-12.6001 -15.2672 0.0889996
-15.2051 -12.7636 -1.51386
-15.3307 -12.7289 -1.79604
-14.4311 -13.4679 -0.880284
-11.931 -16.2795 0.869596
-12.5526 -15.2751 0.521767
-12.3006 -15.6237 0.832931
-12.0656 -16.3997 1.12999
-11.8832 -16.1323 1.29612
-13.7029 -14.4221 0.440915
-15.0234 -13.2686 -0.567476
-13.6344 -14.5886 0.270919
-12.3642 -15.5704 1.27106
-12.3773 -16.0543 1.04651
-13.7042 -14.4866 0.308618
-13.9517 -14.3097 0.505286
-12.5678 -15.1091 1.45378
-12.9932 -14.8644 1.05797
-12.9987 -14.7719 1.12521
-13.6307 -14.5743 1.10904
-12.6243 -15.1195 1.29366
-12.7239 -15.6015 1.61021
-12.7156 -14.9894 1.59973
-12.6561 -15.6598 1.72933
-12.9728 -14.9313 1.37531
-12.3225 -16.041 1.90502
-12.6712 -15.8438 1.8317
-13.1995 -14.8144 1.477
-14.3904 -13.6633 1.05786
-16.0154 -12.6172 0.219852
-14.312 -13.589 1.26777
-12.7133 -15.236 2.108
-12.9909 -15.046 2.00366
-14.1804 -13.4176 1.43875
-16.2915 -12.6195 0.779745
-12.5151 -15.3963 2.39484
-17.2265 -11.6444 1.13107
-12.0657 -15.2521 -2.32479
-10.542 -17.4105 -0.427574
-13.2128 -14.1375 -3.23187
-12.5947 -14.6911 -2.71254
-12.6624 -14.8257 -2.44624
-10.8134 -17.1757 -0.75765
-11.5776 -14.908 -1.56048
-11.7469 -14.9551 -1.65024
-11.7977 -15.0465 -1.58084
-13.5703 -13.697 -3.4027
-13.1123 -13.7032 -3.24274
-11.2303 -16.7404 -0.517429
-10.7912 -17.1524 -0.21688
-11.2008 -16.7522 -0.422881
-11.3567 -16.6957 -0.376912
-11.0514 -16.9372 0.0944694
-13.2834 -14.3372 -1.69433
-11.3959 -15.5505 -0.199889
-12.2299 -15.0391 -0.437172
-11.6905 -15.695 0.00609954
-11.6424 -15.6892 -0.0695092
-12.2229 -14.6861 -0.42797
-14.5313 -12.999 -2.42116
-12.7599 -14.1197 -0.81989
-11.7348 -15.7044 0.331281
-14.0908 -13.6914 -1.66869
-14.597 -13.137 -1.88248
-11.9172 -16.2173 0.327675
-12.2984 -14.9799 -0.180594
-12.2344 -15.4539 0.317067
-14.5064 -13.5669 -0.58802
-13.5663 -14.3987 0.20942
-12.8883 -14.9059 0.672903
-12.0691 -16.1843 1.11795
-13.0974 -14.7122 1.01434
-12.4232 -15.6035 1.61236
-15.4882 -12.5705 -0.369634
-13.2633 -14.7101 1.04276
-12.5382 -15.0851 1.59747
-12.7927 -15.2956 1.44622
-12.7215 -15.2181 1.49838
-12.6139 -15.1986 1.39673
-12.7616 -15.0444 1.58286
-12.5303 -15.2852 1.52214
-13.2301 -14.9169 1.38699
-12.239 -15.749 1.77409
-14.4847 -13.7012 0.90729
-12.7153 -15.3385 2.22547
-13.9063 -13.8099 1.49722
-13.9575 -14.0503 1.73354
-13.4351 -14.4143 1.83168
-12.961 -14.9305 2.02471
-12.6537 -15.134 2.24601
-13.035 -15.1859 2.04481
-12.4405 -13.3785 3.10858
-16.5409 -12.091 1.67072
-12.2897 -13.6722 3.39241
-10.4019 -17.3793 -0.894094
-10.4006 -17.3217 -0.942392
-10.9108 -16.5906 -1.44507
-10.628 -17.032 -1.08574
-11.7932 -15.7957 -1.97825
-10.7436 -17.2865 -1.01592
-10.7377 -16.8871 -0.993383
-11.4835 -16.4832 -1.51321
-12.1329 -15.2135 -2.23498
-12.2811 -15.1823 -2.30501
-12.168 -14.919 -2.4877
-11.3333 -15.5426 -1.23863
-12.8909 -14.1562 -2.92319
-11.3069 -16.522 -1.09724
-13.1982 -14.2436 -3.04507
-11.2349 -15.1564 -1.20796
-10.8874 -15.7858 -0.430046
-13.2523 -14.3031 -2.3055
-12.0672 -14.4691 -1.12431
-13.827 -13.7066 -2.5305
-11.3019 -15.8352 -0.255635
-14.1017 -13.3534 -2.57939
-11.1406 -17.0837 -0.018483
-14.5768 -12.9731 -2.55925
-11.423 -16.1737 0.469506
-11.5375 -16.9135 0.3521
-12.4718 -14.6598 -0.13393
-12.5249 -15.1219 0.125965
-11.7881 -16.4083 0.656358
-12.4334 -15.0098 0.537149
-12.0146 -16.2245 1.07738
-12.6027 -15.1408 0.502196
-11.8804 -16.1903 1.45087
-12.3799 -15.6396 1.07
-13.8721 -13.7403 0.155589
-13.4124 -14.6755 1.12054
-15.366 -13.1318 0.364257
-14.0607 -13.7729 1.50654
-14.2013 -13.5416 1.31753
-14.2183 -13.5561 1.39516
-12.4781 -15.2868 2.18393
-14.6296 -13.1982 1.25475
-10.9457 -16.8745 -1.20727
-12.7214 -14.5803 -2.74805
-11.3061 -15.6915 -0.867401
-10.9958 -15.5925 -0.657551
-10.9542 -16.9156 -0.548027
-11.3253 -15.6982 -0.315132
-11.6834 -15.8403 -0.169331
-14.0574 -13.4182 -1.96825
-12.0937 -15.2685 -0.155636
-14.6937 -12.8664 -1.60512
-11.6331 -16.2781 0.623416
-13.7905 -13.7125 -0.000458541
-13.0785 -14.8219 0.840422
-12.4062 -15.5662 1.39588
-14.8744 -13.5649 0.300394
-14.1962 -14.2834 1.17564
-14.0437 -13.9752 1.57225
-11.0246 -16.8152 -1.01162
-11.1331 -15.6441 -0.863602
-11.3068 -15.9635 -0.281744
-11.3474 -16.2137 0.437663
-11.5744 -16.7635 0.610996
-12.554 -15.1964 0.204544
-12.2371 -15.6511 1.35656
-12.6172 -15.2291 1.19453
-12.8357 -14.8296 1.45146
-13.4042 -14.9851 1.14498
-13.9504 -13.7162 1.69401
-12.7027 -15.2529 2.0997
-10.4245 -17.4109 -0.7082
-11.2419 -17.0334 -0.190445
-14.7699 -13.14 -1.69466
-12.5161 -15.1927 0.156169
-11.5958 -15.4304 0.0213875
-12.0509 -15.1019 -0.340962
-12.7243 -14.6684 -0.931391
-11.61 -16.1993 0.27179
-12.5852 -15.2718 -0.0149769
-12.5071 -15.1583 0.729715
-13.7832 -13.7716 0.360918
-12.7237 -15.2941 1.26267
-12.3684 -15.8715 1.70342
-11.6207 -16.0537 0.327129
-11.2592 -16.019 -0.380465
-11.3522 -15.7419 -0.475464
-11.6447 -15.9805 0.212935
-11.7233 -16.204 0.855266
-12.7235 -15.0661 0.553941
-12.9385 -15.08 1.12094
-12.6732 -14.9735 0.0731396
-12.1076 -15.6822 0.6028
-12.1335 -15.3943 0.680959
-12.0525 -16.3399 0.722449
-12.0805 -15.9755 1.0851
-12.8657 -14.9465 1.24679
-14.4145 -13.4471 0.972333
-11.6239 -15.6728 0.117897
-12.9103 -15.3644 1.27481
-12.6289 -15.5572 1.66268
-14.2314 -13.9062 0.416066
-11.5272 -16.1657 0.681538
-15.2504 -11.998 -3.0483
-15.1226 -12.0926 -2.78963
-15.2598 -12.1836 -2.87918
-13.4913 -13.32 -3.18228
-13.5781 -13.6618 -3.27781
-13.0375 -14.1658 -3.43383
-12.8138 -14.2993 -3.25682
-14.1732 -13.3359 -2.8363
-13.3173 -14.1268 -3.02121
-13.2523 -13.9705 -2.98945
-14.1879 -13.2666 -2.47658
-14.7379 -12.7222 -2.50949
-13.227 -14.0754 -2.68884
-13.6275 -14.0708 -2.74068
-12.737 -14.6629 -2.94386
-15.7758 -12.1167 -2.00767
-14.0744 -13.3696 -2.405
-14.0355 -13.4273 -2.42088
-13.8632 -13.5781 -2.31759
-12.9861 -14.17 -2.56391
-12.5197 -14.7237 -2.67741
-12.3421 -14.9562 -2.65318
-14.6918 -13.1066 -2.01728
-12.4611 -14.8626 -2.69247
-12.9399 -14.3793 -2.19179
-13.0844 -14.4672 -2.25841
-14.9582 -12.8069 -1.63861
-14.7599 -13.2225 -1.15339
-16.3672 -11.8636 -0.67008
-16.3829 -11.7356 -0.74848
-16.5704 -11.9345 -0.605232
-13.7449 -14.0763 -1.68127
-12.9192 -14.4208 -0.735363
-15.1724 -13.1688 -0.430238
-11.2276 -15.7879 -1.1753
-15.4033 -13.0177 -0.269018
-15.643 -12.4627 -0.310545
-12.2181 -14.6581 -0.57713
-11.457 -16.2061 -1.62487
-11.0377 -15.8047 -0.819039
-15.8924 -12.6397 0.170011
-11.457 -16.3347 -1.41157
-11.3512 -16.3903 -1.39348
-15.3007 -13.2249 0.199969
-17.1558 -11.6157 1.06083
-11.6086 -16.4314 -1.31726
-13.1939 -14.6584 -0.247146
-17.0992 -11.5044 0.839024
-16.1006 -12.5155 0.440537
-16.8715 -11.5569 1.25134
-16.957 -11.8441 1.31079
-11.2409 -16.3949 -1.27989
-10.8287 -16.5922 -1.55011
-13.44 -14.2112 0.193038
-11.1716 -16.5508 -1.12347
-15.5223 -13.1234 0.465684
-11.3696 -15.6257 -0.0360059
-13.7413 -14.2236 0.123213
-15.5959 -13.026 0.568764
-15.1858 -13.4706 0.422604
-16.7202 -11.9838 1.66489
-11.0569 -16.6698 -1.02315
-15.3577 -13.3291 0.627584
-16.4961 -12.1066 1.41778
-10.7639 -16.8777 -1.03335
-10.8909 -16.7829 -1.21074
-10.4217 -16.9951 -1.13793
-16.7743 -12.0896 1.32666
-11.4225 -15.7117 0.0460554
-14.1067 -13.8422 0.71873
-11.3467 -16.6495 -1.13829
-11.2175 -16.6022 -1.05519
-11.6036 -15.666 0.147494
-11.2385 -16.7423 -0.985351
-12.6844 -12.8941 2.91637
-12.9138 -14.6136 0.650391
-10.5468 -17.1714 -0.99455
-10.5124 -17.2029 -1.11112
-11.0146 -16.7925 -0.77556
-12.3159 -13.3748 2.89262
-10.5883 -17.0475 -0.902999
-12.5886 -15.2735 0.349597
-12.3273 -15.1983 0.46512
-12.3779 -15.0216 0.664067
-12.1514 -13.5984 2.97681
-11.2568 -16.4749 -0.541722
-14.1266 -13.7526 1.77939
-13.0599 -14.7172 0.703974
-14.3777 -14.1837 0.841964
-12.9567 -14.5798 0.782653
-12.7289 -15.1766 0.728647
-10.8593 -16.2999 0.193396
-10.8119 -16.984 -0.534328
-12.4054 -13.1862 3.19886
-13.08 -14.6512 0.798519
-10.8726 -16.8361 -0.66319
-10.5437 -17.3878 -0.720177
-11.1159 -16.9051 -0.515044
-10.9719 -17.1245 -0.452257
-12.2507 -13.6968 3.20103
-13.7409 -14.2883 1.81152
-12.5924 -15.2285 1.02928
-12.1977 -13.6306 3.11834
-10.7092 -17.2744 -0.451165
-13.3148 -14.7539 1.27938
-12.1503 -13.8194 3.3609
-12.1003 -13.8005 3.14742
-12.5296 -15.2065 1.09443
-13.7244 -14.1625 1.86578
-12.5655 -15.195 1.25044
-10.7773 -17.209 -0.381943
-12.5557 -15.4383 0.919946
-13.3353 -14.8739 1.44096
-12.1664 -15.4804 1.04002
-12.815 -15.1752 1.2242
-13.6085 -14.359 2.04883
-11.2018 -16.8895 -0.130774
-10.8022 -17.234 -0.126162
-12.1568 -15.7101 1.13922
-12.6096 -15.2912 1.62361
-12.5291 -15.3919 1.44459
-11.4467 -16.8042 0.160014
-12.5868 -15.1857 1.74932
-12.2232 -15.5649 1.31663
-11.4022 -16.9756 0.41742
-12.6371 -15.308 1.64527
-13.1891 -15.1266 2.11154
-12.545 -15.5291 1.77343
-12.4049 -15.7409 1.56964
-12.4265 -16.1044 1.45175
-12.5565 -15.2745 2.30738
-12.3764 -15.5282 2.30511
-13.7182 -13.3374 -3.68463
-13.4759 -13.4264 -3.62907
-14.0319 -13.3417 -3.39183
-13.245 -13.9121 -3.39546
-13.1843 -13.7275 -3.25138
-13.7496 -13.6538 -3.23496
-14.2978 -13.1185 -2.86086
-13.5183 -13.8274 -3.07571
-12.9934 -14.3084 -3.11409
-14.2765 -13.1968 -2.59761
-15.8121 -11.9102 -1.71308
-15.7364 -11.8304 -1.81225
-12.5665 -14.5567 -2.76488
-12.6691 -14.6821 -2.65929
-14.6106 -13.1197 -2.23401
-12.3797 -15.0355 -2.44101
-13.6325 -13.8135 -2.18451
-13.0128 -14.2611 -2.24623
-12.8372 -14.903 -2.3719
-12.6573 -14.7659 -2.5444
-14.6743 -13.1918 -1.85374
-12.3504 -15.3514 -2.48801
-14.1177 -13.592 -1.84973
-12.1122 -15.108 -2.50459
-11.8567 -15.657 -2.20513
-12.0479 -15.6468 -2.00977
-11.8474 -15.6274 -2.08838
-13.4204 -14.3917 -1.79981
-13.1993 -14.5075 -1.67902
-13.222 -14.5761 -1.6414
-15.373 -12.6907 -0.92393
-15.4146 -12.7257 -0.695713
-11.4117 -15.9002 -1.92229
-11.2855 -15.6733 -1.10645
-14.7618 -13.1516 -0.582847
-12.9944 -14.4107 -0.599059
-14.1699 -13.9273 -0.876828
-12.0451 -14.9758 -0.362891
-11.9691 -15.2432 -0.302773
-11.2921 -16.1536 -1.65758
-11.3506 -16.3228 -1.37105
-16.9163 -11.5827 0.573232
-13.1721 -14.4444 -0.338405
-12.9803 -14.5678 -0.190437
-12.2494 -14.8708 -0.305929
-11.3763 -16.2401 -1.33344
-13.4852 -14.114 0.302479
-11.2455 -16.3832 -1.34067
-11.322 -16.4099 -1.05054
-16.0109 -12.7323 0.636838
-12.284 -15.0168 -0.205699
-12.1987 -15.2179 -0.189243
-15.8027 -12.8934 0.353184
-11.7247 -15.4245 -0.124041
-11.0615 -16.3338 -1.22409
-11.2441 -16.4519 -1.05887
-11.5793 -15.5893 -0.151068
-16.6467 -11.9141 1.6042
-15.6855 -13.086 0.565654
-11.5571 -15.7914 0.18456
-14.7888 -12.1168 2.23118
-11.6211 -15.5828 0.125797
-14.0512 -14.2811 0.618443
-10.948 -16.6774 -0.994905
-12.5332 -13.1017 2.82876
-12.3919 -13.2154 2.73718
-10.7391 -16.9629 -0.991573
-11.5751 -15.721 0.24299
-12.2731 -13.4469 3.08119
-12.2348 -13.2887 2.72348
-13.6591 -14.3568 0.699888
-10.6136 -17.2708 -1.00331
-13.8511 -14.2192 0.861293
-10.6779 -17.0544 -0.897857
-11.001 -16.9221 -0.69773
-10.8284 -17.1823 -0.871368
-13.0284 -14.685 0.878578
-12.1918 -13.266 2.77133
-10.4882 -17.4823 -1.01213
-13.1383 -14.7074 0.843344
-11.1885 -16.7899 -0.594223
-12.9035 -14.9409 0.741826
-10.8245 -16.9977 -0.607205
-12.5182 -13.3314 3.13091
-12.0826 -15.6246 0.735706
-10.2806 -17.5704 -0.824168
-11.3286 -16.8235 -0.293898
-10.8828 -17.1962 -0.587569
-13.8316 -14.5254 0.975797
-10.671 -17.3432 -0.453785
-13.2464 -14.6471 1.22279
-10.8513 -17.1611 -0.353075
-13.254 -14.7383 1.47493
-13.2264 -14.8785 1.18664
-11.1003 -16.8408 -0.0390815
-11.1354 -16.8693 0.0671755
-12.872 -15.2791 1.10772
-12.7644 -14.8963 1.47972
-12.6007 -15.1918 1.48753
-11.0837 -17.1697 -0.0534449
-12.3504 -15.4879 1.09839
-11.8307 -16.0269 0.702873
-12.3186 -15.7706 1.19226
-12.3167 -15.6085 1.28708
-11.4515 -16.7 0.248364
-12.5241 -15.6413 1.42991
-12.8224 -14.7484 1.95034
-12.6865 -15.5354 1.76479
-12.7655 -15.5532 1.85907
-12.4584 -15.657 1.51819
-12.4733 -15.6744 1.56443
-12.5338 -15.6829 1.75392
-13.0477 -15.1205 2.27204
-12.4345 -15.8072 1.45678
-12.4427 -15.9196 1.536
-13.7378 -13.0971 -3.46804
-13.8831 -13.3063 -3.30416
-13.6498 -13.5295 -3.26101
-12.9216 -14.4075 -3.09774
-13.3904 -13.9889 -2.77029
-12.6201 -14.7065 -2.75721
-14.5043 -13.1013 -2.25398
-14.3722 -13.2802 -2.0948
-13.8186 -13.91 -2.35061
-13.1863 -14.421 -2.48071
-13.1001 -14.4737 -2.30428
-13.016 -14.5339 -2.05379
-14.1035 -13.7276 -1.74512
-13.416 -14.1213 -1.86782
-14.5601 -13.3808 -1.26359
-12.9304 -14.347 -0.840195
-13.9828 -13.9692 -1.22107
-11.8026 -15.2978 -1.05356
-11.0951 -15.7018 -1.10424
-12.3276 -14.7492 -0.77148
-15.1652 -13.0352 -0.514644
-11.3756 -15.456 -0.964869
-16.6152 -11.7622 0.273546
-11.2875 -15.5415 -0.784344
-11.3879 -15.7961 -1.13131
-11.2125 -15.7577 -1.17527
-11.443 -15.5891 -0.976641
-12.3207 -14.9033 -0.347902
-11.2542 -15.4236 -0.534448
-12.1011 -14.8147 -0.341981
-13.769 -13.6667 0.291422
-16.9078 -11.6976 0.899476
-15.2669 -13.2779 0.0901918
-15.1229 -13.1491 -0.0710254
-15.6418 -13.2296 0.307895
-11.6202 -15.5973 -0.185413
-11.5491 -15.4712 0.0383736
-15.6704 -13.1133 0.626601
-11.5186 -15.5221 -0.00360976
-11.6228 -15.629 -0.182295
-15.9864 -12.9465 0.732618
-15.5727 -13.1252 0.743186
-12.3465 -15.2764 0.141187
-10.8171 -17.0197 -1.08008
-11.7152 -15.8038 0.0350562
-13.1894 -14.8663 0.409702
-14.2377 -13.494 1.48186
-10.7906 -16.8934 -1.0088
-11.082 -16.8554 -0.787213
-14.3811 -13.6677 1.34565
-13.0086 -14.8306 0.57693
-13.2428 -14.7167 0.645477
-13.6374 -14.5629 0.778146
-13.7442 -14.5354 0.837079
-13.7026 -14.5264 0.886696
-13.034 -14.7104 0.902286
-10.4865 -17.2796 -0.677692
-10.2142 -17.5721 -0.810412
-11.1254 -17.0061 -0.511785
-12.9054 -14.739 1.21567
-13.1835 -14.7317 1.1628
-13.2106 -14.8989 0.953268
-11.3784 -16.9297 -0.127628
-12.5436 -15.2568 0.889715
-12.6822 -15.2298 1.42237
-13.21 -14.831 1.32326
-13.56 -14.3153 1.78635
-12.2543 -15.6372 1.12459
-13.3427 -14.8297 1.51853
-12.0564 -15.7088 1.25233
-11.8378 -16.0712 0.734371
-11.1369 -17.1083 0.138691
-12.5113 -15.268 1.67959
-11.4108 -16.9338 0.458197
-12.9543 -14.9416 2.19028
-12.5169 -15.7644 1.52361
-12.3593 -15.9934 1.7231
-12.8885 -15.0735 2.29293
-12.2881 -16.27 1.41211
-13.1306 -14.944 2.41953
-12.7718 -15.2714 2.32188
-13.9893 -13.1598 -3.67283
-13.238 -14.0531 -2.85932
-14.6087 -12.8321 -2.31062
-12.5341 -14.9648 -2.82668
-13.3447 -14.0416 -2.51918
-12.6482 -14.8181 -2.43468
-14.4747 -13.2063 -1.7447
-11.8427 -15.1467 -1.64345
-11.7901 -15.3711 -2.26441
-12.4544 -14.3489 -0.993749
-12.1839 -14.6327 -1.11142
-13.5342 -14.3412 -1.57277
-12.5753 -14.6473 -1.02007
-11.2183 -15.8526 -1.03023
-12.3444 -14.8614 -0.423003
-13.8971 -14.2483 -0.903454
-14.1003 -14.1548 -0.606294
-12.2039 -14.9088 -0.182026
-15.1433 -13.3144 -0.0914721
-15.0846 -13.1635 0.150836
-15.1257 -13.4512 0.31126
-15.5325 -13.1918 0.552166
-12.4526 -15.2156 0.00725479
-15.699 -12.9652 0.680855
-11.2776 -16.3983 -1.08579
-11.5836 -15.5917 0.0271451
-11.4579 -15.5069 0.114154
-11.5787 -15.8867 0.160904
-11.4363 -15.6843 0.114219
-10.8091 -17.0594 -1.09164
-12.9258 -14.7865 0.434083
-11.7956 -15.7102 -0.0281028
-13.3129 -14.4824 0.524598
-14.1481 -13.6133 1.45348
-11.5077 -16.4929 -0.325865
-11.339 -16.6495 -0.291457
-10.6599 -17.2112 -0.470758
-13.3455 -14.8774 1.07428
-12.6494 -15.3049 0.820078
-10.9798 -17.0583 -0.130486
-13.4442 -14.5851 1.41901
-12.1715 -15.6736 0.983667
-13.2274 -14.831 1.47331
-13.0969 -14.9608 1.27212
-12.2326 -15.5899 0.938485
-11.0469 -17.0175 -0.18566
-12.1223 -13.5754 3.82348
-11.0927 -16.7293 0.113549
-11.0779 -17.0658 0.135585
-11.1835 -16.8573 0.197052
-11.1158 -17.1444 0.03764
-12.4976 -15.5862 1.48937
-12.5834 -15.19 2.23406
-12.6149 -15.6779 1.73394
-12.6012 -15.7353 1.7341
-12.553 -15.1581 2.30805
-13.881 -13.0539 -3.52433
-13.7928 -13.4938 -3.25758
-13.5824 -13.9976 -2.83031
-12.3262 -14.9715 -2.51319
-12.1055 -14.5754 -1.1027
-11.8786 -15.6305 -2.09795
-13.2405 -14.1974 -1.54238
-11.5845 -15.2203 -0.899579
-11.4702 -15.3119 -0.997794
-11.5989 -15.4632 -1.07964
-12.4198 -14.8504 -0.284246
-11.2966 -16.336 -1.76083
-12.4758 -14.9005 -0.181671
-17.2189 -11.6364 1.32956
-15.7878 -12.79 0.370665
-15.7007 -13.1624 0.555671
-15.1292 -13.4559 0.399906
-11.5532 -15.5877 -0.48486
-11.6079 -15.4327 0.037148
-12.6236 -15.2299 0.138741
-12.5928 -15.1568 0.342001
-12.7704 -15.2021 0.631489
-11.067 -16.2166 0.0386288
-10.5998 -17.2908 -0.780188
-13.0733 -14.8575 0.835327
-13.1052 -14.7616 1.17695
-13.0796 -14.7247 1.34252
-10.8265 -17.1042 -0.152939
-10.9666 -16.851 0.0707043
-12.6545 -15.1764 1.52382
-12.3435 -15.5415 1.27565
-11.7699 -16.1962 0.78484
-12.3595 -15.509 1.66685
-12.8274 -15.0524 2.43564
-12.811 -15.4279 2.6367
-12.8642 -14.3832 -3.1938
-11.6514 -15.1436 -1.12989
-11.4854 -15.2846 -0.99583
-12.4507 -14.6413 -0.666266
-11.2526 -16.3426 -1.53937
-14.9661 -13.542 0.125004
-11.6914 -15.4989 -0.242354
-11.6461 -15.4049 -0.145046
-15.7391 -12.8004 0.601978
-13.5798 -14.67 0.384815
-12.9189 -13.1395 3.17489
-12.5241 -15.2816 0.553856
-11.4379 -16.9418 0.0353518
-12.3949 -15.688 1.38883
-12.6873 -15.4821 1.63565
-12.8007 -14.9584 2.20126
-12.8441 -15.0944 2.33924
-13.255 -13.8058 -2.44126
-11.9127 -14.9158 -1.45318
-11.8429 -14.853 -0.984955
-11.4085 -15.4655 -0.676585
-11.4886 -15.5079 -0.641328
-13.7996 -13.7035 0.308044
-11.7348 -15.4871 -0.13145
-14.1901 -13.5855 0.596013
-11.6717 -15.4987 -0.114736
-13.4396 -14.5804 0.459542
-13.9138 -13.6159 1.48313
-12.4052 -15.2916 0.266297
-13.9435 -13.6569 1.50307
-13.3613 -14.6344 1.15071
-12.5692 -15.0773 1.00162
-12.3616 -14.5892 -0.999931
-12.1735 -14.8428 -0.660799
-12.8782 -14.676 -0.439519
-12.1541 -15.2128 -0.170785
-16.4496 -12.0075 1.73918
-10.4685 -17.2017 -0.486657
-11.052 -15.7337 -1.34381
-14.0538 -13.7796 0.280999
-11.7819 -15.5885 0.424923
-12.3499 -14.7503 -0.225566
-14.1602 -14.4059 0.881909
-12.268 -14.6806 -0.450938
-11.2676 -15.6033 -0.26292
-12.2425 -15.3365 0.146956
-11.2833 -16.3431 0.450029
-12.7218 -15.2927 1.08504
-11.7838 -16.1102 0.797517
-14.4354 -13.6936 0.230757
-12.3215 -15.2281 0.555998
-12.9323 -14.0759 -0.769791
-16.9819 -11.0158 0.774965
-14.1928 -13.6877 0.508333
-16.8345 -11.4285 1.35252
-17.1034 -11.501 1.51144
-15.6893 -12.0346 1.96069
-16.8988 -11.8004 1.14781
-16.5734 -11.9447 1.47242
-16.3275 -11.775 0.0315862
-12.8221 -13.0273 3.03456
-16.6256 -11.762 -0.278619
-12.3273 -13.4711 3.61105
-12.6021 -13.0625 3.22938
-12.5217 -13.3718 3.15242
-12.4062 -13.4246 2.9357
-15.918 -12.4195 -0.268541
-15.2606 -11.9848 -2.76116
-12.0498 -13.7214 3.00109
-15.3861 -12.6636 -0.559772
-15.2737 -12.7734 -0.815268
-14.6907 -12.2074 -4.11635
-15.5802 -12.9998 0.58985
-15.2626 -12.9176 -0.849818
-15.0744 -12.7271 -1.5389
-14.3525 -13.339 1.28727
-15.3148 -13.4094 0.476315
-15.1829 -13.177 0.512459
-14.1376 -13.7009 1.36787
-14.9272 -13.2215 -0.591366
-13.8805 -13.521 1.27865
-13.7776 -13.2407 -3.71808
-13.9734 -13.1523 -3.54978
-14.2427 -13.8938 -0.721991
-13.4585 -14.2606 1.77769
-14.0676 -13.8179 -1.64679
-14.2893 -14.195 0.84269
-13.5731 -13.3911 -3.01561
-13.8815 -14.1499 0.60343
-13.451 -13.8032 -3.00869
-13.5449 -13.7815 -2.90284
-13.9082 -14.3077 0.589534
-13.579 -13.9438 -2.23189
-13.859 -14.3243 0.985277
-13.7097 -14.3259 0.197379
-13.7551 -14.1553 -1.5809
-13.4861 -14.063 -2.9322
-13.2953 -13.7197 -3.24683
-13.4785 -13.9206 -2.73643
-13.3008 -13.9403 -3.06631
-12.9607 -14.3646 -0.475238
-13.2741 -14.4992 -1.83129
-13.2991 -14.7486 -0.21689
-12.8517 -15.1127 1.94754
-12.8285 -15.0145 2.27235
-12.4253 -14.6757 -0.32963
-12.6741 -15.0439 0.574177
-12.8393 -14.8068 -2.30696
-12.7523 -15.1761 0.788369
-12.5609 -14.9561 1.08411
-12.5231 -14.9127 1.04871
-12.6577 -15.332 1.38292
-12.5308 -15.3275 1.08146
-12.5254 -15.1386 0.554823
-12.5873 -15.377 1.62661
-12.6098 -14.6974 -2.46703
-12.4589 -14.7638 -2.55859
-12.6654 -15.276 1.1203
-12.3093 -15.278 0.841499
-12.573 -15.4977 1.71699
-11.5758 -15.4981 -0.0864386
-11.5156 -15.4832 0.0850129
-11.4652 -15.4776 -0.330048
-11.921 -15.3713 -2.26846
-11.4236 -15.638 0.0583317
-11.8925 -15.9752 0.697417
-11.9913 -15.998 1.30324
-11.0639 -16.186 0.128055
-11.3329 -16.0448 -1.53279
-11.4358 -16.3412 -1.53097
-10.9958 -16.4294 -1.30458
-11.2023 -16.4821 -1.31312
-11.2677 -16.5458 -1.00199
-11.0666 -16.4649 -1.08188
-10.9992 -16.6586 -1.09872
-10.9149 -16.7418 -1.18103
-11.3518 -16.8858 0.412341
-10.9241 -16.6682 -1.17756
-10.8763 -16.8572 -0.984767
-10.8762 -16.987 -0.504447
-11.1691 -16.7414 -0.578206
-10.7842 -17.25 -0.47169
-10.5406 -17.0325 -1.29115
-10.5187 -17.0567 -1.236
-10.7261 -16.9009 -1.19981
-10.8466 -17.165 -0.565113
-10.563 -17.0973 -1.0837
-10.5783 -17.2016 -1.13979
-10.1095 -17.6288 -0.934367
-16.9441 -11.9331 1.01853
-17.1759 -11.7865 0.964025
-16.6867 -11.8856 -0.152872
-15.808 -11.953 -1.90137
-15.9384 -11.9785 -1.86316
-15.6897 -12.92 0.535001
-15.592 -13.1916 0.676059
-15.1042 -12.7363 -1.21476
-14.0188 -13.9395 1.2955
-14.5222 -13.2013 -2.08126
-14.2735 -13.1151 -3.46414
-14.5555 -13.6426 -0.494756
-13.5367 -14.3171 1.92769
-13.7736 -13.5087 -2.91588
-13.2465 -13.6891 -3.80241
-13.2558 -13.7825 -3.80617
-14.0012 -14.5341 1.15498
-13.5807 -14.5491 0.439814
-13.5001 -14.7279 1.32954
-13.098 -14.3413 -2.69227
-13.2507 -14.7815 1.21858
-13.4068 -14.7733 1.43256
-13.369 -14.8644 1.11625
-13.0672 -14.7451 -0.106771
-13.1897 -14.2195 -2.26899
-13.2975 -14.9021 1.20504
-13.2993 -14.9477 1.22725
-13.2184 -14.8132 1.31149
-12.8975 -15.0584 2.28222
-12.8015 -15.0301 1.5657
-12.3045 -14.6089 -0.859171
-12.0877 -14.7034 -0.329608
-12.2 -14.7698 -0.600382
-12.5236 -15.056 1.56626
-12.636 -14.5818 -2.51755
-12.3472 -15.1445 0.198589
-12.7204 -15.3029 1.35589
-12.5487 -14.7832 -2.57906
-11.6838 -15.0149 -1.17027
-12.4884 -15.6282 1.45806
-12.7053 -15.4602 1.64449
-12.5 -15.6685 1.42837
-12.624 -15.5351 1.71721
-12.3171 -15.61 1.13035
-12.3241 -15.4774 0.457647
-12.3717 -15.4482 1.25069
-12.4262 -15.6387 1.17831
-12.316 -15.8747 1.26126
-11.735 -15.4399 0.0528406
-12.0308 -15.3771 -2.24821
-12.0702 -15.6378 1.00866
-11.4629 -15.7301 -0.0839118
-11.4637 -15.5472 -0.00122176
-11.9311 -16.2347 0.774797
-11.305 -16.2765 -1.49784
-11.2389 -16.3574 -1.59153
-11.1172 -16.2419 -1.43236
-11.3757 -16.7018 -0.403343
-11.1033 -16.8256 -1.25389
-11.0822 -16.7467 -0.631164
-11.3218 -17.0316 -0.671582
-10.9264 -16.7847 -0.81416
-10.7718 -16.8364 -1.19646
-10.5705 -17.2181 -0.830375
-10.3743 -17.492 -0.772131
-16.9388 -12.0484 -0.044513
-16.4694 -11.7475 0.101663
-15.8517 -11.9265 -1.81746
-15.5319 -12.8678 0.929212
-15.3047 -13.0169 -0.637004
-14.8401 -13.001 -1.8627
-13.9388 -13.6256 1.45994
-14.7156 -13.0967 -2.01549
-14.0175 -13.8405 1.58133
-13.791 -13.6039 0.264438
-14.4131 -13.2764 -1.69162
-14.0464 -13.7802 -1.65718
-14.046 -14.0232 -1.38936
-13.3785 -14.4292 2.37243
-13.7706 -14.2811 -0.701268
-13.6779 -14.5556 0.702887
-12.7875 -14.1966 -0.655439
-13.7284 -14.5781 0.706948
-13.4009 -14.5497 0.889874
-13.6889 -14.6876 0.718049
-13.4862 -14.7749 1.4595
-13.0354 -14.0419 -3.36037
-12.9463 -14.4523 0.511092
-12.8451 -14.729 0.351635
-12.9001 -14.8321 1.10803
-12.9186 -14.4111 -2.4256
-12.3951 -14.5786 -0.299294
-13.051 -15.1477 1.67256
-12.335 -14.6859 -0.561754
-12.6292 -15.0977 1.38373
-12.3736 -15.0348 -0.108465
-12.5563 -14.998 -0.0254938
-12.7451 -15.1205 1.45854
-12.7802 -15.164 2.24302
-12.7794 -14.7243 -2.53714
-12.6876 -15.06 0.151332
-12.5819 -15.3179 1.91069
-12.7228 -15.3024 1.10382
-12.3814 -15.0696 0.0941212
-12.6583 -15.5806 1.72836
-11.9028 -15.0157 -0.752628
-12.124 -15.4872 0.170834
-12.0467 -15.0873 -2.44806
-12.1571 -15.5209 0.93349
-11.529 -15.2813 -0.823006
-12.0041 -15.5325 -2.23348
-11.6935 -15.6539 0.281666
-11.3212 -15.745 -1.25084
-11.8724 -16.0895 0.611949
-12.0422 -16.1644 1.60396
-11.2482 -16.0276 -0.074862
-11.0586 -16.425 -1.06266
-11.612 -16.5999 0.541756
-11.3187 -17.0001 0.293927
-10.2882 -17.3899 -0.919892
-17.357 -11.5836 1.30068
-16.9903 -11.5907 0.815777
-15.6174 -12.8013 0.733357
-15.2574 -12.94 -0.453581
-14.6047 -12.981 -1.93032
-14.7334 -13.2504 -1.84436
-13.577 -14.4599 0.342097
-13.4368 -14.765 1.65105
-13.3764 -14.7517 1.26862
-13.396 -14.87 1.55273
-13.4068 -14.3198 -1.73655
-12.6044 -14.6672 -2.71417
-12.8093 -15.3325 1.25808
-11.9193 -15.0126 -1.50575
-12.6978 -15.2185 1.00854
-12.1321 -15.3956 0.0793363
-12.1038 -15.3166 0.712917
-12.0934 -15.4552 0.28107
-12.7818 -15.6471 1.94676
-12.4316 -15.6463 1.68847
-12.1657 -15.2378 -2.55869
-12.3574 -15.6926 1.6204
-12.1061 -15.7336 1.28174
-11.6903 -15.732 0.434152
-11.7085 -15.9053 0.073767
-11.2902 -15.7846 -1.07001
-11.0649 -15.7692 -1.36718
-11.2803 -15.9868 -0.901433
-11.0528 -15.8393 -0.896777
-11.0726 -16.0064 -0.972002
-11.2686 -16.4715 -1.17409
-11.4763 -16.5855 -0.356231
-11.3179 -16.7367 -0.0648326
-11.0621 -16.9512 -0.624662
-10.8412 -16.941 -0.546592
-11.075 -16.8961 -0.0978637
-15.4123 -13.1445 0.613933
-15.5931 -13.2676 0.380146
-15.2641 -13.0017 -0.901059
-14.2243 -13.7102 1.57823
-14.9974 -13.3237 0.23589
-14.8896 -13.1738 -0.497496
-13.5684 -14.4696 1.55966
-13.3538 -13.9591 -2.90504
-13.0256 -14.3276 -0.638258
-12.7946 -14.2876 -0.905638
-13.3431 -14.6619 0.24809
-13.2308 -14.6001 0.290004
-12.8725 -15.0918 2.30891
-12.6271 -14.9599 -0.253416
-12.3189 -15.0204 -0.311184
-12.7313 -15.214 1.11165
-12.3808 -14.9792 -2.63556
-12.4284 -15.4773 1.29251
-11.5825 -15.2709 -1.57368
-12.3268 -16.0075 1.79419
-11.2141 -15.6429 -1.47976
-11.3015 -15.6585 -0.956789
-11.4901 -16.0877 -1.79935
-11.1221 -16.817 -0.314254
-16.9267 -11.7245 0.960718
-12.5068 -13.3415 3.16483
-14.0362 -14.0405 1.03714
-13.3728 -14.5402 0.297917
-12.9242 -14.5604 -0.477495
-12.6864 -14.5357 -0.891887
-12.5168 -15.154 1.028
-12.4277 -15.4251 0.471478
-12.1433 -16.0123 1.20634
-11.141 -16.7069 -0.501812
-15.5811 -12.888 0.605417
-15.0347 -13.416 0.272854
-14.9196 -13.4675 -0.0620912
-13.8275 -13.5459 0.290688
-14.14 -13.4923 0.510341
-13.6476 -13.7081 0.111264
-13.3251 -14.6561 1.22431
-12.7152 -15.2395 0.734752
-12.6 -15.1159 0.251219
-12.6063 -15.1601 0.542946
-12.6662 -15.3058 0.595719
-11.5718 -15.6426 -0.198841
-11.2387 -15.6912 -1.23303
-11.1182 -16.2733 -1.58956
-11.3082 -16.4827 -0.585998
-11.8107 -16.7842 0.672475
-11.0201 -16.8839 -0.370604
-10.3768 -17.4538 -0.729663
-14.6101 -13.1128 -1.63433
-13.7702 -13.9219 0.174689
-12.7951 -14.5201 -0.496453
-14.7303 -13.3022 -1.16651
-12.26 -15.2892 -0.141425
-11.87 -15.0077 -1.44183
-11.9699 -15.6746 1.10455
-11.5475 -15.9813 0.147266
-12.3422 -14.837 -0.275028
-12.1282 -15.9325 1.13152
-12.7188 -14.9206 0.192907
-12.4796 -14.9294 -0.197291
-12.8275 -15.5279 1.15707
-11.5275 -16.1599 0.145469
-11.4279 -16.164 0.142065
-11.3403 -16.2849 0.218295
-11.3345 -16.1247 0.488296
-11.3861 -15.6817 -0.246942
-12.4614 -15.1234 0.785096
-11.4492 -16.4465 0.298495
-12.7391 -13.2927 3.31166
-14.9328 -12.0028 2.39599
-16.7138 -11.8702 1.71721
-17.0891 -11.6652 0.886785
-16.9087 -11.8799 0.873674
-11.9872 -13.6076 3.22803
-12.2917 -13.4441 2.85893
-16.5676 -11.9048 0.0730358
-15.6668 -13.1346 0.52949
-14.1316 -13.6972 1.63987
-16.0001 -12.6519 0.295857
-14.1762 -13.7209 1.63106
-15.6006 -13.156 0.491922
-14.3347 -13.5996 1.38262
-15.8205 -12.7068 0.200824
-15.6283 -13.0001 0.380649
-15.8964 -12.6085 0.0434064
-16.3912 -11.9712 -0.726589
-15.4711 -13.2346 0.492156
-14.2614 -13.9213 0.877036
-13.1168 -15.1897 2.22734
-12.6888 -15.3071 2.42772
-12.8244 -15.3397 2.24522
-15.3113 -12.7985 -0.831527
-15.4022 -12.7161 -0.857086
-12.6154 -15.3681 2.10068
-15.3334 -12.7248 -0.779134
-12.5212 -15.302 2.02711
-13.1822 -14.6153 1.40186
-15.7694 -11.9837 -1.82947
-13.1371 -14.804 1.39589
-14.8509 -13.4378 -0.584059
-13.2248 -14.7495 1.06189
-13.7537 -14.0325 0.498673
-13.4971 -14.3196 0.705305
-13.5752 -14.5702 0.908277
-14.5975 -13.5207 -0.565505
-12.589 -15.4718 1.61574
-12.6729 -15.1219 1.59042
-13.6142 -14.3152 0.287192
-12.6993 -15.5239 1.51456
-12.8404 -15.3241 0.97735
-14.4356 -13.5446 -1.13206
-14.4303 -13.6199 -1.0955
-12.5743 -15.1667 1.30071
-12.3584 -15.6596 1.57265
-12.6967 -15.2903 1.00534
-15.2628 -12.1143 -2.93234
-15.2531 -12.0897 -2.91315
-12.374 -15.796 1.51257
-12.6779 -15.1401 0.951207
-12.2974 -15.7261 1.44897
-12.6812 -15.2373 0.820529
-13.2704 -14.3113 -0.344731
-12.5086 -15.2233 0.980989
-13.9868 -14.0107 -1.04782
-14.38 -13.427 -1.99923
-12.7841 -15.0343 0.839941
-12.718 -15.4171 0.592196
-14.2197 -13.5942 -1.77667
-12.4748 -15.2862 0.498252
-14.219 -13.5666 -2.08355
-13.8449 -14.0472 -1.49259
-14.2475 -13.3371 -2.59453
-14.8094 -12.0696 -3.88285
-12.5444 -14.713 -0.281728
-12.3827 -14.8457 -0.336651
-12.5448 -14.605 -0.55485
-12.4556 -14.505 -0.329362
-12.1008 -15.0383 -0.672898
-13.2292 -14.5476 -1.77456
-13.3711 -14.4762 -1.76455
-11.7977 -16.1437 0.61576
-11.8884 -16.0311 0.724036
-13.8452 -13.6516 -2.69557
-13.6458 -13.6409 -2.669
-13.5312 -13.6214 -2.79137
-13.5427 -13.8916 -2.92091
-13.7005 -13.6354 -3.00728
-13.9351 -13.1727 -3.59449
-13.8823 -13.1999 -3.67817
-13.6243 -13.8146 -3.20976
-11.7186 -15.5613 -0.0518192
-11.6404 -15.5133 -0.0706637
-13.292 -13.777 -3.15855
-13.339 -13.9608 -2.79271
-13.3435 -13.8869 -3.22203
-13.3075 -13.9316 -3.40059
-13.3836 -14.0381 -3.19064
-11.5305 -16.9127 0.542682
-12.9524 -14.3625 -3.04893
-12.7282 -14.69 -2.55092
-11.2699 -17.0514 0.468798
-11.1147 -16.4198 0.205756
-12.535 -14.5888 -2.90736
-12.4378 -14.8377 -2.50622
-11.3731 -17.0368 0.376194
-11.1886 -15.7311 -0.701382
-11.1656 -16.8394 0.219674
-12.4171 -15.0908 -2.39086
-12.5311 -14.7833 -2.56474
-11.5081 -15.5096 -1.41092
-11.3028 -16.8088 -0.43819
-11.2632 -16.8315 -0.201261
-11.1913 -16.9783 -0.1354
-11.1324 -16.871 -0.524455
-11.1557 -16.9226 -0.55549
-11.3156 -16.4139 -1.40692
-11.548 -15.9934 -2.14464
-11.1652 -16.8485 -0.495094
-11.116 -16.5248 -1.19031
-11.4785 -16.0455 -2.0361
-10.9675 -16.9652 -0.262285
-10.8424 -16.7698 -0.676281
-10.9731 -16.8444 -0.710987
-10.9761 -16.7539 -0.798321
-10.9862 -16.9061 -1.02866
-11.2285 -16.7959 -1.19081
-10.9323 -16.7127 -1.05918
-11.2361 -16.3234 -1.6489
-11.0722 -16.4099 -1.62217
-11.1689 -16.3451 -1.7309
-10.743 -16.9635 -1.06343
-10.4903 -17.2278 -0.981777
-10.6296 -17.1329 -1.23738
-10.5021 -17.0041 -1.45884
-10.5181 -17.2622 -1.0716
-10.4947 -17.2467 -0.939231
-10.1616 -17.6365 -0.861869
-15.2009 -12.1995 2.29103
-16.7372 -11.9251 1.56289
-12.7065 -13.004 2.91164
-16.5094 -12.1033 1.38102
-16.7917 -12.0774 1.46745
-12.6702 -13.006 2.90479
-12.4656 -13.3863 2.98633
-12.0311 -13.2933 3.04913
-16.6086 -11.626 -0.18392
-14.3803 -13.4706 1.25867
-15.67 -12.7188 0.509235
-14.399 -13.5755 1.42087
-13.9542 -13.974 1.52002
-15.3849 -13.2641 0.744568
-13.4745 -14.326 1.91678
-15.3379 -13.0621 0.123138
-12.9346 -14.9271 2.08755
-13.0083 -15.0978 2.16168
-12.5163 -15.079 2.49228
-13.9261 -14.2843 0.990628
-13.8326 -14.0966 0.834898
-12.5141 -15.394 2.09438
-13.527 -14.8848 1.29063
-13.3845 -14.6525 1.2322
-13.2029 -14.7468 0.995246
-12.7421 -14.9848 1.34673
-12.5938 -15.0023 1.25567
-12.7097 -15.4982 1.53194
-12.492 -15.3461 1.6902
-12.4914 -15.5245 1.67605
-12.657 -15.5591 1.67441
-12.4604 -15.5663 1.57764
-13.238 -14.5586 1.01691
-13.0718 -14.6995 0.775398
-12.6303 -15.6019 1.49623
-12.5634 -15.1064 1.4864
-13.5934 -14.3422 0.022423
-12.6339 -15.638 1.76892
-13.4844 -14.7726 0.17177
-12.5521 -15.6364 1.66472
-12.9192 -14.5727 0.902012
-12.9552 -15.2212 1.14577
-12.9412 -14.7541 0.622967
-12.8503 -15.0357 0.496785
-13.7985 -13.9079 -0.556226
-14.7667 -13.0626 -1.99833
-14.7971 -12.8964 -1.94097
-12.2531 -16.0576 1.54703
-12.5827 -15.1529 0.863459
-13.2234 -14.4115 -0.155044
-14.5749 -12.9921 -2.04641
-12.3428 -15.6959 1.11154
-12.3877 -15.6437 1.39818
-15.091 -12.0573 -3.20913
-13.9549 -14.3775 -0.933684
-14.5655 -13.0386 -2.33188
-13.0784 -14.5042 -0.14366
-12.1797 -15.4763 1.15888
-14.7948 -13.1584 -2.04629
-12.385 -15.4523 0.978631
-12.057 -15.8443 1.31459
-12.0306 -15.6801 0.902299
-14.3907 -13.2639 -2.47717
-13.6034 -14.1375 -1.5006
-13.9398 -13.5886 -2.42406
-14.2242 -13.5323 -2.2891
-12.2899 -14.7691 -0.426581
-12.5308 -15.1184 -0.337491
-12.0536 -14.7088 -0.469879
-12.1884 -14.9701 -0.54306
-12.3646 -14.7191 -0.656059
-11.8406 -16.1374 0.777847
-12.2219 -14.9665 -0.429276
-13.4241 -14.0023 -2.14612
-13.12 -14.4844 -1.66732
-13.7398 -13.2923 -3.20113
-13.8395 -13.4405 -3.20965
-11.6889 -15.4841 0.352618
-11.6797 -15.8105 0.286619
-14.1148 -13.1082 -3.69002
-13.9194 -13.3444 -3.79568
-11.7482 -15.5029 0.00579541
-13.7533 -13.2789 -3.60248
-14.0715 -13.2135 -3.71264
-12.1128 -15.1418 -0.74397
-11.7318 -15.4817 0.0613493
-13.135 -14.0911 -2.26581
-11.5723 -15.6475 0.183215
-11.8458 -15.2192 -0.567031
-11.4814 -15.6024 0.097495
-11.7412 -15.1781 -0.610782
-11.6111 -15.565 0.0547451
-13.1076 -14.2895 -2.67469
-11.6727 -15.5091 -0.136188
-13.4131 -13.5316 -3.43267
-11.9093 -15.2806 -0.549937
-11.395 -15.5778 -0.419322
-13.222 -13.9878 -3.68385
-11.5393 -16.7421 0.545476
-11.6159 -15.3153 -1.08347
-12.7937 -14.7254 -2.16103
-12.7232 -14.5168 -3.25985
-12.456 -14.8778 -2.42613
-12.1137 -15.0633 -2.38311
-12.4757 -15.1047 -2.34289
-12.3787 -15.0272 -2.55702
-12.0588 -15.3896 -2.2567
-11.8784 -15.3409 -2.22876
-11.7943 -15.6581 -2.2095
-11.2303 -16.611 -0.615403
-11.5014 -15.7823 -1.93435
-11.3127 -16.2084 -1.47069
-11.3135 -16.3659 -1.32338
-11.1569 -16.8322 -0.947154
-11.0224 -17.0341 -0.478094
-11.0238 -16.9689 -0.420134
-11.0612 -16.9773 -0.711183
-10.839 -16.995 -0.656525
-10.9714 -16.8084 -1.03322
-10.8559 -17.0636 -0.722013
-10.8968 -16.8571 -1.0807
-10.7655 -16.7688 -1.17853
-10.5735 -17.2686 -0.443517
-10.431 -17.127 -0.904788
-10.6867 -17.1564 -1.2442
-10.4165 -17.4024 -0.847355
-10.5482 -17.19 -1.03384
-10.4468 -17.3271 -0.77058
-10.4287 -17.3873 -0.892342
-12.1233 -13.1448 3.93583
-16.4334 -11.6802 1.48902
-16.1296 -12.6917 0.68517
-16.068 -12.8031 0.512634
-14.234 -13.4992 1.76657
-15.8043 -13.1431 0.719711
-14.2779 -13.7594 1.288
-13.0814 -14.9918 2.12972
-12.5087 -15.5773 2.40791
-12.7266 -15.1076 2.33861
-12.5943 -15.5791 2.23163
-12.5875 -15.3443 2.22381
-15.3185 -12.8384 -0.770586
-15.1866 -12.9645 -0.460147
-13.9082 -13.6913 0.308258
-13.9002 -13.5434 0.254142
-13.2561 -14.8751 1.46952
-13.3516 -14.6541 1.16374
-13.5437 -14.602 0.734674
-12.7208 -15.3755 1.75578
-13.2609 -14.8942 1.13641
-12.551 -15.5503 1.7861
-13.0155 -14.7233 1.0164
-14.7995 -13.0897 -1.17771
-13.6523 -14.6234 0.391284
-14.5289 -13.5253 -1.11057
-12.5254 -15.5859 1.62603
-12.3088 -15.3705 1.58942
-13.034 -14.6295 0.39656
-12.3473 -15.5322 1.24117
-15.0002 -12.6079 -2.27009
-12.4222 -15.2855 1.02885
-14.7517 -12.9497 -2.09733
-12.2947 -15.464 1.08909
-12.2825 -15.9908 1.44946
-13.1043 -14.7257 -0.1346
-12.1689 -16.1061 1.47351
-12.1671 -15.5217 0.897221
-14.1355 -13.7414 -1.81592
-12.0104 -16.1174 1.34928
-12.2712 -15.497 1.04006
-14.0809 -13.8121 -1.29038
-13.9183 -14.0399 -1.3277
-13.7264 -14.2969 -1.41186
-12.7758 -14.3938 -0.769007
-14.2537 -13.3931 -2.49217
-12.2292 -15.6197 0.510295
-13.8614 -13.7808 -2.19792
-12.2356 -15.3218 0.0912781
-12.2674 -15.5168 0.168323
-12.3908 -14.7876 -0.407527
-14.4223 -12.9558 -3.25466
-13.6964 -13.8033 -2.34019
-11.6119 -15.5605 0.014222
-11.7401 -15.6766 0.0188181
-13.5884 -13.9396 -2.95957
-11.492 -15.5534 -0.0145321
-11.6553 -15.3599 -0.453354
-13.2173 -14.0558 -2.84295
-13.3752 -13.7864 -3.78858
-11.1544 -15.2544 -0.636791
-11.3917 -16.8759 0.421283
-12.9845 -14.2446 -3.14244
-12.7163 -14.9729 -2.51998
-11.6779 -14.893 -1.56018
-12.7796 -14.6344 -3.02814
-11.2382 -15.4586 -0.700361
-12.4288 -14.9019 -2.75801
-12.3256 -15.1769 -2.4759
-11.1691 -16.7902 -0.247529
-11.3384 -15.9372 -1.06655
-11.1505 -16.7726 -0.597047
-11.0131 -16.723 -1.41473
-10.6533 -17.0605 -0.535935
-11.0175 -16.7995 -1.18679
-10.7427 -16.9547 -1.05539
-10.6018 -16.9644 -0.912522
-10.3855 -17.2606 -0.880832
-10.4333 -17.2453 -0.878529
-10.3685 -17.6513 -0.750517
-16.5602 -11.9298 1.60595
-16.6968 -12.143 1.52751
-15.7192 -12.9791 0.864726
-14.285 -13.5804 1.62318
-14.013 -13.4221 1.42456
-15.663 -13.1992 0.367411
-13.4397 -14.7321 2.2651
-13.7302 -14.2283 1.7864
-13.4836 -14.2133 1.86967
-15.3866 -13.0486 -0.469507
-15.4863 -13.0008 -0.412876
-12.6283 -15.1547 2.39703
-15.1048 -13.1407 -0.35967
-13.0105 -14.7975 1.39656
-13.76 -14.6037 0.775267
-12.6994 -15.753 1.68953
-13.7537 -14.4808 0.519377
-12.6955 -15.3305 1.50048
-13.6484 -14.6645 0.439547
-12.8313 -15.2692 1.06234
-12.818 -14.628 0.504734
-13.0002 -14.9565 0.592957
-13.0434 -14.8216 0.427296
-12.8409 -14.855 0.658222
-14.4053 -13.397 -1.55512
-12.3029 -15.776 0.749546
-12.2589 -15.6747 1.00417
-12.0551 -15.6038 0.919664
-12.037 -15.7247 0.931459
-12.6783 -14.9903 0.174849
-12.4459 -14.8883 -0.153903
-12.231 -15.3196 0.153434
-12.4392 -15.0889 -0.106129
-12.453 -15.0248 -0.276641
-11.6694 -15.6431 0.269847
-11.6801 -16.0722 0.172478
-11.7009 -15.3565 -0.118396
-11.5655 -15.5653 -0.0124672
-11.6661 -15.6463 0.118471
-12.853 -14.3433 -2.23725
-13.2032 -14.2345 -2.82841
-11.5247 -15.6334 0.0217058
-11.4124 -15.554 -0.0985935
-11.4698 -16.6841 0.508947
-11.5275 -15.2082 -0.88874
-12.9409 -14.4823 -2.58244
-11.6861 -14.7654 -1.6189
-12.4828 -14.5847 -2.8259
-12.1725 -14.9269 -2.44884
-11.0863 -17.0097 -0.0481099
-11.0585 -15.7949 -1.42989
-11.0105 -17.062 -0.32379
-11.2922 -16.1553 -2.00674
-10.8039 -17.0617 -0.994474
-10.6881 -17.0837 -1.02775
-10.6686 -16.9522 -1.43184
-10.3772 -17.5605 -0.58029
-17.02 -11.5316 1.04227
-13.3656 -14.6367 1.88995
-14.9728 -13.4252 -0.401043
-12.8156 -15.2162 1.72739
-12.5043 -15.6467 2.1108
-12.5852 -15.4462 1.67984
-12.3477 -15.7138 1.30692
-12.5982 -14.8286 0.346029
-12.1234 -15.5242 0.767775
-12.0511 -15.7913 0.908753
-12.0615 -16.0458 1.1899
-12.1709 -15.9221 1.03641
-11.8941 -16.135 1.30279
-12.4818 -15.1226 0.22091
-12.2127 -15.4954 0.671594
-12.0393 -16.2078 1.05614
-12.1877 -14.8818 -0.345045
-11.9323 -14.5816 -1.07114
-11.6459 -15.3468 -0.114114
-11.6363 -16.097 0.162965
-13.1762 -14.1857 -3.00783
-11.3305 -15.8784 -0.113426
-12.7969 -14.5465 -2.72849
-12.8163 -14.6602 -2.7643
-12.7507 -14.6729 -2.71089
-11.4402 -15.0961 -0.877132
-12.392 -14.797 -2.50313
-11.0563 -15.7542 -0.562752
-11.3504 -16.8604 0.0517545
-11.0577 -15.945 -0.73124
-12.2793 -15.2829 -2.6684
-11.2128 -15.6919 -1.19549
-11.0578 -15.7291 -1.25886
-11.0966 -16.309 -1.29852
-11.4073 -16.1913 -1.93371
-11.2221 -16.3801 -1.53151
-16.8238 -12.185 1.41408
-15.6196 -13.1046 0.612677
-14.2175 -13.6526 0.677925
-14.9517 -13.3853 0.241951
-15.2673 -12.9651 -0.147289
-12.631 -15.2921 2.18911
-13.3993 -14.8392 1.31757
-12.7794 -14.9225 1.28279
-12.8294 -15.1109 1.46794
-13.1714 -14.3509 -0.0163532
-14.543 -12.8514 -2.24937
-12.5242 -15.2064 0.390097
-11.9539 -16.0872 0.564951
-12.1152 -15.4624 0.135189
-11.7305 -15.4449 -0.142398
-11.3697 -15.9039 -0.259752
-11.686 -15.0871 -1.03318
-11.4605 -15.188 -1.13211
-11.4801 -15.2446 -0.910792
-11.735 -15.1642 -1.07271
-11.0904 -15.8277 -0.526807
-11.7005 -15.8067 -2.18199
-11.2898 -16.4208 -1.70244
-10.8622 -17.0302 -1.00297
-17.1593 -11.333 1.22972
-15.7879 -13.1007 0.405215
-14.2244 -13.4736 1.20504
-15.0481 -13.3453 0.0534617
-14.1642 -13.8525 0.570408
-14.2357 -13.7053 0.279339
-13.2077 -14.4176 1.16072
-12.5148 -14.9397 1.39936
-13.1905 -14.3607 -0.16256
-12.6021 -14.9921 0.309409
-12.3201 -15.3783 0.193085
-12.0504 -16.0563 0.71992
-12.0455 -15.4729 -0.0789937
-11.2213 -15.3836 -0.625913
-11.8803 -14.7195 -1.61041
-11.4388 -15.9595 -0.149899
-11.2192 -15.74 -0.522195
-11.2762 -15.5687 -1.39638
-10.869 -16.9275 -0.037958
-12.5347 -15.1423 0.225599
-12.4123 -14.9901 0.0218387
-12.3386 -15.2567 -0.0752681
-12.2663 -15.1908 -0.234878
-10.3975 -17.4489 -0.577753
-15.4457 -13.2178 0.416307
-12.807 -15.1587 0.104243
-11.5441 -15.8289 0.0663691
-12.4179 -14.7868 -0.150253
-12.3062 -15.0796 -0.089258
-12.1726 -15.6252 0.493315
-11.6039 -16.0308 0.161464
-13.278 -14.4198 -0.0562619
-12.0209 -15.7288 0.719854
-11.8288 -16.0555 1.0622
-11.786 -15.2911 -0.215833
-11.4688 -16.1743 0.111716
-17.1243 -11.5181 1.01558
-12.627 -15.4112 1.88732
-11.4863 -15.9739 -0.322257
-10.5359 -17.2434 -0.996198
-10.2766 -17.3311 -0.642964
-10.3839 -17.652 -0.8885
-12.0743 -15.5731 -2.4034
-11.8646 -15.4193 -2.30879
-12.0641 -15.3217 -2.34782
-10.9683 -16.8606 -1.11967
-10.4341 -17.3851 -0.611788
-12.2692 -15.0063 -2.51527
-12.5505 -14.6478 -2.52715
-10.9652 -16.644 -0.932959
-13.6939 -13.1152 -3.66782
-11.1283 -16.8634 -0.914438
-10.8739 -17.05 -0.50776
-13.8116 -13.1708 -3.73039
-13.684 -13.2215 -3.56501
-13.2874 -14.1895 -2.91306
-11.2922 -16.5232 -1.02927
-12.8433 -14.5623 -2.45672
-14.2148 -13.0159 -3.74636
-11.2299 -16.6838 -0.587622
-11.1796 -16.8388 -0.449414
-13.803 -13.3681 -3.08518
-11.548 -16.6285 -0.380987
-14.102 -13.2859 -2.97479
-14.1256 -13.2606 -3.04777
-11.3351 -16.6777 -0.223215
-11.803 -15.3491 -0.712187
-13.828 -13.977 -2.30781
-13.9902 -13.6382 -2.4345
-13.374 -14.4773 -1.85111
-14.7186 -12.7479 -2.90692
-13.5203 -14.3149 -2.03761
-13.6017 -14.0998 -2.00686
-11.5714 -15.5325 -0.207142
-12.2416 -15.0261 -0.35351
-13.5085 -14.5003 -1.31303
-14.7339 -12.8679 -2.27783
-14.5196 -13.2904 -2.15927
-14.0165 -13.9715 -1.77958
-14.5861 -13.2072 -2.06879
-14.6958 -13.2092 -2.10418
-14.6187 -13.0453 -2.00212
-14.3276 -13.1229 -1.81215
-13.9108 -13.8299 -1.29246
-13.9401 -13.861 -1.37342
-14.2493 -13.5485 -1.10104
-15.1153 -12.9873 -1.37618
-15.256 -12.696 -1.5163
-14.0533 -14.1285 -0.796939
-14.1318 -14.2062 -0.618504
-14.7911 -12.9869 -1.11366
-14.491 -13.385 -0.703612
-15.0153 -12.8121 -1.04449
-12.6351 -15.2694 0.756112
-13.4484 -14.5096 0.0150457
-13.63 -14.1608 0.16227
-12.3703 -15.5408 1.10974
-13.7699 -14.1483 0.160424
-12.5817 -15.23 0.909514
-12.4013 -15.5924 1.1632
-12.0204 -15.6765 1.20089
-15.1763 -13.0914 -0.497512
-13.2514 -14.7324 0.837535
-14.1945 -13.6703 0.351536
-12.3772 -16.0118 1.40416
-12.8263 -15.1428 1.50474
-12.7499 -15.5748 1.73748
-12.5811 -15.6099 1.64892
-13.1865 -14.7679 1.40845
-13.297 -14.7276 1.34131
-13.2759 -14.6901 1.55907
-12.5405 -15.4084 1.61126
-13.2047 -14.7837 1.39965
-16.3769 -11.8492 0.035817
-15.3597 -13.1866 0.572083
-15.485 -13.2619 0.835245
-16.6689 -11.9413 0.054646
-15.8468 -12.9625 0.682746
-12.8785 -14.9616 2.12823
-12.8371 -13.1946 2.93557
-16.6063 -12.0479 1.45169
-16.5746 -12.1431 1.48729
-10.25 -17.4244 -0.547454
-11.0509 -16.4774 -1.16684
-12.6797 -14.5283 -2.97906
-12.1571 -15.4827 -2.22308
-10.5107 -17.3573 -0.436115
-12.7325 -14.7575 -2.63632
-13.6585 -13.5859 -3.67721
-10.7947 -17.2188 -0.618049
-10.9762 -16.9012 -0.87083
-13.6707 -13.3854 -3.11947
-13.439 -13.8493 -2.70332
-11.3262 -16.8346 -0.410984
-13.1243 -14.6103 -2.26738
-10.9034 -17.0965 -0.309265
-11.0743 -17.0239 -0.158498
-14.1834 -13.4117 -2.56212
-13.4393 -14.6362 -1.74273
-11.5158 -15.5645 -0.201896
-11.4623 -15.7613 -0.0983526
-11.6158 -15.6182 -0.198515
-13.8481 -13.7178 -2.14197
-11.521 -16.7073 0.452517
-14.3691 -13.4371 -1.8949
-14.0324 -13.8227 -1.63695
-14.6354 -13.1565 -1.92558
-11.7105 -16.0792 0.383925
-12.1279 -15.2585 -0.0614134
-11.8196 -16.6793 0.626931
-12.1473 -15.1259 0.0982213
-12.2823 -14.9773 -0.0606953
-12.119 -15.5699 0.349618
-11.8685 -16.2354 0.882263
-15.059 -12.7821 -1.40789
-12.0685 -15.612 1.05859
-12.1261 -16.2815 1.21259
-13.1031 -14.6634 0.546203
-12.0264 -16.1892 1.33573
-13.6469 -14.4328 0.459687
-12.3106 -15.8641 1.41731
-12.3834 -16.0491 1.10479
-13.8795 -14.2305 0.707067
-15.2802 -13.0351 -0.331111
-13.1126 -14.5942 0.90674
-12.6596 -14.9568 1.41471
-12.5903 -15.1389 1.61253
-12.5665 -14.8791 1.55117
-12.6349 -14.8366 1.39196
-12.5768 -15.1944 1.48566
-15.2056 -13.23 0.2289
-12.7519 -15.4776 1.6732
-15.5595 -12.9416 -0.148464
-14.0736 -14.169 1.01822
-15.6323 -12.9032 0.339483
-14.3668 -13.6567 1.33997
-12.7174 -15.3527 2.45149
-13.693 -14.1402 1.85326
-13.8812 -13.9657 1.60771
