-13.1769 -14.0809 -3.50327
-13.5976 -13.3941 -2.63764
-18.1313 -11.6453 -0.370378
-14.4281 -13.0216 -2.19569
-13.3857 -13.4605 -2.59538
-17.0428 -12.3196 -0.903747
-17.7103 -12.0133 -0.336704
-18.1262 -11.911 -0.0610176
-16.3683 -12.6618 -0.73115
-15.7081 -12.7758 -0.768596
-17.4788 -12.1948 -0.293387
-17.3965 -12.5013 -0.463609
-17.4819 -12.5027 -0.371712
-15.1694 -13.2851 -1.05474
-17.3035 -12.5045 -0.0797798
-17.5382 -12.4905 -0.16988
-16.6032 -12.2624 -0.111141
-15.7357 -13.2061 -0.687545
-18.1512 -12.3511 0.627209
-14.4375 -13.8422 -1.16867
-15.8221 -12.7205 -0.0619191
-17.4227 -13.0665 0.710923
-17.4357 -12.805 0.69486
-15.248 -13.4268 -0.169735
-16.773 -12.5852 1.22617
-13.8143 -12.5021 0.901452
-14.6126 -12.185 1.41558
-14.7379 -12.1158 1.84335
-16.9966 -11.2687 -2.57545
-17.8551 -11.3406 -1.41319
-17.654 -11.542 -1.40054
-16.5936 -12.1506 -2.00629
-13.763 -13.0199 -2.49096
-15.2423 -12.4546 -1.56939
-14.7237 -12.8425 -2.1235
-17.1891 -12.3179 -0.983346
-17.5414 -11.8927 -0.537223
-17.21 -12.2113 -0.795799
-18.3632 -11.554 0.11518
-17.4093 -12.3369 -0.350199
-15.839 -12.6869 -1.08933
-17.5565 -12.3122 -0.348508
-17.966 -12.1003 0.187711
-15.4541 -12.805 -0.943519
-18.25 -12.0032 0.542001
-18.4295 -12.1478 0.399887
-17.5887 -12.5024 -0.115048
-17.7496 -12.2315 -0.0869112
-15.4184 -12.931 -1.0656
-18.334 -11.9647 0.545484
-15.3053 -13.2311 -0.755655
-16.0361 -12.6505 -0.0621288
-15.2685 -13.5047 -0.844827
-17.4827 -12.925 0.507369
-16.4377 -12.6933 0.872132
-16.7463 -12.6046 1.03024
-18.0072 -11.0211 -1.49434
-16.1083 -12.5445 -2.08868
-15.6232 -12.1889 -1.85746
-17.2286 -11.9596 -1.31776
-17.0513 -12.1185 -1.01191
-17.9759 -11.4404 -0.32511
-15.271 -12.5346 -1.53884
-18.3177 -11.8436 -0.135413
-16.8608 -12.4803 -0.535605
-18.2497 -12.1925 0.495399
-13.8828 -13.694 -1.76303
-15.502 -13.101 -0.832546
-16.7304 -12.2424 0.432166
-14.2442 -13.6327 -1.13561
-16.1732 -12.4753 0.209394
-15.0886 -13.3756 -0.447271
-17.3338 -12.801 0.806015
-16.327 -12.8713 0.916859
-16.622 -12.8417 1.24814
-16.3466 -12.7245 1.22609
-16.753 -11.9447 -2.31618
-14.9267 -12.4028 -2.50044
-16.6991 -12.1847 -1.74378
-17.0421 -12.0475 -1.15803
-15.908 -12.7627 -1.25093
-17.2593 -12.3547 -0.250536
-14.3837 -13.5296 -1.12115
-16.6964 -12.1364 0.520663
-17.8382 -12.5287 0.640462
-15.5745 -12.9832 -0.295386
-16.4114 -12.4785 0.485484
-15.0875 -13.4012 -0.245855
-15.2516 -13.243 -0.241171
-16.5165 -12.4988 0.912604
-15.1494 -13.3875 0.236088
-15.5747 -12.4485 -1.65646
-17.393 -12.3237 -0.129188
-17.3788 -12.4549 -0.179143
-15.6617 -13.0099 -0.151971
-17.2439 -12.5579 -0.46893
-17.2127 -12.2282 -0.283647
-17.4971 -12.3077 -0.255238
-16.0064 -12.6584 0.0914334
-16.6948 -12.5 0.670208
-16.7078 -12.4161 1.18193
-16.5264 -12.6324 1.32785
-15.2468 -12.309 -2.44881
-17.0022 -12.2861 -0.910074
-13.8609 -13.9794 -1.52837
-14.5771 -13.7575 -0.154319
-16.0178 -12.7359 -0.756135
-15.4762 -12.4474 -1.77275
-17.1451 -12.3237 -0.921621
-13.0968 -13.02 -3.16894
-17.633 -12.4463 0.0657809
-16.585 -12.3094 0.557238
-17.8079 -11.5137 -1.40104
-16.7049 -11.4345 -2.4342
-16.4723 -11.7705 -2.71923
-16.2144 -11.8711 -2.85661
-17.106 -11.8947 -1.19375
-17.097 -12.0782 -1.33151
-17.1549 -12.2317 -1.15808
-15.2551 -12.0033 -2.51468
-16.3655 -11.719 -1.03194
-16.8937 -12.4414 -0.915472
-17.2923 -12.1615 -0.497673
-14.8635 -12.0519 -2.40151
-17.5429 -12.335 -0.288795
-15.9302 -12.5598 -1.18068
-17.3636 -12.8602 0.699244
-15.1454 -12.9057 -1.1521
-15.239 -13.1531 -0.819739
-15.5974 -13.1399 -0.280907
-15.0986 -13.2223 -0.96237
-14.2716 -13.3568 -1.43093
-14.2537 -13.4487 -1.27631
-14.1612 -13.6931 -1.33338
-14.064 -14.2211 -1.21871
-14.193 -14.0009 -0.101253
-14.6096 -11.9843 1.74926
-18.0767 -11.0833 -1.51147
-18.05 -11.181 -1.4391
-17.3438 -11.6138 -1.97493
-18.122 -11.7449 -0.468608
-18.1355 -12.0122 -0.17324
-16.13 -12.0937 -2.99803
-16.092 -12.1922 -2.62292
-15.7164 -12.1289 -2.87774
-18.4252 -12.06 0.582063
-18.0289 -12.0827 0.221769
-17.3226 -12.2851 -0.862146
-14.6505 -12.1681 -2.46294
-14.8786 -12.3585 -2.30544
-15.6294 -12.543 -1.38001
-15.8518 -12.8228 -1.35171
-17.5126 -13.0321 0.503124
-14.4171 -12.888 -2.21934
-14.6232 -12.8571 -1.89905
-16.3606 -12.3642 0.0130009
-13.8406 -12.9198 -2.72507
-16.3324 -12.5058 0.792284
-14.2371 -13.1681 -1.69575
-14.7178 -13.5859 -1.13533
-14.8811 -13.1509 -0.574304
-15.2774 -13.345 -0.338884
-14.1973 -14.0464 -1.12203
-14.7956 -13.6482 0.00765382
-16.9987 -12.2619 -1.31349
-17.8934 -12.0753 -0.0271524
-14.9678 -12.3673 -2.43189
-16.5998 -12.2963 -0.0831412
-15.5789 -12.4649 -1.62503
-17.2381 -12.6086 -0.117349
-15.3488 -12.4668 -1.50151
-14.5838 -12.7702 -1.95526
-15.3059 -12.8626 -1.26855
-15.2513 -12.9352 -1.36024
-16.7905 -12.4568 1.30723
-15.4128 -13.2438 -0.335593
-14.4712 -13.5845 -1.17996
-14.2089 -13.675 -1.10025
-14.1303 -13.7079 -1.14606
-17.7688 -10.9911 -1.89043
-18.1812 -11.8092 -0.557577
-14.9865 -12.2738 -2.46488
-17.1772 -12.4566 -0.525352
-17.5595 -12.5004 0.352723
-15.1042 -13.0237 -0.977523
-15.2486 -12.9007 -1.0827
-13.9578 -12.8901 -2.59871
-15.457 -12.8406 -1.04098
-15.2996 -13.0309 -0.7399
-15.315 -13.2471 -0.640776
-12.5056 -13.9934 -3.9946
-14.171 -13.6212 -1.29246
-14.2657 -13.8129 -1.04988
-14.2992 -13.9004 -0.851933
-17.1465 -11.5251 -2.22722
-18.3359 -12.2469 0.873139
-15.2266 -12.9657 -1.05281
-15.2858 -13.1797 -0.916529
-15.3703 -13.0363 -0.700901
-14.2566 -13.5595 -1.25824
-14.6077 -13.5887 0.0243431
-14.6263 -13.6519 0.0687629
-17.1095 -12.2465 -0.992396
-17.4041 -12.4698 -0.319131
-17.4658 -12.2386 -0.115105
-15.4379 -13.0088 -1.08475
-16.4952 -12.744 0.699089
-14.2146 -13.5492 -1.50782
-16.5167 -12.4873 0.574302
-15.0021 -12.22 -2.40662
-17.322 -12.4064 -0.719185
-16.4688 -12.7432 0.714785
-15.0297 -13.3159 -0.825453
-16.9904 -12.221 1.0933
-14.1705 -12.9125 -1.82347
-17.3727 -11.9631 -1.03039
-15.2606 -13.1315 -0.181185
-18.2031 -11.1546 -1.44657
-17.9863 -12.02 -0.250254
-17.8946 -12.4754 0.434064
-17.1575 -12.1253 -1.40764
-16.8685 -12.1748 -1.18808
-16.4487 -12.2342 -1.64788
-16.1302 -12.4285 0.202626
-16.1227 -12.5691 0.305165
-15.3029 -12.7741 -1.32152
-15.1234 -12.8458 -1.37342
-15.0529 -13.2374 -0.302102
-14.8463 -13.2109 -0.847962
-14.6365 -13.2079 -0.87281
-14.2209 -13.5353 -0.997467
-13.8239 -12.4486 1.25752
-13.9519 -12.6557 1.35684
-18.0481 -11.3027 -1.19586
-17.2828 -11.2032 -2.69805
-18.1646 -11.768 -0.354341
-17.6157 -11.5605 -1.8881
-17.5005 -11.5856 -1.56968
-18.0297 -12.0135 -0.306071
-17.3805 -11.5156 -1.88328
-18.0096 -12.043 -0.236923
-16.8924 -11.6193 -2.66542
-17.3559 -11.8828 -1.29364
-17.2801 -11.9058 -1.13345
-17.4608 -12.4674 -0.324987
-16.0975 -11.8591 -3.00617
-16.398 -12.0573 -1.65184
-16.3931 -12.4767 -0.840235
-15.8107 -12.7279 -1.13081
-14.699 -12.2146 -2.50311
-14.7232 -12.3628 -2.38952
-15.3141 -12.9002 -0.929394
-15.2836 -12.8891 -0.961916
-15.0619 -12.9024 -1.17386
-15.1121 -12.0377 1.37983
-14.8988 -12.5895 -1.93688
-15.4169 -13.1755 -0.744662
-14.8648 -13.0637 -1.46911
-14.6361 -13.1261 -0.983526
-14.7967 -13.1521 -0.890305
-14.8237 -13.4367 -0.698715
-13.6418 -13.0159 -2.88271
-14.8122 -13.4882 -0.105221
-14.3071 -13.5549 -1.37436
-14.1711 -14.3344 -1.10009
-12.7239 -14.0952 -3.40234
-12.655 -14.1758 -3.95974
-17.3006 -11.1396 -2.29419
-18.114 -11.8107 -0.549812
-17.2863 -11.2691 -1.8747
-17.5029 -11.4476 -1.77327
-17.1462 -11.7511 -1.47572
-16.6951 -11.9494 -2.35802
-16.3797 -11.831 -2.66495
-17.2374 -12.6054 -0.00617664
-16.6745 -12.2581 0.261441
-15.8169 -12.0327 -2.81941
-16.2495 -12.5026 0.196659
-16.4705 -12.8364 1.28395
-15.9382 -12.8482 -1.11989
-15.9069 -12.8018 -1.09278
-15.6569 -13.1512 -1.01093
-14.7472 -12.7771 -1.90628
-14.9988 -13.2956 -0.606947
-15.2454 -13.4871 -0.123904
-14.2385 -12.9836 -2.27007
-14.4091 -13.273 -1.9724
-14.7807 -13.2346 -0.662928
-14.2432 -13.2403 -2.06555
-14.3249 -13.4525 -1.39786
-14.3627 -13.6533 -1.21834
-14.6213 -13.6276 -0.059737
-14.0256 -13.5218 -1.54037
-14.0635 -13.9039 -1.35763
-17.7867 -10.8419 -2.33732
-17.3083 -11.4008 -2.54094
-17.9055 -11.5028 -1.3579
-17.8433 -11.3331 -1.41021
-18.5439 -11.9173 0.233315
-17.1318 -11.7953 -1.44201
-17.5859 -12.5882 0.280903
-17.8082 -12.765 0.818917
-16.4945 -12.253 -1.85909
-15.5837 -12.1285 -3.11788
-15.3094 -12.8694 -1.45643
-15.2176 -12.7851 -1.47743
-15.4415 -13.0007 -0.551114
-15.0975 -13.175 -0.651443
-15.1164 -13.2092 -0.589038
-14.3036 -13.6794 -1.26355
-14.2813 -13.6106 -1.35
-14.2309 -13.8278 -1.2728
-17.6006 -11.3705 -1.47186
-17.7254 -11.4256 -1.41347
-16.9542 -11.6805 -2.2482
-16.5879 -12.1315 0.00943908
-15.242 -12.8145 -1.10997
-15.263 -13.1148 -1.04455
-15.1777 -12.95 -1.19018
-15.2171 -13.0477 -0.980927
-15.406 -13.2952 -0.549898
-14.842 -12.7645 -1.87136
-15.0906 -12.9775 -1.25805
-15.3053 -13.0951 -0.621951
-14.3802 -12.9827 -2.07262
-14.3499 -13.4167 -1.28948
-14.2394 -13.8432 -1.17012
-14.2792 -13.722 -1.08903
-18.1565 -11.5393 -1.0057
-17.0151 -11.8337 -1.10084
-15.4827 -13.0126 -0.267302
-15.6221 -12.8228 -0.547714
-15.2563 -12.8966 -0.949054
-14.3522 -12.9435 -2.36312
-16.6781 -11.5145 -2.40147
-15.3295 -12.1472 -2.43511
-13.9053 -13.9036 -1.88129
-18.0967 -11.8658 -0.359936
-16.4598 -11.8551 -1.26493
-15.7536 -12.627 -1.4819
-14.9842 -13.4015 -0.759384
-14.0057 -13.105 -1.97263
-13.9885 -14.3461 -1.23152
-16.7372 -12.4921 0.87509
-15.9928 -12.5975 -1.12531
-14.9553 -12.5754 -1.77756
-13.5508 -13.576 -2.4001
-16.8668 -12.1412 -0.125757
-18.2243 -11.9179 -0.432445
-18.0328 -11.6429 -0.115268
-17.6287 -11.9718 -0.591376
-17.3693 -11.1348 -2.23316
-17.3103 -12.2809 -0.651787
-17.2761 -12.3223 -0.537255
-16.5456 -12.4476 0.258356
-16.8806 -12.1244 -1.30571
-17.0064 -11.8588 -1.69746
-16.7543 -11.3726 -2.64455
-16.8022 -11.5222 -2.88342
-16.7205 -11.6079 -2.63216
-16.8477 -11.5893 -2.45291
-16.8632 -11.6887 -2.47175
-16.8559 -11.6419 -2.5074
-16.7784 -12.0018 -2.3252
-16.5085 -12.0164 -2.22765
-16.5858 -11.5957 -2.58901
-16.4163 -11.8069 -2.77756
-16.4267 -11.8359 -2.60801
-16.3404 -12.4863 -0.477857
-16.5274 -12.1917 -1.88521
-16.3894 -12.6524 -0.707713
-15.1318 -12.2167 1.44917
-15.9608 -12.7711 0.214748
-16.2277 -11.8785 -2.89062
-15.7885 -12.8407 -1.34177
-15.7117 -12.0305 -3.13953
-14.6557 -13.0237 -1.6657
-14.8014 -12.9995 -1.47156
-14.5849 -13.6151 -0.00789888
-14.1527 -13.6292 -1.29651
-13.8298 -13.8815 -2.34366
-13.5343 -12.8084 -3.09555
-18.3523 -11.7715 0.266917
-18.2481 -11.8514 -0.0357891
-17.8813 -11.5794 -0.440174
-17.7524 -11.8575 -0.269662
-17.8259 -11.2954 -1.22865
-17.6752 -11.8861 -0.383695
-17.6855 -12.3854 0.0780809
-17.6802 -11.3848 -1.4969
-17.5863 -12.4875 0.00297576
-17.5727 -11.7182 -1.35002
-17.302 -11.2168 -1.89842
-17.2533 -12.3907 -0.219336
-17.3151 -11.9604 -1.14382
-17.0607 -11.4406 -2.25024
-16.9745 -12.3904 -1.45622
-16.6888 -11.5147 -2.41163
-16.289 -12.7253 0.241739
-16.0933 -12.3247 0.118654
-16.5554 -11.752 -2.44122
-16.3354 -12.5472 -0.00329837
-16.4776 -11.7412 -2.70561
-16.4085 -11.7159 -2.80028
-16.3845 -11.9438 -2.72822
-16.0863 -12.6567 -1.03238
-14.5672 -12.3739 1.41513
-14.3554 -12.4418 1.27172
-14.3672 -12.208 1.14784
-14.806 -12.1838 -2.66985
-14.9217 -13.3823 -0.725145
-13.8902 -12.4531 1.28106
-14.6342 -13.4838 -0.067339
-14.3846 -13.9477 -0.637161
-14.2421 -13.6986 -1.28448
-14.188 -13.299 -1.73348
-14.0779 -12.9599 -2.28565
-18.3277 -12.4312 0.919686
-17.9806 -11.9365 -0.43221
-17.7209 -11.1377 -2.3237
-17.6773 -12.8782 1.15769
-17.3356 -11.6128 -1.26993
-17.4195 -11.4008 -2.07014
-17.177 -11.3036 -1.81404
-17.3527 -12.6555 -0.184048
-17.3523 -11.5333 -1.9772
-16.5128 -12.2819 0.320612
-16.4504 -12.582 0.462116
-16.3307 -11.9719 -1.14288
-16.1278 -12.4811 0.142938
-16.1473 -12.4232 0.0603676
-16.3477 -11.7324 -2.56109
-15.1587 -11.9545 1.55585
-14.9344 -12.0354 1.8467
-15.4647 -12.8937 0.177278
-16.0898 -12.2147 -2.86109
-15.7645 -12.5763 -1.18936
-15.7454 -12.7844 -1.2298
-15.6811 -12.5257 -1.41748
-15.5009 -13.1043 -0.671823
-15.193 -13.4565 -0.0442463
-15.1766 -12.4284 -1.59488
-14.9427 -12.8211 -1.35188
-13.9346 -12.5457 1.3643
-14.5287 -13.7278 0.103631
-14.2625 -13.6619 -1.28341
-13.8004 -13.0758 -2.23973
-12.9675 -14.0306 -3.43038
-17.7559 -11.4774 -1.28434
-17.7026 -11.7937 -0.991385
-17.5297 -12.1397 -0.602026
-17.3256 -11.5388 -1.83584
-17.3476 -11.7666 -1.58613
-17.0099 -11.7783 -1.50929
-16.7342 -11.1856 -2.5637
-16.8353 -12.2007 -2.1259
-16.815 -11.7143 -2.31102
-16.3358 -12.8039 0.789613
-16.2522 -12.4437 0.0755517
-16.4658 -12.2351 -1.65689
-16.5038 -12.7167 -0.605003
-15.6704 -12.5127 -1.34986
-15.6543 -12.4223 -1.81473
-15.183 -13.1973 0.0455953
-15.4637 -13.1748 -0.667068
-15.262 -12.9187 -1.39308
-14.6134 -13.6839 -0.132179
-14.398 -13.7852 -1.30988
-14.4174 -13.7037 -1.5981
-14.2094 -13.6644 -1.27303
-18.0282 -11.2981 -1.23374
-17.8344 -11.2005 -1.59245
-17.7776 -11.1133 -1.848
-17.779 -11.4819 -1.2515
-16.5894 -12.1761 0.350256
-16.8287 -11.4482 -2.58462
-16.3171 -12.7177 0.904624
-16.4747 -12.1984 -1.91735
-14.995 -12.0832 1.46953
-14.8259 -12.0812 1.26099
-15.3793 -13.0373 -0.953469
-15.2716 -13.0138 -1.1372
-15.2197 -13.2953 -0.683578
-15.1073 -13.2573 -0.935077
-14.3509 -13.7851 -0.94874
-14.2804 -13.4234 -1.51019
-14.265 -13.5836 -1.13699
-13.8456 -13.0201 -2.30489
-14.2226 -14.0997 -1.63631
-13.9239 -14.0528 -1.89239
-18.1068 -11.6491 -0.60073
-17.951 -11.1277 -1.86147
-17.7724 -12.0434 -0.439911
-16.4723 -12.1687 0.144376
-16.3774 -12.7487 -0.603513
-15.3288 -12.1799 -2.46156
-13.9873 -13.949 -1.82577
-17.2431 -11.784 -1.57691
-16.4879 -12.0223 0.100134
-14.5885 -12.9774 -2.32864
-14.1051 -13.2494 -1.89555
-14.0939 -13.183 -2.06836
-13.8377 -13.7671 -1.99644
-15.0512 -12.3344 -2.21296
-14.7667 -13.8276 0.0687829
-18.1655 -11.9302 -0.307596
-16.4253 -12.2281 -0.462637
-16.4113 -12.8122 0.752465
-15.9901 -12.1713 -2.37898
-15.0988 -12.1918 -2.63669
-16.482 -12.2742 0.119688
-15.4129 -13.1951 -0.412488
-13.9569 -14.1465 -1.30547
-14.7912 -12.4759 -2.11393
-14.8005 -11.9746 1.36461
-18.5137 -11.835 0.583694
-17.8386 -12.1085 -0.135499
-17.7205 -12.0047 -0.495664
-18.1238 -11.1958 -1.38615
-16.4793 -12.5096 0.812975
-17.9622 -11.0501 -1.53558
-17.843 -11.3664 -1.61209
-17.3134 -12.4212 -0.394237
-17.7201 -11.102 -1.60353
-17.7318 -11.1528 -1.88984
-17.7996 -11.0332 -1.99352
-15.1946 -11.9805 1.41295
-17.5455 -11.2106 -2.08987
-16.2281 -12.3431 -0.0188961
-17.7417 -11.1716 -2.2424
-17.5271 -11.0402 -2.23121
-16.9549 -12.1803 -0.800444
-16.0985 -12.5715 0.0811833
-17.1226 -11.8632 -1.43374
-17.344 -11.4862 -2.05305
-17.0351 -11.8329 -1.56061
-16.3104 -12.7566 -0.470869
-17.1867 -11.1316 -2.24844
-17.1038 -11.7117 -1.99068
-16.8697 -11.9042 -1.7128
-15.738 -13.0451 0.264272
-16.8174 -11.7835 -2.13194
-14.0964 -12.3616 1.42323
-16.757 -11.7387 -2.08541
-14.1295 -12.1547 1.2985
-16.836 -11.704 -2.34989
-16.8154 -11.5939 -2.49452
-16.3389 -12.2211 -1.96718
-16.5961 -11.9015 -2.41722
-15.4789 -12.8153 -0.309508
-16.7641 -11.5282 -2.90474
-16.7865 -11.8184 -2.32818
-16.3289 -11.9461 -2.03094
-16.5682 -11.7633 -2.48159
-16.4104 -12.266 -1.70288
-16.5591 -11.6897 -2.56078
-15.8605 -12.6442 -1.4373
-15.4796 -12.886 -0.548002
-15.8598 -12.8622 -1.29933
-16.7735 -11.6163 -2.70408
-16.4361 -11.7799 -2.52434
-15.0612 -13.1462 -0.972643
-16.1976 -11.8804 -2.79256
-14.5231 -13.7002 -0.0303114
-14.4969 -13.8112 -0.0524847
-14.4844 -13.9083 0.117141
-16.1233 -11.985 -2.89188
-16.0864 -11.9508 -2.85108
-15.6631 -12.1074 -3.18808
-15.6218 -11.8806 -3.26201
-15.1972 -12.1858 -2.39503
-14.6712 -12.2321 -2.6742
-17.5852 -12.821 0.963971
-18.0024 -11.9045 -0.203035
-17.9552 -11.9268 -0.114181
-17.6316 -12.4176 0.0750356
-17.7084 -12.3777 0.114058
-16.4123 -12.7902 1.19502
-17.7757 -12.0206 -0.80273
-16.5463 -12.2596 0.252485
-17.3636 -11.5816 -1.21171
-17.4257 -11.6464 -1.17795
-17.1586 -12.0598 -0.920013
-17.5141 -11.1138 -2.21222
-16.3722 -12.4744 0.0605454
-17.3015 -11.6607 -1.78413
-16.1199 -12.4891 0.184506
-17.0389 -12.0419 -1.50654
-16.9838 -12.2364 -1.30482
-17.064 -12.3396 -1.337
-17.1184 -12.0629 -1.31046
-16.9899 -11.1583 -2.03506
-17.3316 -11.1858 -1.99098
-17.079 -12.0095 -1.57655
-16.9085 -12.1222 -1.5982
-17.359 -11.4184 -2.18008
-17.3947 -11.2889 -2.29886
-17.0871 -11.5602 -2.15969
-17.3334 -11.1174 -2.62018
-15.6533 -13.1123 0.180093
-15.5001 -13.0702 0.156301
-14.4171 -12.2707 1.35002
-15.9802 -12.7516 -0.786431
-16.7327 -11.8195 -2.46265
-16.6252 -11.7737 -2.17002
-16.8008 -11.7478 -2.4704
-15.6855 -12.7811 -1.00475
-15.0305 -13.4066 0.129983
-13.6866 -12.584 1.5418
-15.5879 -12.5859 -1.38918
-14.0236 -12.6002 1.29808
-13.8822 -12.3791 1.33712
-15.2949 -13.0216 -0.717119
-15.149 -12.8862 -1.0781
-15.1794 -13.1293 -0.993721
-15.2036 -13.0606 -1.16438
-15.9792 -12.2097 -2.64475
-15.4189 -12.6053 -1.70768
-14.193 -14.2273 -0.631178
-14.7229 -12.1038 -2.66125
-13.8813 -14.0644 -0.994055
-13.8825 -14.1833 -1.3026
-18.27 -12.2234 0.400614
-17.6841 -12.7164 0.84291
-18.2349 -11.5819 -0.810928
-16.7992 -12.3445 0.862169
-18.109 -11.0036 -1.48966
-18.1465 -10.9177 -1.49123
-17.7426 -11.4931 -1.31254
-16.5146 -12.5221 0.801995
-16.6497 -12.3712 0.661105
-17.4186 -12.1883 -0.437504
-17.5531 -11.896 -0.981928
-17.649 -11.8978 -0.901451
-17.1598 -12.1027 -0.283133
-17.9966 -10.9146 -1.69673
-17.5746 -11.4781 -1.49683
-17.2403 -11.896 -1.26401
-17.4129 -11.4565 -1.93527
-17.0761 -12.0241 -1.30473
-17.0009 -12.0982 -1.11107
-17.4984 -11.2486 -2.22453
-17.306 -11.0995 -2.32316
-17.3392 -11.2523 -2.30813
-17.326 -11.5142 -2.18384
-16.4333 -12.4101 -0.820343
-17.2056 -11.1719 -2.19455
-16.9709 -11.5514 -2.08785
-17.0374 -11.7954 -1.95178
-16.7317 -11.9335 -1.71653
-16.1455 -12.2328 -1.23719
-14.2442 -12.1184 1.27263
-15.886 -12.7668 -1.16868
-13.969 -12.4208 1.37779
-15.7073 -12.6298 -1.19518
-14.7474 -13.2472 -0.594308
-16.0523 -11.7473 -2.71143
-14.7181 -13.1142 -0.961307
-14.4691 -13.6204 -0.537797
-14.2852 -13.9447 -0.764994
-14.8232 -12.2997 -2.17226
-14.0488 -13.6842 -1.2185
-13.9951 -13.5805 -1.32257
-14.1177 -13.5435 -1.43061
-13.8318 -12.9144 -2.72286
-13.856 -13.1367 -2.39211
-13.7396 -13.681 -2.35092
-16.7359 -12.3852 1.24786
-16.6801 -12.2289 0.779457
-16.5207 -12.7026 0.92784
-16.7078 -12.3956 0.638846
-17.2498 -12.3373 -0.32304
-17.7123 -11.2017 -1.68994
-16.3831 -13.0717 0.907336
-17.4677 -11.0578 -2.33948
-16.9856 -12.0045 -1.4915
-15.5414 -12.8319 0.0122549
-13.8979 -12.469 1.58619
-16.5227 -11.7407 -2.88488
-15.1624 -13.1834 -0.998544
-13.5455 -12.8187 1.12825
-15.1526 -12.9713 -1.35967
-15.2865 -12.8036 -1.51443
-14.3793 -13.6617 -1.07136
-14.1909 -14.002 -1.01969
-14.3721 -13.5174 -1.41583
-14.2786 -13.5059 -1.57642
-17.8731 -12.3859 0.457139
-17.7808 -11.8873 -0.70304
-17.3346 -12.401 -0.224179
-17.9241 -11.3813 -1.22248
-17.5019 -12.1581 -0.640629
-14.7621 -12.1253 1.64441
-16.1957 -11.8608 -0.999612
-14.2403 -12.2787 1.16004
-15.4965 -13.0869 -0.215119
-15.9502 -12.8374 -0.83124
-15.4077 -13.0969 -0.0112748
-15.2186 -13.1987 0.139658
-15.0956 -13.3128 0.170545
-15.1387 -13.2805 -0.0213367
-16.5549 -11.726 -2.48285
-15.7589 -12.7473 -1.3303
-16.3383 -11.8514 -2.47757
-15.6277 -12.6715 -1.15279
-16.4175 -11.6332 -2.66955
-15.4958 -13.056 -1.00216
-15.209 -13.1077 -1.20592
-15.4638 -11.8704 -2.24747
-14.9109 -11.9329 -2.51277
-14.1239 -12.6677 -2.84009
-13.982 -12.6893 -2.62459
-13.939 -12.9304 -2.81252
-13.3447 -13.4456 -2.62709
-16.9451 -12.1055 -1.31107
-15.7406 -12.9483 0.0515574
-15.6079 -13.01 0.0170209
-16.1696 -12.5887 -0.871127
-15.6612 -12.7847 -1.15619
-15.3895 -13.193 -0.459015
-16.3321 -11.6728 -2.75618
-15.2844 -13.1478 -0.639616
-15.4598 -13.1263 -1.04628
-14.8229 -13.8144 0.0118136
-14.3667 -13.8026 -0.940524
-14.1535 -12.5828 -2.92927
-17.5625 -11.6218 -1.38342
-16.0554 -12.3742 0.151741
-15.5788 -12.8754 -0.227438
-15.4791 -13.2757 -0.75708
-14.7777 -13.7162 -0.0835072
-15.0821 -12.0327 -2.50085
-14.8233 -12.8371 -2.23269
-16.9576 -12.2553 0.908029
-17.6862 -11.5869 -1.33541
-16.4462 -12.6584 0.628399
-16.4675 -11.7536 -1.0302
-15.4757 -12.9635 -0.853094
-15.0419 -12.9249 -1.17387
-15.3799 -12.0437 -2.57983
-14.549 -12.7945 -1.64039
-13.2803 -13.7517 -2.70948
-15.1826 -13.1519 -0.79242
-15.2745 -13.2321 -0.569283
-14.2684 -13.6975 -1.26971
-15.2585 -13.0838 -0.817186
-14.9351 -12.3224 -2.38573
-14.0096 -13.1166 -2.32028
-14.8253 -12.0886 1.67117
-14.9517 -12.4777 -2.05252
-18.3476 -12.087 0.553887
-18.2361 -12.1769 0.626646
-18.4486 -11.8428 0.266401
-18.2384 -12.1654 0.0688302
-17.713 -12.4871 0.523665
-17.7912 -12.5504 0.504745
-17.9644 -12.082 0.0443944
-14.6147 -12.0722 1.58104
-17.7023 -12.1229 0.00467899
-16.6256 -12.6274 0.670836
-17.843 -11.8877 -0.184518
-18.0756 -11.6326 -0.727734
-17.3542 -12.5093 0.0127636
-16.5809 -12.2307 0.33853
-17.663 -12.1522 -0.561966
-16.3326 -12.3334 0.150067
-16.0878 -12.6669 0.204194
-17.6598 -11.701 -1.04608
-17.2826 -12.0682 -0.913296
-17.5669 -11.8625 -0.985186
-15.6867 -12.864 0.223172
-17.9983 -11.3442 -1.02338
-17.9344 -11.1474 -1.20531
-17.8062 -11.4007 -1.17587
-17.545 -11.9301 -1.07032
-18.0117 -11.3739 -1.4973
-17.2656 -12.1229 -1.35599
-17.8304 -11.342 -1.60903
-17.0816 -12.0107 -1.48896
-17.2284 -11.832 -1.40075
-17.0306 -12.3146 -1.19214
-16.9996 -12.242 -1.21894
-17.1469 -12.0609 -1.33708
-15.4666 -13.2192 -0.516627
-17.1266 -11.3885 -1.95523
-16.0308 -12.5801 -1.29984
-16.5711 -12.1278 -1.66948
-16.4866 -12.1525 -1.56653
-17.643 -10.8736 -2.44657
-17.1205 -11.424 -2.20702
-14.7528 -13.1659 -0.725078
-17.13 -11.2829 -2.43632
-14.7424 -13.1206 -0.96503
-17.0039 -11.3222 -2.47162
-17.5633 -11.0058 -2.54565
-16.9712 -11.2944 -2.39247
-17.1513 -11.3115 -2.41524
-17.1381 -11.291 -2.45645
-17.2562 -11.2359 -2.51874
-16.4891 -11.7739 -2.14346
-16.8135 -11.8406 -2.47775
-16.8128 -11.7677 -2.28157
-16.7562 -11.5131 -2.38408
-16.6222 -11.6407 -2.50032
-16.8382 -11.5344 -2.54924
-16.6509 -11.6116 -2.40641
-16.6888 -11.7168 -2.3641
-14.3048 -13.7454 -1.25617
-16.6109 -11.8107 -2.75497
-16.7563 -11.4266 -2.66895
-16.3057 -11.8459 -2.76125
-16.2565 -11.6133 -2.74994
-14.5741 -12.8759 -2.08673
-14.1047 -13.0909 -2.27822
-18.145 -12.3737 0.7153
-17.9415 -12.5423 0.932042
-18.3719 -11.754 0.0512543
-17.9656 -12.1459 -0.218504
-18.2141 -11.5981 -0.265373
-17.9289 -11.7147 -0.227575
-17.5428 -12.4044 -0.0227279
-14.9103 -11.9564 1.21726
-18.0129 -11.6309 -0.681839
-17.6578 -11.6 -0.818309
-16.0098 -12.6744 0.42776
-16.35 -12.3136 0.192212
-17.4979 -11.8629 -0.77399
-17.6167 -11.8579 -0.817328
-16.1347 -12.5968 0.164528
-17.9505 -11.7325 -0.997528
-17.7454 -11.709 -0.905288
-17.7283 -11.6515 -1.05553
-17.4542 -11.9896 -1.01603
-17.9648 -11.3566 -1.13971
-17.815 -11.2929 -1.23018
-17.6443 -11.5379 -1.14196
-17.5996 -11.7738 -0.956052
-18.0239 -11.1615 -1.37012
-16.3477 -12.464 -0.479587
-17.886 -11.1025 -1.51309
-17.6943 -11.3891 -1.45528
-17.5946 -11.9099 -1.28533
-17.7088 -11.9056 -1.19283
-14.9397 -13.5749 -0.045556
-17.1713 -12.2309 -1.06663
-17.5765 -11.4366 -1.66483
-17.7897 -11.1208 -1.78712
-17.7362 -10.9665 -1.6247
-17.887 -11.1188 -1.87496
-18.0851 -10.8654 -1.71198
-17.9496 -11.008 -1.68616
-17.7962 -11.0588 -1.64942
-16.1586 -12.7259 -0.747088
-16.0498 -12.692 -0.941286
-16.8914 -12.1183 -1.42863
-16.4148 -11.9307 -0.943127
-17.8062 -11.0967 -1.99482
-17.1106 -11.7325 -1.72905
-15.491 -13.309 -0.487513
-17.8734 -10.8611 -2.26879
-16.8489 -11.9556 -1.78709
-15.1426 -13.2851 -0.792319
-16.5871 -11.9692 -1.69893
-17.0746 -11.5738 -2.1047
-14.8189 -13.2238 -0.467928
-16.7861 -11.9438 -1.98252
-15.1298 -13.0943 -0.894753
-17.5693 -10.7929 -2.47748
-17.5334 -10.9668 -2.36659
-16.4039 -12.2062 -1.74433
-14.6807 -13.3717 -0.915819
-17.0582 -11.319 -2.47134
-15.2148 -12.9807 -1.23031
-15.2704 -12.826 -1.33497
-16.6754 -11.7435 -2.29826
-16.6407 -12.0805 -2.10271
-16.7996 -11.4638 -2.50493
-14.2961 -13.7769 -1.15867
-15.5272 -12.3502 -1.85315
-16.3803 -11.9121 -2.49281
-14.336 -13.7839 -1.47879
-14.904 -12.9101 -1.64414
-16.5644 -11.4487 -2.91619
-13.7786 -14.0091 -1.41483
-16.3215 -11.5938 -2.84684
-14.7795 -12.7338 -2.21791
-15.9478 -11.9576 -2.88793
-14.9166 -12.2724 -2.33413
-14.3908 -12.7106 -2.17585
-14.085 -12.8821 -2.3194
-13.8078 -12.7212 -2.76737
-13.3905 -12.889 -3.13554
-17.6657 -12.7352 0.199442
-16.6166 -12.4709 0.928625
-16.6021 -12.794 0.76475
-18.0885 -11.6587 -0.429533
-17.8888 -11.7261 -0.348634
-17.5937 -11.9622 -0.462934
-17.5416 -12.1561 -0.594077
-17.246 -12.3844 -0.47943
-14.3072 -12.1705 1.3106
-14.0279 -12.7557 1.36978
-17.81 -11.5831 -1.11669
-17.6656 -11.5006 -1.37576
-17.2698 -11.9486 -1.12843
-16.0824 -12.7776 -0.80029
-14.6589 -13.9962 0.0204429
-17.0286 -12.1514 -1.56569
-17.7846 -11.1637 -1.85796
-17.9128 -11.0315 -2.07657
-16.6655 -12.0879 -1.85804
-17.7463 -10.8596 -2.39749
-17.1697 -11.478 -2.7677
-15.5293 -12.7057 -1.79901
-15.1327 -12.4562 -1.36574
-14.2629 -13.821 -1.13113
-14.1984 -13.8293 -1.32936
-14.2066 -12.756 -2.74344
-13.3242 -13.5539 -2.40088
-13.7662 -12.8481 -2.60908
-12.8701 -14.095 -3.93166
-18.2089 -11.9898 0.681452
-18.0409 -12.3305 0.489033
-17.6724 -12.5839 0.746914
-18.1819 -12.0795 0.0748398
-16.7404 -12.5589 0.757004
-17.7824 -12.3073 -0.114351
-17.9574 -11.9961 -0.158636
-14.5128 -12.4557 1.53359
-14.7629 -12.0292 1.29235
-17.6041 -12.1494 -0.439812
-17.8663 -11.253 -1.37001
-15.5435 -12.9111 -0.0281477
-14.8496 -13.5958 0.125542
-15.5444 -13.095 -0.868136
-15.2082 -13.2531 -0.695259
-15.7446 -12.6533 -1.38488
-16.592 -12.2764 -1.87416
-17.2609 -11.3025 -2.63138
-16.6813 -11.509 -2.53442
-14.6472 -13.0721 -1.6695
-13.7677 -13.0247 -2.30139
-13.1506 -14.3197 -3.17798
-18.2919 -11.9015 0.189806
-17.3115 -12.3241 -0.214749
-16.087 -12.5351 0.488106
-16.6374 -12.4559 -0.620579
-17.3541 -11.9562 -0.845005
-17.0863 -12.2416 -0.66467
-17.3388 -11.915 -1.19083
-17.1228 -12.0728 -1.35334
-17.1935 -12.1132 -1.20267
-17.5194 -11.3973 -1.6293
-15.8874 -13.2715 -0.532003
-16.9708 -11.8168 -1.29806
-17.5371 -11.2138 -1.68608
-15.9864 -12.7041 -1.1117
-15.3055 -13.0433 -1.07997
-15.2906 -12.7819 -0.971342
-14.2446 -13.6728 -0.956669
-16.8709 -11.4622 -2.51896
-14.5311 -13.3795 -1.26578
-14.2529 -13.6134 -1.19186
-16.6048 -11.7507 -2.74495
-15.7525 -11.7975 -2.16075
-15.8445 -11.7431 -2.42438
-14.3229 -13.4504 -2.06193
-14.5539 -12.2739 -2.61238
-16.5035 -12.4648 0.764171
-16.6215 -12.1845 0.190354
-17.2775 -12.3078 -0.372978
-17.7233 -12.0709 -0.669988
-17.5558 -11.7841 -0.842985
-17.0669 -12.285 -1.32289
-15.1525 -13.3696 -0.209193
-14.6516 -13.5164 -0.0651567
-15.3279 -12.6491 -1.43373
-13.8002 -14.0884 -1.77943
-17.7828 -11.6277 -0.575011
-14.0784 -12.4355 1.32348
-15.7894 -13.0217 0.0946147
-15.6913 -13.0387 0.24599
-16.8902 -12.1778 -1.04738
-14.5747 -13.6412 -0.121786
-16.2158 -12.1365 -1.16659
-14.6369 -13.3641 -1.14275
-16.6726 -12.4612 0.740597
-16.3812 -12.5482 0.410366
-15.7784 -12.1873 -1.81189
-14.7781 -13.0688 -1.74155
-15.018 -12.0936 -2.36482
-14.5619 -13.6895 0.104281
-15.3037 -13.23 -0.602659
-15.4004 -13.1756 -0.736494
-13.3668 -13.5116 -2.53502
-13.4421 -13.7073 -2.44123
-17.6436 -12.4972 0.197572
-14.0328 -12.5896 1.24941
-16.8158 -12.0973 -1.39564
-14.2972 -12.8099 -2.35768
-13.4956 -13.0667 -3.172
-15.1017 -11.949 2.05888
-16.4547 -12.6937 1.35103
-16.5945 -13.0281 1.22034
-17.5745 -12.8198 1.03819
-17.6773 -12.7137 0.879563
-18.3087 -12.2969 0.800339
-18.2725 -12.3422 0.691693
-18.1924 -12.1803 0.590309
-16.4036 -12.6356 0.828378
-18.2339 -11.9406 0.471592
-17.8275 -12.5558 0.37569
-17.9542 -12.0993 0.35454
-17.8673 -12.404 0.488554
-18.4195 -12.0221 0.257914
-18.3984 -12.0861 0.213018
-17.8451 -12.0676 -0.0106176
-17.8727 -12.3963 0.0115977
-16.1338 -12.5404 0.29549
-18.3459 -11.8188 0.170312
-18.2863 -11.6854 -0.0539916
-15.9259 -12.9519 0.290472
-17.8188 -11.9266 -0.0124356
-17.837 -12.3285 -0.187279
-17.9952 -12.2597 -0.000288248
-18.2108 -11.8582 -0.131436
-17.7348 -12.1092 -0.127325
-17.5283 -12.4792 -0.191356
-14.2959 -13.7805 0.109254
-17.3286 -12.285 -0.0124954
-18.3491 -11.4855 0.0404658
-16.3535 -12.4348 0.147901
-16.3824 -12.338 0.0461212
-17.8063 -11.8857 -0.242882
-17.8437 -12.1466 -0.535419
-15.1826 -13.3252 -0.346395
-17.8422 -11.8482 -0.306615
-17.797 -12.143 -0.497688
-18.2448 -11.558 -0.169952
-17.8488 -11.994 -0.209748
-17.4408 -12.3787 -0.367935
-17.7295 -11.9183 -0.248566
-17.5155 -11.9453 -0.259572
-18.1321 -11.7141 -0.539843
-16.3988 -12.425 -0.509729
-17.1722 -12.6525 -0.570931
-18.0953 -11.5235 -0.821781
-18.1385 -11.5648 -0.768279
-17.8129 -11.5936 -0.744526
-17.8184 -11.8867 -0.648344
-17.8305 -11.7153 -0.798213
-16.4919 -12.5515 -0.791272
-17.5068 -11.8565 -0.930835
-17.6039 -11.7923 -0.932416
-17.634 -11.914 -0.966085
-14.508 -13.1324 -0.822109
-14.8679 -13.2077 -0.752966
-16.0172 -12.5954 -0.627901
-15.8513 -12.7685 -0.872057
-17.6655 -11.6298 -0.96715
-14.7774 -13.1932 -0.791848
-16.9315 -12.2404 -1.13191
-14.767 -13.5042 -1.07677
-17.7927 -11.8065 -1.10853
-17.7046 -11.6942 -1.17255
-17.6133 -11.8963 -1.03724
-15.8019 -12.824 -0.965929
-17.3591 -12.0238 -1.17544
-16.9974 -12.2732 -1.16112
-14.9425 -13.4096 -1.02043
-14.1792 -13.617 -1.21998
-17.0734 -11.9594 -1.29933
-17.0094 -12.0469 -1.39072
-17.8249 -11.3689 -1.41913
-17.8882 -11.4091 -1.35448
-17.9331 -11.254 -1.26618
-17.4543 -11.7468 -1.44761
-17.4799 -11.7853 -1.51839
-17.477 -11.5651 -1.40353
-14.0567 -13.7107 -1.59231
-17.265 -11.97 -1.43516
-17.5997 -11.5859 -1.45178
-15.2217 -12.872 -1.49412
-17.0244 -11.8739 -1.61422
-17.7945 -11.3062 -1.51559
-17.0573 -11.8318 -1.52944
-17.0894 -12.005 -1.26812
-18.1807 -11.256 -1.41813
-16.6751 -12.2335 -1.75437
-16.5442 -12.0915 -1.56747
-16.5253 -12.1564 -1.70873
-16.6809 -12.0158 -1.61498
-17.042 -11.8297 -1.66811
-16.3879 -12.4508 -1.69858
-16.7827 -12.0092 -1.76589
-17.3099 -11.7621 -1.65094
-16.6054 -12.1744 -1.7011
-16.6205 -12.0883 -1.80182
-16.4781 -12.0709 -1.81804
-17.9721 -11.0381 -1.54169
-17.1716 -11.6522 -1.91757
-17.1135 -11.7213 -1.92124
-18.0067 -10.9635 -1.7784
-16.3007 -12.1556 -2.03636
-17.997 -11.033 -1.85114
-17.027 -11.6274 -2.06289
-17.0886 -11.7502 -1.83182
-17.0115 -11.5613 -1.84995
-17.8675 -11.262 -1.84491
-17.0882 -11.6956 -1.87013
-17.6329 -11.1639 -2.22017
-17.5541 -11.1917 -2.00512
-17.6368 -11.1505 -2.05602
-17.7602 -11.052 -1.9214
-16.5678 -11.8317 -2.30191
-16.6695 -12.0484 -2.10583
-16.2379 -12.2088 -2.32591
-16.3319 -11.8339 -2.31185
-16.8868 -11.7202 -2.0687
-16.8185 -11.5804 -2.32317
-16.8567 -11.6202 -2.18382
-16.8329 -11.632 -2.41066
-17.5681 -10.9305 -2.09899
-16.2554 -11.9349 -2.39731
-17.8579 -11.004 -2.11429
-17.8879 -10.7291 -2.27728
-17.9223 -10.6905 -2.31679
-16.9782 -11.6788 -2.28822
-16.9566 -11.5103 -2.26308
-16.2909 -11.9741 -2.51726
-16.1121 -12.2039 -2.52701
-16.7367 -11.7096 -2.50111
-17.273 -11.3783 -2.54752
-16.9264 -11.4035 -2.37141
-17.7937 -10.8115 -2.39981
-17.4016 -10.975 -2.35399
-17.336 -11.1962 -2.52094
-16.7614 -11.5088 -2.63841
-17.6004 -10.9318 -2.456
-17.3804 -10.9666 -2.57695
-17.6669 -10.8217 -2.28917
-14.7728 -12.2909 -2.52438
-14.9427 -12.2031 -2.51339
-14.9402 -12.3478 -2.31055
-16.187 -11.8718 -2.91404
-16.2306 -11.8213 -3.02365
-16.4082 -11.4838 -2.84251
-16.6289 -11.433 -2.91873
-16.2314 -11.7692 -3.00267
-16.8623 -11.4797 -2.93608
-14.3204 -12.4708 -2.89293
-14.5535 -12.0739 -2.79144
-15.6913 -12.0826 -3.19294
-13.8419 -12.5302 2.03905
-17.9075 -12.5372 0.613815
-18.5538 -11.9415 0.731336
-18.2647 -12.4076 0.624303
-17.998 -12.5872 0.426177
-13.5464 -12.9368 1.06811
-18.3834 -11.9726 0.159547
-16.4411 -12.415 0.342747
-18.1262 -12.0304 0.0314439
-17.9124 -11.888 -0.0625701
-14.4927 -13.9778 0.0690231
-17.0988 -12.5842 0.0217444
-15.1348 -13.3968 -0.00985877
-17.7368 -12.0317 -0.402374
-17.5318 -12.0509 -0.446963
-17.7113 -12.1618 -0.479831
-17.4724 -12.1068 -0.626752
-17.3402 -12.1311 -0.634157
-17.4043 -12.1227 -0.574246
-18.3377 -11.4339 -0.585125
-15.0497 -13.3751 -0.591143
-17.447 -11.7438 -0.580397
-14.2631 -13.706 -0.705638
-16.9517 -12.2674 -0.893655
-17.4356 -11.8807 -0.8086
-15.62 -12.8468 -0.9328
-14.8269 -13.3136 -0.713583
-15.3788 -12.9886 -0.701033
-15.2066 -13.0088 -1.12238
-16.7267 -12.1314 -1.18151
-17.0152 -12.0575 -1.2593
-17.0551 -11.9674 -1.32911
-17.0326 -11.9806 -1.47668
-15.9368 -12.3768 -1.4973
-16.9424 -11.6799 -1.75942
-16.8654 -11.8256 -2.02244
-14.3705 -13.2282 -2.07154
-17.6248 -10.9647 -1.95603
-14.5915 -12.8044 -2.2096
-17.4517 -11.328 -2.02077
-16.5393 -11.7444 -2.40853
-16.2197 -12.2075 -2.39248
-16.4421 -11.6616 -2.46799
-16.0888 -11.9353 -2.5743
-17.4554 -11.1152 -2.52822
-13.9009 -12.9432 -2.40543
-16.5908 -11.795 -2.63245
-17.3871 -11.2538 -2.59355
-14.7115 -12.2601 -2.43115
-16.3721 -11.6151 -2.79569
-16.9039 -11.5054 -2.69546
-15.7797 -12.07 -3.08596
-15.7267 -12.0894 -3.1539
-13.5859 -12.7238 -2.8858
-14.7806 -11.8274 1.38677
-14.931 -12.0018 1.61522
-14.4959 -12.2317 1.31463
-16.2156 -12.7057 0.976865
-18.2695 -11.8876 0.217315
-18.1458 -12.1985 0.267847
-14.7198 -13.6336 -0.090832
-17.7259 -12.1364 -0.204147
-15.2401 -13.3177 0.00588249
-17.3366 -12.4937 -0.598955
-17.0893 -12.5731 -0.43145
-17.6721 -12.0795 -0.596804
-16.2447 -12.75 -0.710428
-17.2579 -12.3128 -0.535122
-17.53 -12.0735 -0.722305
-17.9733 -11.6067 -0.599442
-14.551 -13.622 -0.464035
-14.9965 -13.3237 -0.637032
-14.9974 -13.278 -0.783444
-17.4494 -12.1918 -1.10186
-17.0857 -12.1387 -0.872042
-16.8772 -12.4118 -0.983088
-17.0138 -12.2632 -1.08496
-17.4253 -11.7396 -1.07617
-15.2666 -13.2098 -0.991996
-14.4053 -13.6609 -0.973287
-17.2076 -12.0398 -0.948134
-16.449 -11.7975 -1.27057
-15.5914 -12.7988 -1.55306
-17.3861 -11.5914 -1.49083
-17.2392 -11.7347 -1.75376
-15.5875 -12.6899 -1.71955
-16.505 -12.2275 -2.07351
-16.2244 -12.3351 -2.05885
-17.5107 -11.0793 -2.22142
-16.7492 -11.8328 -2.37732
-15.5223 -12.1479 -2.0892
-16.8392 -11.7708 -2.60292
-16.7185 -11.7232 -2.34826
-16.5201 -11.8246 -2.37692
-15.2993 -12.0244 -2.4825
-13.0105 -13.9123 -3.28745
-17.391 -12.8643 0.996209
-14.9394 -11.8875 1.25442
-16.1711 -12.8178 1.02168
-16.1793 -12.6801 0.213699
-16.2899 -12.0899 0.0257141
-17.4634 -12.4854 -0.15013
-17.4018 -12.296 -0.227262
-17.9895 -11.9397 -0.435171
-17.6547 -12.129 -0.544767
-15.6307 -13.0719 -0.449256
-15.5852 -12.898 -0.338973
-18.1877 -11.6391 -0.431894
-15.6664 -13.0871 -0.786747
-17.3399 -12.0613 -0.836132
-15.7489 -12.8506 -1.03114
-15.2445 -12.9074 -1.14224
-17.0035 -11.9559 -1.2834
-16.8995 -12.2817 -1.41242
-16.9098 -12.1817 -1.45337
-16.7932 -12.0215 -1.52385
-15.365 -12.6956 -1.36288
-14.1215 -13.6088 -1.5053
-15.6572 -12.4266 -1.73496
-15.3173 -12.5767 -1.71777
-14.3576 -13.3113 -1.70345
-14.3326 -13.1294 -1.89869
-15.5644 -12.2528 -1.72383
-16.2579 -12.0846 -2.32002
-15.4555 -12.1175 -2.31228
-16.1755 -12.226 -2.54238
-14.8075 -12.363 -2.35857
-16.5749 -11.6971 -2.50437
-15.2447 -12.1139 -2.43609
-14.679 -12.2432 -2.67308
-13.5292 -12.9065 -2.97855
-17.8437 -12.5584 0.942782
-17.281 -12.3693 -0.15645
-17.1985 -12.5858 -0.072659
-14.6408 -13.5471 0.0916715
-17.5545 -12.5885 -0.0961707
-16.4282 -12.2921 0.127358
-17.2589 -12.4602 -0.140952
-17.3121 -12.2669 -0.358977
-17.2309 -12.268 -0.476554
-15.6246 -13.0757 -0.422958
-16.7214 -12.1731 -0.358289
-15.7947 -13.1376 -0.47478
-17.556 -12.1733 -0.839889
-15.8855 -12.4798 -0.86785
-17.0899 -12.3161 -1.07964
-17.626 -11.8446 -1.38234
-17.3893 -11.7014 -1.33694
-17.7658 -11.507 -1.56893
-14.6558 -13.1274 -1.8164
-15.6792 -12.286 -2.17857
-17.8606 -10.9089 -2.16079
-16.6215 -11.8115 -2.64644
-16.446 -11.847 -2.71461
-14.8348 -12.3277 -2.30306
-14.7735 -12.2773 -2.43091
-15.2516 -12.0044 -2.52973
-14.9931 -12.1244 -2.68178
-13.7186 -13.0769 -2.88071
-13.0385 -13.9364 -3.29857
-14.2295 -12.4694 -2.96004
-17.2162 -11.9157 1.39061
-16.5163 -12.8433 1.15568
-16.871 -12.4414 1.07596
-16.6912 -12.1922 0.288781
-16.6138 -12.1137 -0.0234886
-15.3761 -13.2732 -0.171819
-15.3431 -13.1389 -0.160226
-14.8766 -13.1565 -0.601172
-16.2079 -12.7003 -0.694252
-16.1999 -12.1157 -0.9232
-15.4503 -12.6064 -1.63311
-15.322 -12.5994 -1.66427
-14.983 -12.5138 -1.64726
-14.8544 -12.923 -1.71641
-14.4998 -12.861 -2.48103
-16.9746 -11.5097 -2.78005
-14.8311 -12.0488 -2.59206
-13.3439 -13.1615 -3.09574
-13.27 -12.901 -3.00065
-13.5289 -12.7446 -3.14632
-15.2356 -13.072 -0.208076
-15.3435 -13.215 -0.590615
-17.0619 -11.6803 -1.46801
-17.0451 -11.1947 -2.73004
-15.2136 -12.3028 -2.80134
-16.3173 -12.6424 0.386056
-17.9531 -11.8814 -0.127382
-16.2544 -12.2543 -1.78581
-14.4362 -12.8595 -2.36419
-13.4529 -13.9397 -2.47707
-15.6231 -12.0596 -2.21651
-15.489 -13.0734 -0.259743
-16.1137 -12.7166 -0.895762
-15.674 -12.7873 -0.059207
-15.9876 -12.686 -0.0612022
-15.4635 -13.2029 -0.685724
-17.2042 -12.2202 -0.970418
-16.9836 -12.1285 -1.41321
-14.7342 -11.9995 1.54561
-17.5124 -12.2298 -0.559482
-16.8413 -12.3805 -0.399402
-16.8918 -12.0908 -1.39596
-14.2778 -13.2934 -1.80642
-14.4339 -13.1145 -1.77527
-15.888 -11.7778 -2.97804
-13.7141 -12.8479 -2.35472
-16.7129 -11.5539 -2.52385
-16.6479 -11.728 -2.68672
-17.3235 -11.1781 -2.19921
-17.4305 -11.1871 -2.2501
-17.5064 -11.315 -2.16336
-16.3558 -12.0286 -2.26401
-17.6043 -11.1546 -1.80168
-17.6967 -11.3377 -1.91963
-17.5858 -11.3734 -1.88541
-14.5974 -12.8625 -2.01173
-17.0455 -11.5889 -1.93195
-16.7261 -12.0544 -2.15492
-15.6078 -12.4134 -1.74798
-17.7453 -11.3706 -1.58292
-16.9444 -11.9209 -1.56863
-17.0166 -11.7861 -1.56046
-17.7727 -11.4801 -1.4366
-14.3632 -13.5296 -1.41865
-17.4671 -11.6186 -1.38641
-17.1742 -12.0529 -1.26985
-15.2038 -13.0512 -1.23293
-18.0269 -11.7138 -1.15372
-17.0102 -12.0363 -1.10579
-17.8884 -11.7038 -0.915125
-15.2258 -12.8989 -0.948858
-16.5808 -12.0312 -0.792164
-15.8112 -12.8477 -0.748235
-15.7181 -12.9738 -0.897076
-14.7917 -13.1403 -0.827597
-18.083 -11.6502 -0.650121
-18.2078 -11.6203 -0.777563
-17.3321 -12.0037 -0.786316
-15.0491 -13.3592 -0.799286
-15.3332 -13.2399 -0.714312
-15.1715 -12.9503 -0.632895
-17.2277 -12.2505 -0.839093
-15.1733 -13.112 -0.683247
-16.9699 -12.4546 -0.614166
-17.6609 -12.082 -0.633743
-17.3067 -12.3492 -0.666789
-18.1201 -11.7381 -0.386306
-17.6972 -12.1381 -0.208529
-17.7299 -12.2216 -0.228455
-15.3355 -13.302 -0.224639
-14.8057 -13.5438 -0.101498
-17.3515 -12.5905 -0.09013
-17.8458 -12.1678 -0.0815083
-17.8073 -11.8698 -0.216749
-18.1639 -11.7615 0.00232457
-15.0663 -13.41 0.143086
-16.1523 -12.6345 0.100544
-16.4915 -12.3792 0.372977
-17.7385 -12.4081 0.146854
-17.4596 -12.5538 0.106396
-18.2575 -12.2421 0.182597
-18.3699 -12.0704 0.194776
-17.584 -12.4567 0.341074
-17.9344 -12.244 0.33374
-17.7472 -12.2042 0.305595
-18.1054 -12.2592 0.474212
-18.2881 -12.396 0.567267
-17.8971 -12.4232 0.343581
-16.8707 -12.3678 0.784791
-13.5049 -12.7219 1.07788
-17.6737 -12.6832 0.63526
-18.326 -12.1951 0.717978
-17.5134 -12.7157 1.06632
-16.2564 -12.7043 1.36473
-13.6547 -12.6802 1.98912
-13.8268 -12.7514 -2.94867
-15.2673 -12.1776 -2.53199
-17.6087 -11.1437 -2.44992
-16.5385 -11.6356 -2.51273
-14.4602 -12.7874 -2.20961
-16.2627 -12.1893 -1.94354
-16.9017 -12.0075 -1.80649
-16.7122 -12.2089 -1.64838
-17.7406 -11.2973 -1.60155
-17.6614 -11.3126 -1.57063
-15.2301 -12.9396 -1.53556
-17.6069 -11.4837 -1.21726
-17.1596 -11.8814 -1.27014
-16.9044 -12.1764 -1.34362
-16.8637 -12.1367 -1.40752
-17.7277 -11.6426 -1.19469
-17.1146 -12.3003 -1.10474
-17.6364 -11.6755 -0.852129
-15.3161 -12.9885 -0.698613
-17.2619 -12.5023 -0.0746733
-17.874 -12.1267 -0.0349862
-18.1381 -12.027 0.0717886
-16.3984 -12.2503 0.267781
-16.0717 -12.6295 0.248894
-16.4738 -12.533 0.248279
-16.1117 -12.6383 0.21179
-18.1616 -11.8769 0.226024
-17.9946 -12.2128 0.242778
-17.6696 -12.6297 0.680733
-17.7366 -12.5489 0.61341
-13.8359 -12.5147 1.32961
-16.8724 -12.5057 1.10091
-14.2329 -12.5894 -2.80476
-14.8919 -12.3476 -2.43125
-14.6454 -12.3825 -2.33887
-14.9635 -12.3825 -2.10504
-15.5747 -12.5638 -1.74095
-16.5688 -12.0703 -1.64939
-15.9267 -12.5462 -1.63881
-15.1683 -12.7625 -1.45913
-15.7009 -12.5955 -1.45697
-17.8751 -11.4286 -1.21099
-17.0534 -11.9943 -1.14578
-16.034 -12.6383 -1.02639
-15.5841 -13.175 -0.945913
-16.5654 -12.349 -0.151045
-16.4653 -12.3428 -0.490692
-17.3418 -12.3023 -0.33543
-16.2283 -12.4719 -0.0239817
-18.0795 -12.0117 -0.018436
-17.8554 -12.029 -0.30984
-17.4305 -12.4516 -0.0858735
-18.0413 -11.8748 0.0332137
-18.1453 -11.9856 -0.0732039
-14.4558 -13.9171 0.00754294
-17.9648 -12.168 0.0920486
-14.4432 -12.0274 1.20113
-17.394 -12.7734 0.588703
-17.4136 -12.8636 0.941941
-16.6005 -12.4767 1.06602
-13.7373 -12.9117 1.44771
-13.8737 -13.1444 -2.94329
-14.8508 -12.1328 -2.33883
-16.2164 -11.9732 -2.35051
-17.5719 -11.5767 -1.22776
-15.5151 -13.4412 -0.597128
-17.5043 -12.2524 -0.441936
-17.6498 -12.4823 -0.307955
-15.8867 -12.5768 0.0506429
-17.466 -12.4004 -0.351182
-15.9783 -12.6547 0.108681
-17.5102 -12.5157 0.116883
-18.0462 -12.1218 0.236249
-14.4072 -12.3014 1.3107
-16.6461 -11.9107 -2.65754
-15.9796 -12.6033 -1.15414
-16.0571 -12.7066 -0.989952
-15.3656 -13.0838 -0.356847
-16.6329 -12.3393 0.553569
-15.1655 -12.0416 -2.56218
-16.501 -11.9194 -2.16739
-17.0635 -11.8332 -1.6395
-15.0049 -13.3023 -0.638433
-15.0768 -13.1873 -0.0215966
-16.3281 -12.764 0.991912
-15.3021 -12.5758 -1.6725
-14.765 -12.9394 -1.71136
-14.7884 -13.1501 -1.67761
-17.2559 -11.7429 -1.2001
-17.5072 -11.9297 -1.12845
-17.4936 -12.0681 -0.669045
-17.2166 -12.2147 -0.513237
-14.5431 -13.0757 -2.02853
-15.3537 -13.137 -1.16713
-15.24 -12.9617 -0.711577
-15.3744 -13.0228 -0.281963
-14.7303 -13.4754 -0.0342747
-14.5495 -12.0412 1.12284
-17.4035 -12.1056 -0.57525
-14.6885 -13.7901 0.129438
-14.4653 -13.5423 -1.38642
-15.3347 -13.2184 -0.592469
-17.6169 -10.8777 -2.46143
-17.2048 -11.3958 -2.10228
-17.3612 -11.5148 -1.85858
-16.3289 -12.0002 -2.14754
-14.6895 -12.2995 -2.28096
-17.8262 -11.4803 -1.55513
-13.8882 -13.0297 -2.55757
-17.8153 -11.5065 -0.943272
-16.7957 -11.9921 -1.48806
-17.4954 -11.7739 -0.933184
-18.1723 -11.4628 -0.555959
-16.9291 -11.9817 -1.21271
-18.2003 -11.5898 -0.691176
-17.8607 -11.6818 -0.717123
-17.5969 -11.9878 -0.417424
-15.9949 -12.8519 -1.17595
-17.8544 -12.1496 -0.257047
-14.8811 -13.2781 -1.20352
-17.9266 -11.815 -0.0334648
-15.6836 -12.7698 -0.902004
-17.6669 -12.312 -0.336407
-17.5288 -12.2219 -0.295358
-18.0382 -12.1609 -0.00357941
-17.1254 -12.4774 -0.162189
-18.3176 -11.8473 0.578972
-16.5217 -12.1935 0.029265
-18.3559 -11.9103 0.503487
-17.7928 -12.1426 0.253589
-15.1169 -13.3622 -0.809236
-14.8782 -13.3861 -0.641556
-16.2685 -12.3428 0.0692921
-16.4211 -12.5242 0.0621096
-17.9017 -12.4026 0.363589
-17.7554 -12.6925 0.638175
-16.7218 -12.4884 0.798597
-17.8069 -12.5867 0.967912
-17.7331 -12.5895 0.797261
-15.4049 -12.0316 1.05135
-16.5011 -11.7605 -2.56855
-17.2487 -11.411 -1.94213
-16.5591 -11.8327 -2.40839
-17.9946 -11.3508 -1.2449
-16.9855 -12.0286 -1.33087
-16.9915 -12.1534 -1.18355
-17.7295 -11.7843 -0.842382
-17.0231 -12.1561 -1.12911
-17.5354 -11.6267 -0.819255
-18.1795 -11.6079 -0.653478
-15.6964 -12.819 -1.24431
-17.5533 -11.9509 -0.469116
-17.6893 -12.0208 -0.760137
-17.9508 -11.6444 0.0524357
-17.6906 -11.9397 -0.333568
-18.1778 -12.1107 0.236274
-17.5936 -12.3327 -0.182793
-15.302 -13.2206 -0.713594
-14.8104 -13.3362 -0.653177
-16.3728 -12.327 0.251565
-14.0145 -14.1543 -1.35255
-17.7758 -12.284 0.531863
-14.4027 -12.1649 1.18361
-16.5324 -11.8919 -2.71814
-16.0787 -12.0534 -3.03472
-13.7938 -13.036 -2.41692
-13.8937 -12.8608 -2.46228
-17.1814 -11.985 -1.50408
-17.9457 -11.7897 -0.490472
-15.98 -12.677 -0.950851
-17.1048 -12.6686 -0.560024
-17.0711 -12.3458 -0.376195
-15.438 -12.933 -0.665739
-17.5398 -12.6678 0.677261
-17.5259 -12.7308 0.827707
-16.6218 -12.5869 1.04493
-16.0266 -12.0511 -2.61292
-15.6277 -12.0897 -2.18387
-17.154 -11.8441 -1.59279
-16.8228 -11.9088 -1.82938
-17.1309 -12.1329 -1.02424
-14.5601 -13.0553 -1.68861
-18.1257 -11.8413 -0.28736
-16.0077 -12.8397 -1.00666
-18.4128 -11.9523 0.244739
-17.6282 -12.4235 0.206417
-17.4925 -12.3355 -0.0110812
-14.878 -13.258 -0.631108
-17.626 -12.4887 0.349916
-17.7232 -12.6392 0.291792
-15.3119 -13.4496 -0.306861
-15.2005 -13.3837 -0.0835437
-16.8155 -12.416 1.06497
-14.376 -11.9299 1.30988
-16.2062 -12.8332 1.32405
-16.352 -12.8137 1.38541
-16.1591 -11.8038 -2.93935
-13.4861 -12.7364 -3.07712
-17.5033 -12.6673 0.850595
-14.5299 -13.8042 -0.113579
-14.5746 -13.5972 0.06511
-16.412 -11.9797 -1.14856
-15.5597 -13.0163 -0.436052
-15.6153 -13.0557 -0.160136
-14.414 -12.0206 1.33815
-17.0989 -12.1142 -1.0419
-14.2308 -13.6942 -1.17492
-16.3168 -12.8024 1.11366
-16.9883 -12.0497 -0.993079
-15.3397 -12.1558 -2.23438
-13.6397 -12.9091 -2.84342
-16.441 -11.6518 -2.66049
-17.0204 -12.2659 -1.08377
-17.2859 -12.2704 -0.499268
-14.7378 -12.796 -2.00406
-13.7004 -13.1188 -2.88135
-16.1413 -12.5089 0.130687
-17.4195 -12.9404 0.513579
-17.2891 -12.872 0.70976
-14.1769 -13.5159 -1.42806
-14.8065 -13.3674 -0.597157
-14.3093 -13.9221 -0.187853
-17.8934 -11.4828 -1.43528
-17.7417 -11.2753 -1.28135
-16.3576 -12.2579 -1.91273
-17.801 -12.234 -0.50408
-17.889 -11.9057 -0.228624
-17.4271 -12.4365 0.440228
-16.7856 -12.2798 0.467536
-17.5708 -12.8541 1.03472
-14.8618 -13.2734 -0.602299
-15.0421 -13.2435 0.242564
-17.8534 -11.0625 -1.65326
-16.3997 -11.7476 -2.54442
-15.8036 -11.9002 -2.82251
-14.2752 -13.1051 -2.17761
-12.6306 -14.0793 -3.93841
-15.3078 -12.9702 -1.24427
-17.5668 -12.7521 0.355118
-15.2636 -13.211 -0.790284
-15.3072 -13.3105 -0.309121
-14.1748 -14.3094 -1.23283
-18.1259 -11.113 -1.54282
-14.2915 -13.7571 -1.15348
-14.2527 -13.9097 -1.22769
-14.0269 -14.2068 -1.63738
-16.4809 -11.5975 -2.41666
-17.1081 -12.3153 -0.415312
-15.8751 -12.4006 -1.41163
-17.6531 -12.1455 0.0221366
-13.3275 -13.6736 -2.70421
-18.5287 -12.0168 0.301614
-15.0266 -13.3731 -0.049038
-15.5484 -11.9786 -1.83724
-15.06 -13.5416 -0.885947
-14.9197 -13.4027 -1.04006
-13.3839 -13.0091 -3.03404
-17.6913 -10.8639 -2.11699
-17.6506 -11.0975 -2.05894
-17.1861 -11.6715 -1.65092
-18.13 -11.7116 -0.101351
-16.2877 -12.0138 -2.30195
-16.4507 -12.1633 -1.87329
-16.8696 -12.2513 -0.955513
-16.1403 -11.9202 -1.24626
-18.0249 -12.4171 0.453276
-14.7243 -12.7361 -1.86641
-14.9855 -13.0302 -1.53177
-15.2541 -13.2352 -0.632199
-15.0028 -12.1794 1.44335
-16.5772 -11.7704 -2.61362
-18.0529 -11.7549 -0.329859
-14.8674 -12.1371 -2.40107
-16.6554 -12.4813 0.580067
-14.9649 -12.8036 -1.80783
-14.8595 -12.8887 -1.86264
-15.1089 -12.9002 -1.32194
-15.2923 -13.0436 -1.09274
-15.4194 -13.1468 -0.681659
-14.2841 -13.9403 -0.709792
-17.617 -11.4246 -1.51525
-17.0737 -11.9306 -1.72577
-16.4945 -12.2291 -1.89068
-17.2201 -12.1779 -0.219011
-13.7265 -13.0197 -2.46864
-16.4443 -12.7935 0.678363
-15.3355 -13.1421 -0.725552
-15.2249 -13.2193 -0.485879
-14.5295 -13.6036 -1.25285
-14.1596 -13.7371 -1.37831
-14.1704 -13.7789 -0.882796
-16.1484 -12.4013 0.158866
-15.6374 -13.0366 0.0111986
-15.4659 -13.1719 -0.701009
-14.2009 -13.8756 -1.31261
-17.6396 -12.4709 0.256012
-15.4562 -12.8136 -1.72703
-18.2305 -11.8213 -0.363445
-14.7879 -13.0384 -1.39298
-17.0942 -12.1612 -0.991892
-16.4908 -12.2321 -1.08154
-16.1111 -12.0439 -2.48747
-17.652 -11.3366 -2.04267
-17.9472 -11.7754 -0.414394
-18.0193 -11.7815 -0.26099
-17.5421 -11.6305 -0.961417
-17.8207 -11.7896 -0.322228
-17.311 -11.8525 -1.31221
-17.307 -11.6573 -1.363
-16.8058 -11.6243 -2.46323
-16.651 -11.7273 -2.07749
-17.0477 -12.2449 -1.28236
-15.2505 -12.0184 -2.61045
-14.8195 -12.165 -2.33809
-14.9953 -13.0177 -1.07039
-14.9116 -13.315 -0.789906
-14.3278 -13.4236 -1.45261
-14.2641 -13.5798 -1.30369
-14.1022 -13.5076 -1.10013
-14.1558 -13.9679 -1.17654
-17.6254 -11.9243 -0.824323
-17.2124 -11.7422 -2.09092
-17.3323 -12.2271 -0.748091
-16.3757 -11.9149 -2.27626
-16.0503 -12.0389 -2.97313
-15.3785 -13.0459 -1.0689
-14.6341 -12.7884 -1.89459
-14.3541 -13.3129 -1.90546
-14.259 -13.5744 -1.26212
-14.4618 -13.7193 -1.33013
-14.534 -13.8767 -1.30851
-14.2017 -13.5386 -1.17118
-14.4835 -13.8545 -1.20132
-17.8217 -10.9854 -2.18787
-18.1917 -11.5302 -0.340447
-18.2522 -11.6693 -0.104901
-17.9203 -11.615 -0.370312
-17.6975 -11.7488 -0.744166
-17.1371 -11.7844 -1.44815
-15.5379 -12.0326 -3.11471
-16.145 -12.8857 0.871418
-15.0944 -13.1445 -1.43976
-14.2925 -13.5076 -1.42196
-14.047 -13.6243 -1.45917
-17.9977 -11.7345 -0.283385
-16.4851 -12.2021 0.185748
-17.0008 -12.5069 1.08752
-15.3721 -12.9458 -1.35384
-15.1137 -13.0771 -0.663247
