-14.5633 -13.8184 0.0201069
-13.822 -14.2795 0.540172
-12.1362 -16.323 1.71115
-14.8251 -13.6882 -0.00521745
-13.3867 -14.3252 0.815986
-13.1212 -15.0603 0.938455
-13.156 -15.1667 1.03905
-12.4392 -15.8406 1.67929
-12.4285 -15.1661 1.61947
-13.9223 -14.2669 0.818902
-12.7325 -15.3859 1.59503
-12.6069 -16.3405 2.09273
-13.5665 -14.7197 1.04423
-12.4843 -16.2833 1.80183
-13.676 -14.5019 0.944275
-12.6799 -15.2726 1.69837
-14.6775 -13.6419 0.180567
-14.5468 -13.9033 0.370954
-14.6314 -13.8892 0.448708
-14.6403 -13.8819 0.416909
-12.8244 -15.1714 1.52577
-12.7397 -15.7054 1.68941
-12.7357 -15.7946 2.03211
-14.8331 -13.7947 0.460616
-13.6385 -14.7639 1.26588
-13.3264 -14.6993 1.31581
-12.6159 -15.8836 1.77236
-13.0554 -14.8036 1.47139
-13.614 -14.6333 0.972506
-13.676 -14.8414 1.05373
-14.712 -13.618 0.198967
-14.0598 -13.7789 0.898338
-14.7118 -13.4337 0.427022
-14.7924 -13.5147 0.381435
-13.9417 -14.4549 1.04279
-13.9514 -14.0891 0.93626
-13.928 -13.915 1.16616
-15.1701 -13.4966 0.330008
-13.9506 -13.8609 1.39584
-13.1709 -14.7224 1.94654
-13.6612 -13.9814 1.75663
-13.4979 -14.066 1.72197
-13.3189 -14.7463 2.02716
-13.7711 -14.2532 1.62823
-12.4784 -15.7019 2.50496
-12.954 -15.0892 2.10292
-13.638 -13.8277 1.62264
-12.5624 -15.4695 2.49969
-15.5911 -12.5869 0.369956
-15.4091 -13.0983 0.616971
-13.1782 -14.8992 2.16989
-14.0237 -13.7786 1.44197
-14.2227 -13.5988 1.21193
-13.781 -14.039 1.67221
-15.4784 -12.7763 0.775228
-13.9243 -13.6451 1.58191
-13.4435 -14.4767 1.94569
-13.9818 -13.8822 1.75691
-13.5298 -14.3207 2.02732
-13.1626 -14.5777 1.98944
-15.1014 -13.3585 0.951262
-13.6666 -14.4295 2.04495
-13.1646 -15.3679 2.4645
-13.4666 -14.4016 1.96841
-13.1023 -14.8843 2.37741
-15.4036 -13.4975 0.994649
-12.7845 -15.2057 2.52049
-15.431 -13.3702 0.939095
-12.9167 -15.3721 2.67594
-15.8462 -12.7087 0.675112
-15.5235 -13.0761 0.981068
-15.2393 -13.3422 1.3877
-15.3848 -13.182 1.48819
-15.7896 -12.9029 1.30197
-15.6153 -12.9476 1.3292
-15.7775 -12.9773 1.29863
-15.7836 -12.8544 1.24629
-15.3855 -13.2635 1.5873
-15.512 -13.2582 1.46553
-12.3733 -13.0855 2.72204
-12.3628 -13.3999 2.83374
-12.0684 -13.4495 3.03326
-12.4258 -13.5747 3.04646
-12.1081 -14.1232 3.23567
-12.0004 -13.7622 3.1853
-12.4016 -13.1546 3.17577
-11.9768 -13.8186 3.15917
-12.3183 -13.7571 3.30381
-12.0746 -13.7218 3.44792
-12.4201 -13.0652 3.02217
-12.5075 -13.4245 3.23437
-12.6775 -12.9565 3.33718
-11.3377 -17.4063 0.0416155
-10.962 -17.6896 0.220955
-13.782 -13.5461 -2.35983
-11.5911 -15.9229 -0.304991
-12.8735 -14.7983 -1.10601
-13.9274 -14.0171 -1.81208
-13.4179 -14.353 -1.59498
-13.3081 -14.8011 -1.16085
-11.6613 -16.0161 0.210439
-13.4625 -14.6608 -1.13992
-13.9004 -13.6482 -1.75982
-11.3587 -17.4338 0.548384
-13.9117 -13.8088 -1.35226
-13.9725 -14.1259 -1.27559
-14.0109 -13.5862 -1.62625
-13.4901 -14.3894 -1.10354
-13.4366 -14.4009 -1.00619
-12.2401 -15.4366 0.0611906
-14.4711 -13.3399 -1.70441
-13.5053 -14.5487 -0.922407
-13.7432 -14.5239 -1.13194
-11.4457 -17.2041 0.866618
-13.7582 -14.2765 -1.0721
-13.6032 -14.5105 -0.840184
-14.2844 -13.3421 -1.59514
-13.7226 -14.523 -0.658346
-14.4022 -13.5852 -1.29828
-14.1122 -13.6886 -1.15096
-14.3949 -13.6777 -1.23455
-14.3338 -13.238 -1.34047
-11.778 -16.55 1.16507
-14.4394 -13.0941 -1.36076
-14.0168 -14.0346 -0.82756
-14.094 -14.0965 -0.931422
-14.2953 -13.8232 -1.08902
-13.8152 -14.4198 -0.350222
-11.8623 -16.4253 1.1922
-13.0751 -15.0043 0.00597538
-13.906 -14.4151 -0.352186
-13.9287 -14.4894 -0.194568
-14.7864 -13.3619 -0.760352
-14.8952 -12.9932 -0.962871
-14.7315 -12.8495 -1.05083
-14.6885 -13.4035 -0.443707
-14.4901 -13.4692 -0.357758
-13.5155 -14.9062 0.58936
-13.2403 -15.0242 0.739615
-13.3383 -14.6273 0.747101
-13.6741 -14.5129 0.492099
-14.5777 -13.6105 0.0131753
-13.2801 -14.8 0.88509
-14.4149 -13.6414 -0.0982695
-14.475 -13.9553 0.321074
-12.6131 -15.7903 1.67035
-14.5762 -13.7499 0.196627
-12.7355 -15.5427 1.78497
-14.5169 -13.759 0.311318
-13.096 -14.9907 1.35671
-13.1418 -15.0144 1.4255
-12.4786 -15.8172 2.01943
-15.1955 -13.0985 -0.0209203
-14.7404 -13.5348 0.452918
-15.0765 -13.2988 0.432817
-15.1959 -13.2531 0.239556
-14.1834 -13.8433 1.06592
-15.0968 -13.1294 0.331098
-13.3872 -14.8413 1.68804
-14.9935 -13.212 0.601786
-14.8008 -13.6597 0.568311
-15.232 -13.1325 0.517471
-15.3363 -13.2642 0.453632
-13.3079 -14.9154 2.04516
-15.351 -13.0835 0.721777
-15.0837 -13.4369 0.633991
-14.055 -13.4128 1.18409
-14.0703 -13.3183 1.07167
-14.0232 -13.5086 1.20628
-13.4159 -14.26 1.57426
-13.5766 -14.2929 1.67481
-15.3606 -12.78 0.483124
-15.3419 -12.9096 0.586305
-15.0547 -13.2938 0.819792
-12.7477 -15.2934 2.59034
-12.8851 -15.1636 2.4898
-13.0612 -14.933 2.25482
-13.1892 -14.9219 2.25975
-15.7326 -12.761 0.647842
-15.9643 -12.6145 0.776128
-15.8527 -12.5925 0.827014
-15.3839 -13.4617 1.18661
-15.444 -12.9053 1.22304
-15.6641 -12.8918 1.07101
-12.1932 -13.3258 3.03455
-11.9665 -13.4945 3.13847
-12.5168 -13.2231 2.61391
-12.46 -13.6321 3.04198
-12.4389 -13.1239 2.74388
-15.6769 -13.0067 1.8305
-12.0984 -13.7926 3.38584
-12.4619 -13.4657 3.13235
-12.3835 -13.497 3.43066
-12.5209 -13.4028 3.26374
-12.4002 -13.4814 3.33869
-12.4235 -13.3019 3.42071
-10.7756 -17.8178 -0.0483569
-11.1697 -17.4775 -0.140248
-11.0572 -17.6816 0.213947
-13.1304 -14.8361 -1.8192
-13.436 -14.2557 -1.86185
-14.0215 -13.7175 -2.09542
-11.6336 -15.8182 0.215524
-12.2678 -15.3142 -0.18248
-12.2057 -15.4094 -0.169284
-13.3799 -14.6446 -1.29298
-12.3757 -15.0636 -0.192227
-14.3378 -13.2657 -1.90802
-14.2296 -13.4051 -1.82723
-14.1371 -13.4998 -1.73641
-13.7806 -14.3689 -1.27917
-12.0276 -16.0182 0.214286
-13.6723 -14.2006 -1.16835
-12.1992 -15.5468 -0.0291574
-12.7101 -14.6611 -0.249275
-11.5561 -17.4869 0.9225
-14.3251 -13.4104 -1.33535
-12.3959 -15.3403 0.244232
-12.1273 -15.6786 0.384362
-12.8925 -15.0903 -0.184077
-14.1139 -13.7739 -1.07376
-13.53 -15.0209 -0.640598
-12.286 -15.8886 0.329942
-14.3502 -13.5891 -1.03977
-14.0986 -13.904 -0.828896
-13.5442 -14.6579 -0.46892
-14.256 -13.9651 -0.875479
-14.1044 -13.7938 -1.10358
-12.8119 -14.848 0.151227
-14.9087 -13.1811 -1.19951
-13.7778 -14.5527 -0.56457
-13.7161 -14.4671 -0.333375
-13.788 -14.0411 -0.475783
-14.2897 -13.8106 -0.528977
-12.0708 -15.9048 1.2436
-12.5921 -15.4244 1.2679
-12.9768 -15.1945 1.05868
-12.6904 -15.0363 0.834196
-13.6467 -14.7343 0.678649
-13.2849 -14.9665 1.03114
-13.4909 -14.7219 0.9041
-12.952 -15.2115 0.926943
-12.6004 -16.0092 1.75608
-13.1219 -15.0047 1.32663
-13.5844 -14.4028 0.647469
-13.5042 -14.5084 0.833199
-14.5099 -13.77 0.36133
-15.0799 -13.1269 0.0811844
-13.1911 -14.8755 1.27644
-13.8669 -13.7602 0.79288
-12.6438 -15.7673 1.95261
-13.2198 -14.8927 1.54719
-13.2022 -15.0979 1.46002
-14.7404 -13.7434 0.76451
-14.8838 -13.5331 0.545348
-15.4612 -12.9615 0.310214
-15.3058 -13.2064 0.364222
-15.3436 -13.0931 0.797645
-15.2595 -13.1052 0.605528
-13.8685 -13.8351 1.56748
-13.0609 -15.3527 2.50172
-12.7496 -15.4297 2.454
-13.9785 -13.8731 1.58507
-12.8763 -15.1868 2.66352
-15.5255 -13.1178 0.911692
-15.7211 -12.8544 0.897256
-15.7123 -12.9071 0.972252
-15.7445 -12.4855 0.874844
-15.4565 -13.3901 1.50502
-12.3951 -13.2571 3.04875
-12.0427 -13.8096 3.47419
-12.8675 -15.013 -1.48981
-13.1252 -14.8963 -1.487
-12.7514 -15.0467 -1.50968
-13.2826 -14.836 -1.46388
-13.9028 -13.6118 -1.94438
-12.1048 -15.2207 -0.316933
-12.3438 -15.1774 -0.537736
-11.4304 -15.9823 0.31009
-14.3225 -13.6007 -1.9961
-12.1281 -15.2288 -0.193566
-12.2031 -15.1969 -0.350115
-13.3899 -14.7482 -0.589817
-13.2996 -14.9609 -0.594671
-14.1911 -13.7545 -1.23055
-14.0999 -13.4628 -1.31059
-13.6432 -14.5635 -0.498751
-13.3407 -14.6287 0.289401
-12.679 -15.1986 0.739709
-14.9988 -12.8142 -0.714153
-14.5481 -13.597 -0.457408
-14.3944 -13.5966 -0.165922
-13.0707 -14.9396 0.985944
-13.0668 -15.1509 1.06355
-12.3938 -16.1266 1.79604
-12.6325 -15.8698 1.92714
-13.101 -14.9495 1.15211
-13.0015 -15.031 1.42134
-12.9153 -15.26 1.64102
-12.4459 -15.8913 2.0327
-14.1125 -13.8781 0.859795
-14.9596 -13.7384 0.750689
-15.0139 -13.3253 0.537969
-15.4221 -12.8973 0.392389
-15.2172 -13.2631 0.457409
-13.5226 -14.4496 1.70667
-13.7169 -14.0849 1.6211
-13.4601 -14.1219 1.70296
-13.2036 -14.7692 2.05448
-13.3105 -14.8999 2.34013
-13.0402 -14.9301 2.26043
-15.652 -12.9015 1.01428
-15.9391 -12.7216 0.896997
-12.6983 -13.1555 3.03655
-11.3518 -16.0327 -0.116935
-11.3533 -15.9711 0.27412
-12.0015 -15.2167 -0.144151
-11.4834 -15.8378 0.00375606
-11.6985 -15.9767 0.202538
-13.2925 -14.5168 -1.18782
-12.2634 -15.3158 -0.0281254
-12.0134 -15.7516 -0.094965
-12.7039 -14.778 -0.624892
-14.3698 -13.7229 -1.08158
-12.9487 -14.8524 0.163363
-12.4866 -15.4616 0.593434
-13.9123 -14.4179 -0.179747
-12.471 -15.4098 0.751223
-14.4895 -13.5664 -0.616648
-12.2128 -16.3428 1.65515
-14.9849 -13.1506 -0.452497
-12.4823 -15.7587 1.26053
-14.5261 -13.9848 -0.0258219
-12.3939 -15.7011 1.71059
-14.5536 -13.8656 0.200996
-14.433 -13.8704 0.387853
-12.6457 -15.3974 1.82627
-15.0198 -13.381 0.10191
-12.753 -15.4259 1.98557
-14.1329 -13.7847 0.832467
-14.8784 -13.5488 0.795085
-13.2863 -14.6473 2.06219
-12.8453 -15.3473 2.47817
-12.0666 -13.7409 3.41252
-14.1639 -13.3719 -1.92464
-11.8645 -15.747 0.25405
-12.1341 -15.6767 0.270429
-13.7056 -14.4626 -0.994703
-14.3099 -13.6967 -1.30439
-12.9784 -14.7222 0.258409
-12.7789 -15.0329 0.400611
-12.726 -15.3775 1.26077
-12.7524 -15.3805 1.19156
-14.3635 -13.9101 0.28289
-15.1827 -13.0685 -0.0885536
-13.1436 -14.9886 2.17998
-14.2626 -13.4707 1.37549
-13.9678 -13.423 1.58888
-14.2438 -13.487 1.27204
-15.3685 -13.3202 1.16504
-10.8992 -16.2562 -0.222323
-11.2353 -16.2943 -0.061417
-12.0599 -15.3705 -0.518331
-13.1179 -14.9621 -1.35572
-11.3711 -16.8007 0.661911
-11.9901 -16.0191 0.839064
-12.3241 -15.9057 1.35924
-13.0584 -14.9021 1.04854
-13.9675 -14.044 0.571323
-12.7859 -15.2764 1.47966
-13.953 -13.8974 0.874119
-14.0875 -13.6129 1.4431
-14.0173 -14.038 1.44439
-13.6076 -14.3042 2.02938
-13.6932 -14.0239 1.60302
-15.5628 -12.7932 0.757791
-13.9223 -13.8722 1.60384
-15.8434 -12.753 1.33338
-12.5554 -15.5651 0.746912
-12.3555 -15.781 1.32991
-12.3872 -15.9022 1.63498
-13.3194 -14.9406 1.8044
-13.936 -13.6834 1.37631
-12.0101 -13.6153 3.76603
-12.989 -14.9441 0.166499
-12.9946 -14.9612 0.374051
-15.0309 -13.4059 0.338363
-15.1623 -13.0122 0.564573
-14.0529 -13.6384 1.51507
-12.7045 -15.2082 0.555233
-12.4898 -15.5088 1.05029
-11.7026 -16.2474 0.650505
-12.1698 -16.0383 0.827227
-14.2565 -13.5731 -1.76885
-13.5306 -13.9191 -1.95471
-13.526 -14.1117 -2.07243
-14.1654 -13.6175 -1.36867
-13.5463 -14.0723 -1.63156
-14.2746 -13.7165 -1.2787
-14.1572 -13.9955 -0.95453
-13.0657 -14.9645 -1.56819
-14.7808 -13.1831 -0.617091
-13.0582 -14.9159 -1.54626
-13.9421 -13.7839 -1.24393
-14.3991 -13.5577 -0.704291
-14.3734 -13.7347 -0.860172
-14.0705 -14.1625 -0.939354
-13.0066 -14.8207 -1.34133
-13.5446 -14.4035 -0.90649
-12.7917 -15.2121 -1.27874
-13.54 -14.252 -0.898288
-12.8112 -15.1907 -1.39145
-12.7029 -15.1056 -1.23627
-14.3216 -13.9443 -0.323549
-12.8605 -15.358 -1.37416
-14.1953 -13.7907 -0.393332
-15.0637 -13.3501 0.0342421
-14.9536 -13.4465 0.115858
-14.8506 -13.5009 -0.113145
-14.9968 -13.2937 -0.175541
-15.1513 -13.1433 0.117353
-15.5899 -12.9772 0.516629
-15.156 -13.0745 0.426081
-15.1205 -13.2708 0.597732
-13.7848 -14.3197 -0.455647
-15.1672 -13.5123 0.336198
-13.6251 -14.3525 -0.159485
-13.7818 -14.4474 -0.381198
-13.704 -14.7608 -0.492425
-14.9716 -13.3929 0.296436
-15.7683 -12.5679 0.996913
-14.8221 -13.3683 0.408296
-11.5419 -15.5336 -0.762492
-14.8594 -13.6033 0.357297
-15.1155 -13.3321 0.329695
-15.1249 -13.3351 0.654192
-12.8794 -14.9347 -0.362644
-12.8397 -14.8643 -0.192071
-14.3802 -13.9767 0.321239
-11.5185 -15.7834 -0.526815
-12.529 -15.169 -0.306281
-13.326 -14.6976 0.270004
-13.4204 -14.5148 0.166101
-13.0014 -14.8997 -0.023043
-13.3421 -14.5026 0.290802
-15.2177 -13.4875 0.832638
-15.3522 -13.2811 0.967694
-12.9037 -14.9245 0.147275
-13.4542 -14.5889 0.46976
-13.7986 -14.1564 0.450096
-13.7511 -14.2993 0.717074
-13.8958 -13.9969 0.544055
-14.1591 -13.4646 1.38826
-15.5062 -13.3267 1.47049
-13.3372 -14.925 0.373357
-14.0664 -13.6349 1.28177
-15.748 -13.114 1.75962
-14.0137 -13.6556 1.54443
-13.5977 -14.3927 0.93826
-13.4863 -14.7094 0.732551
-13.8516 -13.7792 1.49084
-11.3979 -15.9669 0.345016
-11.6179 -16.2377 0.292771
-12.3436 -15.4725 0.643297
-12.3629 -15.5562 0.695221
-12.6517 -15.2379 0.90602
-12.7862 -15.2035 1.0693
-13.76 -14.1162 1.78762
-13.4017 -14.8325 1.37621
-12.5092 -15.4115 1.15914
-11.1106 -17.6063 -0.263751
-11.0402 -17.5068 -0.136252
-13.5903 -14.1598 2.00919
-10.9569 -17.5491 -0.0757106
-11.5283 -16.1964 0.625143
-13.3628 -14.9893 1.59808
-11.5922 -16.4786 0.743327
-13.4075 -12.8433 3.11521
-13.1728 -15.0186 1.48322
-11.0345 -17.5769 -0.137479
-10.8382 -17.3492 0.0396573
-12.6566 -15.3033 1.58204
-12.7268 -15.1916 1.52447
-12.9296 -15.3971 1.44365
-12.538 -15.1258 1.73305
-12.7393 -15.1372 1.65692
-11.7779 -16.6386 0.94394
-11.8473 -16.5319 1.03979
-12.6542 -15.6057 1.83146
-12.7788 -15.6664 1.78916
-13.0475 -14.9082 2.28071
-12.6431 -15.8324 1.86723
-13.0105 -15.227 2.35196
-12.0805 -13.8205 3.40155
-12.058 -13.7835 3.17003
-12.4361 -15.9058 1.91545
-12.5767 -15.9035 2.18586
-11.8323 -13.8688 3.37713
-12.8024 -15.4945 2.44482
-12.5366 -15.7192 2.43443
-14.2561 -13.1942 -2.14726
-14.2698 -13.3889 -1.84206
-14.3529 -13.2177 -1.7819
-14.1391 -13.3653 -1.7188
-14.8234 -13.2396 -1.37775
-14.4756 -13.2644 -1.13008
-15.0367 -12.9221 -0.897476
-13.1467 -14.5732 -1.84271
-14.4803 -13.2358 -0.693354
-13.6896 -14.2065 -1.30313
-14.6046 -13.1131 -0.617472
-14.5451 -13.5444 -0.858824
-14.1423 -13.9514 -0.900526
-13.6307 -14.2694 -0.973323
-13.1471 -14.7528 -1.2633
-13.8054 -14.1142 -0.957939
-13.1977 -14.9246 -1.32529
-13.3828 -14.4584 -0.944768
-12.119 -14.9297 -1.01606
-14.642 -13.7064 -0.64812
-13.3958 -14.6312 -1.05203
-14.6326 -13.393 -0.0876618
-12.654 -15.277 -1.32773
-13.8844 -14.2798 -0.694504
-15.707 -12.5719 0.268108
-15.0785 -13.2361 0.0353882
-14.8693 -13.4088 0.125063
-15.9419 -12.5257 0.711733
-13.9207 -14.475 -0.411196
-11.5742 -15.543 -0.945575
-13.8153 -14.4684 -0.312655
-12.1525 -15.134 -0.269623
-15.82 -12.8062 0.819028
-15.1258 -13.3928 0.581717
-14.7613 -13.7795 0.365329
-15.5228 -12.8904 0.65185
-12.2018 -15.1704 -0.356703
-14.4546 -13.955 0.421828
-14.4953 -14.0108 0.296004
-14.4482 -13.965 0.369253
-11.4075 -16.0145 -0.647136
-12.1746 -15.2908 -0.0935681
-15.6641 -12.8942 1.16928
-13.3989 -14.5199 -0.0890154
-15.4923 -12.9676 1.23746
-15.6614 -12.7484 1.22891
-14.9368 -13.7691 0.721102
-15.6316 -12.9794 1.19895
-14.7843 -13.7494 0.66855
-15.2713 -13.3679 1.07744
-15.1341 -13.148 1.10447
-15.2329 -13.3488 1.05428
-13.8885 -14.2135 0.712978
-13.5003 -14.3178 0.44339
-14.0575 -13.5441 1.32243
-15.4238 -13.4889 1.20958
-13.9476 -14.0767 0.839767
-14.1542 -13.3094 1.3249
-11.3894 -15.9669 -0.0795303
-13.705 -13.8648 1.41326
-14.098 -13.8022 1.43612
-11.5896 -15.9913 0.149388
-11.5789 -16.0338 0.142674
-11.2773 -16.0722 0.203843
-12.8531 -15.0443 0.928777
-13.0426 -15.1021 0.567205
-11.7282 -15.9906 0.348236
-11.4949 -16.1545 0.163806
-12.63 -15.6223 0.635719
-13.8042 -14.7412 1.19979
-12.3492 -15.4268 0.713638
-13.4768 -14.8139 1.03259
-12.4701 -15.5267 0.49388
-13.6413 -14.2384 1.67679
-13.1394 -13.102 2.50748
-13.6829 -14.2205 1.69739
-12.5242 -15.4846 0.820614
-12.5573 -15.5196 0.855477
-13.6102 -14.2911 1.80915
-10.759 -17.5345 -0.32569
-12.9633 -15.4496 1.04438
-10.9539 -17.3028 -0.364695
-13.075 -15.2438 1.24346
-13.1982 -14.9054 1.39394
-10.9206 -17.4508 -0.172835
-10.8273 -17.4153 -0.379517
-10.9366 -17.6999 -0.175805
-11.007 -17.4134 -0.0604852
-10.966 -17.4711 -0.329193
-11.4061 -17.1744 -0.154234
-10.9177 -17.4208 -0.108619
-11.266 -17.142 -0.136278
-10.7411 -17.4579 -0.247965
-11.6205 -16.4838 0.547232
-12.5133 -13.236 2.70549
-12.4841 -13.2089 3.09995
-12.0937 -15.9617 1.10951
-11.5566 -16.3989 0.569478
-10.7256 -17.4918 -0.286771
-12.5306 -13.4057 3.12978
-12.57 -13.1305 3.48669
-10.8163 -17.7115 0.0415778
-10.8897 -17.6197 0.071897
-13.1746 -14.9326 2.26166
-12.2778 -13.6078 3.0172
-12.2888 -15.789 1.32625
-12.2654 -15.7273 1.4148
-12.2254 -13.5752 3.05965
-12.0009 -16.4204 1.07342
-12.4404 -15.7406 1.66386
-12.5854 -15.739 1.66722
-11.6764 -16.6466 1.1396
-12.3903 -13.5182 3.44168
-11.1301 -17.6268 0.348552
-13.3065 -14.8815 2.26887
-12.1532 -16.1056 1.61372
-12.3009 -13.5355 3.18045
-12.4727 -15.5737 1.82726
-12.897 -15.5132 1.70616
-11.6707 -16.6059 1.4212
-11.7374 -16.8699 1.29636
-12.721 -15.7601 2.03331
-12.4161 -15.9792 1.86239
-12.4582 -16.2537 1.88995
-12.5393 -16.0983 1.84076
-12.9224 -15.2891 2.47137
-12.6771 -16.102 2.11515
-12.3535 -16.2477 2.02832
-11.6754 -13.9533 3.27125
-12.7688 -15.398 2.38248
-12.5175 -15.6427 2.52538
-12.7447 -15.5688 2.53709
-14.3517 -13.3209 -1.82854
-14.1224 -13.7235 -1.95442
-15.0764 -12.8526 -0.995183
-14.8815 -13.1174 -0.936391
-12.9077 -14.8345 -1.42455
-12.9449 -14.8931 -1.55856
-13.1338 -14.7158 -1.37179
-12.9 -15.0362 -1.49401
-13.7081 -14.1589 -1.06434
-13.7675 -14.3438 -1.22236
-14.1916 -13.7901 -0.35793
-14.8058 -13.341 -0.141485
-14.4508 -13.8345 -0.209282
-15.6475 -12.7283 0.325424
-15.7425 -12.7505 0.309609
-13.6724 -14.4555 -0.824391
-15.209 -13.2536 0.379485
-15.4868 -13.0009 0.507869
-14.4662 -14.0858 -0.0487603
-15.978 -12.7079 0.789013
-13.6891 -13.9517 0.138692
-13.7919 -14.2259 -0.395071
-12.2639 -14.9009 -0.537297
-13.798 -14.4007 -0.321277
-15.5505 -13.0797 0.601007
-14.6062 -13.9072 0.326443
-14.4166 -13.9072 0.308898
-15.6474 -12.8567 1.02505
-12.2474 -15.1372 -0.262801
-12.0294 -15.3201 -0.307385
-14.5599 -13.7277 0.58042
-14.7193 -13.6498 0.621515
-15.027 -13.49 0.951005
-13.5126 -14.5234 0.392298
-14.2331 -13.6358 1.13164
-14.029 -14.0131 0.76967
-15.3192 -13.1571 1.40368
-13.4814 -14.554 0.336331
-13.544 -14.399 0.726578
-13.549 -14.7338 0.507376
-15.337 -13.3247 1.20905
-12.3071 -15.4943 0.207506
-15.3369 -13.4161 1.3876
-13.6413 -14.46 0.776697
-14.1441 -13.4114 1.68413
-11.5293 -16.0047 0.102087
-12.9495 -14.9621 0.629732
-12.7528 -15.2469 0.724871
-11.4687 -16.1295 0.0280842
-11.6836 -15.8916 0.395142
-13.4914 -14.8468 0.992168
-13.4476 -15.1205 1.04393
-13.6805 -14.1213 1.55757
-12.4006 -15.3955 0.7778
-12.9078 -15.0537 1.15098
-13.5789 -14.4063 1.59598
-13.6035 -14.1751 1.88053
-12.5819 -13.1328 2.64028
-12.4785 -15.4853 0.941353
-11.0976 -17.0801 -0.174216
-12.5568 -15.4052 1.12987
-10.5835 -17.8389 -0.0540918
-13.2011 -14.7195 1.99428
-10.8526 -17.7935 0.030341
-12.2111 -16.0419 1.0342
-12.0549 -15.9606 1.10061
-12.1218 -16.153 1.28834
-12.128 -16.159 1.18572
-11.008 -17.4875 0.440465
-12.4786 -15.5898 1.77354
-12.9846 -15.0319 2.12485
-12.2107 -16.1971 1.4795
-12.7347 -15.6328 1.90442
-13.1012 -15.1482 2.38302
-12.4492 -15.7717 1.87876
-12.5501 -13.3376 3.4846
-12.2649 -16.5028 1.51777
-11.9829 -16.6549 1.58632
-12.7864 -15.3647 2.67743
-13.6161 -14.0381 -1.9596
-13.5187 -14.1867 -1.97317
-14.7169 -13.0413 -1.21136
-14.886 -13.1462 -1.02493
-14.0107 -13.8009 -1.07277
-13.2024 -14.6045 -1.25043
-14.2167 -13.8327 -0.443268
-12.9071 -14.977 -1.06071
-12.8472 -14.9871 -1.12563
-13.8843 -14.4621 -0.532002
-15.841 -12.6097 0.594423
-13.6236 -14.4551 -0.387903
-13.7389 -14.5547 -0.186885
-11.9838 -15.094 -0.504252
-13.6797 -14.3613 -0.23471
-14.6158 -13.8794 0.335152
-14.5515 -13.6468 0.320284
-15.1626 -13.2276 0.760332
-15.786 -12.7835 1.08642
-15.8229 -13.06 0.935889
-15.5135 -13.1467 1.13156
-11.7898 -15.4576 -0.414466
-14.8091 -13.8464 0.509683
-14.7635 -13.6674 0.763657
-14.807 -13.8503 0.78206
-13.6944 -14.624 0.751943
-13.2698 -14.5443 0.673947
-13.3593 -14.7314 0.696493
-12.9274 -15.0038 0.596378
-14.5748 -13.2577 1.82995
-12.8247 -15.2538 0.644133
-14.3885 -13.1432 2.08534
-11.694 -15.9447 0.240494
-13.4947 -14.5097 1.44649
-11.9451 -16.514 0.630622
-13.2298 -15.0886 1.54087
-12.1477 -13.4301 2.89555
-13.3881 -14.6015 2.08996
-12.8323 -15.1221 1.89008
-12.0508 -16.6339 1.32182
-11.9442 -16.482 1.28692
-12.3286 -16.3705 1.7024
-14.2025 -13.4956 -2.07473
-14.7145 -13.1756 -1.4605
-12.644 -15.022 -1.70201
-14.2526 -13.8527 -0.283654
-14.0417 -14.3783 -0.427079
-14.6494 -13.9337 0.00495741
-13.5774 -13.9997 0.270941
-14.3631 -14.0402 0.174789
-15.2133 -13.2903 0.59201
-12.2636 -15.2152 -0.108384
-14.3316 -14.0121 0.276456
-11.9274 -15.4898 0.0257057
-14.8231 -13.6083 0.779686
-13.0664 -14.8304 0.392556
-12.4748 -15.3791 0.403475
-15.7178 -13.03 1.77973
-12.4538 -15.3605 0.459372
-15.3623 -13.4631 1.79349
-12.4536 -15.5053 0.817791
-13.2378 -15.0104 1.20518
-12.003 -15.7998 0.718697
-12.1265 -15.8642 0.833528
-13.1336 -14.9421 1.32482
-11.9488 -15.8659 1.09178
-11.0575 -17.4531 -0.128094
-12.5997 -13.2075 2.98909
-12.6372 -15.5724 1.45238
-13.0952 -14.8556 1.82328
-11.2071 -16.639 0.601197
-13.2671 -14.8223 2.17314
-12.6704 -15.3455 1.68089
-12.2957 -16.2075 1.8557
-12.3123 -16.2453 1.96666
-12.7835 -14.8552 -1.80612
-12.8675 -14.8374 -1.49933
-15.4224 -13.0166 0.15942
-15.353 -12.8877 0.583157
-12.2099 -15.3338 -0.196136
-15.8836 -12.822 1.33819
-14.4502 -13.4263 1.45851
-13.8217 -13.7889 1.66465
-14.2038 -13.74 1.51977
-13.7299 -14.8076 1.32459
-13.0381 -14.971 1.48567
-13.7222 -14.3516 1.90867
-13.2147 -14.9402 1.60926
-12.5197 -15.1109 1.57549
-12.0142 -16.4488 1.39385
-12.5379 -15.9257 2.03532
-13.4681 -13.9242 -2.12325
-14.4289 -13.4124 -1.28743
-12.1835 -14.9029 -1.10439
-15.2344 -12.9491 0.00486433
-14.437 -13.8146 -0.0828975
-15.8803 -12.4459 0.781745
-14.2481 -13.5514 1.22044
-12.0232 -15.4585 0.219677
-10.7226 -16.5294 -0.0505703
-12.7472 -15.122 1.60825
-12.7084 -15.1249 2.52494
-14.0712 -13.2769 -1.94595
-12.1165 -15.0705 -0.873378
-12.6045 -14.8725 -0.508348
-12.6403 -15.0504 -0.454764
-12.3675 -15.2439 -0.0812095
-11.4146 -15.9842 0.249325
-11.3963 -16.1107 0.42429
-12.8944 -15.023 1.09326
-12.3964 -15.4454 0.552907
-10.3751 -18.0862 -0.109139
-12.8573 -15.1669 0.297636
-12.0563 -15.8594 0.985508
-11.2277 -16.9455 0.868805
-13.4334 -14.6976 0.75281
-12.4647 -15.6161 0.996306
-12.0049 -16.4956 1.36515
-12.2588 -16.4329 1.63607
-12.3194 -16.3383 1.83132
-12.6306 -15.2878 0.361091
-12.3093 -15.6933 0.298557
-12.2882 -15.5997 1.29351
-15.7867 -12.6726 0.856043
-15.5755 -12.6558 -0.0573533
-15.5229 -12.761 0.544145
-15.3593 -13.0723 0.222144
-15.3117 -13.1337 0.236274
-15.3599 -13.0633 0.280554
-15.1937 -13.2679 0.419045
-15.5469 -13.2059 1.33023
-15.489 -13.3742 1.44771
-15.431 -13.2523 1.30064
-14.4381 -13.3231 -0.587585
-14.706 -13.3422 -0.701475
-15.1055 -13.3872 0.562929
-14.2721 -13.5188 -2.10101
-14.9594 -13.3658 0.373812
-14.7783 -13.5007 -0.126703
-14.2902 -13.4108 -1.48655
-14.0774 -13.3743 -1.70829
-14.9669 -13.5362 0.450745
-14.3984 -13.7307 -0.28454
-13.9129 -13.5371 1.30128
-14.2585 -13.8451 -1.13745
-14.2481 -14.0312 -0.869473
-14.4524 -13.9036 0.240915
-13.7407 -13.6595 1.35482
-13.9115 -14.1726 -1.65065
-13.9713 -14.0637 -1.08478
-13.6017 -14.002 -1.68708
-13.6979 -14.0262 -1.94558
-13.9881 -13.7053 1.51431
-13.8488 -13.9422 0.874083
-13.7515 -14.2888 -1.52034
-13.764 -14.2929 0.466236
-13.8147 -14.3818 -0.830427
-13.5871 -14.4521 -0.825182
-13.7793 -14.4482 -1.05893
-13.7813 -14.3046 0.57062
-14.0048 -14.4408 0.9579
-13.5783 -14.3391 1.67317
-13.6786 -14.4042 -0.553953
-13.5591 -14.5419 -0.76647
-13.3845 -14.553 -1.09509
-13.6311 -14.4416 -0.844324
-13.228 -14.5217 -1.54034
-13.7416 -14.4646 0.701583
-13.3232 -14.6018 -1.18971
-13.3617 -14.9476 -1.34388
-13.5998 -14.443 0.360005
-13.2901 -14.567 0.448388
-13.5629 -14.474 0.274193
-13.3881 -14.5769 0.952242
-13.6493 -14.7658 0.986725
-13.3683 -14.6375 0.802571
-13.5297 -14.4871 2.2348
-13.5066 -14.6841 0.936401
-13.1723 -14.674 -1.33067
-13.3888 -14.6124 0.0763478
-12.0144 -13.7476 3.29189
-13.2473 -14.7198 0.0443179
-13.0416 -14.7382 0.327005
-13.0852 -14.8853 -1.41365
-12.8629 -14.8643 -1.57846
-13.0576 -14.8867 0.447225
-12.7156 -15.0179 -1.52703
-13.1759 -14.8414 0.204616
-12.986 -14.8709 0.0573779
-12.9302 -14.8236 -0.222716
-12.857 -15.1572 -1.48884
-12.7723 -14.9523 -0.164981
-13.4238 -14.6841 2.08155
-12.8778 -15.1761 -0.204807
-12.9261 -14.911 -0.322987
-13.1626 -14.999 1.75072
-12.6671 -14.9144 0.816785
-13.0887 -15.0745 0.684165
-12.8697 -15.259 1.09026
-12.9878 -14.9982 1.46532
-13.0446 -15.1773 2.21612
-12.8802 -15.1388 2.30404
-12.5552 -15.369 1.08344
-12.6372 -15.4366 1.33525
-12.6971 -15.4014 1.3823
-12.2674 -15.3219 1.19225
-12.6164 -15.3121 1.27351
-12.4371 -15.3246 1.36712
-12.3559 -15.5865 0.644285
-12.5738 -15.4605 0.922959
-12.4831 -15.3905 1.42846
-12.4237 -15.7012 0.575137
-12.438 -15.4315 1.28251
-12.5988 -15.465 1.7835
-12.553 -15.5773 1.98498
-12.5878 -15.3708 2.4169
-12.0947 -15.5127 0.295242
-12.4456 -15.8501 2.20053
-12.3833 -15.898 1.24173
-11.364 -15.9965 -0.874088
-11.5014 -16.1067 0.107068
-11.1704 -15.9844 -0.313074
-11.5973 -16.609 0.468932
-11.7136 -16.6644 0.499785
-11.8197 -16.3757 1.38992
-11.6379 -16.6993 0.925622
-11.8602 -16.5806 0.83618
-11.7024 -16.6324 0.964879
-11.6401 -16.529 0.852894
-11.0143 -17.2661 -0.50881
-11.3535 -16.9729 -0.0635133
-11.2031 -17.314 -0.0591293
-11.0972 -17.1678 -0.197459
-10.9753 -17.4938 -0.588174
-11.0079 -17.6293 -0.141233
-11.1761 -17.4555 0.42238
-10.9193 -17.5763 -0.1242
-10.9027 -17.5389 -0.241689
-11.0333 -17.7901 0.283505
-11.11 -17.6013 -0.0654759
-10.7377 -17.885 -0.0265696
-16.082 -12.3961 0.59417
-15.6349 -12.7992 0.0360071
-15.755 -13.0943 1.24643
-15.5795 -12.9532 0.993146
-15.2882 -13.2269 0.535712
-14.969 -13.2088 0.171617
-14.4392 -13.3698 -1.36731
-15.124 -13.2774 0.131338
-15.1492 -13.3692 1.08761
-14.3894 -13.4371 -1.77911
-14.2564 -13.2692 -1.86576
-14.4181 -13.4824 -1.41846
-14.6763 -13.5369 -0.214268
-14.9028 -13.5842 0.410194
-14.1946 -13.3067 1.47939
-14.0092 -13.5182 1.23268
-14.0305 -13.6084 1.37644
-14.3502 -13.7634 -0.993045
-14.5696 -13.9353 0.294645
-14.0348 -13.5518 1.08205
-14.1943 -13.4995 1.10827
-14.6359 -13.8423 0.410395
-14.4527 -13.7638 0.255195
-14.3777 -13.782 0.349493
-12.457 -13.0058 2.99907
-14.4979 -14.0199 0.290374
-14.1267 -13.7633 1.53404
-13.795 -14.0115 -1.72554
-12.4067 -13.0757 2.93264
-12.4951 -13.1556 3.19257
-12.5022 -13.0822 2.98655
-12.5311 -13.226 2.8554
-13.4845 -14.1046 0.253262
-13.9577 -13.9115 0.607951
-13.6242 -14.2751 -1.44049
-13.9402 -14.248 0.770436
-13.7294 -14.1259 0.706296
-12.4788 -13.3156 3.0221
-13.6128 -14.3853 -1.15551
-12.2665 -13.5282 3.3222
-12.1371 -13.5512 2.87326
-12.2821 -13.3985 3.30015
-13.634 -14.0795 1.59312
-13.6426 -14.3445 0.575332
-13.6887 -14.1079 1.58681
-13.4894 -14.0445 1.78506
-13.6626 -14.4394 -0.378919
-12.0703 -13.6589 2.99084
-13.1588 -14.6707 -1.20616
-13.0209 -14.6532 -1.69333
-13.296 -14.8402 -1.29155
-13.4223 -14.733 -0.374958
-13.788 -14.4476 1.14565
-12.3773 -14.5325 -0.493052
-12.1798 -13.8187 3.45111
-11.9166 -13.985 3.37822
-12.7168 -14.7795 -0.160277
-12.9943 -15.1863 -1.34366
-12.9388 -15.109 -1.65807
-13.1098 -14.9837 0.390218
-12.8498 -14.7641 -0.27546
-12.1901 -15.0961 -0.908355
-11.8087 -13.9891 3.44344
-11.8525 -14.0622 3.41998
-12.0643 -15.2732 -0.45245
-12.972 -15.0252 2.38545
-12.8315 -15.2574 2.25108
-12.872 -15.2857 2.36195
-12.8095 -15.2292 1.72672
-12.687 -15.3368 1.20344
-12.7841 -15.3007 1.3971
-12.5684 -15.0969 1.59995
-12.5017 -15.4352 1.09614
-12.7257 -15.5295 1.28796
-12.5319 -15.5707 0.94558
-12.5143 -15.6662 0.971773
-12.7418 -15.1554 2.62006
-12.4789 -15.6362 1.9579
-12.6334 -15.6061 2.63681
-12.4537 -15.8813 1.73475
-12.0422 -15.9569 1.14731
-11.6694 -15.7501 0.0991
-11.568 -16.0713 0.0823416
-12.1829 -16.3185 1.60331
-12.12 -16.4098 1.90732
-11.8409 -16.4602 0.81283
-11.7317 -16.5261 0.95567
-11.6678 -16.4247 0.690036
-11.7018 -16.558 1.03176
-11.7209 -16.6228 1.10471
-11.774 -16.8375 1.39803
-11.7637 -16.7168 1.37915
-11.1494 -16.5754 0.675221
-11.265 -17.3698 -0.103754
-11.0825 -17.2803 -0.528094
-11.227 -17.4088 -0.115824
-11.1754 -17.309 -0.0191685
-10.919 -17.3507 -0.2594
-10.9586 -17.5554 -0.331124
-10.8227 -17.4701 -0.310185
-11.1974 -17.3638 0.445834
-11.0365 -17.3604 0.129064
-10.9527 -17.623 0.0484935
-10.7106 -17.5666 -0.23567
-10.9895 -17.7418 0.424747
-10.5903 -17.5647 -0.173281
-16.1841 -12.273 1.01012
-15.4636 -13.0602 1.05616
-15.4895 -12.9959 0.449209
-15.4308 -12.9759 0.677429
-14.6034 -13.0812 -1.70114
-15.274 -13.1737 0.832249
-15.1633 -13.1822 0.318357
-14.8868 -13.2124 -0.423162
-15.1025 -13.141 0.151865
-14.2446 -13.2688 -2.64291
-14.5254 -13.3091 -1.44119
-14.6674 -13.2071 -1.55198
-14.581 -13.4563 -0.940277
-14.3726 -13.5176 -1.95478
-14.5943 -13.2195 2.28881
-15.1502 -13.3755 0.92637
-14.2312 -13.3033 -1.8892
-14.6934 -13.5425 0.14708
-14.4491 -13.642 -0.352371
-14.279 -13.618 -1.57929
-14.7673 -13.829 0.765035
-12.9186 -13.335 2.78059
-14.3198 -13.6044 -1.10738
-14.7278 -13.7257 0.750978
-14.0869 -13.5814 -1.73673
-14.5621 -13.7895 0.144114
-14.0784 -13.6639 1.58701
-14.3198 -13.8158 -0.289915
-14.0229 -13.7982 -1.05391
-14.0641 -14.0317 -1.08655
-14.3264 -13.9103 0.189539
-13.7844 -13.9625 -1.6195
-13.5393 -14.1486 -2.14618
-14.0518 -13.8218 1.29023
-14.0326 -13.7194 0.978032
-12.6959 -13.2333 3.66446
-13.7358 -13.9482 1.68515
-13.7684 -14.215 -0.898811
-12.181 -13.4091 2.77413
-13.311 -14.2907 -2.00532
-12.4266 -13.3988 3.27883
-12.0995 -13.3595 2.99075
-13.9323 -14.398 -0.225837
-13.7358 -14.414 -0.276713
-12.2798 -13.5927 3.06303
-13.6847 -14.4265 -0.309822
-13.6725 -14.4969 -0.253242
-13.3605 -14.3833 0.675582
-12.0402 -13.7603 3.19127
-11.945 -13.5251 3.9693
-12.2609 -13.7759 3.9942
-13.6546 -14.6937 0.773632
-12.9513 -14.7682 -1.40503
-12.1967 -13.7306 3.38813
-12.2203 -13.8529 3.3514
-11.9992 -13.74 3.14057
-13.5486 -14.7983 0.487945
-13.464 -14.87 0.55843
-13.3821 -14.8278 0.632661
-13.322 -14.7624 2.23885
-13.447 -14.8621 0.980892
-13.2362 -15.155 0.89649
-12.763 -15.1107 0.843438
-12.7955 -15.1381 1.71962
-12.1494 -15.1618 -0.231966
-12.9418 -15.2603 1.74314
-12.5098 -15.2821 1.36301
-12.9693 -15.3769 2.56834
-12.7537 -15.4557 1.31998
-12.5506 -15.4615 1.05762
-12.2805 -15.5629 -0.04309
-12.5565 -15.7944 1.18435
-12.5357 -15.6937 1.6513
-12.6351 -15.9247 1.73211
-12.4303 -15.8203 1.24106
-11.9606 -15.8401 0.755383
-12.5344 -15.837 1.865
-12.0593 -16.0304 1.18194
-11.2984 -16.0064 -0.502953
-12.1153 -15.8411 1.02253
-12.3686 -15.8465 1.30664
-12.1458 -16.1266 1.3257
-11.4662 -16.1666 0.122387
-11.5534 -15.9384 0.405048
-12.2476 -16.3143 1.43525
-11.9345 -16.4104 1.5223
-11.8115 -16.5433 0.671383
-11.3013 -16.4808 0.207985
-11.4439 -16.4495 0.832207
-11.3487 -16.5001 0.425746
-10.9054 -17.6079 -0.172118
-10.9046 -17.6573 0.187181
-10.5756 -17.8036 -0.0361321
-15.5953 -12.8521 0.812895
-15.4304 -13.0987 0.603234
-15.011 -13.2075 -0.510691
-14.51 -13.2221 -1.46423
-15.1844 -13.3578 0.517987
-14.7754 -13.3906 -0.0433822
-14.6691 -13.5649 -0.617137
-14.814 -13.3777 0.20509
-14.3139 -13.2902 1.98713
-14.8499 -13.8621 0.68678
-14.7708 -13.6619 0.771843
-14.1189 -13.4329 1.42946
-12.467 -13.0189 3.16114
-14.5645 -13.9245 0.363094
-14.5461 -13.9832 0.317317
-13.6604 -14.0332 0.388292
-13.5471 -14.2685 -1.85278
-13.1114 -14.2771 -1.94218
-13.8204 -14.4736 -0.423095
-13.7746 -14.6042 -0.380248
-13.783 -14.5562 -0.210312
-13.7604 -14.5217 -0.488168
-13.623 -14.5507 -0.434219
-13.3858 -14.4566 1.75654
-13.7885 -14.6134 0.744332
-13.5851 -14.8414 0.791914
-13.2052 -14.953 -1.48539
-13.5351 -14.8303 0.850507
-13.5403 -14.5891 0.577837
-13.5079 -14.5888 0.890727
-13.3674 -14.6722 0.916335
-13.4861 -14.7443 0.801044
-13.4125 -14.913 0.875886
-12.8394 -15.073 -1.57904
-12.9145 -15.0518 0.0351094
-13.2282 -14.9625 1.87747
-12.6943 -15.1607 -1.18022
-13.1768 -15.0083 0.810972
-12.9512 -15.1851 1.2719
-12.9229 -15.2086 0.535787
-12.6684 -15.2567 0.572029
-12.6162 -15.4214 2.02807
-11.3416 -16.0315 0.411625
-11.439 -16.2755 0.115486
-12.2969 -16.3018 1.55222
-12.2741 -16.4412 1.84519
-12.0665 -16.5993 1.75199
-11.1347 -16.6928 0.674285
-11.5475 -17.2397 0.0839611
-14.7368 -12.2684 2.26739
-14.6339 -13.1739 -0.596797
-14.3311 -13.6429 -1.25241
-14.4473 -13.3301 2.02717
-14.3313 -13.6832 -1.26002
-14.5009 -13.548 0.00992466
-14.3611 -13.9545 -0.248305
-13.5963 -13.766 0.199646
-13.6058 -14.0923 -2.11749
-14.0482 -14.3761 -0.323204
-13.5302 -14.2592 -0.940709
-13.5109 -14.2498 0.484617
-13.3985 -14.4804 -1.15489
-13.1479 -14.5583 -1.82615
-13.4067 -14.5996 -1.148
-13.3165 -14.5433 -1.20346
-13.7004 -14.8855 0.996286
-12.9669 -15.0453 -1.68097
-13.2145 -14.8471 1.40486
-13.2438 -15.0138 1.68306
-12.9026 -14.8987 1.1094
-12.7062 -15.064 0.728114
-13.1099 -14.9738 1.63201
-12.6899 -15.233 1.71224
-12.7759 -15.7077 1.82119
-12.6405 -15.7486 1.7035
-12.2954 -15.9114 1.13642
-12.4888 -15.9006 1.74153
-12.5568 -15.9716 2.19627
-12.1868 -16.4246 1.87826
-11.8852 -16.491 1.42627
-11.5213 -17.122 0.927926
-11.0645 -17.5485 0.455519
-15.8952 -12.6048 0.589358
-15.6845 -12.6577 0.786428
-14.3198 -13.3334 -1.77366
-14.3173 -13.4414 1.31269
-13.5136 -14.627 0.338015
-13.1477 -14.6518 -0.0906504
-12.9488 -14.7814 0.145183
-12.8222 -14.68 -0.496779
-12.7109 -14.9656 -1.45712
-12.7162 -15.067 -1.67554
-13.2705 -14.9147 1.24944
-13.0352 -15.3698 2.57208
-12.6704 -16.0311 1.85045
-14.1684 -13.3041 1.36519
-13.8549 -13.8552 -1.57554
-13.8782 -13.9094 0.972486
-12.3348 -13.3471 3.16893
-12.6264 -14.973 -0.209274
-13.0983 -14.9791 1.36289
-12.834 -15.1601 2.43132
-12.2601 -15.6023 0.82611
-12.4977 -15.7062 1.9323
-11.3284 -16.0125 0.00494424
-11.1148 -17.3441 -0.11334
-14.105 -13.5975 1.32638
-13.3478 -14.6525 0.491251
-13.2133 -14.9991 1.14684
-12.5334 -14.9451 -0.499483
-12.8707 -15.0204 0.633517
-12.2224 -14.9826 -0.343026
-12.2519 -15.2041 -0.140403
-12.4552 -15.2985 0.447095
-12.4844 -15.6955 0.530603
-11.8235 -15.8419 0.273564
-12.4788 -15.8131 1.61773
-11.5352 -16.0243 0.240794
-11.5688 -16.3816 0.907127
-14.3236 -13.3576 1.4634
-14.2964 -13.8965 0.115793
-12.392 -15.4294 0.162602
-11.9332 -15.735 1.07608
-11.997 -16.3705 1.58676
-14.5803 -13.612 -0.0369964
-11.9157 -16.1702 1.05309
-11.714 -15.9282 0.452529
-11.1932 -16.9819 -0.119628
-11.1805 -16.2929 0.202309
-13.303 -11.7866 2.80476
-13.2632 -12.8886 3.15676
-15.8815 -12.9022 1.53573
-15.5862 -12.6908 0.892405
-15.55 -13.3193 1.47755
-15.6439 -13.1272 1.58644
-15.6248 -13.086 1.00978
-12.463 -13.0287 2.77582
-15.5905 -12.5399 0.474924
-15.5759 -12.8239 0.517067
-15.2802 -13.2057 1.22415
-15.4116 -13.4108 1.26929
-15.3721 -13.3772 1.24077
-15.4112 -13.4307 1.3143
-15.4619 -12.8159 0.479129
-15.7078 -12.6594 0.416836
-15.391 -13.3026 0.808081
-12.1993 -13.7627 3.28878
-15.4073 -12.9217 0.36273
-15.1007 -13.4141 0.86251
-15.3347 -13.1069 0.617109
-15.5263 -12.9757 0.222662
-15.2407 -13.3337 0.648918
-15.147 -13.3247 0.431437
-13.8734 -13.7977 1.58289
-15.1623 -13.4136 0.534938
-13.9995 -13.8358 1.66737
-13.9538 -13.7367 1.3522
-14.5758 -13.683 0.723399
-15.2171 -13.2205 0.0989691
-13.7252 -14.2131 1.67009
-14.8876 -13.4979 -0.0171467
-15.1798 -13.0617 -0.352163
-13.484 -14.4703 2.06136
-14.8028 -13.2623 -0.144512
-14.7026 -13.4322 -0.00418596
-14.6961 -13.1185 -0.368716
-14.6953 -13.2823 -0.577971
-14.7214 -13.3001 -0.484911
-14.3802 -13.7273 -0.179653
-14.5316 -13.3602 -0.607551
-13.1458 -14.9861 2.18411
-13.9399 -14.1455 0.591758
-13.9559 -14.3083 0.593705
-14.2962 -13.9433 0.0475421
-14.6531 -13.3894 -0.754136
-13.6139 -14.5413 0.924646
-14.8376 -12.9611 -1.56492
-14.4259 -13.8418 -0.331287
-14.6119 -13.1327 -1.23714
-14.5168 -13.9223 -0.433625
-14.2738 -13.8625 -0.315084
-13.1133 -14.9972 1.4869
-13.2233 -14.8958 1.34957
-12.8769 -14.8738 1.30149
-12.7379 -15.5488 2.34647
-14.1233 -13.9179 -0.63386
-13.3335 -14.7593 0.894144
-14.5981 -13.2284 -1.61713
-13.4391 -14.6178 0.878578
-14.5426 -13.3383 -1.35432
-13.9985 -13.9432 -0.439961
-13.3692 -14.574 0.961907
-14.3107 -13.5464 -1.01782
-14.2353 -13.9926 -0.416225
-13.4686 -14.5568 0.288435
-14.1363 -13.7164 -0.804916
-14.2319 -13.8698 -1.18094
-13.9331 -14.3896 -0.378779
-13.7367 -14.55 -0.118102
-14.0946 -13.7779 -0.955655
-13.9116 -14.3503 -0.32642
-13.2942 -14.918 0.435547
-13.4705 -14.5779 0.328653
-14.1874 -13.5295 -1.43911
-13.3589 -14.5994 0.27269
-14.3395 -13.3147 -2.19745
-14.5158 -13.2035 -2.11924
-13.223 -14.4588 0.199837
-12.6256 -15.5642 1.64873
-12.6643 -15.286 1.90859
-12.4261 -15.717 1.84539
-12.6116 -15.2988 1.52348
-13.6814 -14.417 -0.373759
-12.5786 -15.4092 1.29341
-13.8391 -14.1007 -1.00721
-13.1867 -14.6714 0.0331968
-13.6175 -14.5938 -0.482222
-13.4523 -14.5306 -0.619383
-14.0609 -13.525 -1.94272
-12.6782 -15.4843 1.11053
-13.5886 -14.4424 -0.704946
-13.7946 -14.2823 -0.947003
-13.2566 -14.9407 5.72378e-05
-13.6385 -14.2803 -0.811395
-12.9437 -14.9717 0.134946
-13.2276 -14.9169 0.104063
-14.2238 -13.4181 -2.10974
-14.2786 -13.3222 -2.49865
-14.0229 -13.535 -2.36295
-14.0047 -13.2761 -2.28609
-13.6516 -14.2459 -1.40411
-13.5046 -14.4906 -1.05788
-13.4711 -14.3976 -1.27646
-13.0142 -14.9806 -0.116835
-12.8934 -14.8914 -0.177876
-13.3302 -14.4791 -0.990069
-13.5466 -14.4337 -0.99558
-13.6226 -14.1858 -1.58783
-13.6896 -14.0531 -1.6495
-13.6324 -13.99 -1.9258
-12.788 -15.0104 -0.279941
-12.8262 -14.763 -0.351958
-12.2565 -15.6278 0.777729
-13.5606 -14.1066 -1.88505
-12.4069 -15.3939 0.688735
-13.5548 -14.1261 -1.84356
-13.3586 -14.3543 -2.0599
-12.7432 -15.1472 -0.453455
-13.0633 -14.458 -1.53824
-13.3274 -14.4834 -1.87567
-13.0305 -14.7536 -1.35824
-13.0582 -14.8696 -1.36389
-12.8462 -14.7353 -1.47369
-12.8813 -14.7393 -2.03283
-12.8769 -15.0013 -1.3801
-12.7932 -15.3446 -1.24636
-12.9389 -15.2553 -1.536
-11.8117 -16.5309 1.12139
-11.7694 -16.3728 1.05531
-12.7456 -15.2314 -1.24422
-12.7677 -15.3006 -1.34944
-11.7301 -16.7016 1.03157
-11.8823 -16.3412 0.983199
-12.7314 -15.2828 -1.17709
-11.889 -15.3554 -0.0109638
-11.6362 -16.6713 0.705873
-11.516 -16.4577 0.443298
-11.6935 -16.5025 0.466002
-11.4477 -16.0892 0.281536
-11.3896 -16.0556 0.178171
-11.4964 -15.6533 -0.934419
-11.3649 -15.9554 -0.649501
-11.3756 -15.8674 -0.710342
-11.432 -15.7339 -0.676058
-11.3303 -15.8362 -0.544163
-11.0432 -16.1193 -0.217687
-11.0983 -17.6217 0.23102
-10.8487 -17.7387 0.336067
-10.8865 -17.5763 0.201751
-10.8366 -17.4385 -0.159559
-10.9953 -17.4303 -0.235339
-10.85 -17.4465 -0.394993
-12.7755 -12.9909 3.28496
-15.5444 -13.1363 1.23002
-15.6269 -12.9726 1.22672
-15.8373 -12.8511 0.925015
-15.5198 -13.1665 1.36942
-15.5442 -13.164 1.30569
-15.4543 -13.1728 1.4361
-12.5762 -13.299 2.903
-12.3006 -13.3983 3.32235
-12.57 -13.2683 2.93138
-12.124 -13.4374 3.17875
-15.7333 -12.6526 0.383685
-12.4038 -13.3913 3.21495
-15.4624 -13.2958 1.34822
-15.6899 -12.6776 0.280401
-15.4944 -12.585 0.433825
-15.6189 -12.7301 0.800984
-12.2281 -13.4939 3.08739
-12.2874 -13.5459 2.99381
-15.5788 -12.6729 0.168866
-12.2225 -13.714 3.4247
-15.228 -13.339 0.92971
-12.1235 -13.7354 3.29222
-15.3898 -13.0348 0.626928
-12.2218 -13.4762 2.86267
-11.9784 -13.7849 3.31606
-12.1724 -13.7059 3.27163
-14.2534 -13.3918 1.34107
-15.1679 -13.3644 0.711392
-14.2257 -13.4461 1.3982
-15.1178 -13.3849 0.480539
-15.112 -13.2685 0.440168
-14.0988 -13.928 1.67897
-11.8447 -14.1903 3.19588
-13.9283 -13.723 1.59177
-14.9201 -13.7893 0.540959
-14.018 -13.6046 0.953898
-14.0499 -13.6899 1.07171
-13.9516 -13.9188 1.23762
-13.7028 -14.1672 1.71441
-13.4187 -14.3726 1.88511
-13.6463 -14.2969 1.98293
-13.6848 -14.3487 1.80644
-13.5857 -14.3433 1.92251
-13.4146 -14.5864 2.06835
-13.4861 -14.0691 1.52083
-14.5363 -13.9419 0.355639
-14.7488 -13.8708 0.424398
-15.0983 -12.9837 -0.85314
-14.8159 -13.5384 -0.0276251
-14.6067 -13.1276 -0.672791
-14.965 -12.8309 -0.758886
-13.1019 -14.7377 2.34426
-13.3094 -14.8563 1.88551
-14.8513 -13.0472 -0.741409
-14.7857 -13.1605 -0.875819
-13.9556 -14.3284 1.24723
-13.9232 -14.3722 0.988421
-14.0793 -14.0737 0.854461
-14.4753 -13.6834 -0.165475
-12.9638 -15.2548 2.67169
-14.6927 -13.5293 -0.454109
-13.9131 -14.102 0.554987
-13.7814 -14.2954 0.53919
-14.5565 -13.3482 -0.705088
-12.6493 -15.1847 2.46862
-12.7308 -15.4457 2.42695
-14.6482 -13.0563 -1.1291
-14.6814 -13.0195 -1.22907
-13.6548 -14.6606 1.14676
-13.7756 -14.303 0.755648
-13.6818 -14.4363 0.592173
-13.7542 -14.5896 0.891589
-13.6869 -14.4272 0.671827
-14.4946 -13.5634 -1.28587
-13.3419 -14.9713 1.12633
-14.5661 -13.4241 -1.76712
-14.2544 -13.547 -1.09053
-14.0652 -13.3821 -1.38388
-13.8776 -14.1261 -0.321037
-14.1483 -13.8167 -0.776423
-14.269 -13.8032 -0.845588
-14.1501 -13.7537 -1.24933
-13.9106 -14.5655 -0.383746
-14.2322 -14.0109 -0.804698
-12.7297 -15.1431 1.80689
-13.5653 -14.4723 0.319493
-13.632 -14.451 -0.407577
-13.7201 -14.4721 -0.194575
-14.1783 -13.3711 -1.78291
-14.2598 -13.2996 -1.79048
-13.8068 -14.2388 -0.511841
-14.3757 -13.5925 -1.6482
-14.4157 -13.3168 -2.03716
-14.3705 -13.3499 -1.73458
-14.2753 -13.579 -1.66183
-14.5477 -13.3103 -1.72166
-14.0124 -14.1139 -1.22677
-14.3499 -13.4787 -1.83472
-14.396 -13.6513 -1.66744
-12.9956 -15.0505 0.911404
-13.4678 -14.4794 0.221247
-12.717 -15.274 1.16784
-14.1527 -13.2723 -2.34623
-13.3793 -14.0671 -0.871218
-13.8119 -14.0572 -1.2955
-13.9536 -13.3759 -2.41676
-13.8073 -13.9908 -1.79181
-13.7407 -14.1052 -1.67952
-13.5634 -13.9185 -1.79933
-12.3474 -15.8076 1.30865
-13.4963 -14.5681 -1.33027
-12.3817 -15.556 0.780854
-13.5074 -13.9236 -2.2838
-13.735 -14.514 -1.38885
-13.4109 -14.511 -1.28004
-12.6049 -15.1607 -0.259985
-13.1017 -14.5488 -1.57007
-13.1596 -14.549 -1.67261
-13.1628 -14.7017 -1.71052
-12.9579 -14.8244 -1.44342
-12.1366 -14.9946 -0.357852
-12.2757 -15.2276 -0.194319
-12.0239 -15.3164 -0.356732
-12.9761 -15.0333 -1.51709
-12.9406 -14.948 -1.59163
-11.7912 -16.4693 1.3854
-11.931 -16.5172 1.08876
-11.6566 -16.5567 1.17478
-11.5491 -16.7719 1.34653
-11.884 -15.1386 -0.241132
-12.1677 -15.0147 -0.960822
-11.8771 -15.6383 -0.0334036
-11.6733 -16.5853 0.677619
-11.6971 -16.7004 0.639322
-11.7113 -16.48 0.375675
-11.4271 -16.0118 0.172056
-11.3779 -16.0938 0.198355
-11.3399 -16.6762 0.743433
-11.4104 -16.2408 0.25874
-11.402 -15.9702 -0.0826712
-11.1414 -17.4403 0.640168
-11.434 -15.8372 -0.49613
-11.0644 -17.0453 -0.472265
-11.0304 -17.5498 -0.278159
-10.8745 -17.5763 0.197259
-11.2011 -17.1925 -0.704409
-10.7183 -17.718 -0.197282
-10.9035 -17.6821 -0.0130935
-11.0247 -17.5336 -0.362466
-11.0391 -17.764 -0.225109
-10.8035 -17.7957 -0.115246
-10.6643 -17.7497 -0.153754
-10.7357 -17.7198 -0.522503
-14.594 -13.0524 2.12367
-15.8716 -12.6243 0.7517
-12.5276 -12.9944 3.11391
-15.7813 -12.6407 0.851868
-12.2114 -13.5055 3.08211
-15.3984 -13.152 1.13881
-12.21 -13.2682 3.42238
-15.4125 -13.3379 1.18803
-15.6192 -12.7846 0.771003
-15.5053 -13.0595 0.798531
-12.4086 -13.5858 3.18049
-15.4273 -12.9632 0.447462
-12.0347 -13.7319 3.51774
-12.1936 -13.7138 3.37515
-12.0141 -13.6577 3.34478
-15.5645 -12.684 0.125928
-15.5221 -12.8683 0.192853
-15.3229 -13.2307 0.820116
-12.2312 -13.536 3.14241
-15.5746 -12.7682 0.0247213
-15.5189 -13.2203 0.397788
-12.1636 -13.9983 3.37901
-15.0413 -13.3562 0.385064
-14.1192 -13.3555 1.08407
-14.112 -13.8425 1.26653
-15.023 -13.2471 0.199963
-15.0655 -13.3087 0.45108
-15.1495 -12.9657 -0.723205
-13.5274 -14.0769 1.88028
-13.4504 -14.1365 1.75002
-13.7821 -14.2954 1.89365
-14.1376 -13.9898 0.929764
-14.6323 -13.4213 -0.0400756
-13.2231 -14.9037 2.36206
-15.1449 -12.9381 -1.05987
-13.3044 -14.6561 2.11139
-14.9364 -12.9769 -1.08988
-14.4554 -13.9479 -0.116376
-14.6388 -13.2105 -0.714002
-14.3121 -13.509 -0.306966
-12.6595 -15.2621 2.49829
-14.6541 -13.1654 -1.12491
-14.6872 -13.3138 -1.00107
-13.5816 -14.5704 0.976772
-14.5565 -13.0333 -1.68046
-13.3461 -14.6271 0.921409
-13.2822 -14.8145 0.975959
-14.2087 -13.6881 -1.0567
-14.2312 -13.6715 -1.27867
-12.6729 -15.1425 1.53745
-13.9909 -14.2679 -0.851627
-13.9144 -14.371 -0.418966
-14.3408 -13.3255 -1.6574
-13.2137 -15.0084 0.461222
-13.2511 -14.7876 0.478772
-14.2032 -13.8675 -1.29945
-13.3101 -14.9202 0.44557
-12.5656 -15.893 1.96513
-12.4739 -15.8899 1.98219
-12.8546 -15.5793 1.28498
-14.2203 -13.6716 -1.89959
-14.2945 -13.6181 -1.90082
-13.9281 -13.0214 -2.6187
-13.8862 -13.9903 -1.67084
-13.655 -14.573 -1.15306
-13.6342 -14.2474 -1.63967
-12.8762 -15.0241 -0.0808953
-13.2322 -14.5542 -1.42979
-13.2926 -14.3446 -1.40377
-12.0111 -15.8091 1.27505
-13.4364 -14.1306 -1.71479
-13.4162 -14.8085 -1.21736
-11.8015 -16.5857 1.48822
-12.9893 -14.9255 -1.13219
-12.0464 -15.1545 -0.234233
-12.2056 -15.5328 0.0487291
-11.9715 -15.9396 0.571154
-12.7551 -15.0044 -1.66195
-12.0802 -15.0407 -0.470026
-12.1029 -15.0608 -0.358816
-12.2028 -15.1094 -0.275574
-13.0581 -14.9761 -1.53743
-11.87 -15.7631 0.199145
-11.6537 -16.0009 0.153324
-11.5326 -16.1958 0.00184298
-11.5671 -16.0886 0.331113
-11.8178 -15.6172 -0.817223
-11.0723 -17.3601 0.0714916
-11.3049 -17.2694 -0.194769
-11.0074 -17.618 -0.0813216
-10.7764 -17.4675 -0.00572288
-12.0256 -13.6347 3.91559
-14.7201 -13.3196 2.21049
-15.8333 -12.9445 0.715423
-15.5717 -13.2041 1.39264
-15.6875 -12.873 0.985071
-15.8404 -12.6916 0.838893
-14.4241 -13.353 1.92047
-12.3896 -13.2686 2.93034
-15.2722 -13.1005 1.05138
-15.191 -12.7928 0.360394
-14.1796 -13.4905 1.26422
-15.0861 -13.4754 0.538351
-14.822 -13.746 0.744962
-13.8486 -13.971 1.71205
-14.8521 -13.8155 0.851104
-14.9164 -13.7934 0.298481
-15.017 -13.0702 -0.388573
-13.5544 -14.076 1.80627
-14.0669 -13.8453 0.920396
-15.0556 -13.0532 -0.538706
-13.4885 -14.4763 1.69043
-14.7093 -13.3856 -0.431341
-13.1374 -15.115 1.74818
-13.4062 -13.7359 0.280345
-12.7821 -15.2243 1.93037
-14.0803 -14.1464 -0.465295
-13.4289 -14.8034 0.29534
-12.6725 -15.2199 1.634
-14.3035 -13.288 -1.94475
-13.2437 -14.7493 0.539426
-13.6812 -14.5475 -0.502576
-13.727 -14.3368 -0.475123
-13.2872 -14.7847 0.053472
-12.4726 -15.6377 1.74056
-13.9353 -13.7244 -2.08081
-12.8578 -14.9865 0.195399
-14.088 -13.4837 -2.16017
-12.283 -15.8195 1.50899
-13.4694 -14.9541 -0.591545
-12.1264 -16.2776 1.86251
-12.0885 -16.3204 1.80976
-13.509 -14.1627 -2.05296
-12.3668 -15.3565 0.246238
-12.151 -15.9374 0.698787
-12.1296 -15.9144 0.665593
-12.1786 -15.2298 -0.137452
-12.8699 -15.1259 -1.59097
-12.6915 -14.985 -1.73586
-11.6464 -16.0473 0.277644
-11.5439 -15.7186 -0.271316
-11.1817 -17.4821 0.371426
-11.0594 -17.3103 -0.127682
-10.9665 -17.3589 -0.48772
-10.7907 -17.642 -0.256986
-15.1159 -12.2826 1.88141
-16.0675 -12.3186 1.10565
-15.482 -13.1262 1.38992
-14.3382 -13.1927 2.00777
-15.4542 -13.302 1.24199
-15.4744 -13.282 1.18161
-14.3924 -13.335 1.79162
-14.8107 -13.3285 -0.292755
-14.6696 -13.9562 0.411203
-13.1471 -14.8538 2.24969
-14.9032 -12.8457 -0.984342
-13.1786 -14.9025 2.29326
-13.2277 -14.8482 1.89413
-13.051 -14.7586 1.84982
-12.9204 -15.3316 2.5434
-13.6013 -14.6764 1.37705
-14.3242 -13.6482 -0.461202
-14.1618 -13.9593 -0.492363
-13.1857 -15.0061 1.20129
-13.1812 -14.899 1.11688
-13.941 -13.8549 -0.819965
-14.1458 -13.7799 -0.825666
-12.3873 -15.5549 1.70151
-12.6903 -15.7544 1.5609
-14.1534 -13.3852 -2.18948
-13.306 -14.7909 -0.590974
-12.5702 -15.5054 0.979968
-13.3726 -14.7633 -0.73702
-13.4503 -14.696 -0.598021
-13.3621 -14.4447 -1.14965
-13.3337 -14.5746 -0.902905
-13.421 -14.3329 -1.41702
-12.8171 -14.7779 -0.0962248
-13.6441 -13.9313 -2.04155
-13.4358 -14.0571 -2.14512
-12.3199 -15.9841 1.28201
-13.6795 -14.1946 -1.83705
-12.5969 -14.6741 -0.500205
-12.295 -15.4725 0.447804
-12.3008 -15.5255 0.132039
-12.2746 -15.2356 -0.109059
-12.2789 -14.9718 -0.118498
-12.096 -15.2445 -0.222236
-12.2302 -15.1809 -0.209995
-12.8728 -15.0557 -1.67132
-12.1394 -15.2551 -0.292948
-12.0284 -15.368 -0.377925
-12.8797 -15.018 -1.83812
-13.0038 -15.0495 -1.64423
-11.9578 -15.9953 0.292075
-11.8363 -15.4473 -0.534166
-11.6901 -15.7018 -0.219016
-11.3194 -16.2376 0.140216
-11.4953 -16.2373 -0.0948038
-11.198 -17.6117 0.374273
-10.9158 -17.6038 -0.230554
-12.1811 -13.5565 3.97996
-14.4944 -13.3191 2.09525
-15.7163 -12.7716 0.753889
-15.0676 -13.2586 0.169278
-13.3448 -14.674 1.91449
-14.4845 -13.9275 0.589301
-13.2613 -14.6505 2.06295
-14.8084 -13.3186 -0.704348
-14.5525 -13.6536 -0.0221557
-13.821 -14.1201 0.506407
-14.5706 -13.9388 -0.117479
-14.5563 -13.8005 -0.591934
-13.8537 -14.0199 0.333448
-12.7841 -15.4331 2.52644
-13.0157 -15.0587 1.09487
-12.6803 -15.4579 1.78814
-12.5036 -15.6687 1.78613
-12.5302 -15.7517 1.64942
