-14.3419 -13.2413 -1.83091
-13.2874 -13.9957 -0.426629
-12.6513 -15.2997 0.893803
-13.8227 -13.9173 -0.986649
-14.529 -13.2937 -1.96329
-14.1595 -13.5497 -2.12486
-14.1532 -13.4995 -2.06057
-12.7947 -15.0185 -0.22155
-12.2139 -15.6054 0.427284
-12.2675 -15.5128 0.246537
-12.0579 -16.0473 0.563565
-13.7385 -13.8706 -2.14508
-12.1863 -15.2863 -0.503607
-12.2654 -14.67 -1.3915
-12.1734 -14.7281 -1.29668
-11.7355 -15.0349 -1.34109
-11.9449 -14.7389 -1.64926
-11.7462 -13.8701 3.33713
-15.7237 -12.8663 0.485651
-14.0425 -13.784 1.5416
-14.0839 -13.7938 1.4285
-15.7896 -12.5762 -0.525373
-15.4986 -12.8136 -0.341381
-14.5571 -13.5575 0.76034
-13.5613 -14.3454 1.53074
-15.0869 -13.3487 -0.023017
-13.6354 -14.1839 1.45064
-15.5102 -13.1535 -0.357495
-15.139 -13.4482 -0.0220659
-13.1871 -14.6628 1.38211
-15.1544 -13.2458 -0.956417
-14.6272 -13.5475 -0.796638
-15.0335 -12.8982 -1.46692
-13.1891 -14.9982 0.786978
-15.2825 -12.6605 -1.74634
-14.8847 -13.147 -1.29961
-12.7113 -15.1044 0.870107
-13.1219 -14.9593 0.623605
-15.0834 -12.7299 -1.99825
-14.8893 -12.7616 -1.86913
-14.0294 -13.9354 -0.727592
-14.53 -13.6337 -1.46571
-14.4678 -13.2017 -1.95482
-12.4657 -15.6844 0.77351
-12.3783 -15.6002 0.815776
-12.4567 -15.2879 0.540576
-14.5903 -13.1468 -2.12008
-12.323 -16.198 0.991533
-12.2906 -16.0206 0.640217
-12.1404 -15.623 0.0998442
-13.7416 -13.8147 -2.26081
-12.6068 -14.7637 -0.419988
-12.5795 -15.109 -0.583421
-12.5874 -14.3109 -0.934841
-13.5933 -13.9807 -2.05926
-13.5494 -13.938 -2.14968
-13.609 -13.9729 -2.16926
-11.8521 -15.8949 0.214098
-12.5631 -14.3033 -1.32761
-11.8238 -14.8318 -1.39083
-11.8819 -15.1769 -1.43227
-11.729 -15.2105 -1.17017
-11.3956 -15.7674 -0.68457
-11.4951 -16.2619 -1.70837
-11.263 -16.2985 -2.01906
-11.0961 -16.4804 -2.1722
-12.5705 -13.1989 2.95568
-14.6317 -13.6524 2.00283
-16.1837 -12.3847 0.86498
-12.0952 -13.5036 3.01674
-15.6621 -13.1633 0.931179
-15.6888 -13.2805 0.369307
-15.536 -12.8767 -0.100722
-15.669 -12.6403 -0.914614
-15.0271 -13.3192 -0.16772
-15.5825 -12.5701 -1.24256
-13.2289 -14.8276 0.729638
-13.3239 -14.898 0.930801
-13.1674 -14.6087 0.905536
-13.2071 -14.7339 0.838604
-13.7608 -14.2549 0.138933
-13.1424 -14.6795 0.774947
-13.1721 -14.6703 0.59149
-12.9774 -14.7987 0.827339
-15.0714 -13.1368 -1.47082
-12.9897 -14.8592 0.475161
-12.7581 -14.9978 0.941818
-12.6714 -15.1546 0.813489
-12.9791 -14.8694 0.302711
-12.6257 -15.4642 1.02057
-12.9686 -14.661 0.0788849
-14.2492 -13.4714 -1.62663
-12.8573 -15.07 0.154929
-12.3944 -15.5282 0.308415
-12.2124 -15.5331 0.529556
-12.3546 -15.4116 0.276065
-13.5841 -13.9267 -2.08512
-12.1045 -15.9417 0.227209
-11.9471 -15.2763 -0.841001
-11.8987 -15.2864 -0.894926
-11.6268 -15.2888 -0.782604
-12.1717 -13.377 2.74518
-14.2312 -13.7036 1.51587
-14.1778 -13.7165 1.25918
-15.1974 -13.3936 0.396413
-11.6119 -14.3083 2.61364
-13.5503 -14.2127 1.65575
-13.4065 -14.5973 1.53273
-13.3086 -14.6197 0.772786
-13.6509 -14.5977 0.163148
-12.4506 -15.738 0.85563
-12.5042 -15.5445 0.551047
-12.3185 -15.2481 0.230846
-12.2896 -15.5926 0.575678
-14.0955 -13.7495 -2.04592
-13.8615 -13.9556 -2.2478
-11.6883 -15.2875 -0.918307
-15.6762 -13.1775 1.0562
-14.4856 -13.5462 1.53297
-14.0368 -14.0857 1.4888
-13.8901 -14.226 0.570488
-12.8802 -15.0402 1.56174
-13.2333 -14.8704 0.943946
-12.561 -15.485 1.00329
-13.0458 -14.6853 0.170002
-13.6854 -13.7705 -1.95559
-12.1506 -15.7139 0.219026
-12.5214 -14.9019 -0.804207
-11.9624 -16.1569 -0.0817935
-12.6699 -15.5601 1.66271
-13.3049 -14.3511 -0.40977
-13.1241 -14.567 0.235555
-12.6943 -15.0407 -0.221903
-12.4178 -14.4112 -0.852354
-12.5462 -15.2925 -0.0522587
-12.4322 -14.9588 -0.867407
-13.3831 -14.4296 -0.0615368
-12.3794 -15.2459 0.383408
-12.6795 -15.1007 0.462698
-12.3519 -13.08 2.39049
-12.1503 -13.4028 2.87188
-15.6772 -13.3948 1.51289
-11.8788 -13.9489 2.62767
-15.5617 -13.166 1.30048
-15.9521 -12.9498 1.0237
-15.5001 -13.473 1.12681
-15.9052 -13.1742 0.958402
-15.5925 -13.4858 1.09331
-15.7183 -12.9545 0.908749
-14.3823 -13.2897 1.45292
-15.5298 -13.2307 0.924032
-14.0735 -13.9261 1.39839
-14.3484 -13.6834 1.33408
-14.2147 -13.4114 0.998853
-15.2813 -13.3501 0.815516
-15.5189 -13.1812 0.841702
-14.0726 -13.771 1.24326
-13.7268 -14.0692 1.36608
-13.5933 -14.4119 1.37009
-15.7522 -12.6175 0.360406
-15.1657 -13.4862 0.39612
-12.8641 -15.0306 1.50296
-15.0049 -13.7237 0.287224
-14.9781 -13.6892 0.391625
-14.2338 -14.1065 0.796731
-15.1546 -13.241 0.172111
-12.4238 -15.4583 1.76977
-15.5895 -12.828 -0.0928829
-15.6144 -12.6121 -0.316995
-15.4756 -13.1015 -0.338746
-15.0883 -13.1907 -0.408235
-15.6055 -12.5794 -0.794542
-13.0406 -14.8795 0.674453
-14.1444 -13.7526 0.150316
-13.2326 -14.856 0.380607
-14.9569 -13.0559 -0.714077
-12.5031 -14.9168 0.765136
-15.4535 -12.5679 -0.867748
-12.4295 -15.2546 0.738133
-12.4202 -15.5586 0.932491
-13.6247 -13.9349 0.145394
-12.2181 -15.7697 0.953189
-15.3707 -13.0228 -0.89125
-13.5844 -14.2127 -0.0541516
-15.6044 -12.3417 -1.47865
-13.6306 -14.2112 -0.1734
-14.9946 -13.072 -0.947232
-15.412 -12.575 -1.3219
-14.4693 -13.7653 -0.573956
-14.7856 -13.3576 -0.985599
-14.7891 -13.3061 -0.813169
-14.6024 -13.7396 -0.925047
-13.0377 -14.7848 -0.0384129
-14.2124 -13.9665 -0.733768
-14.5895 -13.4202 -1.09749
-14.447 -13.5022 -1.31892
-15.4721 -12.2978 -1.74473
-14.8927 -13.2133 -1.44557
-13.3117 -14.2524 -0.788692
-14.9353 -12.7163 -1.79006
-14.9763 -12.8268 -1.72474
-14.3564 -13.4715 -1.45738
-14.718 -13.1986 -1.59715
-15.1339 -12.6342 -2.05714
-14.6716 -13.237 -2.00274
-14.391 -13.2903 -1.8401
-14.2019 -13.402 -1.72249
-12.5387 -15.025 -0.580873
-12.5908 -14.7956 -0.627257
-12.1179 -15.0443 -0.764569
-14.0645 -13.7488 -2.11692
-13.8633 -13.918 -2.19961
-12.5336 -14.5965 -1.25888
-12.2143 -14.6627 -1.39221
-11.7562 -14.8738 -1.4093
-12.1815 -13.6151 2.80935
-16.0795 -12.9318 1.46277
-16.2064 -12.7814 1.51896
-16.0175 -13.0454 1.34077
-14.4987 -13.7438 1.92717
-14.5295 -13.5184 1.7102
-12.1039 -13.5266 2.47732
-15.6664 -13.3866 1.11091
-11.75 -14.1414 2.52306
-15.4061 -13.3349 0.860881
-13.6542 -13.9579 1.39489
-14.3043 -13.4118 1.22828
-14.1585 -13.8149 1.26556
-13.8509 -13.8079 1.35524
-15.0828 -13.5375 0.707312
-14.5084 -13.532 1.19766
-14.4864 -13.6451 0.900457
-13.143 -14.4141 1.38423
-15.7375 -12.622 -0.00555614
-15.8885 -12.5441 -0.471702
-13.207 -14.999 0.867981
-15.2925 -13.1747 -0.523105
-15.6695 -12.6363 -0.856106
-13.7006 -14.3459 0.412529
-15.295 -13.0615 -0.867756
-13.8277 -14.451 0.101798
-12.7838 -15.1315 0.900664
-13.7547 -14.5526 0.0667458
-13.696 -14.3349 0.199774
-13.3343 -14.7642 0.392892
-12.3554 -15.5847 0.515127
-14.5797 -13.2528 -0.86847
-13.6804 -14.3848 -0.0578131
-14.4628 -13.4537 -1.29354
-12.0572 -15.9595 0.611483
-14.3387 -13.9025 -1.02749
-15.4038 -12.6356 -1.71597
-13.8895 -14.0803 -1.05291
-13.7456 -14.1678 -1.08712
-13.3029 -14.0975 -0.636926
-15.0685 -12.6198 -2.11349
-14.1445 -14.1239 -1.12934
-14.5699 -13.3702 -1.47587
-14.6017 -13.3305 -1.73012
-15.3577 -12.366 -2.31186
-15.0292 -12.5728 -1.94372
-14.2505 -13.4368 -1.53208
-12.2054 -15.1228 -0.199509
-14.3661 -13.4845 -1.67093
-12.5637 -14.298 -0.848503
-14.1448 -13.536 -2.15183
-14.1001 -13.4226 -2.19035
-12.595 -14.4224 -1.01188
-13.9567 -13.7122 -2.11847
-13.741 -14.1167 -1.87417
-13.6506 -14.2142 -2.00606
-13.8719 -14.1012 -2.328
-11.5791 -14.8991 -1.537
-11.4676 -16.4919 -1.56154
-11.4114 -16.1466 -1.69333
-11.0747 -16.6623 -1.57824
-15.5719 -13.3789 1.55921
-15.6781 -13.1448 0.91209
-15.3313 -13.3974 0.879261
-15.2545 -13.5329 0.743458
-13.5138 -14.1575 1.37087
-13.1057 -14.8596 1.52195
-14.5243 -13.4928 0.683713
-15.0887 -13.606 0.294771
-12.6516 -15.4275 1.61604
-15.5799 -12.8156 0.0155344
-13.5194 -14.9415 0.881727
-13.7326 -14.3649 0.438047
-13.2539 -14.5108 0.837759
-13.1187 -14.8249 0.456705
-13.8215 -14.4124 0.131936
-13.6482 -14.4271 0.228559
-14.5202 -13.8735 -0.562356
-12.6 -15.2008 0.572203
-15.0188 -12.946 -1.20364
-14.4234 -13.6218 -0.977059
-13.0165 -14.4934 0.0701345
-13.3998 -14.1863 -0.534607
-12.2067 -15.6024 0.00335576
-15.1212 -12.6799 -2.12413
-14.2168 -13.7463 -1.22052
-12.9048 -14.4043 -1.02514
-12.6207 -14.327 -1.0444
-12.7443 -14.3692 -1.45098
-12.6686 -14.4413 -1.46889
-13.779 -14.0608 -2.24365
-13.5473 -14.2337 -2.05003
-13.6039 -13.9358 -2.05117
-12.4695 -14.0833 -1.48469
-11.7661 -15.2849 -1.24614
-15.6318 -13.4703 2.25672
-12.4907 -13.4776 2.68253
-15.8154 -13.2556 1.00128
-14.2372 -13.6703 1.46509
-15.3598 -13.2173 0.300201
-15.6424 -12.7946 -0.417425
-13.5436 -14.5758 0.497027
-13.704 -14.2659 0.30676
-12.5193 -15.5122 0.719167
-12.3645 -15.4238 0.704987
-14.2232 -13.7797 -1.43275
-14.7134 -13.2588 -1.6663
-11.2836 -16.2614 -1.57237
-12.4909 -13.2847 2.95508
-16.0029 -12.7936 1.5152
-15.5766 -13.3249 0.804333
-15.053 -13.7318 0.236451
-14.9813 -13.4448 -0.116384
-12.7223 -14.8766 0.829827
-12.0693 -16.1001 0.0552986
-12.6316 -14.2434 -1.05352
-13.862 -14.3883 0.639201
-15.1838 -13.4352 -0.268281
-12.7443 -14.7044 -0.278215
-12.6312 -14.3561 -0.830935
-13.203 -14.694 0.650518
-13.2757 -14.6171 -0.0386407
-12.3418 -14.7314 -0.734312
-12.4597 -13.2679 2.96773
-12.973 -15.001 -0.0805305
-11.8652 -15.2925 -0.864644
-10.9033 -16.592 -2.05456
-11.8729 -14.8295 -1.9117
-11.7118 -15.1759 -1.26824
-11.6811 -15.5067 -0.950625
-12.1438 -15.1993 -0.907155
-14.1467 -13.9731 -1.86326
-15.254 -12.7429 -1.59914
-14.3209 -13.4712 -1.34163
-13.9869 -14.0186 -1.26764
-14.7346 -13.2871 -1.18602
-14.9183 -13.1278 -0.970462
-14.2225 -13.9309 -0.85798
-14.193 -13.9308 -0.769094
-15.4775 -12.7547 -1.02779
-11.7218 -16.0014 0.0335963
-14.675 -13.7163 -0.455093
-14.515 -13.9812 -0.441715
-15.3981 -12.6849 -0.647919
-12.2662 -15.5147 0.080237
-12.1009 -15.3958 0.264878
-13.2091 -14.5517 0.159991
-11.8507 -15.9385 0.170807
-12.1622 -16.0607 0.350028
-12.436 -15.188 0.373202
-13.5976 -14.5592 0.120304
-15.7045 -12.9332 -0.0136799
-14.9628 -13.4679 0.403983
-15.2535 -13.4495 0.249497
-15.1254 -13.9482 0.482286
-15.4773 -13.1387 0.332076
-15.5548 -12.9995 0.294476
-12.6036 -15.05 0.910733
-12.8326 -15.2676 0.895046
-14.0289 -13.95 1.1489
-14.1629 -13.915 1.08385
-14.13 -13.9295 0.813438
-13.5949 -14.1455 1.3655
-14.1491 -13.4868 1.2401
-14.1056 -13.8012 1.26939
-15.7791 -13.219 0.864082
-14.0195 -13.857 1.46755
-12.6734 -15.3389 1.79306
-16.1523 -13.0264 1.60137
-11.8059 -15.326 -0.859096
-14.3538 -13.5108 -1.62463
-11.7964 -15.0007 -0.855525
-12.3987 -14.8177 -0.861899
-14.1911 -13.523 -1.44961
-14.439 -13.4563 -1.39165
-14.4687 -13.426 -1.3512
-13.5372 -14.4459 -0.450764
-14.5612 -13.8198 -0.666947
-15.5365 -12.7636 -0.339963
-14.9746 -13.5941 0.00963021
-15.4722 -13.2467 0.124394
-12.3529 -15.586 0.692721
-14.3677 -13.741 0.665602
-15.7682 -12.7226 0.669636
-14.365 -13.6168 0.959559
-12.9649 -15.1543 1.46266
-15.8035 -13.0005 0.864683
-13.8458 -14.2526 1.38075
-15.4983 -13.1764 1.38452
-15.9811 -13.2267 1.21509
-11.978 -13.7846 2.63457
-11.7622 -14.0364 2.79399
-13.6322 -14.1738 -2.12384
-14.5404 -13.1029 -1.69539
-14.0569 -13.7313 -1.539
-12.6173 -14.9998 -0.4994
-14.1206 -14.0839 -0.609053
-13.6425 -14.3814 -0.324696
-15.4234 -13.0457 -0.249639
-15.0843 -13.221 -0.396797
-14.0111 -14.2121 0.207257
-13.6661 -14.3411 0.338846
-12.185 -16.0927 0.585324
-14.9243 -13.4827 0.0997881
-13.0373 -14.9522 1.02716
-15.1571 -13.2095 0.630044
-15.4538 -13.3471 0.678119
-13.3879 -14.6433 1.45904
-15.8051 -13.3054 1.44536
-14.731 -12.8931 -1.89382
-11.8289 -15.9013 0.103784
-15.3211 -13.2011 -0.472122
-15.016 -13.2653 -0.0276016
-14.9981 -13.5549 0.188354
-12.749 -15.1826 0.855824
-12.9392 -14.8891 1.0344
-14.5413 -13.6782 1.57046
-15.6309 -13.6452 1.55216
-11.6567 -15.4671 -1.01158
-13.1676 -14.5756 -0.356319
-12.1265 -15.4 -0.252704
-13.2579 -14.6963 1.22829
-15.3535 -13.4449 0.6839
-15.8084 -13.4251 1.8721
-12.7174 -13.2033 2.68338
-11.7292 -13.6512 3.26014
-13.6052 -14.477 -0.198366
-12.5648 -15.0246 0.923338
-14.3458 -13.7538 0.766243
-12.4083 -14.5063 -1.05403
-14.2867 -13.6497 -0.0947072
-12.5607 -13.3388 2.68201
-12.7378 -14.9487 -0.329236
-14.0849 -13.8098 0.644076
-14.2869 -13.614 1.16201
-11.8084 -15.087 -1.26755
-13.5611 -14.2833 -0.691353
-15.7323 -12.618 -0.523953
-14.7267 -13.5725 -0.326446
-15.3912 -13.0144 -0.283674
-12.7367 -14.8371 0.0833575
-13.0683 -14.8836 0.13347
-15.533 -13.1517 0.365383
-15.4999 -13.0482 0.467626
-15.0241 -13.551 0.178507
-14.2222 -13.8609 0.607287
-15.0147 -13.5072 0.461707
-16.1 -12.541 0.731732
-15.6203 -13.1587 0.732902
-14.0595 -14.1285 0.708858
-16.0971 -12.6923 1.09778
-15.6859 -13.1 1.11611
-15.5899 -13.3413 1.03244
-15.7093 -13.4811 1.14889
-16.323 -12.8736 1.48427
-15.8665 -13.1062 1.27403
-13.8966 -14.0185 1.34604
-14.1114 -13.7662 1.58583
-15.769 -13.3424 1.43274
-15.754 -13.3186 1.52938
-15.771 -13.4342 1.57929
-15.4763 -13.6181 1.52554
-12.818 -14.9073 1.74191
-15.7305 -13.462 1.70516
-15.7515 -13.4481 2.2432
-14.8468 -12.435 2.77593
-11.2945 -15.2788 -1.41318
-13.8068 -14.2134 -1.69542
-13.1398 -14.189 -0.785504
-14.2502 -14.0509 -0.77535
-12.0364 -15.9097 0.10214
-14.9546 -13.5277 0.495293
-14.8563 -13.8289 0.436354
-14.0815 -13.7824 1.00028
-15.2951 -13.558 0.806733
-15.0866 -13.5554 0.85521
-13.882 -14.2326 1.42568
-16.2904 -12.8337 1.61645
-13.9934 -13.8957 1.46306
-15.8797 -13.0336 1.43961
-16.137 -13.0612 1.82923
-13.8574 -13.9837 -2.02561
-14.3873 -13.4477 -1.7513
-11.9679 -15.258 -0.653302
-12.645 -14.7899 -0.798041
-15.0761 -13.5342 0.283429
-14.9199 -13.7192 0.418557
-13.9917 -14.2332 0.505873
-15.0342 -13.4658 0.472714
-14.9167 -13.7568 0.619596
-14.8661 -13.5114 2.32037
-14.5915 -13.2319 2.29414
-13.5328 -14.0334 -2.02013
-14.97 -13.706 0.29683
-13.4873 -14.4872 0.539279
-12.6848 -15.0711 1.74159
-11.4973 -15.41 -1.19311
-14.2907 -13.5152 -0.233039
-11.791 -15.9087 -0.170014
-15.7642 -12.9698 0.716664
-13.6491 -14.6318 1.17553
-12.6302 -15.1134 1.72697
-12.7663 -15.0269 0.467119
-14.3817 -13.4201 1.10997
-14.8574 -12.422 2.63771
-12.5783 -14.4895 -1.04265
-12.3085 -14.6403 -1.08232
-11.5596 -15.4477 -1.20786
-14.6727 -13.1626 -1.84249
-13.31 -14.5153 -0.82665
-15.5728 -13.1954 0.227857
-12.0955 -15.4105 -0.552997
-15.8688 -12.9122 0.571535
-15.7425 -12.8085 0.667716
-15.8133 -12.9919 0.673559
-12.8466 -14.8929 -0.09529
-16.3325 -12.6377 1.22595
-15.5202 -13.394 1.01717
-15.4043 -13.0166 1.16032
-14.1133 -14.0635 0.699671
-14.3811 -13.4949 1.29777
-13.9405 -13.8439 1.56629
-13.3437 -14.4877 1.21309
-12.5048 -15.4883 0.979582
-13.2666 -14.5599 1.56806
-11.8034 -15.1223 -1.06265
-11.644 -15.0754 -1.00632
-11.4205 -16.3415 -1.76297
-11.6639 -15.4893 -0.942925
-15.1892 -13.3835 0.0904291
-13.525 -14.2304 -0.501468
-11.2602 -16.625 -1.27837
-15.2054 -13.6455 0.46394
-12.5927 -15.0979 -0.258581
-15.5437 -12.9918 0.879069
-14.5516 -13.2814 1.36096
-12.9042 -15.1217 0.651204
-12.9879 -15.0653 0.545358
-15.6818 -13.2645 1.55815
-13.9784 -14.0246 1.31607
-12.8475 -14.9186 0.878563
-12.3863 -15.7052 1.04857
-15.1317 -13.4903 -0.0149619
-15.2726 -13.0569 0.0527529
-11.7687 -15.5021 -1.13121
-15.0041 -13.4232 0.218646
-14.3303 -13.3292 0.974412
-14.0019 -14.0266 1.23818
-12.1969 -15.9322 0.466523
-12.7459 -14.9231 1.46681
-14.0341 -13.4999 1.3078
-12.704 -15.0697 0.429248
-13.5478 -14.1922 -0.729156
-12.5288 -15.3332 0.249099
-13.738 -14.3984 0.495479
-14.7388 -13.1476 -1.81596
-14.8876 -13.3723 -0.769527
-14.4524 -14.0056 -0.402804
-15.7622 -12.7462 0.45295
-15.7999 -12.9337 0.6276
-15.686 -12.9408 0.663416
-11.2871 -16.184 -1.95287
-12.6823 -14.7337 -0.503791
-15.259 -13.5053 0.765371
-12.1355 -14.9842 -0.784333
-12.9739 -14.7041 0.0216465
-13.9657 -14.0415 1.36315
-13.9547 -13.9721 1.39123
-11.7906 -13.7878 2.60207
-14.1712 -13.8206 -1.0784
-15.8785 -13.0373 0.725694
-16.1053 -12.789 1.40092
-11.7874 -15.2333 -0.944541
-14.2673 -13.564 1.30654
-12.815 -14.9653 -0.282983
-12.1076 -16.1359 -0.0772495
-12.2579 -15.7434 0.830248
-11.9841 -15.9533 0.411549
-13.282 -14.0977 -1.01572
-13.8762 -14.125 0.0735092
-12.6163 -15.0358 -0.0775535
-13.6227 -14.1428 1.34091
-13.5031 -14.7585 0.764888
-12.1597 -15.622 0.179046
-12.4298 -15.5286 0.9512
-14.1207 -13.6346 -1.4674
-14.4505 -13.638 2.06528
-13.304 -14.49 1.36791
-12.7643 -15.3271 0.306695
-13.2802 -13.96 -1.20251
-13.9642 -13.7755 0.18213
-13.8261 -13.8353 0.285801
-12.8134 -15.1695 0.3617
-13.1212 -14.9732 0.521668
-14.3267 -13.5599 0.95553
-12.2398 -14.967 -0.678037
-15.2118 -12.7916 -1.12662
-15.815 -12.7553 0.714823
-12.2065 -15.1722 -0.864007
-13.3292 -14.582 0.375035
-13.2923 -14.7444 0.770147
-13.3699 -14.6497 0.951435
-12.1767 -15.643 0.805687
-12.4637 -15.5005 0.861515
-12.3678 -15.7332 1.02681
-16.0688 -12.8367 0.652557
-14.2106 -13.9159 -0.907002
-14.0764 -14.0756 -0.576946
-13.7025 -14.1589 -0.230347
-13.8295 -14.3276 0.822818
-12.3938 -13.2297 2.66979
-12.0712 -13.5189 2.59829
-11.9983 -16.1034 -0.0794066
-11.7835 -15.8191 0.0733768
-12.2675 -15.5898 0.850019
-15.6516 -12.8709 0.660961
-12.5067 -14.9958 -0.149932
-12.8349 -15.1322 0.135891
-14.1592 -13.6373 1.27637
-12.5825 -15.4298 0.977643
-12.7597 -14.4098 -0.788738
-11.7542 -15.8376 0.0392526
-13.1532 -14.5628 -1.16815
-14.536 -13.5773 0.836405
-12.7249 -15.0002 -0.450997
-13.841 -13.9275 0.0121675
-15.7589 -13.0173 0.861146
-14.7894 -13.7998 0.403825
-13.2967 -14.8022 0.379233
-13.2959 -14.6973 0.824458
-12.4435 -15.5738 0.612565
-12.534 -15.618 0.662621
-13.3012 -14.0647 -1.17772
-14.2321 -13.9702 -0.248944
-13.4548 -14.4719 0.107195
-12.4919 -15.5724 0.928651
-15.733 -12.89 0.99097
-12.703 -14.9169 0.181605
-12.6609 -15.2263 0.177202
-12.3495 -15.5624 0.616302
-15.7791 -12.7705 0.73898
-15.7395 -13.1803 0.509808
-12.7762 -14.954 0.088605
-12.7137 -15.087 -0.111675
-12.2382 -15.18 -0.255522
-15.7841 -12.9946 0.779282
-15.4609 -13.5644 0.852622
-14.9883 -13.9118 0.290819
-12.3099 -15.7233 0.77528
-14.3802 -13.7494 0.833485
-13.6058 -14.7035 0.177489
-13.029 -14.7425 0.791067
-12.4686 -15.4764 0.392782
-12.1918 -15.8107 0.245233
-10.7347 -16.8901 -2.11971
-15.0937 -12.9631 -0.634011
-13.8804 -13.9734 -1.88046
-12.5776 -14.3462 -1.12775
-12.4175 -14.3644 -1.07025
-13.4902 -14.6529 0.774066
-11.6054 -15.5883 -0.982455
-11.3461 -16.4396 -1.79867
-13.907 -13.5633 0.092314
-12.5124 -15.6047 1.05061
-14.4566 -13.4437 1.50743
-13.183 -14.4086 -1.04853
-11.9814 -16.2276 0.485946
-12.9496 -14.7109 0.0502937
-15.2392 -12.5648 -1.44138
-15.6726 -13.0145 0.818025
-15.6088 -13.0595 0.660469
-15.4337 -13.285 0.551921
-14.593 -13.1476 -1.83234
-14.3527 -13.2485 -2.05642
-14.4128 -13.5628 1.27025
-14.4426 -13.7595 -1.46206
-14.02 -13.6427 -1.27443
-13.749 -13.9884 -1.60956
-12.4116 -15.7885 0.77848
-11.3434 -16.3932 -1.40743
-14.8933 -13.2537 -1.26417
-14.0677 -13.633 -1.61739
-13.9644 -13.7253 -1.62283
-13.3513 -14.0459 -0.881009
-11.7793 -13.8972 3.41256
-11.7074 -15.271 -0.985446
-12.2862 -15.6318 0.837611
-11.3357 -16.406 -1.5736
-15.2813 -12.3799 -1.66383
-15.139 -12.341 -1.81565
-14.8387 -13.4613 -0.359609
-13.6637 -14.3841 -0.0265697
-11.1992 -16.2647 -1.61767
-14.2923 -13.2452 1.41157
-14.3181 -13.2789 1.4639
-11.6365 -13.8697 3.23981
-12.3056 -15.71 0.963421
-12.0874 -15.9306 0.403299
-15.858 -12.8614 0.916614
-14.3739 -13.3257 1.22722
-12.3419 -15.6388 0.940874
-12.2518 -16.0276 0.757125
-11.6497 -15.8524 -0.491673
-11.4081 -15.8456 -0.430199
-13.219 -14.7242 0.849827
-13.3072 -14.2625 -0.503926
-12.5555 -14.811 1.0583
-15.5801 -12.7242 -1.31462
-14.4656 -13.5002 1.0817
-14.9385 -13.1773 -0.967592
-14.3569 -13.2918 -2.0066
-14.0913 -14.3416 0.489262
-13.8353 -13.8985 -1.75003
-12.5809 -15.374 0.165162
-12.386 -15.6676 0.804266
-11.9413 -16.0748 0.359696
-11.6845 -15.7097 -0.975469
-11.3829 -16.2145 -1.85718
-11.4161 -16.7059 -1.31113
-15.8069 -13.0414 0.647543
-15.7944 -12.9692 0.590224
-15.5925 -13.0305 0.691599
-15.3519 -12.8081 -0.897363
-15.1976 -12.9297 -0.513246
-14.9165 -13.783 0.417107
-14.8112 -13.524 -0.598492
-12.6719 -15.4496 0.916298
-12.3725 -15.3348 0.627652
-12.6152 -15.712 1.02022
-12.392 -15.4388 0.739701
-12.1192 -16.2228 0.293791
-15.3454 -12.5384 -1.52699
-15.1422 -13.1283 -0.389551
-14.1941 -13.8898 -0.659905
-12.7817 -14.1691 -1.25377
-12.6084 -15.4959 0.734803
-12.3209 -15.7718 0.996347
-14.4635 -13.4094 1.44064
-13.8858 -13.8696 -2.07057
-12.5804 -14.6502 -0.660244
-12.476 -15.0999 0.220636
-12.5598 -15.302 0.229891
-12.7533 -15.3888 0.526982
-12.6375 -13.1201 2.40776
-12.8176 -15.0358 0.481183
-15.678 -13.1673 0.932997
-15.5939 -13.4785 0.747467
-14.4869 -13.4386 1.63921
-12.3891 -13.2703 2.44591
-14.9476 -13.497 -0.4832
-14.7841 -13.4669 -0.934784
-12.0011 -13.7484 2.66166
-14.4264 -13.2432 -1.74436
-14.2814 -13.6834 -1.59876
-13.6972 -14.3717 0.0479701
-13.5042 -14.8024 0.818953
-13.5266 -13.9968 -2.14241
-13.157 -14.4918 -0.0304318
-13.7215 -14.0368 -2.17714
-12.8938 -15.1511 0.213624
-12.4526 -15.5282 0.898405
-12.4232 -15.5275 0.647531
-12.3613 -15.6517 0.414258
-12.4443 -15.555 0.353428
-12.3418 -15.1964 -0.375706
-12.1854 -15.0855 -0.300872
-12.444 -16.0033 0.687841
-16.0195 -12.6221 -0.465016
-15.2799 -13.2165 0.0911567
-13.9773 -14.3685 0.68427
-13.8296 -13.6823 -1.55968
-13.254 -14.6683 0.693703
-13.2813 -14.5713 0.566952
-12.7457 -15.028 1.25769
-12.9913 -14.7524 0.384268
-12.523 -15.5383 0.910016
-12.4588 -15.6214 1.13773
-12.6972 -15.463 0.728616
-12.5441 -15.4813 0.773368
-12.395 -15.7702 0.808518
-12.4125 -15.5674 1.00809
-12.5766 -15.6807 0.88556
-12.4317 -15.5081 0.857241
-12.2654 -15.3369 -0.101196
-12.0922 -16.0382 0.0765429
-11.3939 -16.6073 -1.15861
-15.5487 -12.7925 -0.0653683
-15.2112 -13.4919 0.315616
-14.0466 -13.7032 -1.73575
-13.2812 -14.7618 0.809658
-12.5711 -15.6062 0.850666
-12.3238 -15.5146 0.768326
-12.3696 -15.6369 0.777455
-11.9094 -16.0647 0.109231
-11.5355 -16.3494 -1.9598
-15.6291 -12.9607 0.728533
-13.9108 -14.0035 -1.86153
-12.2142 -15.7205 0.394836
-11.9817 -16.0336 0.16983
-14.0289 -14.38 0.535247
-11.6335 -15.3462 -1.32614
-11.4877 -15.7457 -0.978585
-12.5275 -15.1127 -0.0951247
-12.4569 -14.9243 -0.663992
-15.6953 -13.1378 0.766783
-14.096 -13.8213 1.42179
-13.3019 -14.7057 1.56543
-13.8197 -14.5717 0.882997
-14.5275 -13.4021 -1.55394
-13.6656 -14.2898 0.0379253
-13.3386 -14.7197 0.712577
-13.3461 -14.7858 0.655708
-12.9133 -15.1263 0.949233
-12.5048 -15.4083 1.01783
-12.5332 -15.5253 0.802884
-12.6507 -14.3046 -1.20789
-11.0432 -16.6312 -1.41534
-15.8404 -12.9 0.999381
-15.8164 -13.0199 0.941085
-15.6929 -12.876 0.546663
-15.7232 -12.9545 0.658741
-12.22 -13.5619 2.46547
-13.9834 -13.5906 1.49193
-11.7237 -13.8449 2.62938
-13.4288 -14.2849 1.63961
-13.889 -14.3914 0.659295
-13.0043 -14.856 1.74153
-13.322 -14.7373 0.83706
-13.3311 -14.814 0.808909
-13.437 -14.583 0.773679
-13.2964 -14.826 0.914781
-13.1624 -14.7778 0.734743
-13.103 -14.8307 0.666443
-13.1214 -14.7093 0.489547
-13.0453 -14.7091 0.0678701
-13.6646 -13.9323 -2.02723
-12.4956 -15.5722 1.21311
-12.3108 -15.5397 0.938334
-12.5908 -15.3846 0.517017
-12.2648 -15.5874 0.977602
-12.5547 -15.2666 0.389307
-12.2972 -15.4771 0.222705
-12.2595 -15.659 0.383393
-12.4887 -14.9235 -0.877225
-12.0082 -16.1764 0.186654
-11.7463 -15.1911 -0.888579
-15.6528 -13.1591 0.476273
-12.1164 -13.6906 2.77863
-14.0798 -13.5066 1.39176
-13.1442 -14.7084 0.92563
-12.7866 -14.7107 1.38642
-14.2063 -13.7221 -1.57047
-13.1353 -14.5462 0.638142
-13.2243 -14.8862 0.463584
-13.0002 -14.7283 0.31633
-12.3745 -15.6647 1.15847
-12.3852 -15.592 1.10157
-12.5564 -15.6486 0.884146
-12.1628 -15.7282 0.808973
-12.2246 -15.4683 0.543843
-15.7492 -12.9133 0.946538
-15.5371 -13.0639 0.567373
-12.7472 -14.945 1.53259
-12.6909 -14.8826 1.24632
-12.5795 -15.0336 -0.695583
-12.0326 -16.0712 0.161426
-15.2413 -12.5594 -1.71551
-11.1857 -15.4914 -1.48683
-11.9119 -13.8782 2.85911
-12.3672 -15.4635 0.653633
-12.6451 -15.1109 0.00208533
-12.2164 -14.8982 -0.544385
-14.2098 -13.6588 1.25741
-13.1814 -14.4833 1.57443
-13.3951 -14.7281 0.687454
-13.5147 -14.1746 0.13789
-13.1043 -14.7787 0.224075
-14.6046 -13.2292 -1.78654
-14.7102 -13.2534 -1.72121
-13.0035 -14.8096 0.511734
-12.5389 -15.4081 0.734949
-14.6642 -13.1321 -2.1089
-12.5463 -15.3677 0.832861
-12.2948 -15.499 0.752196
-12.5656 -15.4865 0.623448
-12.3698 -15.4728 0.71016
-13.9852 -13.9859 -1.56677
-12.2791 -15.6123 0.452269
-12.6769 -14.7197 -0.445379
-13.5016 -13.869 -1.98761
-11.4889 -16.6843 -0.673933
-15.6922 -13.0208 0.908174
-15.4891 -13.063 0.513657
-15.8226 -13.124 0.71096
-15.6778 -13.1159 0.700036
-15.5747 -12.943 -0.070389
-15.3637 -12.5076 -0.832631
-14.081 -13.6147 0.00306879
-13.3622 -14.5842 0.896574
-13.3153 -14.874 0.89543
-13.2565 -14.8935 0.864662
-13.211 -14.7493 0.670804
-13.2792 -14.6733 0.600953
-13.4726 -14.6026 0.198185
-13.1338 -14.7448 0.490278
-13.2663 -14.5979 0.231769
-13.0568 -14.802 0.211521
-12.3974 -15.4963 1.09061
-12.5525 -15.6506 1.11637
-12.4193 -15.679 0.963396
-12.4528 -15.4174 0.823115
-12.4478 -15.3401 0.558162
-12.5509 -15.4398 0.675475
-12.2081 -15.2074 0.14122
-12.2726 -15.4899 0.138019
-12.2666 -15.4325 0.104369
-11.1757 -16.496 -1.99426
-16.1481 -12.7311 1.44638
-15.6537 -12.9524 0.51254
-15.3425 -13.4935 0.704773
-12.1425 -13.4348 2.46077
-11.8195 -13.8296 2.71504
-14.1105 -13.665 1.22393
-11.7771 -14.0584 2.57352
-15.4278 -13.1777 0.133767
-13.7492 -14.0596 1.41347
-11.6623 -14.3533 2.5677
-13.3504 -14.838 0.767717
-13.3329 -14.645 0.604025
-12.2648 -15.6518 1.69875
-13.1218 -14.5935 0.213939
-14.6446 -13.2007 -1.45404
-12.533 -15.5563 0.703676
-12.4092 -15.2983 0.567816
-12.4262 -15.5722 0.517567
-12.3052 -15.5563 0.18701
-12.4623 -15.5972 0.457211
-13.7172 -13.8854 -2.08187
-12.0942 -16.0889 0.264696
-12.1016 -15.9463 -0.253194
-11.8279 -14.9462 -1.50041
-16.1265 -12.7376 1.29425
-13.2949 -14.5149 1.65423
-12.9022 -14.9661 1.57384
-12.8913 -14.9567 1.65967
-12.9543 -15.0743 1.51222
-12.516 -15.2861 1.48941
-13.1444 -14.8163 0.689065
-16.3502 -12.7402 1.28176
-12.0358 -13.7991 2.7529
-13.7869 -14.1929 1.35862
-14.0191 -13.3889 -0.139092
-12.7782 -15.1428 1.57212
-12.6809 -14.926 -0.0942021
-12.6062 -14.9067 -0.906443
-11.9059 -16.0746 0.219022
-12.5844 -15.1385 0.00323895
-12.6373 -15.2118 0.466902
-12.8619 -14.9017 0.0985819
-12.4072 -13.3381 2.29354
-15.3599 -13.0609 0.219496
-12.8468 -14.869 0.959945
-14.6352 -13.5213 -0.932574
-14.6491 -13.4333 -0.973522
-13.7942 -14.0138 -0.138326
-14.8684 -12.9008 -1.29594
-12.2425 -15.6412 0.997534
-14.2856 -13.9462 -0.751421
-12.6202 -15.401 0.532284
-12.3786 -15.5462 0.806368
-15.0098 -12.7149 -1.88252
-14.4813 -13.1082 -1.81424
-13.2345 -14.1285 -0.640468
-14.0982 -13.8811 -1.57996
-14.3034 -13.7873 -1.5793
-12.7759 -14.698 -0.487308
-12.3318 -14.7042 -0.686206
-12.7974 -14.2556 -1.04241
-11.3674 -16.337 -1.05562
-16.2122 -12.9426 1.50023
-15.205 -13.3366 0.716608
-13.807 -13.8525 1.48362
-13.7423 -13.9575 1.26705
-15.6452 -12.4094 -0.92097
-13.8173 -14.4389 0.430366
-15.4198 -12.4329 -1.11043
-14.5747 -13.6581 -0.59722
-13.0648 -14.5934 0.290054
-12.2922 -15.6184 0.599744
-14.0337 -13.8003 -1.77718
-13.8738 -13.8184 -2.27032
-12.1637 -15.177 -0.625007
-11.8425 -15.2097 -0.743824
-11.2441 -16.5064 -0.661146
-11.448 -16.3519 -1.57943
-15.8161 -12.9982 0.924964
-15.7651 -13.2081 0.816447
-15.4933 -12.9775 0.280681
-15.1854 -12.7912 -0.847255
-13.7891 -13.9722 0.102144
-12.6566 -15.6681 1.09328
-15.1155 -12.7267 -1.5091
-12.3457 -15.6518 1.00451
-12.6889 -15.306 0.3621
-12.3107 -15.4804 0.459841
-14.1218 -13.743 -1.79176
-12.1919 -16.0334 0.372386
-13.1969 -14.2632 -1.3707
-11.8321 -16.1561 0.0511468
-12.5964 -14.4302 -1.16369
-12.3125 -14.4007 -1.05616
-11.6388 -16.1316 -0.242366
-11.647 -15.1745 -1.58951
-13.6169 -14.1647 1.37915
-13.6748 -14.1966 1.37276
-13.7113 -14.4717 0.233874
-14.9392 -12.7563 -1.4092
-13.1001 -14.7032 -0.0182807
-12.6506 -15.2384 -0.46306
-13.7477 -14.4299 0.589757
-14.008 -13.778 0.150285
-13.1491 -14.7944 0.628524
-12.5177 -14.9848 -0.590235
-12.3738 -15.5276 0.316153
-11.3607 -15.6017 -1.39524
-12.691 -14.9593 0.588057
-12.1793 -15.1708 -0.320311
-12.5973 -15.1059 0.516521
-12.8711 -14.9902 -0.140233
-15.9618 -13.0642 1.31703
-15.6196 -13.2272 1.11485
-16.1723 -12.6603 0.734338
-14.1866 -13.7154 1.36488
-15.1868 -13.382 0.801755
-15.2542 -13.6149 0.808658
-12.7776 -15.2718 1.50619
-15.3355 -13.283 0.616229
-14.4052 -13.6214 0.62722
-15.3937 -13.3163 0.116025
-15.364 -13.0882 -0.0460715
-15.4641 -12.745 -0.22808
-15.424 -13.2512 0.0312194
-15.72 -12.5806 -0.348899
-15.7066 -12.3725 -0.680381
-15.2107 -13.0406 -0.264234
-13.0487 -15.0019 0.830714
-15.601 -12.7492 -0.444252
-15.3824 -12.9917 -0.304706
-12.615 -15.3701 0.88432
-14.9805 -13.4938 -0.309945
-13.882 -14.1118 0.117099
-12.64 -14.9119 0.759087
-15.2942 -12.855 -0.701901
-13.5612 -14.389 0.0686905
-14.798 -13.2274 -0.634699
-13.743 -14.3205 -0.0768963
-15.3918 -12.5812 -1.14722
-14.6773 -13.444 -0.898057
-14.6105 -13.3632 -0.838169
-13.0457 -14.5512 -0.0886416
-14.6311 -13.2468 -0.947145
-12.7994 -14.6819 0.170276
-12.1077 -15.7629 0.44313
-11.9282 -16.0294 0.231284
-15.1525 -12.8284 -1.45631
-12.263 -15.5974 0.264754
-12.3368 -15.2006 0.199085
-14.9788 -12.9652 -1.59622
-15.2964 -12.4674 -1.74158
-14.849 -12.7203 -1.82166
-14.662 -13.2062 -1.64445
-15.0231 -12.6473 -2.17396
-14.3941 -13.6479 -1.36658
-14.2069 -13.5051 -1.73081
-12.6291 -14.2516 -1.04885
-13.9594 -13.8697 -1.89954
-13.6886 -14.2184 -1.94548
-11.3963 -16.0597 -1.62973
-15.5132 -13.0401 0.937842
-12.9918 -14.812 1.43869
-14.778 -13.5042 0.463345
-14.8853 -13.6249 0.0636347
-13.2675 -14.5192 0.775777
-15.4008 -12.8118 -0.233186
-13.6248 -14.486 0.645911
-13.0657 -14.6081 0.333768
-14.3921 -13.3203 -1.47905
-14.8411 -13.1812 -1.7696
-13.8468 -13.9658 -1.23722
-14.683 -13.0936 -1.53236
-13.9209 -13.9797 -1.75398
-12.9867 -14.2495 -1.30518
-12.5998 -14.2454 -1.06369
-12.6551 -14.4076 -1.13852
-11.4325 -16.5972 -0.699662
-15.3914 -13.3004 0.655765
-15.7124 -13.0612 0.581736
-13.4068 -14.3722 1.24386
-15.202 -13.3612 -0.12542
-13.244 -14.6401 0.313946
-13.8171 -14.2724 0.000345685
-15.0193 -12.9429 -0.820429
-12.5914 -15.5101 0.645244
-11.0808 -16.3496 -1.8594
-15.7341 -13.0905 0.888108
-15.0285 -13.5498 0.318361
-12.7606 -14.9576 1.02462
-15.0876 -13.2789 -0.32233
-13.6891 -14.5143 0.498674
-13.7464 -14.4993 0.534854
-13.0718 -14.5102 0.136251
-12.6631 -15.0248 -0.183694
-14.0226 -13.8233 -1.75506
-12.0733 -15.0899 -0.62561
-16.134 -12.8882 1.34687
-16.344 -12.7989 1.4894
-13.9046 -14.3675 0.381512
-15.1096 -13.2858 -0.278918
-13.9188 -14.0177 1.42347
-13.2464 -14.6583 0.79797
-12.5176 -15.0673 -0.0656013
-11.9016 -15.092 -0.861676
-12.6056 -15.3617 0.55906
-12.9883 -15.0941 0.545268
-12.515 -15.0021 -0.301849
-12.4525 -14.8825 -0.800597
-12.7602 -15.1207 0.806565
-12.6245 -14.8606 -0.752005
-12.1121 -13.5151 2.71105
-16.0877 -12.6271 1.44747
-14.2642 -13.853 1.60865
-13.8364 -13.9518 1.42416
-13.3277 -14.36 1.40996
-12.5179 -15.3313 1.60454
-15.5916 -13.2624 0.96343
-14.1942 -13.5559 1.41028
-14.2599 -13.6196 1.41783
-13.8705 -14.0789 1.43106
-15.8828 -13.1281 0.877885
-12.5719 -15.5007 1.5192
-14.4023 -13.8826 1.19175
-15.4145 -13.2643 0.710578
-15.2649 -13.867 0.7388
-14.1528 -14.1142 0.576711
-14.5029 -13.8343 1.0117
-15.3059 -13.0235 0.461632
-15.4306 -13.1474 0.261876
-15.1868 -13.3208 0.36507
-14.9702 -13.5109 0.451186
-12.3711 -15.5883 0.726976
-15.266 -12.9695 -0.0462119
-15.0657 -13.7227 0.168296
-12.4474 -14.9652 0.765281
-15.7663 -12.4357 -0.505331
-13.6933 -14.5495 -0.170894
-13.1248 -14.5453 0.0237906
-13.1248 -14.5072 -0.0511579
-15.4366 -12.6796 -0.983681
-14.7916 -13.2546 -1.00957
-14.9543 -13.2702 -1.04672
-15.1623 -12.6806 -1.54461
-12.3322 -14.7134 -0.439451
-14.9633 -13.1029 -1.63246
-14.4493 -13.5958 -1.33215
-15.2052 -12.6756 -1.54249
-15.0217 -12.6343 -1.69551
-14.1001 -13.9786 -1.53184
-14.408 -13.5515 -1.73104
-15.2374 -12.8211 -1.86041
-14.5182 -13.081 -1.85378
-12.6511 -14.4704 -0.902762
-14.9926 -12.6622 -2.07221
-15.1123 -12.5179 -2.05184
-11.9918 -15.2124 -0.909887
-14.5854 -13.098 -2.25998
-14.1017 -13.8225 -2.01968
-11.2171 -16.5161 -1.18709
-14.0224 -13.5642 -2.00858
-11.4629 -16.3714 -1.48111
-13.9593 -13.7745 -2.07205
-13.8728 -13.8178 -2.03613
-13.8773 -13.8759 -2.04078
-13.7149 -13.9198 -1.99081
-13.5224 -14.0344 -1.90073
-11.989 -15.1538 -1.21442
-10.9971 -16.7456 -1.5035
-12.4557 -14.1486 -1.56014
-12.2922 -14.5415 -1.68752
-11.8437 -14.9368 -1.61248
-11.5848 -14.9367 -1.73826
-15.7605 -13.3816 1.75336
-13.8732 -13.9889 1.65456
-12.8555 -14.765 1.59801
-13.0719 -14.7088 1.72589
-14.4833 -13.4772 1.13323
-14.24 -13.6066 1.14418
-12.8333 -15.1142 1.2637
-15.7612 -12.9439 0.63122
-15.781 -12.9463 0.20011
-12.6153 -15.2356 0.96719
-12.6878 -15.0718 0.747833
-13.882 -14.3453 0.521937
-15.3499 -13.1741 0.13391
-15.0217 -13.3688 -0.152737
-14.119 -13.614 0.0947827
-12.2132 -15.3369 0.0472509
-14.3313 -14.1352 -0.448936
-13.569 -14.1808 -0.254801
-13.3612 -14.4435 -0.458428
-11.926 -16.0749 0.00583301
-13.337 -14.1898 -0.637029
-11.7583 -15.6953 -0.548246
-12.47 -15.0346 -0.740979
-12.5317 -14.6373 -0.718579
-14.9828 -12.7795 -1.5848
-14.1986 -13.5621 -1.67543
-13.8761 -13.8024 -1.79006
-13.7844 -13.9288 -1.65156
-12.7499 -14.1596 -1.2261
-11.6925 -15.32 -0.903315
-15.1885 -12.6643 -2.32513
-13.6971 -14.1027 -2.05826
-11.7786 -15.0857 -1.21969
-15.6617 -13.4235 2.27552
-14.8408 -13.4146 2.23136
-16.0416 -13.1647 1.87167
-12.5221 -15.2939 1.59782
-13.1312 -14.9588 1.55627
-13.4529 -14.3715 1.34549
-14.491 -13.5334 1.16332
-15.3856 -13.1767 0.685638
-16.0523 -12.7641 0.553702
-14.967 -13.5539 0.37226
-15.3137 -13.1517 0.385455
-13.4966 -14.3177 0.428619
-12.1049 -15.971 0.722297
-14.9984 -13.4685 -0.33229
-12.906 -14.4037 -0.236753
-14.3411 -13.7947 -0.865029
-15.1621 -12.6413 -1.58006
-12.5441 -15.1341 -0.874697
-14.0252 -13.6738 -1.82075
-14.68 -13.1681 -1.9721
-11.7589 -15.3339 -0.96743
-11.207 -16.4331 -1.73805
-10.9253 -16.6447 -1.92042
-11.15 -16.3304 -2.13175
-14.7396 -13.4358 2.33548
-15.8287 -13.3354 1.48975
-14.4741 -13.5604 1.38527
-13.366 -14.2834 1.55485
-15.3868 -13.4203 0.737326
-14.2945 -13.5916 0.881825
-14.8621 -13.2601 0.210917
-14.7812 -13.4417 -0.287433
-11.7989 -16.2966 0.043933
-13.3699 -14.4011 -0.36791
-15.1568 -12.9763 -1.7554
-14.6682 -13.1691 -1.66202
-11.1992 -16.645 -1.02466
-11.1746 -16.7654 -1.54812
-10.8734 -16.7232 -1.56521
-12.7942 -14.0313 -1.81638
-11.3686 -15.0819 -1.61029
-12.4995 -13.1449 2.75817
-11.6256 -14.0796 2.72545
-11.7451 -13.8604 2.66782
-16.061 -13.4127 1.89293
-14.3675 -13.339 1.72371
-15.4444 -13.4754 0.616909
-13.6541 -14.6384 0.914026
-13.3607 -14.543 1.14839
-15.131 -13.2767 -0.181077
-14.0137 -13.7345 -0.127281
-13.3447 -14.3498 -0.43931
-12.7448 -14.1543 -1.19793
-11.8163 -15.0951 -0.96319
-11.5309 -16.3584 -1.48493
-11.2582 -15.2541 -1.50926
-15.9949 -13.3565 1.92362
-13.3945 -14.8113 1.13446
-15.3697 -13.5159 0.690778
-13.2828 -14.7016 0.515566
-12.7111 -14.3652 -0.982608
-11.2352 -16.3272 -1.69762
-12.2765 -15.2696 -0.174925
-14.3211 -13.8683 0.541467
-12.9629 -14.2737 -1.48504
-13.2479 -13.795 1.96853
-12.3288 -15.3465 -0.238654
-13.3876 -14.1823 -1.91892
-11.0798 -16.376 -1.52835
-13.8973 -13.9078 -1.80641
-14.5782 -13.3252 -1.74454
-14.4639 -13.1811 -1.66299
-13.9294 -13.7085 -1.69377
-14.1241 -13.8509 -1.74269
-14.4706 -13.3668 -1.61584
-14.1772 -13.7293 -1.66453
-14.2456 -13.4255 -1.69306
-13.8628 -14.2116 -1.71885
-11.8225 -15.0574 -0.900589
-14.329 -13.6 -1.66547
-14.1971 -13.7117 -1.52164
-14.4551 -13.3968 -1.70653
-14.2531 -13.9502 -1.43214
-14.9195 -12.7173 -1.59209
-15.2813 -12.709 -1.79014
-14.8482 -13.0981 -1.56547
-14.4352 -13.7732 -1.3676
-14.0745 -13.8188 -1.15966
-14.6853 -13.2766 -1.43732
-14.2564 -13.6546 -1.22146
-14.1517 -13.9506 -1.02891
-14.3684 -13.6511 -1.10253
-15.2489 -12.9865 -1.27054
-15.1459 -12.8155 -1.31411
-14.3924 -13.6456 -0.879113
-14.4424 -13.3675 -1.09325
-14.4221 -13.7737 -1.042
-15.0045 -12.9854 -1.05411
-15.1143 -13.0916 -1.06298
-14.1469 -13.8229 -1.00755
-13.3336 -14.2666 -0.547532
-11.774 -16.0018 -0.334619
-11.8386 -15.8802 -0.542255
-15.3771 -12.959 -1.00616
-11.7854 -16.0228 -0.368486
-14.8475 -13.4294 -0.870822
-14.6887 -13.5603 -0.875162
-14.6164 -13.4845 -0.818084
-14.6716 -13.4397 -0.952579
-15.5132 -12.6919 -0.948982
-11.6594 -15.9476 -0.342661
-14.0306 -13.8796 -0.545713
-14.2411 -14.0648 -0.680264
-15.4086 -12.7837 -0.839307
-15.3381 -12.6297 -0.925837
-11.6711 -15.7569 -0.221269
-11.8198 -16.0512 -0.117612
-11.9329 -15.918 -0.269206
-13.4611 -14.2383 -0.418666
-13.4677 -14.0898 -0.438603
-12.5543 -15.108 -0.168373
-11.7193 -16.2829 -0.0963323
-14.2435 -13.7522 -0.688073
-14.651 -13.4102 -0.663077
-14.1673 -14.0818 -0.460807
-14.2334 -14.0311 -0.457722
-15.5452 -12.8527 -0.702132
-15.43 -12.8487 -0.374697
-14.8369 -13.4419 -0.497387
-15.5683 -12.6659 -0.582583
-15.8484 -12.5739 -0.410484
-15.7291 -12.4299 -0.403914
-13.1065 -14.6611 0.152436
-12.7014 -14.8397 0.148602
-12.5905 -15.0441 0.282516
-12.6014 -15.1015 0.248181
-13.8092 -14.0892 -0.0584948
-15.1016 -12.9195 -0.0451631
-14.9474 -13.483 -0.179159
-14.9114 -13.5324 0.040576
-12.8184 -15.1137 0.492832
-14.7917 -13.6899 -0.218438
-13.3324 -14.6346 0.147918
-12.6429 -15.0585 0.521589
-12.6603 -15.0056 0.455722
-14.9387 -13.6589 -0.0676676
-15.2952 -13.0318 0.0422222
-12.8602 -15.0122 0.593067
-12.2882 -15.6025 0.679908
-13.7853 -14.3425 0.440453
-13.5379 -14.3864 0.428205
-15.2857 -13.2545 0.158872
-12.6623 -14.9172 0.745721
-13.6414 -14.2673 0.513914
-15.2142 -13.2006 0.293203
-15.687 -13.0954 0.158315
-15.9308 -12.9489 0.0942648
-13.0116 -14.8951 0.892695
-15.8141 -12.526 0.286022
-15.9503 -12.8127 0.523234
-14.0919 -13.997 0.506426
-15.466 -13.1233 0.550795
-16.1659 -12.6123 0.396452
-15.5184 -13.3246 0.625036
-15.4946 -12.9468 0.763538
-15.518 -13.1328 0.633549
-15.6037 -13.3703 0.686696
-15.188 -13.8031 0.875745
-15.0711 -13.7282 0.623003
-16.0426 -12.8357 0.712525
-15.3872 -13.3593 0.747001
-15.5731 -13.5033 0.800051
-15.3056 -13.5405 0.745441
-16.0704 -12.7638 0.672312
-15.6728 -13.0417 0.639167
-15.7276 -12.831 0.847224
-15.8861 -12.799 0.825476
-15.9184 -12.7237 0.810807
-14.3749 -13.6036 1.21706
-14.1127 -13.7125 1.26427
-14.0483 -13.6654 1.26976
-15.9866 -12.7542 1.05538
-15.8222 -13.0757 1.13132
-13.8491 -13.9169 1.45361
-16.0694 -12.6985 1.37078
-15.9524 -12.8363 1.35323
-16.0388 -12.8043 1.23249
-16.2102 -12.8656 1.22334
-15.5309 -13.2802 1.30469
-15.9764 -12.8746 1.35429
-16.2417 -12.8651 1.41172
-15.7208 -13.4346 1.61377
-14.435 -13.6938 2.12492
-14.4688 -13.5392 2.20301
-15.8569 -13.4692 1.99323
-15.7787 -13.1012 2.097
-15.4246 -13.912 2.10987
-12.514 -13.2066 2.99994
-12.1127 -13.5036 3.04844
-10.6992 -16.8628 -2.09356
-11.2891 -16.5963 -1.89181
-11.1312 -16.7522 -1.79624
-11.459 -16.2446 -1.88685
-11.4779 -16.1594 -1.49778
-11.5519 -16.3041 -1.71694
-11.204 -16.5679 -1.66622
-13.7783 -14.0843 -1.93394
-11.1653 -16.525 -1.56752
-13.7623 -13.9961 -1.68663
-13.9508 -13.8131 -1.84656
-13.8204 -13.9365 -1.73733
-13.9541 -13.5695 -1.66286
-14.9701 -12.6953 -1.68518
-14.7542 -13.1577 -1.84531
-11.5875 -15.3344 -1.08812
-11.8757 -15.0339 -0.911826
-14.3096 -13.4565 -1.68995
-12.4957 -14.493 -1.03494
-15.1329 -12.8025 -1.62113
-14.5337 -13.4396 -1.61694
-14.37 -13.8289 -1.38304
-14.0994 -13.6848 -1.45834
-13.2096 -14.5335 -0.924832
-14.9151 -13.131 -1.32637
-14.0787 -13.6835 -1.37092
-14.2159 -13.5811 -1.36987
-14.3718 -13.5173 -1.13876
-14.573 -13.5896 -1.31297
-14.2992 -13.7595 -1.08465
-14.637 -13.3745 -1.11873
-13.2501 -14.1696 -0.807329
-14.5976 -13.2366 -1.18611
-11.5133 -16.6237 -0.709208
-14.6717 -13.4107 -0.987962
-14.9396 -13.1085 -1.16292
-14.8488 -13.1349 -1.05856
-15.0107 -13.1343 -0.965608
-14.3185 -13.8377 -0.941634
-14.892 -13.2228 -0.986312
-14.8551 -13.3573 -1.05771
-11.7564 -16.0572 -0.380527
-13.4348 -14.1254 -0.513509
-13.9244 -13.9825 -0.684208
-13.3466 -14.205 -0.458918
-14.5788 -13.6232 -0.961144
-15.5648 -12.7737 -1.04547
-11.8804 -16.1412 -0.207545
-11.6052 -15.9346 -0.189271
-11.8005 -16.0647 -0.190523
-11.8016 -16.0923 -0.0736042
-12.6033 -14.841 -0.115444
-12.6939 -15.0074 -0.230903
-15.0868 -13.1032 -0.56697
-14.1712 -14.0658 -0.57264
-14.4035 -14.0327 -0.574123
-14.332 -14.0226 -0.551841
-15.7081 -12.593 -0.675107
-15.5341 -12.4253 -0.762166
-14.3586 -13.8235 -0.519467
-14.9026 -13.438 -0.601721
-15.4316 -12.6853 -0.623856
-12.8995 -14.9422 0.00177637
-15.1146 -13.1099 -0.463026
-15.0108 -13.3714 -0.404092
-15.2523 -12.9405 -0.434577
-13.632 -14.6169 0.0609443
-14.882 -13.5472 -0.317171
-12.3613 -15.4311 0.341914
-12.8661 -14.9242 0.514347
-12.3772 -15.2768 0.271088
-13.9683 -14.2631 0.0447805
-12.9635 -14.675 0.15858
-14.7078 -13.7173 0.0256651
-15.3844 -13.1957 0.0126646
-15.3045 -13.1512 0.0935291
-12.2785 -15.5007 0.523939
-12.1019 -15.898 0.348424
-15.3534 -13.0782 0.126469
-13.6198 -14.3781 0.575166
-13.9593 -14.0176 0.384729
-13.7088 -14.6165 0.548527
-15.0059 -13.5398 0.476263
-14.9795 -13.6814 0.407575
-15.002 -13.6107 0.350207
-15.181 -13.5231 0.260034
-12.4762 -15.2127 0.962808
-15.2724 -13.513 0.568177
-12.9992 -14.9222 0.83255
-13.8122 -14.3236 0.665153
-13.3229 -14.7981 0.696381
-12.8676 -14.8957 0.922013
-12.9041 -14.8383 0.943679
-13.9805 -13.8118 0.825503
-14.0773 -14.3148 0.514207
-14.305 -14.2084 0.772606
-14.2088 -13.7683 0.8125
-15.0148 -13.7945 0.623446
-15.5152 -13.2774 0.694271
-15.4553 -13.3085 0.781148
-15.2506 -13.4597 0.63781
-15.6313 -13.038 0.652624
-15.6354 -13.1021 0.798286
-15.2107 -13.5743 1.03502
-13.2313 -14.2898 1.31576
-12.6165 -15.0364 1.6909
-15.8682 -13.1839 0.912126
-13.1101 -14.9619 1.4424
-16.0154 -12.6967 0.998915
-14.1848 -13.6816 1.17454
-12.7308 -15.0272 1.34131
-12.2893 -15.4484 1.41705
-12.7388 -15.1029 1.55487
-14.0324 -14.1232 1.32056
-15.5191 -13.257 1.10748
-15.2773 -13.7319 1.01728
-15.8814 -13.2703 1.16065
-15.2942 -13.3785 1.26869
-15.6413 -13.4612 1.10731
-16.2284 -12.7708 0.971436
-15.8794 -13.1058 1.10719
-16.2728 -12.9389 0.991293
-14.3917 -13.4971 1.28819
-13.2361 -14.3878 1.41034
-13.5116 -14.2821 1.42987
-13.9861 -13.7738 1.37734
-13.2406 -14.812 1.64134
-14.3671 -13.5616 1.50519
-15.8187 -12.8873 1.1835
-15.775 -12.9896 1.1028
-15.425 -13.6023 1.28883
-15.527 -13.2701 1.30599
-15.2231 -13.5577 1.3153
-15.3603 -13.6617 1.37698
-15.5593 -13.4506 1.44288
-16.2311 -12.9415 1.59348
-15.5855 -13.4715 1.3568
-15.7076 -13.2638 1.46799
-11.8757 -13.7259 2.45257
-12.3668 -13.4111 2.2401
-11.3179 -14.1044 2.61227
-12.936 -13.0282 2.31564
-11.7713 -14.0361 2.60399
-11.7928 -13.9316 2.3771
-11.6621 -13.7144 2.62171
-12.8812 -13.1793 2.55712
-11.7632 -14.0397 2.82898
-11.905 -13.8297 2.81571
-12.1155 -13.9092 2.53216
-12.1778 -13.7415 2.84076
-12.5542 -13.1225 2.74551
-13.2141 -13.0911 2.87613
-11.4159 -16.5072 -1.68194
-12 -14.7504 -1.24082
-14.7194 -12.9914 -1.68773
-14.6148 -12.8673 -1.97217
-14.2934 -13.6684 -1.76651
-14.6558 -13.1593 -1.87723
-11.3085 -16.5253 -1.50228
-14.732 -13.0158 -1.81527
-13.9102 -13.8647 -1.80706
-13.7707 -13.9475 -1.45831
-14.9777 -13.0531 -1.60996
-14.7421 -13.205 -1.65982
-15.362 -12.694 -1.59281
-15.2691 -12.5821 -1.51039
-15.326 -12.8295 -1.59739
-14.4519 -13.6004 -1.41131
-15.2159 -12.7256 -1.67425
-14.9713 -13.2504 -1.20347
-14.841 -13.2426 -1.17177
-15.5014 -12.6627 -1.34988
-14.2423 -13.6969 -1.16109
-12.3857 -15.2216 -0.539127
-15.0744 -13.0939 -1.00221
-14.7365 -13.3031 -1.12638
-15.2717 -13.0118 -1.06539
-14.8805 -13.3714 -1.06242
-14.698 -13.4097 -0.83129
-13.2485 -14.4952 -0.591312
-14.5813 -13.5627 -0.8157
-13.5279 -14.4159 -0.333431
-14.1622 -14.0252 -0.588488
-15.1066 -13.1959 -0.666711
-14.7622 -13.7347 -0.64821
-15.2375 -12.8994 -0.654938
-15.5375 -12.9485 -0.685963
-14.7344 -13.3011 -0.307804
-13.0703 -14.5564 -0.141539
-12.1071 -15.5046 0.125663
-15.8136 -12.7037 -0.390897
-15.2585 -13.171 -0.358155
-13.8006 -14.1841 -0.0975205
-15.4488 -12.7164 -0.382157
-11.8529 -16.0821 0.20374
-12.6898 -15.0194 0.14786
-14.8283 -13.6195 -0.142648
-13.7388 -14.5943 0.0280465
-14.9263 -13.5345 -0.282079
-13.1061 -14.6062 0.188946
-12.1683 -15.4623 0.436508
-12.0435 -15.4864 0.393154
-13.0629 -14.6726 0.0450167
-14.037 -13.999 0.184923
-15.4977 -12.9173 -0.185977
-15.5274 -12.9433 -0.272853
-12.7686 -15.2718 0.599824
-12.7463 -15.0385 0.451814
-13.7287 -14.5711 0.487834
-12.6982 -15.166 0.855886
-15.1645 -13.2675 0.172773
-14.3654 -13.791 0.386639
-14.299 -14.0488 0.438729
-14.9845 -13.6022 0.381601
-15.8268 -12.7704 0.24477
-12.7763 -14.997 0.825737
-12.2917 -15.7683 0.969959
-13.0358 -15.0874 0.879773
-13.3728 -14.7283 0.945743
-15.5711 -13.1379 0.697878
-15.166 -13.397 0.795323
-15.4357 -13.2579 0.874138
-15.7258 -13.3826 0.811407
-15.073 -13.4544 0.775036
-13.0019 -14.8812 1.421
-15.7377 -13.0679 0.986472
-14.1764 -13.4555 1.25567
-14.241 -13.3463 1.19561
-12.7682 -15.0434 1.48589
-13.2015 -14.7127 1.3479
-16.1677 -12.6393 1.00108
-13.6989 -14.1333 1.37111
-15.9617 -13.0771 1.01661
-16.0095 -12.9129 1.00063
-16.2707 -12.8441 1.1271
-13.9937 -13.7762 1.55536
-12.4631 -15.2802 1.72408
-12.7871 -15.0145 1.75837
-14.455 -13.5153 1.48569
-13.7008 -13.7555 1.4718
-14.0642 -13.8368 1.36233
-15.7827 -13.1562 1.19461
-15.6498 -13.3225 1.36856
-15.5367 -13.3386 1.19513
-13.235 -14.4889 1.69177
-15.9878 -13.1797 1.48993
-16.0322 -13.263 1.44412
-15.9379 -13.2264 1.49313
-15.4677 -13.4615 1.46393
-15.724 -13.4239 1.52028
-16.2155 -12.9329 1.42523
-15.8178 -13.1445 1.5348
-14.2888 -13.7212 1.87717
-15.4249 -13.5595 1.77339
-12.2951 -13.6482 2.41168
-11.8432 -13.5222 2.57389
-11.9929 -13.5689 2.44206
-11.6518 -14.0104 2.41634
-12.1945 -13.7139 2.46149
-12.3508 -13.4053 2.57001
-15.5128 -13.7195 2.13732
-11.6229 -14.0287 2.53903
-12.1981 -13.58 2.47529
-12.3526 -13.0612 2.85665
-11.8322 -13.8281 2.6874
-12.2668 -13.2492 2.69564
-12.1083 -13.9148 2.63961
-12.2345 -13.7542 2.6481
-12.1268 -13.6329 2.57568
-12.1875 -13.6806 2.7506
-12.1556 -13.7247 2.68949
-12.136 -13.6069 2.86362
-12.5342 -13.2134 3.04435
-11.6436 -14.0237 3.16897
-11.8443 -13.9309 3.22558
-12.5228 -14.3178 -1.11878
-11.6409 -15.0773 -0.948428
-11.8531 -15.1558 -0.803192
-11.9133 -15.2609 -0.92408
-11.8588 -15.1672 -0.738649
-12.5478 -14.7801 -0.696488
-15.1522 -12.8445 -1.23757
-12.3631 -15.0238 -0.542912
-15.216 -12.6039 -0.929195
-14.1062 -13.8106 -0.759841
-14.5869 -13.7097 -0.661474
-12.7786 -14.8721 -0.105369
-14.8663 -13.51 -0.671382
-15.1547 -13.0647 -0.759236
-14.4948 -13.7692 -0.533431
-15.0804 -12.9391 -0.658011
-13.8018 -14.0205 -0.386146
-15.709 -12.6022 -0.685972
-14.7963 -13.1402 -0.512082
-15.2662 -12.9728 -0.410114
-13.487 -14.0498 0.112451
-15.7161 -12.7339 -0.380965
-15.421 -12.8191 -0.352161
-15.2596 -13.1941 -0.0818487
-14.0618 -14.1719 0.0999664
-13.6018 -14.3792 0.0676794
-13.8528 -14.3186 -0.0492491
-13.2601 -14.6656 0.357779
-11.9685 -15.9492 0.526452
-15.5475 -13.0307 -0.0444637
-13.136 -14.834 0.225263
-12.7633 -14.9577 0.507491
-12.5598 -15.5095 0.7024
-13.8113 -14.2704 0.393975
-13.8754 -14.272 0.408192
-13.7862 -14.2872 0.441048
-15.198 -13.2524 0.181035
-15.7875 -12.7771 0.390162
-13.2979 -14.8359 0.89391
-12.8685 -14.8036 0.760546
-13.2907 -14.7567 0.657978
-12.8213 -14.9943 0.841857
-12.7548 -15.0683 0.865139
-15.5596 -13.0613 0.37386
-14.0504 -13.7408 0.766714
-12.4022 -15.6433 1.06719
-15.6284 -13.122 0.53875
-15.776 -12.9845 0.62436
-15.0961 -13.7111 0.65125
-13.5237 -14.6675 1.03394
-14.5939 -13.6543 0.936478
-15.0501 -13.5298 0.850703
-15.501 -13.2147 0.724002
-14.3259 -13.3913 1.1574
-15.884 -12.9688 1.1286
-15.6315 -12.9736 1.25806
-13.241 -14.9337 1.71529
-15.7915 -13.139 1.31382
-15.9063 -13.2747 1.22403
-15.9092 -12.9774 1.25022
-16.228 -12.9556 1.28453
-16.0078 -12.8723 1.43264
-15.7007 -13.5415 1.62213
-15.8226 -13.3798 1.66499
-16.0012 -13.14 1.62842
-11.6322 -14.1102 2.58031
-12.2917 -13.2273 2.41037
-14.2081 -13.7552 2.33948
-14.2824 -13.5323 2.3976
-12.4069 -13.3554 2.53615
-15.3856 -13.6727 2.43635
-12.0229 -13.9676 2.9283
-15.6579 -13.4229 2.01839
-15.7458 -13.409 2.0961
-11.8166 -13.9072 2.82884
-14.6953 -13.5927 2.34899
-11.8969 -13.7801 2.9378
-11.999 -13.6843 3.19171
-11.305 -16.3336 -1.65888
-14.6512 -13.3865 -1.63238
-13.7934 -13.9071 -1.64708
-11.9922 -15.1299 -1.01316
-13.1881 -13.9789 -1.12148
-13.2801 -13.7568 -0.989789
-14.9687 -12.9532 -1.67915
-11.6939 -15.1576 -0.91639
