-17.9805 -12.1957 -0.450232
-18.1174 -11.7232 -0.79198
-17.792 -11.6831 -1.09559
-18.0715 -11.2294 -1.6334
-17.4214 -11.8697 -1.3519
-15.8144 -12.8117 -0.125299
-16.2051 -12.6069 -0.736781
-15.2827 -13.2733 -0.0611076
-17.8364 -11.2913 -2.01546
-15.6032 -12.9395 -0.304532
-15.6255 -12.8862 -0.844933
-17.6406 -10.9069 -2.39351
-16.1145 -12.5372 -1.34418
-17.091 -11.3938 -2.40269
-15.7364 -12.3785 -1.24853
-17.2569 -11.1343 -2.36603
-14.682 -13.15 -1.21685
-14.3147 -13.5767 -1.50194
-14.2274 -12.4788 -2.81026
-18.2657 -12.2466 0.402461
-18.6881 -11.6097 -0.185584
-18.3561 -12.049 -0.265404
-17.8327 -12.1917 -0.541894
-18.0327 -11.2845 -1.3745
-18.3419 -11.2371 -1.31125
-15.9992 -12.7525 -0.212288
-15.414 -12.888 -0.371454
-15.6845 -12.8632 -0.989383
-15.5351 -12.8412 -0.756049
-15.5613 -12.5403 -1.32122
-16.9163 -11.5226 -2.5943
-14.7492 -13.399 -1.14945
-14.6483 -13.2929 -1.31447
-15.0522 -11.7623 -2.95854
-14.1273 -12.5086 -2.54135
-14.7328 -12.0325 -2.90839
-14.3793 -12.1659 -3.13592
-14.5041 -12.1557 -2.96896
-18.6908 -11.9493 0.55908
-17.7225 -12.0917 -0.702568
-16.4334 -12.2741 -0.00889468
-14.7107 -11.9992 1.20854
-16.6864 -12.4773 -1.11272
-15.3857 -12.9197 -0.122465
-15.5863 -12.9619 -0.437863
-15.653 -12.9857 -0.864422
-15.4515 -12.6556 -1.27987
-15.1156 -12.7397 -1.71996
-16.8374 -12.363 0.65087
-17.9459 -11.9118 -0.588196
-15.9844 -12.8019 -0.163515
-16.3549 -12.8039 -0.955488
-15.4069 -13.2227 -0.279816
-15.476 -12.8011 -1.64088
-15.8263 -12.5684 -2.03139
-16.7765 -12.6522 0.480409
-16.7292 -12.2795 0.109363
-15.7241 -12.8126 -0.90446
-16.2248 -12.315 -1.52176
-15.7372 -13.0967 -0.749847
-16.2627 -12.6523 -1.33089
-13.9886 -13.4214 -2.19696
-18.6182 -12.0103 0.368312
-18.2834 -11.9306 -0.250266
-18.6095 -11.6568 -0.152356
-18.6167 -11.6846 -0.295974
-18.2119 -12.0156 -0.426655
-14.616 -11.9598 1.20676
-18.0089 -12.0921 -0.307127
-18.062 -11.848 -0.382254
-14.2494 -12.3107 1.137
-17.9693 -12.0614 -0.47338
-16.4063 -12.503 0.109689
-16.7542 -12.3176 0.0564381
-17.9165 -11.8864 -0.77356
-18.1096 -11.8537 -0.411224
-18.486 -11.2263 -0.462958
-16.2054 -12.8 0.0290187
-16.3812 -12.4366 -0.00651589
-17.965 -11.6611 -0.776629
-18.2344 -11.4572 -0.698178
-17.548 -12.2455 -0.659264
-15.8279 -12.9888 -0.163887
-18.1939 -11.4549 -0.905217
-18.1334 -11.4493 -1.29214
-16.5749 -12.3947 -0.642216
-17.2709 -12.0497 -0.906549
-14.8084 -13.5627 -0.174952
-17.9144 -11.7238 -1.11318
-18.2115 -11.1026 -1.4078
-18.6792 -11.1269 -1.31932
-17.7139 -11.6643 -1.24115
-18.0587 -11.1279 -1.59754
-17.998 -11.2575 -1.30227
-18.0943 -10.9664 -1.32508
-18.3582 -11.0063 -1.5519
-17.9645 -11.2327 -1.71128
-17.5102 -11.6932 -1.26084
-15.5403 -12.8211 -0.703964
-18.5688 -10.7024 -1.51583
-17.6692 -11.8428 -1.39558
-15.7921 -12.7456 -0.97192
-15.4916 -13.0292 -0.854711
-17.7634 -11.5648 -1.5261
-18.1062 -10.9769 -1.82516
-17.3836 -11.7947 -1.63166
-18.3205 -10.9417 -1.78091
-18.5257 -10.6967 -1.85773
-15.8029 -12.685 -1.21874
-18.5059 -10.9572 -1.98999
-17.69 -11.4865 -1.73453
-18.3035 -10.7424 -1.95204
-17.1058 -11.5451 -1.82722
-17.9583 -10.9843 -2.0066
-17.0113 -11.8654 -1.9042
-18.1868 -10.4274 -2.08326
-18.3841 -10.5837 -2.04103
-18.1463 -10.6776 -2.12108
-17.9939 -10.8383 -2.17653
-15.6571 -12.5764 -1.43274
-18.1992 -10.8269 -2.41431
-16.1948 -12.134 -1.99047
-17.564 -11.5898 -2.07157
-18.0368 -10.6846 -2.56999
-15.0444 -12.7906 -1.86233
-17.0766 -11.7052 -2.52122
-14.125 -13.7506 -1.70017
-14.6705 -13.171 -1.68219
-17.6465 -10.8921 -2.30583
-17.1815 -11.3351 -2.34175
-16.9802 -11.2455 -2.60758
-17.5095 -10.9142 -2.69834
-16.8383 -11.3979 -2.62005
-16.7532 -11.6786 -2.52952
-16.6657 -11.5702 -2.59032
-16.6429 -11.3915 -2.96435
-16.974 -11.321 -2.8038
-16.7033 -11.7088 -2.76083
-16.6106 -11.5134 -3.01119
-18.656 -12.1918 0.607666
-15.7285 -12.0724 1.33066
-16.8938 -12.4417 0.714786
-18.3982 -12.0959 0.101587
-18.6227 -11.5573 -0.0613018
-18.4977 -11.6939 -0.326825
-17.8751 -12.4203 -0.077201
-18.3082 -11.9189 -0.428402
-18.1142 -11.9126 -0.821492
-18.1122 -11.6921 -0.91953
-18.2195 -11.4636 -0.817592
-18.1107 -11.497 -1.06662
-14.8906 -13.5304 -0.214075
-15.2804 -13.4011 -0.173018
-17.895 -11.6196 -1.16128
-18.4821 -11.1199 -1.25529
-17.9045 -11.734 -1.31524
-18.4547 -11.0803 -1.37679
-16.3652 -12.645 -0.868214
-17.364 -11.9078 -0.978111
-17.7088 -11.5844 -1.30863
-17.5132 -12.0166 -1.41594
-16.2547 -12.4221 -1.16763
-17.3959 -11.873 -1.47016
-16.1499 -12.3977 -1.05816
-15.6299 -12.868 -0.904318
-18.1632 -10.8202 -1.9616
-18.128 -10.8594 -2.07153
-17.6533 -11.3063 -2.09193
-15.5164 -12.5094 -1.68916
-17.8737 -11.059 -2.14566
-15.8668 -12.0747 -1.72011
-17.6637 -10.9523 -2.48372
-17.0497 -11.587 -2.40785
-17.1771 -11.4093 -2.28209
-17.806 -10.674 -2.46705
-17.7789 -10.8408 -2.22612
-17.1084 -11.4916 -2.20656
-15.3199 -12.6234 -1.73554
-17.6078 -10.9533 -2.57309
-17.2218 -11.463 -2.64399
-16.9503 -11.2848 -2.70156
-17.2627 -10.9564 -2.76822
-17.4963 -11.1611 -2.76032
-15.9648 -11.5767 -2.44099
-14.0805 -13.3014 -2.28714
-16.4362 -11.6366 -2.84344
-14.9644 -12.3318 -2.39487
-16.7909 -11.2452 -3.0126
-16.736 -11.4175 -2.82204
-14.8276 -12.6173 -2.27926
-16.4916 -11.5819 -2.9866
-15.1503 -11.8287 -2.47658
-14.3549 -12.5563 -2.53607
-13.665 -13.4162 -3.31675
-18.3371 -12.532 0.555792
-17.0857 -12.259 0.58797
-18.5332 -11.9717 -0.016814
-17.074 -12.1849 0.369354
-16.8766 -12.1729 0.239435
-18.2511 -11.5763 -0.633776
-16.8897 -12.0435 -0.150191
-16.6218 -12.1329 -0.0667359
-17.6738 -12.1771 -0.501765
-17.7682 -12.2868 -0.52322
-15.9411 -12.6592 -0.0416282
-15.3027 -13.2814 -0.0676079
-17.8078 -11.5327 -1.31443
-18.1409 -11.4652 -1.1596
-18.062 -11.3264 -1.31383
-17.5422 -11.7037 -1.2476
-17.2483 -11.8015 -1.45068
-16.4038 -12.4539 -1.09568
-16.7254 -11.5969 -1.22012
-18.4869 -10.5722 -1.93152
-15.6691 -12.7157 -1.02678
-18.2441 -10.947 -1.83946
-14.802 -13.4701 -1.08151
-14.6507 -13.6139 -1.28874
-17.7517 -11.1114 -2.14077
-14.329 -13.7136 -1.53596
-14.3946 -13.2066 -1.69262
-16.6005 -11.7411 -2.82948
-14.7987 -12.7682 -2.21198
-16.7052 -11.1913 -2.78286
-15.1042 -11.9002 -2.73728
-14.9315 -11.7695 -2.9422
-17.9234 -12.3929 0.120337
-15.8701 -12.6833 -0.212844
-16.9408 -11.9957 -0.387353
-16.8048 -12.0485 -0.617951
-15.3816 -13.2137 -0.312178
-18.5184 -10.9695 -1.52999
-16.9676 -12.0584 -0.941328
-17.6609 -11.7895 -1.06666
-18.0361 -11.1992 -1.79649
-16.887 -11.3906 -2.67831
-14.9623 -12.5522 -2.36886
-15.2849 -12.0182 -2.53747
-14.6963 -12.3268 -2.85085
-18.5334 -11.7094 -0.448993
-17.8626 -12.2467 -0.433897
-17.7458 -12.1448 -0.585751
-18.1261 -11.6877 -0.679482
-17.7756 -11.8077 -0.858921
-17.7877 -11.8204 -1.26203
-17.463 -11.8474 -1.5449
-17.5976 -11.7172 -1.4323
-16.9791 -11.9416 -1.87738
-16.7122 -11.9747 -2.3619
-16.4725 -11.8951 -2.82361
-15.7728 -11.5476 -2.6779
-14.4117 -12.4676 -2.45097
-14.7112 -12.1119 -2.86527
-14.1817 -12.6326 -2.93953
-12.9724 -13.6712 -3.90491
-14.3685 -12.1779 1.34188
-15.5745 -12.7017 -1.04901
-16.1248 -12.6133 -1.31141
-17.2883 -11.2093 -2.79091
-15.1487 -11.614 -2.68227
-15.7374 -12.8339 -0.195671
-17.5022 -12.003 -0.909162
-15.6246 -12.7208 -1.32752
-16.5725 -11.8214 -2.83322
-15.6496 -11.525 -2.88253
-17.658 -11.7969 -1.37242
-16.2595 -12.5547 -1.46176
-15.5751 -12.8986 -0.693902
-14.8923 -12.4306 -2.52137
-16.3614 -12.3249 -0.978663
-14.3925 -13.377 -1.83871
-14.7022 -12.316 -2.48862
-14.9822 -11.8994 -2.91053
-15.2276 -11.8995 -2.60299
-15.2143 -11.9075 -2.29678
-15.3763 -11.8363 -2.59564
-17.0802 -11.2679 -2.54947
-18.0215 -10.8592 -2.25433
-17.0193 -11.6711 -2.11131
-16.093 -12.1431 -1.97047
-15.8098 -12.1124 -1.80944
-18.1343 -10.9835 -1.54684
-17.6691 -11.6449 -1.43459
-17.3939 -11.5475 -1.37913
-18.3584 -11.4544 -1.02325
-16.8778 -11.9472 -0.80584
-17.3581 -11.9901 -1.09171
-17.4342 -11.9094 -1.10102
-15.656 -12.8648 -0.795714
-16.7968 -12.0847 -0.59326
-16.0423 -12.8619 -0.730999
-16.8031 -11.966 -0.422058
-16.8228 -12.0918 -0.583059
-18.2699 -11.9098 -0.391423
-18.0525 -11.8469 -0.561348
-18.0677 -11.9074 -0.313796
-16.742 -12.1711 -0.0789255
-17.6892 -12.2853 -0.170877
-18.1824 -11.8254 -0.0820978
-18.0049 -12.2103 -0.236477
-18.0761 -12.3517 -0.199334
-18.7092 -11.7443 0.130891
-17.9489 -12.112 -0.219508
-18.5757 -11.7298 -0.127475
-18.1564 -11.9557 -0.0890737
-16.5567 -12.2884 0.163893
-16.7822 -12.1677 0.056299
-16.5346 -12.3894 0.0854973
-18.421 -12.0058 0.231448
-17.885 -12.3782 0.00217146
-18.3416 -12.1204 0.0152881
-18.5588 -11.8892 0.362291
-18.3575 -12.1372 0.367588
-18.8934 -11.991 0.35226
-18.1585 -12.5406 0.655257
-17.6719 -12.7313 0.313803
-14.8174 -11.9846 1.08656
-18.2418 -12.5527 0.630307
-17.0762 -12.4264 1.03986
-15.2518 -11.8267 -2.61051
-16.3701 -11.9284 -1.67415
-14.217 -13.5225 -2.07178
-14.6242 -13.1133 -1.7148
-18.2895 -11.0904 -1.30203
-17.5535 -11.7912 -1.1758
-17.3601 -11.774 -1.32469
-18.0826 -11.5334 -1.06436
-17.7082 -11.9525 -1.0097
-17.6048 -12.1445 -0.877206
-17.4346 -12.0613 -0.925865
-18.4367 -11.4588 -0.633
-15.1954 -13.0028 -0.788392
-17.7378 -12.1615 -0.550855
-17.8529 -12.2751 -0.239636
-14.7169 -13.5353 -0.007936
-14.7491 -13.5842 -0.184491
-18.6038 -11.6932 0.0830361
-18.0475 -12.5445 0.0672622
-14.9254 -11.816 1.32831
-14.7953 -11.9596 1.2647
-15.7087 -11.9075 1.17273
-18.0176 -11.1947 -1.33949
-17.3954 -11.9384 -1.00559
-16.9227 -12.2211 -0.546465
-17.6924 -12.3167 -0.504273
-17.8883 -12.3174 -0.40142
-17.0212 -11.9597 0.074609
-14.7145 -13.4127 -0.41416
-15.9711 -12.8055 -0.00819814
-18.4922 -12.0458 0.0537191
-18.3124 -12.1678 0.327176
-16.6423 -11.9178 -2.42663
-17.3183 -11.6336 -1.39987
-17.4858 -11.7193 -1.24881
-17.5102 -11.9026 -1.02584
-17.4661 -12.0494 -0.816473
-17.0447 -12.1516 -0.650909
-17.8446 -12.184 -0.399601
-18.61 -11.8548 -0.0164983
-14.7741 -11.8101 1.30696
-15.1255 -11.8637 1.61799
-16.0383 -12.1059 -1.9865
-16.9138 -11.7812 -0.883648
-17.453 -12.0123 -0.859571
-16.9395 -12.0933 -0.192322
-18.4152 -12.3336 0.174951
-16.8176 -12.3986 0.511702
-16.5757 -12.3849 0.359569
-16.5489 -11.6258 -2.98654
-15.9935 -12.092 -2.11437
-18.0048 -11.7954 -0.633203
-14.6259 -13.4854 -0.949311
-18.0673 -11.8038 -0.647317
-15.5041 -13.0104 -0.41173
-18.5092 -12.2438 0.751635
-16.9773 -12.6552 0.972062
-17.4024 -11.7256 -1.16009
-15.8237 -12.7084 -1.15724
-14.6421 -13.3554 -1.34842
-15.6588 -12.7195 -0.454894
-15.8073 -12.9472 -0.0871621
-16.56 -12.1473 0.0108622
-17.6002 -11.9161 -1.17552
-15.1415 -13.1279 -0.40852
-14.7112 -13.0415 -1.78485
-15.4437 -12.8819 -0.943181
-15.1055 -11.7072 1.38276
-17.7613 -11.7302 -0.827016
-18.3366 -10.8525 -2.08168
-17.5689 -11.1816 -2.24087
-14.7576 -12.0847 -2.86354
-15.8807 -11.781 -2.36318
-17.2972 -11.6484 -2.04182
-18.5378 -10.9537 -1.49013
-18.2719 -11.3031 -1.50158
-16.8546 -11.9196 -2.05043
-17.7485 -11.7647 -1.22572
-18.2913 -11.4015 -1.018
-17.5691 -11.8302 -1.29366
-17.5141 -11.8457 -1.47943
-17.5662 -11.7686 -1.43188
-18.5025 -11.4429 -0.901163
-15.5268 -12.6206 -1.47362
-18.3005 -11.5112 -0.810323
-18.6083 -11.5035 -0.294407
-17.571 -12.2988 -0.721431
-18.0485 -11.9064 -0.38289
-18.0229 -12.0731 -0.534506
-17.4594 -12.2227 -0.418617
-17.7612 -12.1339 -0.516298
-18.24 -11.9034 -0.27381
-17.926 -12.2284 -0.178576
-14.8344 -13.2064 -0.845172
-18.2237 -12.3098 0.0532287
-18.2912 -12.1989 0.167682
-16.6944 -12.2372 -0.0873199
-18.8688 -11.7558 0.333947
-18.4016 -12.041 0.426045
-15.4001 -13.0193 -0.186291
-14.9698 -13.2704 -0.449531
-14.8998 -13.4677 -0.252257
-18.337 -12.1793 0.735517
-16.8273 -12.3004 0.901161
-14.8955 -11.9417 1.28543
-16.5907 -11.4497 -2.9668
-17.8003 -10.927 -2.11814
-15.2535 -11.7958 -2.47343
-17.8948 -11.7621 -0.949783
-16.9134 -11.9892 -0.864189
-13.9658 -13.5758 -2.06725
-15.1987 -12.7883 -0.734065
-18.3298 -11.7806 -0.0642481
-17.7201 -12.3603 -0.312575
-18.0115 -12.285 0.211821
-18.3874 -12.2149 0.651335
-16.8753 -12.3642 0.782076
-17.8544 -12.7548 0.680413
-17.1661 -12.3661 0.988006
-17.1106 -12.2714 1.02912
-16.4578 -11.7567 -2.5586
-18.1617 -11.6128 -0.95763
-18.6289 -11.7787 -0.0140463
-15.4948 -12.9254 -0.869951
-15.4592 -13.0263 -0.912367
-18.0306 -12.119 0.106432
-14.6435 -13.5264 -0.296318
-18.1474 -12.2869 0.506047
-17.1487 -11.9265 1.59323
-14.6475 -12.1345 1.28983
-14.28 -12.2454 -2.60705
-15.0787 -12.6078 -1.96008
-17.3708 -11.8933 -1.23976
-16.6102 -11.9075 -1.01446
-14.3112 -13.5136 -1.81601
-14.8877 -13.3995 -0.845745
-18.2041 -12.2768 0.854461
-17.6866 -12.2037 -0.765249
-18.095 -12.0386 -0.120216
-16.7708 -12.6167 1.04575
-14.1966 -12.3481 1.26292
-17.619 -11.8658 -1.45614
-18.2594 -11.561 -0.655696
-16.7978 -12.2841 0.0022094
-16.1286 -11.98 -1.51607
-17.9924 -11.9656 -0.49968
-17.0628 -12.0143 -0.673747
-15.755 -13.1489 -0.60424
-15.0265 -11.8 0.985398
-15.0026 -12.3101 -2.36639
-16.8789 -12.3699 -0.348985
-17.5735 -11.0707 -2.11763
-18.5461 -11.0272 -1.29632
-18.5695 -11.5429 -0.408664
-18.4818 -11.6398 0.0130691
-18.126 -12.2427 -0.00203529
-18.0783 -12.5622 0.580353
-17.8534 -12.7025 0.459912
-16.9798 -12.1548 0.616611
-16.7867 -12.5484 1.04667
-18.0226 -10.8616 -2.2779
-18.3154 -11.5945 -0.896617
-17.3848 -11.7944 -1.25424
-17.8413 -12.0783 -0.444933
-16.644 -12.3698 -0.136151
-14.5443 -13.47 -0.362633
-16.3104 -12.2935 -1.68633
-18.5681 -12.0321 0.237482
-15.9477 -11.4184 -2.62211
-16.6286 -12.369 0.100306
-15.5164 -12.8335 -0.308228
-14.7294 -13.5572 -0.28452
-17.3416 -11.9701 -1.31375
-16.2653 -12.2868 -1.30318
-17.7156 -12.0902 -0.435225
-17.7008 -12.14 -0.226479
-15.7486 -12.9154 -0.753347
-15.3431 -12.5203 -2.11566
-18.4567 -11.5366 -0.291754
-14.945 -12.6805 -2.38246
-17.0664 -12.2903 0.541432
-14.5527 -13.3383 -1.56275
-15.0618 -13.6701 -0.245687
-18.5043 -11.4512 -0.53771
-18.6286 -11.7005 -0.694597
-17.6444 -12.2276 -0.30219
-17.7678 -12.2611 -0.410425
-16.838 -12.2965 0.647159
-17.0792 -12.1422 0.809988
-16.8644 -12.1385 -0.44149
-15.3287 -12.2982 -2.14016
-18.4983 -11.6443 -0.409592
-18.4677 -11.6421 -0.412889
-17.3395 -11.8583 -1.36402
-16.986 -11.9924 0.000784963
-14.6149 -13.6512 -0.780026
-18.4411 -11.4347 -0.549621
-16.7264 -12.3865 -0.550537
-15.2202 -12.5125 -2.11064
-15.5037 -12.9217 -0.424292
-14.5893 -13.398 -1.38181
-14.5567 -13.533 -1.01783
-14.7251 -13.5185 -0.823198
-18.3834 -11.629 -0.434053
-18.6171 -11.6028 -0.485209
-16.5122 -12.4092 0.274107
-16.7485 -12.4058 0.787828
-14.5156 -13.8428 -1.52947
-18.5799 -11.6489 -0.287878
-18.5053 -11.5083 -0.445691
-18.3143 -11.7473 -0.306736
-17.6667 -11.5229 -1.73763
-16.3218 -11.4813 -3.252
-16.2191 -11.8404 -3.25956
-16.629 -12.5275 0.56926
-15.1902 -12.4929 -2.15457
-15.0919 -12.3787 -2.06115
-15.7647 -12.5578 -1.40002
-15.3394 -12.343 -2.39357
-15.9502 -12.3924 -1.05003
-15.7975 -12.7302 -1.12492
-15.5483 -12.9542 -1.09323
-15.5301 -12.9039 -0.959193
-15.129 -12.8572 -1.8469
-15.7811 -12.9698 -0.79851
-14.5601 -13.2826 -1.5159
-14.6421 -13.3228 -1.27858
-15.6729 -12.5654 -1.24604
-15.7575 -12.7952 -1.27101
-14.7808 -13.3109 -1.09765
-14.854 -13.5278 -0.939983
-14.7289 -13.6826 -0.973446
-14.2708 -13.4004 -2.02361
-16.4412 -11.8032 -1.64237
-15.8377 -11.8142 -2.53176
-17.4185 -12.306 1.16773
-14.3766 -13.7039 -1.44078
-16.4499 -11.9826 -2.61516
-18.3239 -10.6796 -2.21034
-18.4867 -11.4691 -0.394059
-18.3461 -11.6084 -0.265522
-17.6516 -11.1785 -2.26533
-17.8123 -11.9566 -0.573016
-16.2954 -12.3184 -1.30659
-15.7685 -12.5762 -1.36422
-15.4269 -13.0054 -0.823525
-14.6093 -13.3368 -1.36529
-18.426 -10.6361 -2.21573
-17.4314 -11.2251 -2.77335
-16.71 -12.3448 0.367783
-15.7653 -12.8285 -0.840276
-15.5658 -12.886 -1.12913
-14.8908 -11.8602 1.41837
-14.5282 -13.1522 -1.30228
-14.6767 -13.3 -1.5962
-13.1979 -13.3832 -4.24209
-18.3427 -11.2829 -1.33389
-18.0793 -11.4425 -1.40938
-17.69 -11.5901 -1.53391
-17.5863 -11.5456 -1.50248
-16.944 -11.4901 -2.45129
-15.818 -12.6216 -1.32842
-15.4955 -12.7814 -1.34948
-15.1174 -12.3958 -2.02357
-15.7104 -12.8796 -1.04797
-14.6972 -13.2311 -1.5003
-14.7576 -13.4857 -0.81831
-17.0869 -11.2177 -2.71668
-16.9404 -12.3701 0.877685
-14.1842 -13.4062 -1.84419
-14.2269 -13.5688 -1.95506
-14.1691 -13.4659 -1.84488
-14.3779 -12.1837 1.82777
-15.0899 -12.8121 -1.47279
-18.6267 -11.5647 -0.590494
-17.817 -10.9321 -2.47404
-17.5017 -11.9076 -0.990245
-17.025 -11.2228 -2.49577
-16.7863 -11.3409 -2.87884
-16.6118 -12.3664 -0.0456129
-16.618 -12.0663 -0.205233
-16.2875 -12.8476 -0.498193
-14.7125 -13.2517 -1.54303
-14.6075 -13.2054 -1.2865
-18.3321 -10.6022 -2.18298
-18.1145 -10.9641 -2.05585
-17.1672 -11.1592 -2.81029
-16.8323 -12.3833 0.883043
-16.7234 -12.6405 0.699457
-15.5232 -12.5949 -1.15396
-15.6956 -12.5651 -1.258
-15.5388 -12.7783 -0.666771
-15.6125 -12.7952 -0.860432
-15.7141 -12.9172 -0.593392
-14.6326 -13.1769 -1.61955
-14.646 -13.216 -1.72179
-14.5132 -13.3694 -1.63084
-14.8606 -13.4138 -0.82943
-17.9935 -11.1448 -1.70219
-17.5018 -10.8879 -2.47734
-17.4023 -11.4556 -1.41178
-17.1761 -12.3555 0.684148
-15.735 -12.5632 -1.21952
-15.5265 -12.5443 -1.17452
-14.9187 -12.569 -2.44013
-14.2786 -12.3858 1.11195
-13.9667 -13.3029 -2.13233
-18.4026 -10.9519 -1.73302
-18.357 -11.2272 -1.3778
-18.4695 -11.5752 -0.337162
-16.8939 -12.213 -0.614522
-16.7366 -12.2967 0.119185
-15.5558 -13.0607 -0.769554
-15.7228 -12.8058 -1.042
-14.4771 -12.3916 -2.31645
-14.5874 -13.1123 -1.47362
-14.7288 -13.4068 -1.55902
-15.5355 -12.6117 -1.7484
-14.6789 -13.0996 -1.47538
-14.4786 -13.5982 -1.31117
-16.9528 -12.2175 0.750561
-17.1257 -12.2187 0.192372
-15.6018 -11.6949 -2.51168
-15.2194 -12.8185 -1.47533
-14.6165 -13.0248 -2.02841
-13.9471 -13.3207 -2.31905
-17.188 -12.2295 0.916615
-17.8927 -10.806 -2.3589
-17.8174 -11.4283 -1.31112
-17.7888 -11.5336 -1.33508
-18.1777 -11.2559 -1.99557
-17.7434 -11.1301 -1.82082
-16.967 -12.4569 0.645967
-16.8083 -11.5238 -2.67785
-16.8719 -12.0928 -1.87669
-16.6937 -11.4799 -2.9255
-14.9357 -12.0636 1.55981
-14.7699 -13.694 -1.04666
-14.5192 -13.2658 -1.3492
-14.574 -13.5021 -1.36453
-14.5657 -13.2046 -1.73288
-14.3773 -12.3657 -2.70364
-18.6142 -10.7673 -1.73572
-18.2536 -11.3291 -1.27829
-18.1173 -10.8914 -1.98448
-18.0935 -11.504 -0.948235
-17.9287 -10.9324 -1.74786
-17.6698 -11.1115 -2.31937
-17.1983 -11.1934 -2.57853
-16.9792 -11.6558 -1.34154
-16.6708 -12.6082 0.691975
-17.0124 -11.4821 -2.73021
-14.8036 -11.8507 1.26021
-15.7332 -13.029 -0.723162
-15.681 -12.465 -1.2563
-15.5692 -12.787 -1.01888
-14.9259 -12.1513 1.11653
-15.5804 -12.6477 -1.43146
-14.4389 -12.268 1.11126
-14.7996 -13.4167 -0.94953
-14.5189 -13.6155 -1.01893
-14.7304 -12.5875 -2.5986
-14.6596 -13.4089 -1.55294
-14.6769 -13.3406 -1.27211
-14.6999 -13.1014 -1.72387
-14.5595 -13.5004 -1.45239
-18.487 -11.1559 -1.14479
-18.1826 -11.6041 -0.816921
-17.721 -10.8052 -2.54615
-17.5284 -11.5346 -1.49258
-17.3942 -11.6319 -1.94123
-17.07 -11.4647 -2.81362
-16.1457 -12.2858 -1.62441
-15.4578 -11.6752 -2.44626
-15.8788 -12.5822 -1.19477
-15.4756 -12.7243 -1.19877
-15.6235 -12.9713 -1.19516
-14.4611 -12.2809 1.16921
-14.8098 -13.3703 -1.15307
-14.6813 -13.3816 -1.3131
-14.6873 -13.5536 -1.23897
-17.9603 -11.3337 -1.4024
-17.8634 -10.9584 -2.04825
-17.0244 -11.9897 0.315246
-15.7458 -12.7435 -1.06703
-15.6971 -12.5223 -1.51009
-15.6706 -12.6926 -1.30862
-15.6569 -12.8302 -1.40717
-14.9516 -12.4288 -2.40964
-14.8202 -13.4247 -1.20057
-14.5127 -13.362 -1.48526
-15.6844 -12.6412 -1.3722
-15.1576 -11.8666 -2.44507
-14.713 -13.7383 -0.984835
-16.9827 -11.9642 0.246966
-14.2199 -13.5843 -1.75258
-18.2561 -10.7145 -1.95839
-18.2408 -11.4206 -1.22992
-18.1008 -10.9387 -1.88659
-17.8728 -11.49 -1.43482
-17.7727 -11.341 -1.8592
-17.5714 -11.3536 -2.01838
-17.2829 -11.1349 -2.84424
-17.3836 -11.1639 -2.74009
-16.2225 -12.3744 -1.23752
-16.7289 -11.4388 -3.08761
-18.4448 -11.8988 -0.22614
-18.5453 -10.8702 -1.29397
-17.9973 -11.344 -1.46052
-17.8248 -11.782 -1.43609
-16.679 -12.2313 -0.853281
-15.3867 -11.9154 1.42301
-16.942 -11.3339 -2.25285
-15.6808 -13.0026 -0.0497096
-15.8149 -12.7662 -0.87642
-15.4805 -12.659 -1.14501
-14.4912 -12.2472 1.43093
-15.6405 -12.5236 -1.26794
-15.4282 -12.9015 -1.19305
-14.6776 -13.7147 -0.780063
-14.481 -13.4716 -0.886502
-14.7326 -13.6045 -0.925238
-14.5033 -13.2886 -1.33504
-14.432 -13.6542 -1.14902
-14.6378 -13.169 -1.67129
-14.606 -13.4228 -1.26623
-14.5828 -12.3739 -2.67657
-14.1767 -13.4145 -1.86272
-17.5109 -11.4982 -1.7594
-17.0093 -11.8307 -0.853931
-15.7684 -12.8317 -0.735986
-15.5869 -12.4259 -1.2157
-15.3707 -11.9901 -2.37457
-14.6881 -13.4834 -1.1901
-14.7033 -13.375 -1.28292
-14.6968 -13.1277 -1.30386
-14.8073 -13.1538 -1.49854
-13.9733 -13.7719 -2.0105
-17.1192 -11.5699 -1.0858
-16.2154 -12.1914 -1.66832
-15.802 -12.7434 -1.14459
-15.5167 -13.0558 -0.857005
-15.9501 -11.5415 -2.59267
-15.0356 -12.3886 -2.30128
-14.4643 -13.7642 -1.9547
-18.4389 -11.5114 -0.493228
-15.7047 -12.9228 -1.04779
-15.5887 -12.5918 -1.4295
-13.9843 -12.4565 0.887891
-16.8071 -12.0046 -1.97437
-15.082 -12.994 -1.65253
-14.8906 -13.4993 -0.833841
-15.8668 -11.7554 -1.99258
-14.6893 -12.5127 -2.6492
-14.6578 -12.7185 -2.62876
-18.2892 -11.7107 -0.283176
-18.3259 -11.2719 -1.41416
-18.023 -11.709 -1.0175
-16.9609 -11.8258 0.063857
-17.7002 -11.686 -1.15906
-16.6432 -12.2424 -0.159708
-17.3818 -11.3672 -1.98509
-17.2011 -11.1871 -2.80421
-15.9922 -12.6421 -1.15627
-15.6626 -12.8247 -1.09695
-15.8336 -12.6343 -0.872954
-15.342 -11.6664 -2.46933
-15.2952 -11.7625 -2.48399
-14.9309 -11.7084 -2.86821
-18.5167 -11.4469 -0.399766
-18.6207 -11.6273 -0.530721
-17.7549 -11.6937 -1.50617
-16.1073 -12.399 0.0112674
-17.721 -11.143 -2.36252
-16.7324 -12.3993 -0.744222
-16.6783 -12.4039 -0.550064
-16.5306 -12.0413 -1.33291
-14.5615 -12.0438 1.1784
-16.7619 -11.8558 -1.98262
-16.1482 -12.7674 -0.966383
-17.0126 -11.4075 -2.43862
-16.3372 -12.44 -1.39521
-15.8973 -12.728 -1.18991
-15.634 -12.684 -1.04487
-14.0662 -12.3316 1.02933
-14.6581 -13.1896 -1.16929
-14.6249 -13.2942 -1.29108
-17.9831 -11.0501 -1.63713
-17.6917 -11.7331 -1.26279
-16.8584 -12.1794 -0.846398
-17.8614 -10.7869 -2.6292
-14.6196 -12.3556 1.40677
-15.7241 -12.9433 -0.711246
-15.8436 -12.7813 -0.863173
-17.0896 -11.1091 -2.88248
-15.7306 -12.8066 -0.924331
-15.9023 -12.7644 -0.956711
-15.5197 -13.0264 -0.820234
-14.584 -13.0704 -1.90046
-14.1416 -13.8154 -1.87604
-14.5112 -12.378 -2.84343
-18.3904 -11.798 -0.142687
-18.3234 -11.6721 -0.354671
-16.8189 -11.9469 -0.0516847
-17.6153 -11.7885 -1.23114
-15.716 -12.6869 -1.00923
-15.4967 -12.9148 -0.720209
-15.5515 -12.8858 -0.917634
-15.6644 -12.5814 -1.4151
-16.947 -12.4173 0.724351
-14.6946 -13.4095 -1.49628
-16.7982 -12.3695 -0.944697
-14.8474 -12.0934 1.09661
-14.5041 -12.9218 -1.60656
-14.3013 -13.7199 -1.76179
-14.7086 -11.943 1.23382
-16.499 -12.646 -0.979767
-16.4209 -12.6841 -0.98956
-15.688 -12.8552 -0.853158
-17.7811 -11.9135 -0.779547
-18.0998 -11.6408 -0.893084
-18.6105 -10.6647 -1.68642
-17.8453 -11.6149 -0.982206
-18.1711 -11.5123 -1.0692
-17.6942 -11.7197 -1.2538
-17.5937 -11.6849 -1.34984
-17.7673 -11.7729 -1.32502
-17.3834 -11.9001 -1.22393
-17.5553 -11.3949 -1.59528
-17.4943 -11.386 -2.06488
-17.4243 -11.3109 -2.14022
-17.4315 -11.5649 -1.96351
-17.3788 -11.549 -2.28191
-17.7883 -11.3485 -2.19876
-17.5053 -11.4802 -1.92542
-17.6541 -11.0744 -2.41314
-15.6092 -12.951 -0.674568
-16.3345 -12.3071 -1.37541
-17.2927 -11.3438 -2.42031
-17.1681 -11.5022 -2.21324
-17.1447 -11.3958 -2.39853
-15.2004 -12.9208 -0.760563
-15.0634 -11.7297 -2.81449
-15.0585 -11.7902 -2.99879
-18.6734 -11.4772 -0.306477
-18.2303 -11.7779 -0.303072
-18.3811 -11.6817 -0.522943
-17.7931 -12.1318 -0.452785
-14.7629 -12.0685 1.11459
-16.5489 -12.4866 -0.781119
-17.8102 -11.0935 -1.81859
-17.3955 -11.537 -1.62273
-17.795 -11.0686 -2.09404
-17.6103 -10.9495 -2.39296
-15.9984 -12.697 -1.12911
-15.5715 -13.0158 -0.609749
-15.7346 -12.7831 -0.64736
-16.8692 -11.8966 -1.97808
-15.8738 -12.4539 -1.17456
-17.5375 -10.716 -2.4999
-15.4664 -13.0443 -0.990743
-16.7162 -11.6902 -2.38527
-18.6562 -11.8905 -0.211279
-18.3242 -11.1755 -1.48009
-17.8905 -11.7986 -0.758676
-16.6507 -12.3453 -0.0159259
-15.0562 -11.8493 1.28827
-16.5235 -12.575 0.118722
-14.7623 -11.7855 1.14984
-17.9873 -11.2563 -1.89408
-15.5866 -12.9848 -0.791482
-15.5394 -13.0823 -0.79521
-14.7588 -13.3576 -1.26806
-14.8111 -13.3357 -1.28259
-18.4892 -11.5687 -0.346513
-17.0755 -12.006 0.0272422
-16.5154 -12.4554 -0.921452
-17.1321 -11.8363 -1.73039
-15.6789 -12.7889 -0.760192
-15.5921 -12.8066 -1.1365
-15.6877 -12.6494 -1.44401
-14.4881 -13.3979 -0.912844
-14.6894 -13.2801 -1.40917
-16.4 -12.6883 -0.853031
-16.0375 -12.2018 -1.89637
-14.2842 -13.7674 -1.81784
-14.9086 -12.3819 -2.47257
-16.8768 -12.4412 0.512736
-17.9764 -10.9325 -1.75308
-15.5023 -12.864 -0.242405
-14.864 -12.7659 -1.85689
-15.0673 -12.3225 -2.26175
-15.9779 -12.3809 -1.48273
-16.1528 -12.4676 -1.3402
-16.9025 -12.4272 0.780977
-18.0718 -11.9782 -0.459439
-17.0958 -11.9553 0.0612812
-17.6421 -12.1429 -0.485287
-18.0604 -11.8393 -0.703702
-17.9982 -11.5975 -0.802822
-16.6734 -12.2613 0.0792234
-16.2592 -12.484 0.010055
-17.814 -11.6959 -0.922193
-15.953 -12.7707 -0.107054
-17.4415 -11.9417 -1.31803
-18.5314 -10.9784 -1.87631
-17.6798 -11.5976 -1.42626
-16.1279 -12.7499 -0.728194
-18.1064 -11.0971 -1.92949
-17.4858 -11.6696 -1.62003
-17.864 -10.9199 -1.90576
-17.6634 -10.9428 -2.01371
-14.8656 -13.1765 -0.857044
-17.1567 -11.3706 -2.37614
-17.5138 -11.043 -2.69807
-16.7193 -11.2638 -2.73698
-17.98 -12.5721 0.2548
-18.1497 -12.0566 -0.192922
-16.5236 -12.0571 -0.0567952
-18.5078 -10.9151 -1.51235
-18.0019 -11.6937 -1.05809
-18.6717 -10.8299 -1.52154
-17.7025 -11.7259 -1.2552
-15.5557 -13.0106 -0.0693334
-15.6244 -12.8972 -0.405914
-18.0865 -11.3224 -1.48131
-17.3888 -12.0507 -1.39298
-17.3803 -11.7717 -1.40329
-16.3015 -12.5127 -1.09438
-17.6192 -11.4925 -1.80885
-15.4815 -12.8941 -0.672638
-17.8706 -11.055 -2.11653
-15.5208 -12.7719 -1.14061
-17.9183 -10.7544 -2.16951
-17.1832 -11.5703 -1.99137
-15.0766 -12.9771 -0.733019
-16.3526 -12.0187 -1.82638
-14.4462 -13.2825 -1.37679
-14.2012 -13.8272 -1.97402
-14.965 -12.7513 -2.15032
-14.1571 -12.5558 -2.56743
-14.5165 -12.1392 -2.89574
-17.9479 -12.5537 0.616728
-16.9766 -12.4196 0.534112
-18.6572 -11.6421 -0.271136
-17.9994 -11.9319 -0.3276
-17.8906 -11.8141 -0.424524
-17.8084 -12.11 -0.451467
-14.7562 -12.0507 1.20712
-18.4237 -10.9273 -1.40219
-18.2781 -11.3422 -1.22286
-17.8334 -11.7138 -1.24858
-16.1544 -12.421 -1.10397
-16.3443 -12.0121 -1.54739
-15.332 -12.7046 -1.37124
-17.5953 -10.8835 -2.40311
-16.5775 -11.59 -2.91164
-14.8594 -12.5085 -2.21832
-14.8885 -11.7926 0.963265
-17.0282 -11.8493 -0.940759
-16.1451 -12.3916 -1.22602
-16.1995 -12.3695 -1.1728
-14.5805 -13.5795 -1.0422
-15.1235 -12.8126 -1.71537
-14.2043 -13.5773 -1.57047
-14.2282 -12.5669 -2.59251
-16.3669 -12.4832 0.0165611
-16.3603 -12.7079 -0.718695
-15.6266 -12.4143 -1.67001
-15.5376 -12.3633 -1.57914
-17.0401 -11.1191 -2.89438
-14.7975 -11.9547 -3.02708
-13.9435 -12.2193 -3.22064
-18.6942 -11.6307 -0.430591
-16.7597 -12.0905 0.0643235
-15.8291 -12.8337 0.00720167
-15.5417 -12.4972 -1.53919
-15.0691 -12.8853 -1.78782
-14.646 -13.1461 -1.74604
-18.3184 -12.5827 0.48519
-16.8289 -12.3984 0.63357
-18.4632 -12.0216 -0.0615078
-18.3385 -11.9082 -0.200616
-17.8333 -12.1224 -0.376348
-17.8541 -12.0576 -0.54282
-15.6999 -12.8116 -0.397884
-17.8553 -11.8075 -0.871605
-18.051 -11.5985 -0.867157
-15.025 -13.3523 -0.328332
-18.088 -11.1965 -1.35144
-18.6156 -10.9839 -1.31494
-17.8405 -11.6277 -1.22363
-15.1219 -12.9394 -0.655599
-18.4264 -10.8092 -1.51072
-18.6755 -10.7103 -1.54675
-15.9721 -12.5131 -1.54731
-18.2656 -10.8957 -2.0645
-18.0028 -10.9964 -2.12254
-14.9627 -13.0165 -1.44454
-17.9303 -11.1211 -2.18715
-18.3248 -10.5436 -2.22627
-15.0516 -12.7403 -1.96944
-17.0159 -11.322 -2.74313
-16.3957 -11.7211 -2.96274
-13.7614 -13.4457 -3.59067
-13.578 -13.2995 -3.66375
-18.0318 -12.2036 -0.425738
-17.6284 -12.0675 -0.67703
-16.8754 -12.2481 -0.493938
-17.9677 -11.4047 -1.39658
-17.3927 -11.626 -1.37433
-17.4238 -11.9088 -1.36733
-17.376 -11.7034 -1.3296
-18.3431 -11.0584 -1.81459
-17.7648 -11.2422 -1.96492
-16.0825 -12.4397 -1.75241
-14.4332 -12.9781 -1.7196
-16.6354 -11.7941 -2.47231
-16.79 -11.383 -2.50531
-17.0332 -11.2006 -2.61884
-16.904 -11.2282 -2.79706
-15.2281 -11.8647 -2.58429
-15.2433 -11.802 -2.60634
-14.204 -12.6774 -2.61267
-14.2365 -12.5903 -2.48506
-14.3067 -12.1725 -3.00491
-15.1973 -11.8704 1.55302
-17.9049 -12.2995 0.138793
-16.7226 -12.3262 0.0237901
-17.7712 -12.1377 -0.24788
-17.0392 -11.8751 -0.17665
-16.1776 -12.6788 0.0434356
-16.8892 -11.9629 -0.44067
-16.927 -12.2428 -0.617724
-18.4326 -11.1985 -1.16091
-16.2672 -12.594 -0.984282
-17.8784 -11.653 -1.38331
-15.5572 -12.9764 -1.01257
-17.2301 -11.73 -1.46737
-18.0575 -11.1091 -1.57455
-15.5332 -12.6 -0.981206
-16.3957 -12.3659 -1.23061
-14.6318 -13.0919 -1.77583
-17.904 -10.9904 -2.23853
-16.5321 -11.1571 -3.00678
-16.6164 -11.2787 -2.81716
-15.525 -11.8988 -2.5389
-15.0449 -11.9724 -2.49006
-15.0586 -12.0982 -2.5696
-16.6483 -12.8531 1.04958
-15.5279 -12.8005 -0.235241
-15.4425 -13.2264 -0.682065
-15.3004 -12.9488 -0.876456
-15.1176 -12.7725 -2.0307
-13.9793 -12.2042 -3.27367
-14.9206 -11.8242 0.983115
-17.8303 -11.6607 -0.900881
-14.5021 -13.1063 -1.72749
-17.8676 -12.0457 -0.662577
-15.2502 -13.2857 -0.225582
-17.8802 -11.5132 -1.41533
-14.6853 -13.4035 -0.880218
-16.7576 -11.5582 -3.10902
-17.6263 -11.4322 -1.40057
-15.9004 -12.1111 -1.82307
-14.7086 -12.4297 -2.30489
-14.5106 -12.3924 -2.56123
-15.1816 -13.179 -1.3052
-14.1432 -13.6978 -1.85319
-14.6372 -12.7708 -2.42209
-18.324 -12.4101 1.07403
-18.7203 -11.9932 0.574795
-18.191 -12.1142 0.156535
-18.1564 -12.3535 0.367218
-18.0058 -12.4335 -0.229412
-17.0511 -12.0432 0.314175
-16.2705 -12.579 0.270373
-18.3842 -11.7618 -0.00740486
-18.3014 -12.0111 -0.0936201
-18.7003 -11.8411 -0.187122
-16.5528 -12.2321 -0.0205373
-18.3078 -11.9879 -0.224501
-17.9927 -12.2188 -0.307818
-18.3918 -11.8 -0.109074
-18.6041 -11.6096 0.0259573
-18.2284 -11.9367 -0.343032
-18.6329 -11.4876 -0.319593
-15.7035 -12.9486 -0.228479
-17.6564 -12.052 -0.449313
-16.9664 -12.1361 -0.44844
-17.8265 -11.9124 -0.720821
-16.0838 -12.9135 -0.777272
-16.8606 -11.9615 -0.670952
-18.3976 -11.3992 -0.805006
-18.1407 -11.5449 -0.914225
-15.2898 -13.0119 -0.991792
-17.9562 -11.5572 -0.881696
-15.1737 -12.8543 -1.2088
-17.7672 -12.0216 -1.13148
-18.2594 -11.4634 -1.12784
-16.3896 -12.723 -1.21971
-17.5799 -11.7977 -1.28232
-17.4815 -11.796 -1.28972
-17.2501 -11.6339 -1.31305
-18.0914 -11.5701 -1.35799
-17.5114 -11.4954 -1.5893
-18.307 -11.0912 -1.36764
-17.0242 -11.8345 -1.86817
-17.571 -11.408 -1.66617
-17.8163 -11.546 -1.63314
-15.763 -12.2076 -1.77656
-16.8878 -11.9344 -2.10981
-17.1707 -11.7009 -2.06895
-17.5697 -11.4086 -2.01434
-17.8607 -11.1469 -2.01901
-16.6143 -11.7226 -2.62677
-16.5263 -11.7911 -2.71458
-17.1587 -11.445 -2.45309
-18.1278 -10.5386 -2.28651
-18.1614 -10.3019 -2.29068
-17.7407 -10.766 -2.27929
-15.2962 -11.9352 -2.51954
-16.7134 -11.4513 -2.68667
-16.2919 -11.7632 -2.93383
-16.1867 -11.6444 -3.0809
-16.676 -11.4846 -2.89214
-16.2203 -11.513 -3.21281
-14.9562 -11.4876 -2.86186
-17.8855 -12.4192 0.878589
-18.4758 -12.1465 0.545592
-18.6051 -12.2068 0.546877
-18.4366 -12.1112 0.161589
-16.9951 -12.2274 0.188044
-14.7444 -13.6271 -0.178632
-17.9287 -12.394 -0.0459031
-14.9626 -13.5283 -0.207559
-17.575 -12.1194 -0.455617
-17.8519 -12.2207 -0.297312
-16.6829 -12.5157 -0.610393
-16.1947 -12.7395 -0.702984
-18.3745 -11.3347 -0.699148
-18.3269 -11.6034 -0.777505
-15.2274 -12.9708 -0.920859
-17.8293 -11.6898 -0.96476
-16.8919 -11.985 -0.737166
-18.113 -11.2744 -1.22732
-18.3569 -11.3397 -1.18062
-14.3814 -13.839 -1.37896
-17.5278 -11.8563 -1.49391
-17.6337 -11.6692 -1.25018
-17.4873 -11.9633 -1.4349
-17.2536 -11.7704 -1.4629
-17.9591 -11.4686 -1.52692
-14.302 -13.856 -1.64214
-15.5282 -12.5333 -1.3281
-17.1739 -11.7725 -1.9978
-17.1962 -11.3894 -2.00779
-17.8356 -11.3271 -1.84085
-14.5231 -12.4054 -2.83679
-16.8392 -11.4723 -2.79797
-16.6953 -11.215 -3.0047
-14.466 -11.9972 -3.2099
-18.3829 -12.0387 0.320187
-18.3944 -12.0875 0.123203
-15.8076 -12.8869 0.216609
-17.9191 -12.3179 -0.338845
-17.8305 -12.0775 -0.25091
-15.693 -12.7231 -0.922055
-16.1647 -12.4285 -1.02415
-17.3987 -11.841 -1.24583
-18.1816 -11.2954 -1.10909
-17.8146 -11.4993 -1.21939
-16.9095 -11.5831 -1.28133
-17.7963 -11.3643 -2.05388
-14.5503 -12.7489 -2.43903
-13.694 -12.9819 -2.79989
-16.6218 -11.6144 -2.76085
-15.7312 -11.7766 -2.80538
-13.917 -12.234 -3.47054
-14.2531 -12.0254 -3.23695
-14.3663 -11.9707 -2.97652
-14.0878 -12.2507 -3.17532
-15.1954 -12.0977 1.92352
-16.6695 -12.7377 1.17546
-16.7025 -12.2324 0.4002
-18.0031 -12.4199 -0.0916839
-17.8604 -11.9711 -0.242292
-16.8669 -11.8802 -0.27795
-16.9913 -11.8873 -0.315136
-17.4951 -11.6049 -1.60488
-16.6796 -11.8914 -2.08651
-17.3296 -11.5526 -2.05744
-17.7493 -11.2453 -2.32756
-16.4522 -11.9363 -2.3939
-15.7389 -11.6619 -2.57179
-13.2855 -13.6743 -3.65892
-17.8531 -12.6913 0.926054
-16.8504 -12.4266 0.418847
-17.046 -12.2067 -0.157266
-18.0913 -11.84 -0.525641
-17.8725 -11.5161 -0.947375
-14.3628 -12.4691 -2.59621
-16.7527 -11.2463 -2.66188
-15.1186 -11.985 -2.80265
-14.3071 -12.3166 -2.77935
-16.7968 -12.4999 0.967852
-15.0395 -11.7213 0.93218
-18.3518 -11.7872 -0.110669
-17.5652 -12.4286 -0.658251
-13.6376 -12.276 -3.41281
-15.6581 -12.8318 -0.727288
-17.6089 -11.7113 -1.13407
-17.5441 -11.7718 -1.29622
-15.1483 -11.7456 -2.84277
-14.2505 -13.6547 -1.75028
-14.8638 -12.8394 -1.81413
-17.2544 -11.1788 -2.46787
-15.2256 -11.9769 -2.47987
-17.7157 -11.9725 -0.573188
-17.4425 -11.7256 -1.4839
-15.2793 -11.9785 -2.44393
-16.5781 -11.4506 -2.96098
-16.6 -11.6681 -2.8266
-17.6478 -10.8631 -2.81455
-16.846 -11.24 -2.7107
-14.4823 -12.2822 -3.13404
-17.1667 -11.339 -2.64182
-17.2861 -11.2857 -2.27677
-17.6503 -11.04 -2.45992
-16.9573 -11.4183 -2.37057
-17.3537 -11.3326 -2.3258
-16.7418 -11.5831 -2.398
-14.5912 -12.3929 -2.59141
-18.4917 -10.6429 -2.07316
-14.1344 -12.6041 -2.72844
-17.6891 -11.1199 -2.13521
-17.8902 -11.3498 -2.25776
-17.5611 -11.2681 -2.27561
-18.4348 -10.6371 -1.73995
-17.0271 -11.6281 -2.19595
-18.3412 -10.7272 -1.76842
-18.3696 -10.7054 -1.548
-17.0831 -11.6241 -2.09317
-16.999 -11.8305 -1.70785
-17.1812 -11.689 -1.87584
-18.4145 -10.8541 -1.69112
-16.6888 -11.8478 -1.83292
-18.1996 -11.1442 -1.43463
-17.9746 -11.3031 -1.69141
-18.5118 -10.9587 -1.61153
-17.9808 -11.2735 -1.52575
-18.2944 -11.0741 -1.59563
-18.1494 -11.2704 -1.48339
-18.3565 -11.2346 -1.49775
-17.1399 -11.7802 -1.82444
-18.4875 -11.1273 -1.45414
-18.3642 -11.0885 -1.267
-18.4215 -11.2404 -1.42098
-17.465 -11.6538 -1.64247
-17.7803 -11.5994 -1.5774
-17.878 -11.4652 -1.68659
-17.1562 -11.8057 -1.5495
-17.3463 -11.9741 -1.76803
-17.448 -11.7825 -1.41334
-17.2436 -11.9045 -1.75752
-18.1143 -11.2068 -1.46787
-17.4166 -11.9067 -1.6918
-17.3023 -11.8275 -1.67044
-17.3176 -11.686 -1.55903
-17.8529 -11.5299 -1.47668
-17.4785 -11.7782 -1.54498
-17.8002 -11.3764 -1.35417
-16.8436 -11.6332 -1.21318
-17.3879 -11.7128 -1.3792
-17.554 -11.914 -1.42256
-17.8626 -11.5595 -1.35407
-17.425 -11.7512 -1.342
-18.4572 -11.2257 -1.19346
-17.692 -11.7583 -1.30851
-15.6927 -12.6024 -1.41028
-15.329 -12.8967 -1.46893
-18.3163 -11.2341 -1.05854
-18.2064 -11.6409 -1.10132
-17.9745 -11.3748 -1.13766
-18.5104 -11.2878 -1.08354
-18.1945 -11.4714 -0.945196
-17.9422 -11.8371 -0.965031
-15.6631 -12.6772 -0.874257
-17.8365 -11.7981 -0.884059
-14.3693 -13.6012 -1.29371
-18.162 -11.4975 -1.04286
-17.9345 -11.5284 -1.04547
-16.2564 -12.4224 -0.948202
-18.0593 -11.4744 -0.809801
-18.2768 -11.5461 -0.871762
-18.477 -11.5201 -0.805723
-18.6035 -11.4202 -0.959509
-18.1984 -11.4943 -0.878497
-18.3066 -11.5115 -0.86112
-17.6082 -11.8685 -0.840191
-18.1132 -11.7992 -0.669229
-14.7651 -13.6418 -0.905386
-18.0547 -11.7918 -0.321545
-18.1323 -11.8456 -0.426055
-18.0472 -11.8865 -0.365354
-18.3484 -11.9519 -0.254203
-18.4987 -11.6724 0.049962
-18.3482 -11.8168 -0.321821
-18.5161 -11.716 -0.305005
-15.6273 -13.0933 -0.184255
-15.4621 -13.1154 -0.115405
-16.2843 -12.5752 -0.0159363
-18.2611 -11.9943 -0.00140718
-17.9577 -12.2046 0.0507629
-17.5748 -12.6206 0.105797
-17.7127 -12.343 0.00730279
-18.4049 -11.9747 0.141976
-14.7816 -11.9745 -2.92089
-17.5476 -10.8285 -2.45266
-17.96 -10.6784 -2.43356
-16.6914 -11.3572 -2.69499
-17.6702 -10.9235 -2.52944
-13.3841 -13.7105 -3.61366
-17.6551 -11.1239 -2.41101
-17.6391 -10.9152 -2.37604
-17.667 -11.3734 -2.36688
-16.4528 -11.6938 -2.53084
-17.6806 -11.0768 -2.36603
-17.0172 -11.3036 -2.44489
-17.9025 -10.7396 -2.37886
-17.0884 -11.5255 -2.40772
-17.0951 -11.488 -2.32628
-17.6087 -11.2943 -2.2252
-17.4766 -11.3127 -2.10934
-17.2639 -11.1284 -2.30772
-17.8099 -11.0592 -2.08488
-16.6982 -11.7213 -2.38459
-17.0445 -11.6933 -2.20159
-18.1585 -10.8546 -1.8807
-13.9429 -13.2798 -2.76299
-17.1712 -11.8154 -2.05446
-17.7268 -11.3623 -1.90199
-17.2756 -11.4809 -1.72342
-18.0714 -11.2512 -1.62198
-16.34 -12.063 -1.92226
-17.0723 -11.7835 -1.85246
-18.5131 -11.0181 -1.49737
-18.4122 -11.1452 -1.4352
-18.4761 -10.9543 -1.37042
-17.632 -11.6844 -1.52487
-17.638 -11.5682 -1.55211
-18.0342 -11.2585 -1.4817
-18.0401 -11.3481 -1.49578
-17.8383 -11.5424 -1.28919
-16.0778 -12.1973 -1.20779
-17.536 -11.5933 -1.49812
-17.9455 -11.4727 -1.15692
-16.1745 -12.4185 -1.30513
-14.6354 -13.2112 -1.41915
-15.5234 -12.7029 -1.17256
-14.8131 -13.1596 -1.41452
-15.174 -12.7879 -1.40699
-15.5294 -12.8865 -1.01401
-16.2596 -12.354 -1.14594
-15.2567 -12.9432 -0.99075
-15.0888 -12.9665 -1.06011
-14.9488 -13.0099 -0.986625
-18.0081 -11.7 -0.772868
-17.9417 -11.6899 -0.912992
-18.2744 -11.6004 -0.940764
-18.2128 -11.5036 -0.771001
-17.7861 -11.8628 -0.805371
-15.7611 -12.8643 -0.836535
-15.4326 -12.9979 -0.756197
-15.6411 -12.976 -0.887112
-17.9552 -11.7506 -0.542474
-17.4869 -12.2135 -0.86576
-17.6423 -12.0806 -0.406233
-18.5771 -11.4852 -0.228329
-18.2563 -12.1147 -0.588784
-18.5712 -11.4656 -0.356806
-17.7338 -12.225 -0.507276
-15.6526 -12.7337 -0.170017
-15.029 -13.5028 -0.165675
-15.4335 -12.9306 -0.246405
-16.677 -12.1168 -0.0630281
-16.2374 -12.3485 -0.219658
-16.6033 -12.2051 -0.0828089
-16.9833 -12.0996 0.138537
-17.9598 -12.3506 -0.0317301
-18.2721 -12.1735 0.067591
-18.6298 -11.6897 0.0470795
-16.792 -12.2163 0.65963
-15.3295 -11.7776 1.24624
-15.5814 -11.9141 1.1152
-16.1075 -11.495 -3.22103
-16.7826 -11.3826 -2.66211
-15.3261 -11.7714 -2.42513
-16.5654 -11.7324 -2.49654
-18.0325 -11.1464 -2.01981
-17.3869 -11.185 -2.21798
-17.5519 -11.2098 -2.22063
-16.7005 -11.6503 -2.35024
-16.8498 -11.5104 -2.40965
-17.4542 -11.2877 -2.21068
-17.8612 -11.0984 -1.92804
-17.8571 -11.2209 -1.83019
-18.182 -11.0601 -1.50487
-16.9195 -12.1559 -1.82764
-17.3673 -11.786 -1.73363
-17.1843 -11.8594 -1.48994
-18.1992 -11.373 -1.24225
-17.759 -11.7072 -1.30607
-18.4766 -11.3199 -1.21152
-17.4351 -11.8215 -1.39007
-15.1829 -12.7539 -1.3728
-17.8475 -11.7573 -1.19409
-17.7886 -11.6776 -1.33706
-18.0576 -11.3708 -1.29023
-18.175 -11.654 -1.15496
-17.8199 -11.5452 -1.16064
-18.0036 -11.376 -1.05551
-15.9817 -12.5636 -1.10474
-14.6993 -13.1877 -1.5385
-18.0292 -11.3867 -0.829673
-17.277 -12.0708 -1.18399
-15.3142 -13.0906 -1.01614
-14.5927 -13.5003 -1.21827
-15.1573 -12.9977 -0.967656
-15.9892 -12.7533 -1.41302
-15.7054 -12.9549 -0.829628
-15.7106 -12.8222 -0.707923
-18.0118 -12.1482 -0.706058
-17.7726 -11.9555 -0.742312
-17.7988 -11.8188 -0.838429
-15.2621 -13.3747 -0.618883
-18.5814 -11.6356 -0.17768
-17.9985 -12.1723 -0.601803
-18.3987 -11.7179 -0.33794
-17.7697 -12.1894 -0.395628
-17.7313 -12.3194 -0.403882
-17.6615 -12.3979 -0.207006
-16.7608 -11.9532 0.0658221
-18.2908 -11.9436 -0.100462
-15.0676 -13.3726 -0.298971
-16.3102 -12.5281 0.0223497
-17.8349 -12.0524 0.111816
-18.3686 -11.7772 0.0598855
-17.6655 -12.298 0.216791
-18.8167 -11.8867 0.180538
-18.6755 -12.0014 0.295159
-18.8332 -11.7734 0.333247
-18.2262 -12.1976 0.261224
-18.1437 -12.4213 0.467683
-18.8066 -12.0411 0.538849
-14.9378 -11.7944 1.21521
-16.8564 -12.6662 0.892253
-15.5199 -11.7017 1.30454
-18.4849 -12.3216 0.8473
-14.6711 -11.9999 1.35828
-14.6114 -11.9261 1.09394
-15.4079 -11.8916 1.40246
-15.7596 -11.6319 -2.66617
-17.0112 -11.3881 -2.73999
-16.3461 -11.6659 -2.74778
-16.8945 -11.4313 -2.54021
-17.7102 -10.9247 -2.42347
-15.3274 -11.7845 -2.60808
-17.2571 -11.2327 -2.73294
-15.3458 -11.6017 -2.54195
-15.4388 -11.6798 -2.45016
-16.7679 -11.6263 -2.4559
-17.0472 -11.3457 -2.36165
-16.9519 -11.607 -2.60391
-16.1186 -11.8042 -2.42363
-14.3381 -12.5449 -2.30776
-17.3071 -11.2605 -2.45432
-17.5756 -11.3463 -2.17562
-16.9233 -11.5583 -2.34381
-18.0586 -10.9538 -2.09116
-16.9702 -11.5481 -2.05809
-14.2208 -13.4274 -2.15107
-17.6589 -11.5229 -1.69529
-17.1585 -11.9028 -1.87404
-18.3381 -11.2105 -1.52998
-18.0084 -11.2546 -1.59205
-17.7884 -11.6363 -1.57844
-17.9681 -11.5279 -1.52867
-14.16 -13.5538 -1.99933
-17.3624 -11.9153 -1.48595
-17.0498 -11.9432 -1.70572
-16.7492 -11.6255 -1.12884
-14.7662 -13.3291 -1.54496
-17.3178 -11.8817 -1.25914
-15.4916 -12.4913 -1.47484
-18.116 -11.4647 -1.03771
-17.5001 -11.7643 -1.44708
-17.9135 -11.6266 -1.24592
-15.3243 -13.0715 -1.14689
-15.6687 -12.8816 -1.1974
-16.4454 -12.3248 -1.10517
-15.2672 -12.5841 -0.878605
-15.0863 -12.8798 -0.955982
-15.2713 -13.0194 -1.05613
-17.6714 -12.1087 -0.73415
-15.4922 -12.8801 -0.755369
-17.5858 -12.093 -0.821095
-18.5547 -11.4103 -0.494531
-14.5716 -13.862 -0.941857
-14.6656 -13.7246 -0.853688
-15.4037 -12.997 -0.593356
-18.393 -11.5702 -0.268224
-15.8973 -12.8993 -0.383814
-17.4927 -12.2298 -0.290861
-18.269 -11.9196 -0.107355
-14.7599 -13.3981 -0.255712
-16.5292 -12.2274 0.171015
-18.1589 -12.2428 0.0140852
-17.7338 -12.3617 -0.0963262
-18.2384 -12.0704 0.11702
-18.4246 -12.1007 0.210554
-17.8233 -12.7208 0.202588
-18.8016 -11.901 0.255455
-18.1209 -12.3055 0.448945
-18.0245 -12.2922 0.270716
-14.8573 -12.0439 0.875892
-18.2526 -12.427 0.550882
-18.8165 -12.0351 0.523149
-17.0699 -12.3535 0.891616
-17.7521 -12.5488 0.481996
-14.9193 -12.0502 1.23653
-15.5405 -11.8166 1.23613
-17.997 -12.4071 0.701197
-18.4458 -12.2919 1.00075
-15.545 -11.8123 1.24012
-14.9461 -11.9995 -2.84739
-14.3473 -12.3958 -2.8161
-15.3028 -11.8285 -2.72363
-15.35 -11.6503 -2.54007
-17.3974 -11.0206 -2.54634
-16.335 -11.6692 -2.97344
-17.3505 -11.3907 -2.42179
-15.5292 -12.0023 -2.11508
-18.1868 -10.96 -2.02613
-17.7933 -11.1343 -2.17789
-15.0504 -12.3269 -2.08429
-17.815 -10.9695 -1.79334
-15.5259 -12.0396 -1.70819
-14.6428 -12.9412 -1.8149
-18.1431 -11.2883 -1.37318
-14.0681 -13.424 -2.01407
-14.881 -13.1127 -1.62206
-17.446 -11.8989 -1.61899
-14.7841 -12.9681 -1.76829
-17.5451 -11.772 -1.4492
-16.9227 -11.5483 -1.14808
-17.3779 -11.7883 -1.51508
-14.6327 -13.2525 -1.56315
-14.2286 -13.6557 -1.52768
-14.5369 -13.3096 -1.25422
-17.1632 -12.2339 -1.03277
-15.6978 -12.7219 -1.21787
-15.8701 -12.7717 -1.12009
-17.6621 -11.6357 -1.09798
-15.4777 -12.6864 -1.0253
-15.7533 -12.6534 -1.08152
-17.9513 -11.8255 -0.842226
-18.1273 -11.6113 -0.772858
-18.1823 -11.5348 -0.711202
-16.6873 -12.3467 -0.753609
-15.3664 -13.0228 -0.872652
-16.2519 -12.8757 -0.850379
-16.8655 -12.0935 -0.679913
-16.1802 -12.7342 -0.965519
-17.691 -11.9515 -0.530486
-18.5913 -11.6354 -0.450742
-17.6672 -12.0426 -0.536581
-18.7654 -11.5861 -0.0890293
-15.3533 -13.1705 -0.0251623
-16.4499 -12.6256 0.0323156
-18.7361 -11.7318 0.0288273
-18.9751 -11.8125 0.278422
-18.7869 -11.8126 0.482571
-18.0904 -12.3386 0.256758
-18.5699 -12.2096 0.567452
-18.7921 -11.9473 0.47641
-18.2977 -12.234 0.43056
-18.74 -12.1467 0.426671
-17.8497 -12.6579 0.509386
-14.5282 -12.0523 1.20104
-15.4693 -11.6808 1.48597
-14.5883 -12.162 -2.91402
-16.1177 -11.8104 -2.96867
-16.8778 -11.5018 -2.69894
-16.9109 -11.4312 -2.60543
-15.1605 -11.866 -2.28705
-14.1477 -12.4771 -2.55496
-16.9185 -11.7711 -2.28525
-17.998 -11.0217 -1.64418
-15.5684 -12.1161 -1.79844
-16.2528 -12.5712 -1.37544
-14.3495 -13.8503 -1.70387
-15.608 -12.6682 -1.21478
-16.9889 -11.7654 -0.842553
-15.4967 -13.0955 -1.12337
-16.1378 -12.6936 -0.91496
-18.02 -11.7631 -0.600949
-15.7436 -12.918 -0.68709
-17.8277 -12.084 -0.306669
-18.0671 -11.9054 -0.191507
-17.7582 -12.461 -0.296585
-17.554 -12.2637 -0.0636264
-15.9897 -12.6234 -0.117748
-18.7389 -11.62 -0.147395
-16.7118 -12.6053 0.368566
-18.7757 -11.7756 0.524855
-15.1856 -11.9406 1.43677
-15.5983 -11.6439 -2.6128
-16.3106 -11.8103 -2.79552
-16.9534 -11.8061 -2.44665
-18.1045 -11.1689 -1.64758
-17.3813 -11.7271 -1.50349
-14.578 -13.2623 -1.59053
-17.5868 -11.7438 -1.41736
-18.0626 -11.812 -0.871409
-15.6607 -12.7078 -0.821768
-15.4355 -12.9363 -0.708617
-17.9678 -12.4009 -0.565453
-15.4896 -12.8679 -0.206273
-17.7972 -12.2212 -0.458792
-18.6186 -11.4568 -0.169223
-17.9184 -12.3313 -0.231178
-18.141 -11.9913 -0.0858317
-18.2083 -12.1824 0.131686
-16.9589 -11.968 0.428132
-18.6588 -12.3119 0.545639
-17.8803 -12.5921 0.518342
-15.5552 -12.1163 -2.43236
-18.1156 -11.3624 -1.71966
-15.3536 -12.931 -1.38694
-17.74 -12.0005 -1.09212
-16.47 -12.4606 -0.721254
-18.4668 -11.7251 -0.194091
-15.6888 -11.9735 1.67579
-15.0119 -12.1737 -2.54063
-15.2976 -12.8221 -1.46029
-15.5886 -12.6933 -1.24091
-15.3868 -12.9565 -0.885886
-15.3744 -13.0802 -1.05073
-17.0394 -12.2502 -0.677905
-17.5529 -12.2673 -0.394898
-15.9531 -12.1679 -1.66635
-15.0677 -11.992 -2.40438
-17.5455 -12.0385 -1.22632
-16.956 -11.9951 0.568644
-18.0684 -12.2558 0.0387211
-15.5262 -12.3393 -1.81601
-13.813 -13.5386 -2.21916
-16.9165 -11.7802 0.175579
-17.0295 -12.1545 0.765819
-15.1167 -11.8903 1.33662
-15.6731 -12.9031 -0.717507
-15.2335 -11.7997 1.62292
-16.9696 -12.1918 0.188977
-18.3159 -10.9852 -1.5544
-17.9413 -10.8984 -2.07001
-18.2663 -11.1613 -1.76095
-18.0447 -11.0607 -1.53095
-17.6339 -11.4587 -2.13346
-18.1459 -11.116 -1.68019
-17.5796 -11.4921 -1.91329
-17.2044 -11.6592 -2.37417
-18.8013 -11.677 -0.181967
-17.004 -11.3648 -2.73324
-18.3982 -11.4096 -0.616338
-17.9258 -11.6445 -1.07476
-18.2311 -11.6077 -0.708858
-16.8367 -11.4064 -2.68625
-18.6674 -11.5963 -0.282581
-16.2304 -11.5987 -3.18967
-18.3417 -11.5628 -0.711206
-17.8025 -11.4861 -1.20224
-17.6344 -11.6598 -1.60272
-17.8416 -11.8124 -1.31772
-18.9153 -11.6728 0.206395
-18.159 -11.5747 -0.836324
-18.136 -11.7601 -1.02174
-16.4029 -11.747 -2.52884
-16.8835 -11.91 -2.29056
-18.8897 -11.6314 0.552247
-17.2809 -11.8053 -1.45513
-17.2258 -11.7942 -1.57255
-17.3773 -11.9451 -1.45051
-18.4201 -12.0058 0.0899955
-18.1212 -12.23 0.429607
-16.4091 -12.3022 -0.941839
-15.1466 -12.6339 -2.48574
-15.4248 -12.7299 -1.36815
-15.4012 -12.804 -1.66705
-15.9545 -12.7357 -0.745706
-15.087 -12.5911 -1.29135
-16.1609 -12.6771 -0.00196171
-16.0276 -12.6545 -0.393613
-15.9479 -12.4365 -0.180462
-15.1541 -13.1651 -1.13839
-15.0847 -12.7776 -1.08572
-15.4554 -12.9706 -0.868869
-15.1057 -12.9917 -0.825191
-15.387 -13.0113 -0.441113
-14.6135 -13.3013 -1.25237
-14.3205 -13.6993 -1.39844
-14.9708 -13.4006 -0.0898492
-14.9692 -13.2293 -0.251935
-18.4378 -10.7537 -1.69408
-18.2683 -10.8415 -2.1841
-18.7171 -10.877 -1.41877
-17.8753 -10.8093 -2.28152
-17.745 -11.0966 -2.54874
-18.1671 -11.388 -1.61713
-17.9589 -11.0997 -1.53917
-18.2468 -11.1789 -1.4201
-17.6222 -11.2178 -1.75038
-17.1973 -11.2305 -2.5303
-17.1334 -11.312 -2.65821
-18.5042 -11.5571 -0.340479
-17.9435 -11.6778 -1.19338
-18.6553 -11.4846 0.0695118
-16.999 -11.3498 -2.31737
-18.6881 -11.5984 -0.211923
-18.5974 -11.5137 -0.330774
-18.5752 -11.6155 -0.38313
-18.2592 -11.6416 -0.452944
-17.111 -11.8353 -2.00039
-18.7378 -11.7136 0.144327
-17.7666 -11.7242 -1.08168
-17.5777 -11.7568 -0.9401
-18.3748 -11.8431 -0.232294
-17.0555 -11.8356 -1.494
-18.2904 -11.7051 -0.285034
-18.0819 -11.8946 -0.404232
-18.2534 -12.1755 0.29867
-15.4193 -11.7819 -2.40102
-17.7296 -12.1483 -0.203818
-17.9639 -12.4047 -0.0955183
-16.6088 -12.0906 -0.93751
-16.3242 -12.4022 -1.43464
-17.772 -12.5296 0.0904706
-16.2683 -12.3833 -1.38509
-16.9665 -12.0656 0.0981889
-16.0905 -12.4288 -1.5856
-15.3065 -12.3712 -1.81677
-16.7675 -12.1622 -0.155095
-16.2374 -12.3915 -1.13614
-16.2909 -12.6102 -0.802564
-15.6905 -12.489 -1.31052
-15.5007 -12.7275 -1.39871
-16.4111 -12.3344 -0.0280147
-15.3233 -12.5439 -1.3439
-17.1569 -12.4082 1.19777
-15.7112 -13.0118 -0.767577
-15.2454 -13.1582 -1.10745
