-13.4355 -14.2336 -1.61008
-13.2955 -14.634 -1.66842
-14.0101 -12.8016 -3.49893
-13.1611 -14.6852 -1.94602
-13.2388 -14.5528 -3.19391
-13.5296 -13.8413 -4.13794
-13.4776 -13.9811 -4.01086
-11.5219 -13.7563 1.35134
-16.1065 -13.2323 1.06456
-17.0944 -11.6047 -0.465481
-17.1187 -11.5454 -0.535981
-17.6106 -10.7289 -1.32025
-14.4183 -13.7093 0.85822
-16.5179 -12.256 -0.395395
-16.5297 -11.9442 -1.14571
-16.4934 -12.0162 -1.13965
-16.0161 -12.401 -1.31572
-15.8967 -12.3448 -1.8073
-14.1422 -14.007 -0.35196
-15.9121 -12.219 -2.0602
-14.204 -13.8564 -0.57363
-16.004 -12.0091 -2.36187
-14.1312 -13.8858 -0.726943
-14.2879 -13.5741 -1.01662
-13.9095 -14.2024 -0.535539
-13.9134 -14.1696 -0.532943
-14.4774 -12.7659 -1.896
-14.383 -12.9238 -1.90839
-13.0032 -14.7947 -0.280597
-13.9677 -13.5563 -1.97255
-14.1405 -12.3752 -3.05977
-13.3739 -14.376 -1.43044
-13.6522 -13.8399 -1.96393
-13.6494 -13.4367 -2.45546
-13.6371 -13.4521 -2.4741
-14.0373 -12.7831 -3.4798
-13.4533 -13.0259 -3.26716
-13.493 -13.6218 -2.98531
-13.3133 -14.4987 -3.16361
-16.589 -13.3352 2.93044
-16.588 -13.3306 2.84974
-16.6959 -13.1258 2.57267
-16.589 -13.0903 2.18426
-16.2266 -13.1441 1.17853
-15.8649 -13.2955 0.664318
-15.9526 -13.1251 0.371336
-15.1198 -13.3592 0.137007
-16.6083 -11.7732 -1.28042
-13.9878 -14.0785 0.472165
-13.8861 -14.1654 -0.491058
-14.1765 -13.6654 -1.1152
-14.0509 -13.7102 -1.54804
-13.2501 -14.676 -1.01553
-13.677 -13.264 -2.59881
-13.3878 -14.2341 -1.77116
-13.8013 -13.7867 -3.64992
-16.0555 -13.4042 1.4496
-13.2229 -14.4886 -0.36682
-14.1711 -12.4175 -3.04197
-13.3679 -14.4091 -1.31771
-13.8906 -13.4837 -2.23728
-13.1609 -14.7575 -1.11386
-13.4046 -14.2698 -1.54397
-13.538 -13.9533 -3.89456
-16.1359 -13.2967 1.50493
-14.7883 -13.4173 1.04277
-13.2207 -14.5691 -2.12013
-16.4099 -13.4195 3.06149
-14.1557 -13.8408 0.437978
-16.5982 -11.4919 -2.14346
-14.2208 -13.4267 -1.59946
-13.1752 -14.0668 -4.70092
-13.1858 -14.5557 -2.21109
-13.3521 -13.9397 -2.20724
-15.2961 -12.4703 -1.4478
-11.6105 -13.9067 1.14931
-14.8949 -13.0618 -0.936813
-14.064 -14.1377 -0.420941
-12.1856 -12.5373 2.43264
-12.0015 -13.7478 1.5244
-12.0154 -13.7409 1.53179
-12.0075 -13.75 1.5332
-12.3957 -13.4207 1.61725
-16.3891 -13.4336 3.14128
-16.3115 -13.5168 2.88533
-16.3306 -13.4903 2.87747
-16.5548 -13.339 2.65336
-12.5034 -13.2207 1.11469
-12.468 -13.2345 1.0734
-12.3034 -13.3607 0.96222
-16.576 -13.2272 2.45907
-16.6194 -13.1926 2.43344
-16.5509 -13.2462 2.39602
-12.1957 -13.4466 0.835626
-16.5184 -13.1065 1.94921
-16.6479 -12.8794 1.70749
-16.6393 -12.8339 1.68242
-16.1382 -13.2952 1.36403
-14.7333 -13.4351 0.937017
-14.3632 -13.768 0.784715
-16.8946 -12.5708 1.50601
-14.1847 -13.855 0.508698
-16.775 -12.5776 1.27121
-16.4783 -12.841 1.16736
-13.8035 -14.1671 0.299252
-13.751 -14.172 0.133322
-16.6772 -12.584 0.952177
-14.9157 -13.4892 0.446674
-13.3771 -14.4863 -0.0668189
-16.2627 -12.8903 0.662103
-15.799 -13.3052 0.482364
-13.4248 -14.3548 -0.189287
-13.3216 -14.499 -0.246769
-16.8917 -12.2332 0.704751
-12.9647 -14.7434 -0.51549
-14.6122 -13.8907 -0.113732
-14.9873 -13.4549 -0.0397052
-12.8571 -14.7913 -0.619414
-14.5796 -13.7107 -0.319678
-14.9606 -13.4548 -0.222716
-14.5738 -13.6829 -0.335391
-13.9809 -14.1081 -0.501126
-14.9428 -13.4528 -0.27671
-14.938 -13.4334 -0.289137
-13.5626 -14.2527 -0.708219
-14.9402 -13.3665 -0.449537
-13.3366 -14.399 -0.956164
-13.4983 -14.0977 -0.959174
-15.0201 -13.2266 -0.671377
-16.5582 -12.1924 -0.360773
-15.0259 -13.2155 -0.704477
-17.047 -11.6897 -0.347644
-16.3672 -12.3366 -0.526151
-16.9376 -11.7673 -0.391428
-16.9269 -11.7729 -0.440391
-15.8729 -12.7716 -0.694907
-14.9622 -13.1661 -0.899944
-13.718 -14.2004 -1.15714
-14.9471 -13.1781 -0.940879
-13.9534 -13.8513 -1.14209
-13.6461 -14.0317 -1.20447
-13.6367 -14.0702 -1.21915
-13.7151 -13.9278 -1.2255
-13.6487 -14.0871 -1.24261
-14.8222 -13.1918 -1.08516
-14.7947 -13.2417 -1.09876
-16.9692 -11.6111 -0.723368
-13.8084 -13.8275 -1.30234
-13.4588 -14.2712 -1.45845
-17.0113 -11.5492 -0.797057
-14.8479 -13.1614 -1.25486
-16.8764 -11.6808 -0.88454
-14.8609 -13.1412 -1.2794
-14.8764 -13.1241 -1.31092
-14.8691 -13.098 -1.31668
-16.2699 -12.2091 -1.16307
-16.4781 -11.9964 -1.13382
-14.0611 -13.6978 -1.53584
-13.5344 -14.1261 -1.64765
-17.1968 -11.2837 -1.04979
-14.9468 -12.784 -1.39902
-17.2224 -11.2231 -1.08781
-17.257 -11.196 -1.09917
-13.336 -14.26 -1.81973
-16.5955 -11.7915 -1.39476
-17.3523 -10.9649 -1.31225
-13.1276 -14.6545 -2.05953
-17.2261 -11.1051 -1.43253
-13.2187 -14.5807 -2.08694
-17.0944 -11.1757 -1.56376
-16.7257 -11.5423 -1.62933
-14.4009 -12.8596 -1.87239
-16.6288 -11.602 -1.71904
-16.083 -12.1642 -1.79745
-16.4673 -11.7694 -1.73568
-17.0403 -11.2156 -1.67239
-16.5584 -11.6982 -1.74761
-14.4568 -12.7506 -1.96604
-15.9057 -12.2862 -1.92163
-14.3003 -12.8642 -2.0028
-16.5659 -11.5517 -2.00735
-16.5887 -11.4666 -2.17565
-16.6588 -11.4002 -2.16236
-14.6824 -12.1282 -2.30025
-15.9598 -11.9819 -2.57611
-15.7514 -12.1332 -2.67005
-13.2751 -14.5234 -3.20681
-13.2115 -14.5602 -3.24497
-13.2091 -14.4521 -3.54149
-13.7817 -13.8243 -3.60229
-13.7529 -13.7928 -3.68832
-13.6674 -13.9292 -3.71107
-13.7294 -13.8336 -3.71441
-13.619 -13.9284 -3.71826
-13.6307 -13.9339 -3.72159
-13.7798 -13.7537 -3.74949
-13.3925 -14.1848 -3.76518
-13.3451 -14.2103 -3.8186
-13.7726 -12.9026 -3.57919
-14.1405 -13.3811 -3.81706
-14.1458 -13.3145 -4.04378
-13.559 -13.8671 -4.08749
-13.5887 -13.8509 -4.07473
-13.4608 -13.9687 -4.14373
-13.3703 -14.0414 -4.16733
-13.5195 -13.8521 -4.19575
-13.4603 -13.8654 -4.28932
-16.4222 -13.411 3.1428
-16.362 -13.4285 3.01877
-16.3605 -13.4981 2.83267
-12.3702 -13.4423 1.23634
-11.8696 -13.8105 0.896104
-16.548 -13.3148 2.65143
-16.6926 -13.1427 2.60064
-11.765 -13.8355 0.714685
-12.1164 -13.5138 0.798418
-11.7088 -13.798 0.450985
-16.0729 -13.4975 1.82555
-14.8389 -13.3608 1.03494
-16.1499 -13.2539 1.35427
-15.9619 -13.4195 1.13961
-14.2415 -13.8297 0.606765
-16.0773 -13.2423 1.10149
-14.959 -13.4595 0.740201
-13.8626 -14.1156 0.365593
-16.2621 -13.0263 0.941929
-15.839 -13.4129 0.771766
-13.2523 -14.5741 -0.200971
-13.0908 -14.7163 -0.221675
-16.9751 -12.2521 0.800594
-13.0379 -14.7078 -0.336835
-16.6256 -12.5194 0.651846
-14.4592 -14.0512 -0.16245
-16.3903 -12.6514 0.334037
-14.5242 -13.9787 -0.194952
-14.5443 -13.9596 -0.207257
-14.0746 -14.0407 -0.422622
-13.9679 -14.1465 -0.476985
-13.9641 -14.1299 -0.504535
-13.9693 -14.1052 -0.518563
-16.4221 -12.4907 0.0513038
-13.536 -14.2347 -0.727988
-14.6535 -13.6652 -0.497366
-13.4162 -14.2639 -0.79093
-13.3649 -14.4031 -0.917039
-14.6359 -13.6568 -0.683881
-13.3476 -14.5619 -0.976336
-13.4424 -14.13 -0.917242
-13.3304 -14.3937 -0.986617
-14.2224 -13.7397 -0.807882
-13.5016 -14.0742 -0.947202
-13.3315 -14.5532 -1.04606
-14.213 -13.7433 -0.836289
-14.721 -13.5118 -0.7805
-14.1602 -13.7507 -0.888638
-13.1968 -14.7165 -1.16105
-14.1215 -13.8059 -0.902078
-14.1079 -13.8078 -0.951062
-14.0755 -13.8291 -0.958505
-17.1264 -11.6172 -0.295865
-16.7914 -11.9124 -0.424324
-15.9792 -12.6064 -0.902167
-16.8071 -11.7965 -0.739024
-16.0966 -12.4654 -0.915684
-13.212 -14.7784 -1.51334
-13.2049 -14.808 -1.52632
-13.2996 -14.4375 -1.45078
-13.1991 -14.7877 -1.5704
-13.4476 -14.2809 -1.44747
-13.402 -14.2723 -1.49252
-13.7913 -14.0186 -1.44205
-13.3482 -14.3627 -1.58737
-17.4826 -11.0458 -0.942445
-17.3143 -11.1508 -1.10507
-15.9265 -12.4141 -1.46306
-16.1169 -12.2678 -1.44618
-16.8403 -11.5271 -1.36192
-16.8182 -11.4887 -1.47628
-13.7431 -13.7679 -1.98748
-14.2858 -13.0284 -1.85069
-17.0911 -11.1837 -1.56486
-15.9124 -12.2788 -1.85652
-14.3515 -12.8647 -1.9853
-14.3269 -12.8658 -1.97752
-14.2955 -12.81 -2.11006
-16.0327 -11.9398 -2.4991
-15.9843 -11.9638 -2.56826
-13.5864 -13.3301 -2.65554
-15.7698 -12.0924 -2.67527
-13.5249 -13.3885 -2.76676
-13.2125 -13.9901 -2.88758
-13.1831 -14.5305 -3.38443
-13.2265 -14.4649 -3.4921
-13.6318 -13.9227 -3.68793
-13.5274 -13.9128 -4.02639
-14.175 -13.2899 -4.03066
-14.1387 -13.3111 -4.04847
-13.3331 -14.0919 -4.17485
-13.696 -13.6851 -4.17145
-13.6445 -13.7645 -4.19837
-13.2873 -14.1284 -4.21978
-13.2289 -14.1256 -4.38533
-13.1904 -14.0684 -4.63391
-16.3532 -13.4374 3.02094
-12.3448 -13.4032 1.17944
-12.1488 -13.5447 0.981007
-16.738 -13.1487 2.53786
-16.6467 -13.1672 2.47941
-16.469 -13.2902 2.35099
-16.5831 -13.0474 2.02966
-16.0297 -13.462 1.50826
-16.1032 -13.3557 1.40268
-14.5344 -13.6394 0.91483
-16.2483 -13.141 1.39701
-14.359 -13.7549 0.709529
-14.4032 -13.7186 0.695676
-14.322 -13.7483 0.551245
-16.0196 -13.159 0.751809
-13.2834 -14.4931 -0.21786
-13.2664 -14.4994 -0.246837
-14.8026 -13.6811 -0.00124016
-14.0384 -14.1277 -0.323356
-16.525 -12.4558 0.175691
-16.4821 -12.4593 0.160172
-13.3662 -14.304 -0.83862
-15.7406 -13.042 -0.365585
-14.0219 -13.9775 -0.73915
-13.3445 -14.5992 -0.960105
-14.7328 -13.5268 -0.791567
-14.2309 -13.6612 -0.917236
-17.1092 -11.5603 -0.505983
-13.6709 -14.0489 -1.26966
-13.6253 -14.0795 -1.30973
-17.0332 -11.4763 -0.885758
-15.6646 -12.8216 -1.19038
-13.0656 -14.7969 -1.82076
-16.8131 -11.6283 -1.23714
-14.9612 -12.5391 -1.48673
-13.1972 -14.6701 -1.92123
-13.1365 -14.696 -1.95807
-14.5432 -12.6593 -1.88477
-14.4796 -12.7334 -1.92962
-13.754 -13.6813 -2.12138
-15.8433 -12.2923 -2.0328
-15.8202 -12.3453 -2.05815
-15.8278 -12.3024 -2.05263
-15.8627 -12.2712 -2.05551
-13.4659 -13.5974 -2.49213
-13.5816 -13.4512 -2.56603
-14.151 -12.932 -2.57273
-13.5622 -13.431 -2.67269
-13.6162 -13.3446 -2.64615
-15.9169 -12.0161 -2.61918
-13.2656 -14.6142 -2.94969
-14.3909 -12.4747 -2.76366
-14.3987 -12.4162 -2.7648
-13.4978 -13.6269 -2.99855
-13.2943 -14.5127 -3.17477
-13.2708 -14.4174 -3.39695
-13.8219 -13.8122 -3.53859
-14.088 -13.3779 -3.96579
-13.4984 -13.9772 -4.00959
-13.4565 -13.9911 -4.02943
-13.3406 -14.1168 -4.04303
-14.1355 -13.3194 -4.01987
-13.435 -13.994 -4.07703
-13.491 -13.9229 -4.14159
-13.481 -13.8466 -4.36951
-13.3138 -13.9943 -4.39604
-13.2501 -13.931 -4.77766
-16.3752 -13.427 2.9962
-16.6245 -13.3023 2.87338
-16.7087 -13.1259 2.49698
-13.9105 -14.0914 0.3488
-15.8809 -13.2755 0.657218
-16.2116 -12.9422 0.666865
-16.4951 -12.6122 0.563818
-16.9027 -12.2003 0.544691
-13.9253 -14.2054 -0.386509
-13.8969 -14.176 -0.536241
-13.5788 -14.2343 -0.669867
-14.6465 -13.6749 -0.508133
-14.0385 -13.9776 -0.701392
-13.175 -14.7455 -1.05007
-16.5027 -12.211 -0.411353
-14.7867 -13.3665 -0.819754
-16.9413 -11.8128 -0.356323
-13.1594 -14.7023 -1.20988
-14.2782 -13.5875 -1.01673
-17.0724 -11.6005 -0.484289
-13.6489 -14.0227 -1.23031
-15.9366 -12.5491 -1.08924
-16.507 -11.9642 -1.11564
-16.4778 -11.9931 -1.13695
-14.9718 -12.6157 -1.43339
-13.4157 -14.1485 -1.80561
-13.5315 -13.8061 -1.84041
-16.1862 -12.0617 -1.68642
-13.9888 -13.5699 -1.96127
-15.8656 -12.3861 -1.7552
-14.3721 -12.7707 -2.01218
-14.2892 -12.8713 -2.07817
-13.8685 -13.5293 -2.2262
-13.6465 -13.4364 -2.45992
-16.0638 -11.9599 -2.47173
-13.6879 -13.3266 -2.6023
-14.1079 -12.9355 -2.59128
-13.5675 -13.3973 -2.6256
-13.3199 -14.4864 -3.14468
-14.2184 -12.6087 -2.88016
-13.2057 -14.3961 -3.76493
-13.6055 -13.9641 -3.7833
-13.6722 -13.8123 -3.93032
-13.5572 -13.8531 -4.10229
-13.3843 -13.9305 -4.40655
-13.2395 -13.9247 -4.8201
-14.7353 -13.4596 0.932323
-16.1908 -13.1719 1.24156
-14.4227 -13.6684 0.660541
-14.011 -14.0992 0.099628
-13.0816 -14.6911 -0.281851
-13.1312 -14.6559 -0.281405
-16.2088 -12.7467 0.245049
-14.9852 -13.368 -0.107079
-13.0376 -14.7104 -0.662257
-14.5521 -13.8389 -0.332136
-14.0449 -13.9399 -0.718348
-13.4147 -14.1771 -0.916877
-13.16 -14.7691 -1.05641
-17.0975 -11.5775 -0.489714
-14.177 -13.6332 -1.1153
-13.2565 -14.5517 -1.37201
-13.7829 -13.8762 -1.22858
-13.3404 -14.426 -1.40772
-14.902 -12.9356 -1.45858
-17.1067 -11.2803 -1.29439
-14.2967 -12.9654 -1.88576
-14.32 -13.0167 -1.91511
-16.0708 -12.1316 -1.86469
-16.7802 -11.4333 -1.80925
-13.1877 -14.4761 -2.30103
-14.3869 -12.787 -2.06756
-15.0283 -12.2303 -2.12499
-13.5587 -13.5065 -2.54605
-13.3047 -14.5319 -3.16567
-14.1279 -12.6826 -2.95168
-14.1285 -12.3739 -3.04651
-14.0957 -13.3907 -3.93856
-13.1672 -14.2807 -4.09449
-13.7023 -13.7031 -4.15296
-16.5422 -13.3804 2.95153
-16.0789 -13.3991 1.44885
-16.4122 -12.9965 1.37239
-14.8878 -13.3987 0.898647
-14.0896 -14.0755 0.139018
-13.3685 -14.3448 -0.879373
-17.0067 -11.6817 -0.470949
-14.8305 -13.1777 -1.13112
-14.2107 -12.9609 -1.79112
-13.2128 -14.5401 -2.16446
-13.4701 -14.2201 -2.31251
-13.6314 -13.2869 -2.63482
-13.5883 -13.6088 -2.72606
-13.6436 -13.7503 -4.2034
-16.6219 -13.3705 2.84848
-14.04 -13.9008 0.33363
-15.9271 -13.2266 0.637043
-14.8652 -13.7405 0.104937
-15.9897 -13.046 0.414847
-14.8707 -13.75 0.0703937
-13.6973 -14.0079 -1.25389
-13.8265 -13.9567 -1.31063
-13.8394 -13.8898 -1.35927
-13.4201 -14.2312 -1.66295
-13.4704 -14.1658 -1.67427
-14.4179 -12.8852 -1.76485
-14.3438 -13.0406 -1.92017
-13.155 -14.5269 -2.25575
-13.6768 -13.3721 -2.52715
-13.763 -13.6898 -3.72119
-13.6628 -13.6595 -4.33407
-16.4022 -13.4177 3.10197
-16.0009 -13.116 0.463599
-12.8494 -14.809 -0.653737
-13.9435 -13.8173 -1.82535
-14.6089 -12.7809 -1.83592
-16.6342 -11.4384 -2.0967
-14.6319 -13.5513 0.903367
-13.3581 -14.3739 -0.827308
-16.2756 -13.5603 2.98383
-13.9413 -13.7469 -1.71083
-14.0103 -13.5469 -1.68464
-14.2136 -13.1683 -2.03192
-13.4432 -14.4523 -1.13858
-13.9107 -14.0411 -1.01607
-13.751 -14.1439 -1.11952
-13.8631 -13.81 -1.87259
-14.021 -13.143 -2.27419
-13.3419 -14.2099 -3.08633
-13.8921 -13.4969 -4.20046
-13.2808 -13.9812 -4.52017
-13.67 -13.6607 -4.32311
-13.5527 -13.8269 -4.28573
-13.5787 -13.8062 -4.2978
-13.6978 -13.7011 -4.18198
-13.7285 -13.6912 -4.16434
-13.6987 -13.7133 -4.18638
-16.0216 -11.9409 -2.55899
-16.0347 -11.9391 -2.48863
-13.7099 -13.8142 -3.76909
-13.6571 -13.8658 -3.78443
-16.2476 -11.8298 -2.30315
-13.6502 -13.902 -3.66134
-13.3488 -14.2013 -3.78618
-13.3705 -14.1913 -3.76727
-16.5432 -11.6813 -1.74391
-17.3744 -11.1042 -1.04183
-17.1984 -11.2624 -1.06455
-16.1886 -12.0758 -1.68806
-13.5911 -13.3429 -2.62135
-16.5714 -11.8044 -1.40781
-17.1984 -11.3539 -0.873312
-17.0708 -11.5207 -0.765855
-13.2129 -14.5471 -3.24456
-16.9722 -11.5893 -0.715608
-16.7853 -11.7771 -0.85008
-16.2503 -12.3142 -0.984307
-16.8084 -11.8873 -0.438711
-15.8172 -12.7126 -0.998903
-14.8836 -13.1081 -1.29406
-16.3558 -12.3331 -0.52909
-16.4195 -12.3149 -0.516945
-16.9661 -11.8967 -0.0645047
-17.1224 -11.7831 0.103608
-14.8486 -12.9885 -1.06473
-16.8085 -12.0584 -0.027267
-16.1326 -12.5891 -0.455994
-16.8504 -12.062 0.170402
-13.4876 -14.0744 -1.733
-16.9005 -12.1716 0.502848
-13.3351 -14.3631 -1.55442
-16.8315 -12.3218 0.671337
-16.4923 -12.554 0.460142
-15.0596 -12.8807 -0.0568872
-14.1612 -13.7677 -0.873762
-13.7393 -14.1404 -1.09548
-16.9935 -12.3095 1.20952
-13.3644 -14.3702 -0.946141
-13.1419 -14.6764 -1.21273
-13.9773 -14.1085 -0.502608
-15.9193 -13.2314 0.648858
-14.6235 -13.9004 -0.107285
-16.1607 -13.0772 0.918999
-16.6632 -12.8083 1.53967
-16.6338 -12.8622 1.68541
-16.6404 -12.8658 1.67554
-16.2424 -13.1725 1.38077
-15.8933 -13.4453 1.10793
-14.7871 -13.3884 1.01651
-12.8322 -14.8138 -0.647828
-16.0388 -13.4219 1.47861
-16.0485 -13.4228 1.52721
-14.2607 -13.8699 0.670075
-13.7946 -14.1749 0.317983
-14.3059 -13.8155 0.741289
-13.3821 -14.4711 -0.0584352
-13.4676 -14.4035 0.0363503
-13.5479 -14.3692 0.112231
-13.4954 -14.4121 0.0358555
-16.5228 -13.4664 2.8722
-11.6199 -13.8668 0.407151
-12.4199 -13.3784 1.26798
-12.2887 -13.5593 1.75526
-13.4716 -13.8736 -4.27802
-13.6453 -13.7656 -4.20143
-13.5756 -13.8794 -4.07016
-13.2992 -14.1024 -4.22397
-13.6694 -13.8344 -3.87784
-14.4031 -12.4729 -2.72407
-13.5359 -14.0662 -3.61995
-13.4884 -14.1531 -3.59952
-16.4731 -11.753 -1.77587
-15.8501 -12.2757 -1.99472
-15.9043 -12.2738 -1.96956
-15.6974 -12.5495 -1.80028
-14.9952 -12.4925 -1.61738
-16.249 -12.2041 -1.29974
-17.2696 -11.4366 -0.403934
-16.1291 -12.3879 -1.04052
-13.9989 -13.4764 -2.00096
-13.942 -13.5329 -2.05407
-17.1879 -11.6142 -0.146712
-15.8359 -12.7419 -0.979604
-17.3705 -11.6161 0.274095
-14.0522 -13.6962 -1.49676
-13.3732 -14.1771 -1.82882
-13.1144 -14.6564 -2.20999
-16.0264 -12.7849 -0.299697
-15.7912 -12.9334 -0.432684
-14.1281 -13.7027 -1.15293
-13.2182 -14.6319 -1.89533
-13.2118 -14.6727 -1.87392
-13.3501 -14.3094 -1.56087
-16.7195 -12.3678 0.642783
-14.6385 -13.6386 -0.66055
-13.3079 -14.6349 -1.6671
-13.2898 -14.6646 -1.68922
-14.9048 -13.4851 -0.466566
-13.4741 -14.1046 -0.947176
-13.4979 -14.0509 -0.861343
-15.9681 -13.1206 0.460707
-16.054 -13.1316 0.795393
-14.0907 -14.0381 -0.381292
-14.9247 -13.528 0.470394
-16.0491 -13.2638 1.04783
-16.3607 -13.0351 1.3557
-16.2428 -13.1543 1.37467
-16.6487 -12.901 1.7529
-16.1414 -13.312 1.43648
-14.4049 -13.6716 0.63728
-12.8172 -14.8229 -0.622783
-14.169 -13.8799 0.524342
-14.5987 -13.5713 0.874647
-16.0603 -13.4548 1.50437
-16.4846 -13.1307 1.92536
-14.7555 -13.4797 1.11598
-14.7136 -13.5234 1.09344
-16.6373 -13.1831 2.49142
-13.545 -13.8605 -4.12636
-16.2369 -11.8285 -2.33999
-13.4434 -14.082 -3.89324
-13.5051 -14.0232 -3.86233
-13.3585 -14.2231 -3.69986
-16.5591 -11.6727 -1.71712
-16.5509 -11.6858 -1.67827
-13.493 -13.5698 -2.55716
-17.0031 -11.5443 -0.843679
-16.973 -11.7123 -0.563338
-13.7989 -13.7264 -2.01842
-15.7628 -12.8653 -0.788194
-14.7481 -13.5604 -0.598548
-14.6099 -13.6777 -0.526308
-13.361 -14.44 -1.30556
-14.5466 -13.8544 -0.373821
-14.9177 -13.4931 0.409987
-16.3053 -13.0537 1.19647
-14.6201 -13.6381 1.11881
-16.3714 -13.4406 3.00712
-11.9784 -13.6692 0.885288
-11.9947 -13.6976 0.915007
-11.7848 -13.8478 1.11835
-13.604 -13.7827 -4.25118
-16.0466 -11.9341 -2.46986
-14.3076 -12.8583 -2.04074
-16.5488 -11.8944 -1.09679
-15.3856 -12.4412 -1.42957
-15.7999 -12.7403 -0.983525
-16.503 -12.1904 -0.357939
-13.5021 -14.159 -1.64001
-13.1493 -14.6901 -1.96735
-16.2713 -12.7441 0.247155
-13.9033 -14.1723 -0.551791
-15.0217 -13.4333 0.555727
-16.1849 -13.2688 1.52988
-16.5403 -13.3337 2.9829
-13.1978 -14.0809 -4.68128
-13.2707 -13.968 -4.48344
-15.981 -11.9686 -2.56096
-15.6251 -13.0645 0.243454
-15.7741 -13.4663 1.16257
-14.6853 -13.466 0.892635
-16.4556 -12.5807 0.385761
-15.9877 -13.0633 0.405876
-16.0123 -13.2046 0.709918
-16.1555 -12.1425 -1.80979
-14.051 -13.9587 -0.819884
-15.1283 -13.2315 0.121135
-16.1445 -13.3075 1.52862
-13.7524 -13.3785 -2.2924
-13.69 -13.9922 -1.23866
-13.6746 -13.3376 -2.73855
-13.7267 -13.6774 -2.08031
-14.2588 -13.3971 -1.7227
-13.3246 -14.2325 -2.23504
-13.6628 -14.1867 -1.47024
-17.4298 -11.038 -0.992437
-16.7337 -11.5658 -1.60449
-16.7107 -11.5858 -1.63483
-16.8354 -11.518 -1.39517
-17.0323 -11.4801 -0.887486
-15.7575 -12.1363 -2.67974
-16.082 -12.1346 -1.77646
-16.5342 -11.9931 -1.094
-15.915 -12.2988 -1.89164
-16.792 -12.0621 -0.0315142
-14.0863 -13.3504 -4.00392
-16.0818 -12.5645 -0.820993
-16.1446 -12.5848 -0.475479
-13.7093 -13.5713 -4.33614
-13.785 -13.5909 -4.19378
-15.9997 -12.7766 -0.292351
-13.6868 -13.7025 -4.19154
-13.7066 -13.717 -4.1257
-15.9361 -12.8511 -0.355803
-14.8947 -13.0813 -1.35362
-14.8854 -13.0055 -1.04972
-14.8432 -13.0216 -1.10299
-13.5987 -13.8144 -4.10647
-13.5732 -13.3644 -2.63641
-13.6131 -13.8144 -4.11708
-13.6618 -13.8805 -3.74395
-15.0117 -13.1691 -0.627006
-16.1419 -12.9956 0.656059
-16.6301 -12.8472 1.52891
-13.2884 -14.1359 -4.23852
-16.2677 -13.0244 0.965131
-14.7248 -13.5319 -0.815373
-14.9396 -13.4304 -0.307993
-15.9183 -13.2681 0.77821
-13.2885 -14.2821 -3.78169
-16.2983 -13.1727 1.57956
-16.018 -13.2895 1.02451
-16.5141 -13.1189 1.93774
-16.1387 -13.26 1.34476
-13.7129 -13.8716 -1.94776
-16.2526 -13.2293 1.58334
-14.8168 -13.6555 -0.0193616
-16.1014 -13.4208 1.57954
-16.46 -13.302 2.33165
-14.8339 -13.3884 1.02874
-16.534 -13.3412 2.62073
-14.8564 -13.7827 0.176449
-16.6162 -13.3647 2.93336
-16.3536 -13.4994 2.5393
-16.2407 -13.2883 3.2069
-14.0663 -14.0465 -0.419541
-14.0232 -14.0606 -0.441411
-13.4912 -14.0811 -0.90098
-14.3886 -13.7704 0.812761
-13.9474 -14.128 -0.481842
-13.4176 -14.2879 -1.51381
-13.3978 -14.3005 -1.51397
-14.2564 -13.8607 0.657275
-13.2843 -14.3891 -1.64625
-13.2996 -14.3844 -1.59512
-12.3567 -13.3266 0.969151
-13.5945 -14.1904 -0.66229
-12.3091 -13.3723 0.985644
-13.4051 -14.4116 -1.2666
-13.4094 -14.3986 -1.25634
-12.4244 -13.3705 1.28697
-12.185 -13.4666 0.850537
-13.1402 -14.6816 -2.0806
-13.3539 -14.3775 -0.97765
-12.3765 -13.4113 1.22061
-13.1899 -14.6718 -1.89337
-12.1119 -13.5156 0.788785
-13.3068 -14.6642 -1.71029
-12.4155 -13.4455 1.34307
-12.1608 -13.5207 0.926655
-13.3299 -14.5574 -1.06209
-13.3045 -14.5647 -1.08312
-13.1954 -14.7835 -1.5429
-13.5144 -14.3789 0.0748025
-13.1523 -14.6974 -1.23157
-11.9342 -13.6956 0.793018
-11.8255 -13.7988 0.786521
-13.0623 -14.7075 -0.313723
-12.8075 -14.8578 -0.632945
-17.1913 -11.2622 -1.20558
-16.1657 -11.8603 -2.37917
-16.8514 -11.6792 -0.933909
-16.5652 -11.8233 -1.35718
-17.0016 -11.6332 -0.617463
-17.0738 -11.6274 -0.427156
-16.6584 -12.0976 -0.276506
-15.9729 -12.4922 -1.22955
-16.9376 -12.2078 0.688523
-16.2491 -12.5309 -0.42911
-15.6381 -12.8142 -1.19369
-16.5151 -12.621 0.553826
-13.7133 -13.8227 -3.83314
-13.3688 -13.9548 -4.44362
-13.6973 -13.8499 -3.84519
-13.6131 -13.9641 -3.85802
-13.9588 -13.5375 -1.96298
-14.8081 -13.4603 -0.699493
-14.8956 -13.4963 -0.457604
-13.1771 -14.3225 -3.96589
-13.485 -14.069 -2.60961
-16.6955 -13.1169 2.61865
-14.9192 -13.4894 0.43135
-16.1159 -13.4059 1.59756
-14.5474 -13.7896 -0.512179
-13.2063 -14.4768 -3.5091
-13.2277 -14.4649 -3.44249
-13.5309 -14.1126 -1.67196
-14.009 -13.9802 -0.762702
-13.8213 -14.1048 -1.0844
-13.3007 -14.3654 -2.37444
-16.3735 -13.5091 2.8177
-13.3595 -14.252 -1.81191
-13.3334 -14.2564 -1.82264
-13.4584 -14.2529 -1.46614
-13.4292 -14.2745 -1.49236
-13.331 -14.3747 -1.54711
-13.8594 -14.1852 -0.566232
-13.3956 -14.2785 -0.890606
-13.162 -14.6767 -1.98594
-13.2878 -14.6238 -1.65969
-13.2886 -14.6628 -1.67843
-13.1176 -14.7684 -1.78105
-13.0558 -14.7848 -1.82715
-13.2155 -14.8227 -1.52529
-11.9983 -13.6838 0.900248
-13.0999 -14.6791 -0.271262
-13.0428 -14.7421 -0.354966
-12.8443 -14.8467 -0.606809
-13.6947 -12.8575 -3.19349
-16.032 -12.3775 -1.32981
-16.9773 -12.1163 0.54616
-16.9192 -12.2111 0.555566
-14.4717 -12.8463 -1.82628
-14.4546 -12.8771 -1.78677
-14.8657 -13.0206 -1.10763
-13.624 -13.3434 -2.60987
-13.6686 -13.8512 -3.86659
-13.9748 -13.4594 -2.2093
-13.6049 -13.979 -3.74763
-16.038 -13.1602 0.773279
-15.8178 -13.2896 0.47814
-14.3096 -13.5435 -1.03857
-16.2906 -13.1275 1.36763
-14.3103 -13.5542 -1.01061
-16.528 -13.0806 1.9345
-14.684 -13.6266 -0.593075
-14.6799 -13.672 -0.503207
-14.6482 -13.6924 -0.517836
-13.2327 -14.4549 -3.45158
-14.5262 -13.8205 -0.43352
-13.6562 -14.1208 -1.33452
-16.3608 -13.4265 3.04035
-13.4473 -14.1697 -0.945507
-13.6038 -14.1988 -0.640018
-13.1625 -14.6791 -1.90919
-13.196 -14.8 -1.55401
-12.9916 -14.7972 -0.26936
-16.1571 -12.099 -1.75384
-15.8868 -12.3886 -1.76944
-14.9191 -12.6421 -1.50875
-13.4559 -13.1361 -3.43389
-16.8271 -12.2097 0.453318
-14.2781 -12.8698 -2.15215
-16.0825 -12.7486 -0.22728
-13.6959 -13.7109 -4.16728
-13.751 -13.2818 -2.53848
-13.4234 -13.875 -4.41658
-13.5708 -13.5059 -2.54023
-16.2444 -13.1862 1.51983
-16.2135 -13.2751 3.21274
-14.47 -13.6709 0.781972
-14.0498 -14.034 -0.610904
-13.4295 -14.3082 -1.46386
-13.3811 -14.3803 -1.35862
-13.3614 -14.447 -1.27571
-13.3621 -14.599 -0.938557
-13.2013 -14.7128 -1.05015
-12.9369 -14.7453 -0.571492
-14.6259 -12.2165 -2.38203
-14.4928 -12.6026 -2.1652
-15.9167 -12.5615 -1.10414
-13.5176 -13.1374 -3.36152
-13.6187 -13.5876 -2.78196
-13.6107 -13.5971 -2.76061
-13.9969 -13.6964 -1.56143
-13.3593 -14.2264 -3.7084
-16.636 -13.328 2.81941
-16.4177 -13.4147 3.10057
-13.3562 -14.4356 -1.31769
-13.3053 -14.4458 -1.46077
-13.2519 -14.6175 -1.10505
-13.8767 -12.9355 -3.51085
-13.6391 -12.9616 -3.06553
-14.8124 -13.1694 -1.07226
-13.5065 -13.688 -3.0077
-16.2323 -13.1577 1.33832
-14.8188 -13.6223 -0.0477565
-13.731 -14.1943 -1.03565
-13.7726 -14.283 -1.21726
-13.3439 -14.4252 -0.900954
-14.2946 -13.0669 -1.88701
-14.0062 -13.3977 -2.151
-15.1464 -13.3967 0.0981861
-13.8632 -13.7443 -1.71135
-13.395 -14.2489 -1.66857
-14.1656 -13.8707 0.401778
-16.8458 -11.7575 -0.507837
-16.5878 -13.3149 2.94354
-14.4452 -12.594 -2.26978
-14.9172 -12.9333 -0.927023
-13.9661 -13.3383 -2.24897
-13.8542 -13.8061 -1.53518
-13.5882 -13.5005 -2.65171
-13.3136 -13.8366 -3.22424
-17.1634 -11.2586 -1.21004
-17.0543 -11.6773 -0.373298
-16.8579 -11.268 -2.0525
-16.8533 -11.5174 -1.35968
-16.7498 -11.5006 -1.69572
-16.8476 -12.2955 0.692026
-16.8569 -12.3271 0.686864
-16.5603 -11.6809 -1.65538
-16.675 -13.2311 2.78285
-16.5326 -12.1991 -0.36803
-16.588 -13.3396 2.65262
-16.3887 -13.5208 2.81966
-16.4143 -13.3198 2.22398
-16.3579 -13.5141 2.51277
-16.078 -13.504 1.81675
-14.9285 -12.4587 -1.53019
-12.4223 -13.3869 1.30302
-14.7968 -13.3963 0.995696
-15.7881 -12.8331 -0.749046
-14.7694 -13.4596 1.09095
-12.3153 -13.3819 0.963894
-14.9372 -12.7587 -1.41517
-14.5723 -13.6004 0.852156
-14.6029 -12.6118 -2.02048
-12.2059 -13.4507 0.840475
-12.2067 -13.4995 1.00738
-14.5578 -12.6863 -1.87054
-15.0029 -13.1998 -0.729629
-12.1201 -13.5171 0.794749
-11.9997 -13.7491 1.50269
-12.1125 -13.4945 0.756104
-14.3964 -12.773 -1.97178
-14.8321 -13.7858 0.199029
-11.941 -13.6782 0.78348
-14.7981 -13.6858 -0.178992
-14.7586 -13.8411 0.0785747
-14.607 -13.9037 -0.127837
-14.318 -13.5666 -0.990062
-14.1464 -13.7748 -0.858629
-14.0524 -13.6963 -1.5046
-14.0308 -14.0741 -0.46796
-13.6704 -13.3115 -2.50205
-13.4809 -14.0844 -0.939829
-13.724 -14.1846 -1.12543
-13.6416 -14.1112 -1.29555
-13.3184 -14.4385 -0.291413
-13.5333 -14.113 -1.65699
-13.3759 -14.3612 -0.971249
-13.3497 -14.3766 -0.990099
-13.3313 -14.4082 -0.984706
-13.3914 -14.4238 -1.25124
-13.7806 -13.5776 -4.23558
-13.2785 -14.613 -1.08862
-13.1677 -14.6794 -1.20064
-13.1433 -14.7101 -1.19165
-13.6273 -13.7636 -4.19822
-12.8087 -14.816 -0.650946
-13.581 -13.8358 -4.09126
-13.5851 -13.7919 -4.28355
-13.5917 -13.9187 -3.93883
-13.5475 -13.9385 -3.85992
-13.2262 -14.7887 -1.48097
-13.2186 -14.7716 -1.55738
-13.2188 -14.8065 -1.50378
-13.3154 -14.2355 -3.77652
-13.2224 -14.4451 -3.49006
-13.2128 -14.4847 -3.49633
-17.077 -11.1086 -1.78843
-17.0833 -11.82 0.0873877
-16.6393 -12.176 -0.008133
-16.65 -12.2099 -0.047188
-16.7159 -13.1148 2.58579
-16.5225 -11.9435 -1.10963
-16.5945 -13.4042 2.92537
-16.3807 -13.449 3.02515
-16.4488 -13.3547 2.37471
-16.1788 -13.0644 0.869678
-16.0726 -13.254 1.01071
-15.978 -13.4134 1.20026
-14.6682 -13.5467 1.02613
-14.9399 -12.7708 -1.4136
-14.4426 -12.767 -1.9498
-14.5807 -13.7877 -0.524858
-14.5572 -13.7685 -0.488898
-14.0666 -14.0419 -0.405156
-14.0466 -13.5209 -1.91606
-13.6771 -14.2159 0.044182
-13.6029 -13.322 -2.66035
-13.8146 -13.7057 -1.99762
-13.6711 -13.9793 -1.18946
-13.4829 -14.0751 -0.907776
-13.4481 -14.1328 -0.939692
-13.2883 -14.3795 -1.60698
-13.7862 -13.5548 -4.25181
-13.2853 -14.395 -1.58499
-12.7885 -14.8264 -0.691431
-13.303 -14.6418 -1.67422
-13.2032 -14.7986 -1.53713
-13.1236 -14.658 -2.15209
-13.0411 -14.7393 -1.82108
-13.0503 -14.8115 -1.813
-13.2997 -14.4947 -3.16536
-13.2502 -14.5542 -3.19308
-13.184 -14.5206 -3.41019
-16.9692 -11.8944 -0.0817445
-16.8975 -12.1959 0.564542
-16.7355 -13.1131 2.63165
-16.7043 -13.1336 2.50173
-16.4009 -13.0754 1.48867
-16.1909 -12.0777 -1.64997
-16.235 -13.2673 1.54401
-16.2091 -13.1358 1.18867
-16.0156 -11.9965 -2.37399
-16.1114 -13.2897 1.33036
-15.9724 -13.5031 1.4596
-14.7313 -13.4283 0.963674
-14.8165 -12.6878 -1.85448
-14.4704 -12.7626 -1.89836
-14.2089 -13.8495 -0.598709
-14.1447 -13.5021 -1.74005
-13.7809 -12.9668 -3.55066
-13.667 -13.3231 -2.55512
-13.5729 -13.3377 -2.66697
-13.6769 -14.106 -1.35146
-14.0908 -13.3794 -3.92188
-13.402 -14.3925 -1.28501
-13.0027 -14.7628 -0.299884
-13.7294 -13.8068 -3.81331
-13.7157 -13.6898 -4.19735
-13.6678 -13.8591 -3.84469
-13.5458 -13.7552 -4.42144
-15.7756 -12.9588 -0.478103
-14.8184 -12.7093 -1.7818
-14.4497 -13.6834 0.831374
-14.6466 -13.6429 0.654635
-14.4239 -13.69 0.782025
-14.4143 -13.6958 0.66752
-14.2366 -13.2494 -2.00129
-14.1671 -13.7577 -0.829044
-14.134 -13.9051 -0.612101
-13.974 -14.1347 -0.478764
-13.5221 -13.12 -3.30311
-13.4806 -14.0926 -1.77377
-13.112 -14.6055 -0.410133
-13.3907 -14.2172 -1.76603
-12.9403 -14.8099 -0.411864
-13.2568 -14.7025 -0.985471
-13.6652 -13.6652 -4.36162
-13.0985 -14.7262 -2.03381
-13.2649 -14.6151 -2.94046
-16.1117 -12.7373 -0.124498
-14.7168 -13.4638 0.944375
-14.8536 -13.6278 -0.0249386
-13.9812 -14.1361 -0.385792
-13.8735 -13.8147 -1.59854
-13.1109 -14.6444 -0.2453
-13.6308 -13.7662 -4.24449
-13.5748 -13.9464 -3.80546
-13.1384 -14.9492 -1.28709
-16.6318 -13.3294 2.9207
-14.9467 -13.4712 0.359023
-13.9074 -14.0609 0.322088
-13.7942 -14.0257 -1.39144
-13.4372 -14.1829 -0.918829
-13.4488 -14.243 -0.972962
-15.0408 -13.2206 -0.0720417
-13.8371 -13.9618 -1.33005
-13.5146 -14.2213 -1.48407
-12.8154 -14.8067 -0.618154
-16.5106 -13.3969 2.93887
-16.0927 -13.3551 1.50755
-13.7598 -14.0728 -1.38245
-13.2518 -14.5892 -1.91817
-13.7226 -13.7719 -2.07133
-13.6316 -14.3305 -1.02113
-14.2481 -13.1714 -1.59331
-13.7 -14.2115 -0.972869
-13.1684 -14.0455 -3.03022
-17.3354 -13.2068 2.43447
-16.3376 -13.5193 2.87245
-16.5857 -13.2158 2.4659
-11.9944 -13.7505 1.50813
-12.4153 -13.3892 1.29848
-12.2162 -13.5094 1.02097
-12.1376 -13.5802 1.01629
-14.2485 -13.8374 0.623715
-16.7446 -11.4961 -1.67661
-13.9978 -14.0954 -0.467803
-13.425 -14.135 -0.905631
-13.7044 -13.9444 -1.20416
-14.2974 -12.8966 -2.01527
-12.7919 -14.833 -0.649906
-13.6756 -13.2903 -2.58959
-16.4148 -13.3488 2.37811
-11.48 -13.9368 1.23261
-17.2539 -11.4125 -0.410007
-14.393 -13.7184 0.702227
-15.9448 -12.4059 -1.53786
-14.0218 -14.0625 -0.50823
-13.9537 -13.8246 -1.16881
-14.3598 -12.8166 -1.93608
-14.3981 -12.7829 -1.92562
-12.9387 -14.7764 -0.488278
-13.2887 -14.6215 -1.05445
-13.6607 -13.3374 -2.5705
-13.5837 -13.3201 -2.64912
-13.5694 -13.3774 -2.66599
-13.1092 -14.6468 -2.15467
-13.9646 -13.519 -3.9573
-13.311 -14.0823 -4.249
-16.676 -13.1563 2.60233
-14.4085 -13.7372 0.857626
-14.4698 -13.6337 0.759645
-14.6248 -13.6924 -0.520846
-14.1168 -13.9197 -0.609366
-14.1483 -13.8553 -0.710662
-14.2523 -13.5706 -1.04962
-14.4621 -12.8647 -1.82223
-13.407 -14.1326 -0.893012
-12.839 -14.8081 -0.608032
-13.3889 -14.3603 -0.994892
-13.367 -14.3863 -1.37463
-13.3216 -14.3677 -1.58256
-13.8032 -12.9747 -3.56837
-14.0966 -13.3886 -3.93414
-13.2241 -14.3223 -3.747
-16.4142 -13.452 3.00592
-16.6493 -13.265 2.85327
-16.0908 -13.3749 1.47981
-16.2215 -13.1489 1.25562
-16.9811 -11.8818 0.0681859
-14.5591 -13.6057 0.85996
-14.4154 -13.69 0.668422
-14.0884 -14.0548 -0.381216
-14.0224 -14.0987 -0.501146
-15.887 -12.3315 -1.88245
-15.9095 -12.2107 -2.0421
-13.223 -14.7074 -0.981056
-13.3122 -14.5512 -1.18835
-13.1531 -14.5434 -2.30655
-13.2177 -14.3299 -2.46198
-13.1728 -14.266 -4.09912
-16.59 -13.1009 2.1695
-14.8153 -13.4202 1.053
-13.9225 -14.2029 -0.37542
-12.9395 -14.8132 -0.397396
-14.1781 -13.5038 -1.65206
-13.2497 -14.5328 -1.33035
-13.5549 -13.9589 -3.90543
-15.0829 -12.9237 -0.223123
-13.976 -14.1186 -0.428263
-13.7775 -13.8997 -1.30498
-12.8117 -14.8262 -0.607395
-13.1257 -14.2809 -2.56351
-13.5745 -13.9222 -3.95839
-16.3942 -13.4131 3.06668
-16.6266 -13.3184 2.91507
-13.1631 -14.0592 -4.68816
-16.6627 -13.3025 2.75058
-14.3031 -13.3417 -1.45117
-11.9832 -13.7417 1.49104
-16.3244 -13.5201 2.89234
-16.3595 -13.521 2.85193
-12.1605 -13.6094 1.15803
-12.4075 -13.3651 1.23532
-12.1742 -13.6079 1.13969
-12.1531 -13.5642 1.03055
-16.6131 -13.1986 2.42549
-11.9552 -13.6968 0.882791
-11.877 -13.7568 0.852288
-11.741 -13.7557 0.468223
-16.0604 -13.3961 1.51331
-14.6618 -13.5409 1.06795
-14.653 -13.5645 1.06872
-16.246 -13.0204 0.934772
-16.5144 -12.548 0.444155
-13.2483 -14.5753 -0.168198
-13.3543 -14.4191 -0.283826
-14.4613 -14.0648 -0.17222
-12.9242 -14.7825 -0.452039
-13.9985 -14.1656 -0.343139
-14.1108 -14.0095 -0.399329
-14.5598 -13.6662 -0.382261
-14.0756 -14.0413 -0.404692
-14.0258 -14.0682 -0.456059
-13.8256 -14.2207 -0.598487
-14.9828 -13.2985 -0.57965
-16.1632 -12.5596 -0.449319
-16.9394 -11.7437 -0.40202
-14.7065 -13.6138 -0.653548
-13.4282 -14.2125 -0.821131
-17.4799 -11.1754 -0.457073
-13.4211 -14.1234 -0.880187
-13.435 -14.091 -0.875307
-14.1656 -13.7803 -0.879679
-16.8298 -11.8092 -0.716277
-13.3397 -14.5829 -1.03921
-13.3221 -14.5909 -1.07688
-13.3171 -14.5553 -1.07573
-14.2919 -13.6077 -1.02245
-13.1927 -14.6787 -1.15436
-13.1957 -14.6709 -1.17116
-14.1332 -13.691 -1.15992
-16.5687 -11.9545 -1.02185
-16.5738 -11.9319 -1.0433
-16.4893 -11.9735 -1.10792
-16.2898 -12.1987 -1.14842
-16.2368 -12.2143 -1.18432
-17.5993 -10.8 -1.18423
-13.2132 -14.569 -1.41545
-13.4271 -14.2803 -1.47917
-17.3223 -11.0193 -1.38748
-13.1882 -14.8288 -1.53861
-13.2119 -14.7835 -1.5519
-13.3292 -14.3374 -1.55199
-16.7303 -11.547 -1.60504
-16.5161 -11.7188 -1.73882
-13.341 -14.2313 -1.80245
-16.8667 -11.2513 -2.01339
-14.3643 -12.8594 -1.99812
-13.8837 -13.6129 -1.99806
-16.839 -11.2549 -2.05146
-16.6071 -11.4349 -2.16505
-15.9809 -11.9628 -2.5735
-15.7523 -12.1301 -2.68857
-13.6732 -13.8365 -3.85905
-14.1714 -13.2734 -4.02756
-14.131 -13.2758 -4.05687
-13.5165 -13.9436 -4.00282
-13.3184 -14.1333 -4.06125
-13.5176 -13.8755 -4.13188
-13.6406 -13.7544 -4.19201
-13.16 -14.1012 -4.62788
-12.1977 -13.4871 1.00529
-11.8633 -13.7956 0.90101
-16.603 -13.19 2.45326
-16.4456 -13.3181 2.33828
-16.3 -13.2826 1.74568
-16.1133 -13.4123 1.58858
-14.7754 -13.4533 1.11847
-14.3304 -13.7917 0.79314
-14.4439 -13.6287 0.73263
-13.933 -14.0906 0.414649
-13.89 -14.1014 0.360016
-13.8029 -14.1381 0.255869
-16.9121 -12.2099 0.699886
-13.7127 -14.2229 0.0617405
-16.5292 -12.562 0.50123
-14.7648 -13.8397 0.09031
-15.0601 -12.891 -0.0657599
-17.1108 -11.7915 0.0799373
-12.848 -14.8341 -0.619162
-13.965 -14.1294 -0.525571
-14.878 -13.5043 -0.46279
-14.8433 -13.5107 -0.501636
-14.8398 -13.4928 -0.527727
-13.4145 -14.2339 -0.903057
-13.4709 -14.0885 -0.947569
-13.3307 -14.5474 -1.06184
-14.2385 -13.5435 -1.06664
-13.2383 -14.6306 -1.1428
-14.8279 -13.1187 -1.09641
-16.813 -11.6341 -1.20123
-13.1906 -14.5423 -1.41601
-16.2435 -12.0384 -1.67205
-13.4822 -14.0985 -1.7236
-16.6028 -11.6659 -1.67912
-14.3727 -12.8084 -1.9813
-14.3454 -12.8541 -1.98255
-15.8576 -12.2836 -2.01786
-14.2886 -12.8569 -2.11021
-16.2339 -11.8079 -2.30681
-16.2186 -11.8202 -2.31958
-13.918 -13.4473 -2.28789
-13.3977 -14.2881 -2.34918
-15.9631 -12.0049 -2.56068
-13.6833 -13.285 -2.63392
-14.201 -12.5865 -2.87377
-13.4189 -14.0233 -4.03775
-13.5509 -13.8418 -4.1565
-16.5949 -13.4366 2.9349
-14.4361 -13.717 0.842268
-16.2509 -13.1319 1.23899
-16.2055 -12.9806 0.680961
-16.2244 -12.954 0.669623
-16.8456 -12.3137 0.718842
-13.5624 -14.2702 -0.0432366
-14.9574 -13.4581 -0.149652
-16.6841 -12.1865 -0.0424379
-13.8591 -14.1929 -0.574797
-14.144 -13.9289 -0.53893
-14.8411 -13.4856 -0.533416
-13.5787 -14.1885 -0.647842
-17.0645 -11.6676 -0.357975
-13.4455 -14.1208 -0.737242
-13.3787 -14.2867 -0.848262
-13.315 -14.4548 -0.934076
-13.2679 -14.6152 -1.06514
-14.7672 -13.345 -0.984797
-14.2611 -13.5526 -1.09762
-14.1353 -13.6801 -1.14775
-13.2416 -14.5203 -1.36196
-17.1241 -11.2848 -1.23106
-17.0867 -11.2904 -1.30767
-13.2801 -14.6656 -1.71898
-15.9313 -12.2802 -1.87696
-14.4617 -12.7867 -1.88455
-14.4777 -12.765 -1.91513
-14.4807 -12.7414 -1.92528
-13.8829 -13.4822 -2.29716
-13.482 -14.0804 -2.62426
-13.6785 -13.2998 -2.60603
-13.5927 -13.3625 -2.62352
-13.5678 -13.4267 -2.63915
-13.9048 -12.7612 -2.87924
-13.5987 -13.6807 -4.50897
-13.3295 -13.8498 -4.78498
-16.515 -13.3956 2.97859
-14.7814 -13.4196 1.11991
-13.1179 -14.6757 -0.270014
-13.3108 -14.4752 -0.284456
-14.968 -13.3432 -0.105367
-12.8717 -14.8197 -0.620734
-12.8689 -14.779 -0.619725
-13.3745 -14.3389 -0.866205
-13.4123 -14.1649 -0.859906
-13.4335 -14.2036 -0.914654
-13.1924 -14.734 -1.00593
-13.2358 -14.6907 -1.01878
-14.7697 -13.3456 -0.926134
-17.0258 -11.4248 -1.04334
-14.9509 -12.7548 -1.41548
-13.4155 -14.3039 -1.46319
-15.973 -12.3741 -1.54733
-14.9513 -12.5232 -1.62061
-13.5162 -14.1459 -1.70574
-16.0154 -12.2108 -1.88602
-15.8883 -12.2965 -1.92783
-13.7283 -13.8353 -1.95137
-14.0077 -13.5653 -1.97886
-15.9109 -12.2252 -2.06577
-13.5863 -13.333 -2.66314
-14.1355 -12.4255 -3.06608
-13.3035 -14.518 -3.14985
-13.473 -13.5806 -3.10135
-13.0748 -13.82 -3.16008
-13.7609 -13.8648 -3.54479
-13.3012 -14.2433 -3.81643
-14.0478 -13.4071 -3.96677
-13.5691 -13.9053 -3.99234
-13.7212 -13.6447 -4.28247
-12.1278 -13.5776 1.00826
-16.6067 -13.1054 2.15642
-14.7446 -13.5014 1.12226
-16.0638 -13.4033 1.45899
-14.1812 -13.8288 0.518573
-13.819 -14.1552 0.331734
-16.2327 -12.7689 0.261662
-16.1794 -12.8282 0.199652
-14.6599 -13.8738 -0.114491
-15.0591 -12.9042 -0.0935521
-13.1076 -14.6035 -0.442188
-16.5361 -12.1998 -0.278144
-14.1562 -13.771 -0.860964
-14.1137 -13.8036 -0.887451
-16.5017 -12.0269 -0.989387
-13.1773 -14.8231 -1.53013
-13.4045 -14.2693 -1.6072
-13.3947 -14.1952 -1.75251
-13.2037 -14.582 -2.08033
-13.9034 -13.4884 -2.20089
-14.0764 -12.9545 -2.60587
-13.6516 -13.2819 -2.64468
-16.6065 -13.3909 2.87727
-14.3632 -13.7491 0.710844
-15.9008 -13.2297 0.64172
-16.1091 -12.9896 0.513873
-13.3159 -14.5988 -1.04299
-13.4274 -14.1995 -1.6486
-13.4745 -14.2262 -2.34109
-13.6827 -13.2051 -3.05112
-16.2804 -13.1281 1.31769
-14.1371 -13.8831 0.501306
-14.333 -13.8472 0.475777
-16.0095 -13.1288 0.457144
-13.2734 -14.5157 -0.28043
-13.9954 -14.1461 -0.40871
-13.5323 -14.0852 -1.6969
-14.3024 -12.9423 -2.10116
-14.0879 -13.3382 -2.13081
-13.5906 -13.4422 -3.12844
-13.2894 -14.4515 -3.24482
-13.4873 -13.1195 -3.38003
-12.9139 -14.7755 -0.562531
-13.1586 -13.9698 -4.86173
-13.4509 -14.3978 -1.02121
-13.7229 -13.9536 -1.19506
-13.5695 -13.6361 -2.88579
-13.9475 -14.0156 -1.0339
-14.0381 -13.5074 -2.04405
-13.6627 -13.3349 -3.0613
-13.7476 -14.1136 -1.13017
-13.5595 -14.0185 -1.96694
-13.0228 -14.4373 -2.54808
-13.1867 -14.1846 -2.60318
-13.1749 -14.0698 -4.63861
-13.4161 -13.8807 -4.42601
-13.4478 -13.9181 -4.2613
-13.412 -13.9908 -4.23502
-13.7312 -13.7094 -4.02761
-15.8499 -12.0882 -2.64022
-15.9907 -11.9444 -2.55178
-16.0832 -11.9255 -2.43375
-17.2916 -11.0275 -1.38763
-13.3628 -14.2541 -3.67623
-15.8523 -12.2737 -2.07328
-17.3179 -11.1286 -1.07194
-16.0628 -12.1463 -1.84834
-16.0371 -12.1943 -1.85428
-16.4713 -12.0202 -1.14575
-14.3323 -13.1529 -2.00417
-16.8084 -11.8159 -0.851471
-14.2133 -13.2645 -2.02977
-16.3212 -12.2288 -0.914922
-13.9511 -13.5487 -2.01998
-13.4962 -14.1391 -2.49703
-13.8571 -13.6401 -2.0374
-16.9866 -11.8031 -0.339184
-14.8781 -13.0621 -1.26239
-14.0023 -13.6773 -1.5804
-17.0283 -12.1004 0.603097
-15.077 -12.9389 0.015117
-14.1466 -13.8413 -0.721246
-13.2258 -14.7937 -1.54503
-16.7649 -12.4812 0.98176
-14.8091 -13.6548 -0.0485537
-15.0176 -13.5753 0.11814
-13.1505 -14.7091 -1.2058
-15.9595 -13.2286 0.633492
-13.1957 -14.675 -1.17665
-14.921 -13.4703 0.378614
-16.6498 -12.85 1.52487
-16.5732 -12.8615 1.5107
-16.1446 -13.3285 1.4906
-16.2685 -13.2221 1.60127
-13.2387 -14.5488 -0.298977
-14.5334 -13.607 0.856194
-16.5303 -13.0573 1.9426
-16.1137 -13.401 1.58133
-16.5365 -13.1004 1.98905
-13.4957 -14.3978 0.0212108
-13.9605 -14.0564 0.460335
-13.5202 -14.3784 0.0776717
-14.2469 -13.8838 0.758131
-13.4927 -14.3321 0.279948
-16.5817 -13.2552 2.46561
-11.8443 -13.7921 0.741072
-13.697 -13.7873 -3.90507
-13.5508 -13.9268 -3.93024
-13.423 -14.181 -3.72941
-15.8544 -12.2897 -1.95292
-14.3922 -12.7804 -1.92066
-16.1905 -12.2275 -1.35581
-13.3101 -14.513 -3.13875
-16.2135 -12.2487 -1.2286
-13.9498 -13.5276 -2.0026
-14.0985 -13.4476 -1.93795
-13.9052 -13.5952 -2.03808
-16.4579 -12.2695 -0.501851
-13.4682 -14.0915 -1.73706
-13.1249 -14.6371 -2.15221
-13.2967 -14.6673 -1.69024
-13.103 -14.7702 -1.79918
-13.3691 -14.453 -1.25882
-13.476 -14.1328 -0.946446
-14.8607 -13.6353 -0.178685
-14.5551 -13.8552 -0.372187
-16.1369 -13.1224 0.869045
-14.9867 -13.4697 0.504943
-12.8283 -14.8302 -0.605039
-16.1323 -13.379 1.63018
-16.5507 -13.378 2.9705
-13.5704 -13.8361 -4.08148
-14.7176 -12.1729 -2.20083
-13.195 -14.4838 -3.49289
-14.0746 -13.2889 -2.26226
-13.3144 -14.4805 -3.1372
-14.1397 -13.464 -1.82163
-14.1618 -13.6667 -1.11778
-16.6799 -12.4357 0.623867
-13.3451 -14.472 -0.924041
-16.35 -13.0495 1.2249
-16.0627 -13.3298 1.2346
-14.7006 -13.5908 0.655017
-14.0596 -14.115 0.156532
-13.1358 -14.5896 -0.430433
-16.2474 -13.3193 1.73558
-14.6275 -13.6284 1.14997
-14.5909 -13.3261 2.66189
-13.181 -14.0819 -4.67726
-16.0695 -11.9633 -2.48758
-13.1721 -14.2792 -4.08577
-14.637 -12.2655 -2.24856
-13.3387 -14.4762 -3.14217
-16.4784 -12.2958 -0.462667
-13.2751 -14.0585 -2.08164
-16.9114 -11.9508 -0.0218455
-14.0868 -13.9091 -0.723801
-12.9919 -14.6771 -0.57665
-14.0173 -13.9484 0.300774
-13.3272 -14.5395 -0.0458448
-12.3727 -13.3883 1.22342
-14.0746 -13.4309 -3.9243
-16.0909 -11.8988 -2.44981
-13.6298 -13.4377 -2.53321
-16.4165 -12.0392 -1.10436
-13.8379 -13.6267 -2.06732
-16.499 -12.2253 -0.392071
-13.7861 -14.0163 -1.51118
-13.312 -14.4471 -1.33926
-16.4822 -12.9319 1.41515
-14.6015 -13.4943 0.792804
-12.8641 -14.8032 -0.606208
-13.6931 -13.7392 -4.24097
-14.4257 -12.8962 -1.86452
-14.4373 -12.917 -1.85688
-13.8575 -13.8056 -1.49988
-13.1403 -14.8497 -1.55431
-15.3009 -13.1587 0.243315
-13.3837 -14.4376 -0.881567
-13.457 -14.2797 -1.52968
-13.379 -14.3069 -0.809036
-13.8855 -14.1138 0.413831
-12.2556 -13.4503 1.13086
-14.3199 -13.0839 -1.86144
-13.232 -14.6049 -1.09613
-13.5097 -14.0144 -1.91284
-14.6073 -13.5192 0.901737
-13.5816 -13.5897 -2.81555
-13.423 -13.7331 -2.8098
-13.6584 -14.2016 -1.45422
-14.1342 -14.0253 -0.773971
-13.5098 -14.4267 -1.24496
-17.3629 -10.9837 -1.35004
-16.5937 -11.487 -2.16871
-16.9447 -11.4614 -1.26075
-17.0597 -11.4251 -1.01626
-17.0031 -11.4735 -1.04794
-14.003 -12.7899 -3.5044
-16.9953 -11.6458 -0.6527
-16.5992 -11.9259 -1.05622
-16.7379 -11.8725 -0.7719
-14.2872 -12.7994 -2.43307
-14.134 -12.914 -2.58477
-13.4454 -13.8739 -4.38392
-17.0727 -11.8444 0.0664797
-16.6987 -12.0746 -0.286979
-14.2878 -12.8839 -2.06448
-13.6911 -13.8105 -3.86054
-13.4087 -13.9973 -4.21108
-13.5925 -13.9007 -3.92932
-14.9214 -12.8157 -1.44465
-16.4333 -12.3598 -0.287595
-13.6456 -13.3366 -2.62652
-16.4048 -12.366 -0.27582
-13.6734 -13.3006 -2.49933
-13.5563 -13.9672 -3.86075
-14.34 -13.1419 -1.99986
-16.109 -12.6101 -0.517416
-14.2107 -13.2667 -2.05776
-13.2514 -14.1895 -4.03605
-14.1937 -13.2695 -2.05546
-16.9608 -12.2017 0.72676
-16.8862 -12.2095 0.67181
-13.9269 -13.439 -2.26814
-13.9328 -13.4494 -2.26643
-13.4246 -14.1946 -3.73767
-16.9246 -12.2732 0.752164
-14.8415 -13.0033 -1.03333
-14.8262 -13.2245 -1.1618
-13.9339 -13.5648 -2.02228
-13.9121 -13.6064 -2.01913
-14.8772 -13.3217 -0.835434
-13.2376 -14.4601 -3.44743
-14.1531 -13.6044 -1.17732
-14.9792 -13.4492 -0.13661
-16.2459 -13.1197 1.22407
-16.2264 -13.1947 1.40488
-16.6052 -13.0511 2.0059
-13.6459 -14.1016 -1.28357
-14.7754 -13.8483 0.086075
-13.4962 -14.1069 -0.978213
-13.3721 -14.3861 -1.40039
-13.1408 -14.6796 -2.02964
-13.9928 -14.1099 -0.497165
-13.8707 -14.1958 -0.568437
-13.2095 -14.5642 -1.41088
-13.345 -14.3899 -0.956219
-13.2422 -14.604 -1.12635
-13.178 -14.69 -1.16779
-12.3236 -13.3197 0.965074
-12.1973 -13.454 0.876332
-13.4865 -14.4203 0.054958
-12.9571 -14.7336 -0.507512
-12.8862 -14.7973 -0.599668
-11.9112 -13.6888 0.737667
-12.1596 -13.6004 1.19814
-11.8916 -13.7566 0.771158
-16.5613 -11.6747 -1.71842
-16.5504 -11.7057 -1.6736
-16.4499 -11.748 -1.76813
-16.1062 -11.9746 -2.13165
-16.6492 -11.7181 -1.2964
-14.1445 -12.6229 -2.93618
-16.2128 -12.0557 -1.71705
-17.1219 -11.5245 -0.550331
-13.7166 -13.7098 -4.15967
-16.0227 -12.3607 -1.31554
-16.3242 -12.2505 -0.897182
-13.3755 -13.9443 -4.43201
-13.3823 -13.935 -4.38461
-14.4551 -12.7595 -1.91283
-13.3374 -13.9748 -4.34614
-13.5779 -13.3768 -2.70848
-13.3987 -14.1017 -3.9563
-14.0251 -13.4694 -1.9985
-14.9878 -13.1937 -0.731617
-16.2938 -12.8552 0.597256
-14.2595 -13.5701 -1.10868
-16.1705 -12.9746 0.670703
-14.2782 -13.601 -1.01405
-14.5398 -13.7695 -0.480611
-14.5483 -13.8492 -0.42715
-14.0267 -13.9928 -0.698131
-13.3697 -14.3159 -1.57817
-13.2914 -14.3999 -1.58194
-13.3306 -14.3712 -1.54185
-13.9716 -14.1345 -0.465602
-13.8732 -14.1056 0.374909
-13.2242 -14.7021 -1.0163
-13.4885 -14.3563 0.270808
-12.8296 -14.8193 -0.61604
-17.0626 -11.6183 -0.446592
-14.0917 -13.3261 -3.85688
-13.7543 -13.2301 -2.58331
-13.5448 -13.542 -2.57305
-14.1833 -13.3152 -1.95828
-15.0772 -12.8424 -0.126765
-15.9774 -13.1552 0.648302
-14.7006 -13.6024 -0.664592
-14.643 -13.6402 -0.678103
-14.1406 -13.8673 -0.744775
-13.2744 -14.4118 -1.56533
-13.5745 -14.2242 -0.677059
-16.3484 -13.3685 3.16358
-12.4743 -13.2407 1.07488
-14.5681 -13.2744 2.66554
-12.3389 -13.4024 1.1806
-11.4896 -13.752 1.326
-17.4166 -10.8268 -1.45654
-16.5294 -11.9885 -0.983436
-13.4485 -13.1337 -3.39044
-14.4628 -12.6253 -2.07999
-16.9908 -11.8914 0.0510926
-14.334 -13.3527 -1.17728
-13.9095 -13.728 -1.58091
-16.1493 -13.1106 0.973282
-15.8826 -13.303 0.673816
-16.2401 -13.2156 1.47803
-16.0901 -13.3333 1.25684
-14.775 -13.4655 1.09026
-16.3784 -13.438 3.08443
-13.0905 -14.6929 -0.300382
-13.8741 -12.9398 -3.50538
-14.0446 -13.6704 -1.53304
-16.1236 -13.0583 0.595924
-14.2165 -13.6069 -1.12189
-14.9665 -13.4405 0.902702
-13.3225 -14.4148 -0.893422
-16.3871 -13.3544 3.14288
-12.1431 -13.5329 0.935157
-14.1565 -12.6816 -2.96801
-14.3261 -13.1793 -1.88266
-14.8511 -12.9828 -1.09806
-16.2624 -12.8161 0.317528
-13.6678 -13.873 -1.91419
-13.1199 -14.2172 -2.5795
-16.3503 -13.261 3.1997
-13.3763 -14.2207 -1.88803
-13.8274 -13.8989 -1.40824
-12.9187 -14.8031 -0.325951
-13.6661 -14.1703 -0.986037
-14.266 -12.4007 -2.90587
-13.6141 -13.6222 -3.18096
-16.8427 -11.5144 -1.39324
-16.8323 -11.5503 -1.36456
-16.4119 -12.3591 -0.290653
-14.3649 -12.4926 -2.82398
-14.6679 -12.5857 -2.03699
-14.2974 -12.8808 -2.06194
-16.582 -13.2316 2.44877
-14.997 -13.1904 -0.735804
-14.2416 -13.3469 -1.75624
-16.3047 -13.5041 2.90556
-16.357 -13.5414 2.82177
-13.5826 -13.3341 -2.62664
-13.8938 -13.588 -2.02722
-12.4612 -13.3522 1.27955
-13.3929 -13.9356 -4.4065
-13.6612 -14.0058 -1.17377
-13.9652 -14.1019 0.49822
-13.4903 -14.0791 -0.949853
-13.302 -14.2349 -3.79128
-13.2953 -14.2575 -3.75567
-13.2756 -14.2519 -3.78607
-13.1953 -14.6104 -2.07945
-13.1352 -14.6784 -1.98076
-13.0677 -14.7274 -0.246682
-16.2074 -11.8333 -2.32248
-16.1721 -12.7046 -0.185143
-14.3115 -12.8782 -1.99514
-16.1069 -13.1065 0.823863
-16.2277 -13.1355 1.19002
-15.0655 -13.1689 -0.195182
-16.553 -13.3625 2.98861
-13.6114 -13.333 -2.62056
-14.6682 -13.5642 0.981062
-14.2629 -13.5532 -1.07038
-13.9427 -13.553 -2.03244
-13.7259 -13.7015 -4.15593
-13.6686 -13.8251 -3.93436
-13.5571 -13.9662 -3.81133
-14.0569 -14.0568 -0.459647
-13.6562 -14.03 -1.1995
-13.5397 -14.1125 -1.68468
-13.4848 -14.1857 -0.95733
-13.3421 -14.2434 -1.79974
-13.3219 -14.2621 -1.77758
-13.349 -14.35 -1.55458
-13.3763 -14.3666 -1.39147
-13.3754 -14.452 -1.91244
-13.2493 -14.5091 -1.35187
-13.281 -14.6034 -1.13001
-13.1683 -14.6658 -1.1782
-13.0506 -14.7957 -1.81325
-15.9698 -12.0413 -2.3132
-16.3149 -12.3977 -0.539254
-16.5454 -12.6173 0.80826
-14.1631 -12.638 -2.98739
-14.1737 -12.6458 -2.92132
-14.0106 -12.7352 -3.02971
-14.4278 -12.8596 -1.89886
-15.7601 -12.9439 -0.490867
-15.7655 -12.9911 -0.50579
-16.3059 -13.1208 1.37011
-14.6851 -13.5648 1.07428
-14.0805 -13.8383 -0.91651
-13.5254 -13.9236 -4.00084
-13.6792 -14.0059 -1.21611
-13.2069 -14.0255 -4.71067
-13.3834 -14.2518 -1.70043
-13.2366 -14.57 -1.32861
-13.2309 -14.6429 -1.80255
-16.6288 -11.7714 -1.32805
-15.9672 -12.4253 -1.39151
-16.0989 -13.3902 1.56391
-16.3781 -13.4567 3.09021
-13.6515 -13.2855 -2.69035
-14.7117 -13.4364 0.884155
-14.7142 -13.4365 0.878968
-14.202 -13.4704 -1.50284
-14.4393 -13.6866 0.773299
-13.355 -14.4178 -1.40571
-13.2947 -14.4366 -1.46505
-13.266 -14.6272 -1.08917
-13.1765 -14.7396 -1.08529
-13.1136 -14.9472 -1.37889
-14.573 -12.2524 -2.42981
-16.6455 -13.2589 2.86161
-13.5788 -13.3308 -2.67942
-14.7593 -13.4483 1.06214
-13.548 -13.5211 -2.61047
-13.846 -13.971 -1.44777
-13.814 -14.149 0.291893
-13.415 -14.2014 -0.933268
-16.4132 -13.4531 2.96285
-14.0516 -13.3826 -2.16278
-15.0072 -13.2188 -0.113714
-16.4277 -13.3509 3.10687
