-12.4088 -15.7353 0.600241
-11.9564 -16.2539 0.624072
-13.2231 -14.8842 0.672659
-13.1852 -14.9086 0.670057
-14.7408 -13.6258 0.588551
-12.1853 -15.6334 0.820117
-13.2602 -14.8663 0.741967
-14.8057 -13.5759 0.702493
-14.9905 -13.4165 0.762548
-15.25 -13.1397 0.793113
-12.5072 -15.5496 1.00331
-15.3099 -13.0215 0.938601
-15.3199 -13.0644 0.983564
-13.6425 -14.6584 1.00804
-14.878 -13.5625 0.998197
-15.4124 -12.9815 1.0376
-14.8396 -13.698 1.0767
-14.8631 -13.6224 1.09953
-14.8917 -13.6118 1.08779
-14.9026 -13.6387 1.10233
-14.5604 -14.0689 1.12195
-14.5522 -14.0631 1.10812
-15.2614 -13.2177 1.18621
-14.8469 -13.7404 1.20513
-14.8841 -13.7447 1.21376
-14.6973 -13.9289 1.20735
-15.3316 -13.1789 1.25415
-15.0374 -13.4926 1.24636
-15.044 -13.4808 1.30079
-15.1938 -13.3203 1.33818
-15.3544 -13.1749 1.43958
-13.6087 -14.1633 1.5992
-13.576 -14.1963 1.62158
-13.3722 -14.4495 1.64807
-15.3556 -13.2315 1.57336
-15.1659 -13.4722 1.57457
-13.288 -14.5876 1.74473
-15.4095 -13.2419 1.8307
-15.4031 -13.2481 1.83502
-15.3359 -13.3414 1.82125
-15.4828 -13.1949 1.83186
-15.1206 -13.6083 1.84353
-15.3725 -13.3157 1.86287
-15.4991 -13.2116 1.98149
-15.0164 -13.9029 2.12111
-13.7117 -14.2854 2.37716
-13.7069 -14.2809 2.39907
-15.1492 -13.8428 2.46123
-15.1916 -13.6687 2.52356
-14.7503 -14.2024 2.58742
-11.6957 -14.0735 3.07589
-11.4561 -14.4039 3.28349
-10.735 -17.4107 -2.28932
-11.0561 -17.1573 -1.94215
-10.9941 -17.2959 -1.8238
-11.3392 -16.8528 -1.80881
-11.3484 -16.8427 -1.76217
-11.3202 -16.9086 -1.77398
-11.09 -17.17 -1.77477
-13.468 -14.3543 -1.61545
-11.121 -17.1579 -1.67404
-13.5698 -14.2963 -1.41393
-13.6039 -14.262 -1.41431
-13.5791 -14.2896 -1.4017
-13.8674 -13.9313 -1.38634
-14.6055 -13.0293 -1.31835
-14.2845 -13.4777 -1.34424
-11.3841 -15.953 -1.02522
-11.6254 -15.665 -0.956819
-14.0313 -13.7854 -1.24763
-12.27 -14.9692 -0.918934
-14.7716 -12.9451 -1.07989
-14.0804 -13.8014 -1.0929
-13.8687 -14.1169 -1.07477
-13.8886 -14.0423 -1.02306
-12.8413 -14.9031 -0.774913
-14.4478 -13.419 -0.891389
-13.8244 -14.1439 -0.915612
-13.8913 -14.0976 -0.841811
-13.9681 -14.0499 -0.78171
-14.1589 -13.8404 -0.783634
-13.9844 -14.0392 -0.761265
-14.2094 -13.7654 -0.749614
-12.9639 -14.7769 -0.625172
-14.3689 -13.5607 -0.737395
-11.3793 -17.1938 -0.806527
-14.3041 -13.6745 -0.703811
-14.5445 -13.3794 -0.709596
-14.3928 -13.564 -0.705394
-14.5317 -13.4073 -0.64175
-13.8785 -14.2233 -0.665242
-14.4504 -13.5371 -0.551472
-14.3841 -13.655 -0.553182
-11.569 -16.5747 -0.416541
-13.0426 -14.6169 -0.298489
-13.6292 -14.5304 -0.47403
-13.0473 -14.6081 -0.285963
-14.1364 -13.9853 -0.484867
-14.9073 -13.042 -0.425124
-11.6089 -16.6126 -0.249401
-11.5946 -16.5872 -0.249221
-11.5652 -16.6426 -0.239632
-11.6153 -16.6126 -0.219497
-12.3047 -15.5279 -0.0849463
-12.2948 -15.5573 -0.0915078
-14.5263 -13.5868 -0.196795
-13.8583 -14.4067 -0.219067
-13.9463 -14.3308 -0.201889
-13.9314 -14.3468 -0.19797
-15.1751 -12.8081 -0.13973
-15.1011 -12.8908 -0.149612
-13.9977 -14.2459 -0.171012
-14.3763 -13.8031 -0.13296
-14.9616 -13.0773 -0.0818757
-12.3815 -15.5696 0.0792146
-14.7463 -13.3876 0.0456483
-14.4374 -13.8106 0.0486504
-14.7302 -13.4245 0.0684291
-13.1555 -14.9667 0.180358
-14.4212 -13.8623 0.170185
-11.9659 -16.1082 0.316849
-12.4432 -15.5321 0.39325
-12.2183 -15.8057 0.367443
-13.4436 -14.6238 0.340319
-12.67 -15.3008 0.434734
-14.2925 -14.1175 0.404293
-14.7901 -13.5521 0.514055
-14.7939 -13.5326 0.525765
-11.9127 -16.3002 0.624883
-11.9165 -16.5854 0.550979
-14.8695 -13.4458 0.573396
-13.2025 -14.907 0.710535
-13.6429 -14.4821 0.698972
-13.1709 -15.1617 0.744806
-14.4451 -14.0305 0.768021
-14.4768 -14.0268 0.783213
-14.5544 -13.9255 0.799885
-14.614 -13.8677 0.798931
-12.1104 -15.9599 0.961588
-14.6308 -13.8598 0.857813
-12.5219 -15.5379 0.983752
-13.3773 -14.9438 0.916643
-12.8476 -15.3217 0.952563
-12.4178 -15.5695 1.01392
-12.5132 -15.5362 1.00872
-13.6891 -14.3071 1.07089
-13.6598 -14.6723 0.996753
-13.6511 -14.6936 1.04327
-13.7134 -14.3043 1.11453
-14.4246 -14.2156 1.13076
-14.8542 -13.7482 1.19835
-14.8858 -13.7096 1.22027
-14.6742 -13.9559 1.19934
-15.0323 -13.5229 1.28375
-15.0428 -13.5116 1.30381
-14.5942 -14.0575 1.32226
-12.8409 -15.038 1.55107
-12.1607 -15.8782 1.56607
-15.0822 -13.5337 1.42778
-12.3853 -15.6673 1.57709
-15.3865 -13.1437 1.47299
-13.5319 -14.2474 1.59678
-12.3197 -15.7042 1.5807
-11.9158 -16.1988 1.57836
-12.1816 -15.883 1.61056
-13.4325 -14.4071 1.64018
-14.9228 -13.7397 1.52433
-14.6705 -14.1071 1.50296
-15.1071 -13.5874 1.5362
-14.7354 -13.9655 1.54243
-14.9222 -13.8 1.54577
-15.4978 -13.0689 1.55539
-15.1593 -13.4876 1.56728
-15.3761 -13.2641 1.56851
-13.7539 -14.0098 1.71574
-12.8442 -15.0971 1.69705
-12.9278 -15.0113 1.71463
-13.4373 -14.3881 1.72899
-12.6367 -15.4052 1.73782
-13.7106 -14.088 1.76079
-15.2522 -13.3649 1.63624
-15.152 -13.5214 1.71216
-14.8673 -13.9251 1.72674
-14.9524 -13.801 1.76849
-14.7252 -14.0852 1.81481
-14.7656 -14.1018 1.88753
-14.942 -13.9236 1.95351
-15.4095 -13.351 1.99305
-14.942 -13.9281 1.95658
-15.1013 -13.701 1.98014
-11.3468 -14.4277 2.53806
-11.4444 -14.3481 2.55649
-10.8311 -15.0515 2.58837
-12.1497 -13.95 2.59773
-11.1507 -14.7397 2.67885
-11.1637 -14.7186 2.66943
-11.1452 -14.7019 2.7036
-12.0739 -13.9895 2.71183
-11.1569 -14.7553 2.76418
-11.1828 -14.7206 2.78357
-11.1989 -14.7387 2.77112
-11.4255 -14.4936 2.90158
-11.7821 -14.0007 3.09252
-12.4296 -13.9286 3.18841
-11.3466 -16.8889 -1.76176
-11.8813 -15.3197 -1.27122
-14.3123 -13.4176 -1.41529
-14.2842 -13.4166 -1.4298
-13.8645 -13.9717 -1.41585
-14.3197 -13.4368 -1.4082
-11.2454 -17.1081 -1.47068
-14.3079 -13.434 -1.37024
-13.5772 -14.2922 -1.38202
-13.4725 -14.4183 -1.31574
-14.4897 -13.2944 -1.14137
-14.2569 -13.563 -1.13364
-14.802 -12.9114 -1.07698
-14.7999 -12.9005 -1.05263
-14.7666 -12.9879 -1.05307
-14.0982 -13.8125 -1.07027
-14.7886 -12.9604 -1.0331
-14.4298 -13.4488 -0.862787
-14.3325 -13.5855 -0.810792
-14.9421 -12.8708 -0.760899
-13.8494 -14.2042 -0.756467
-12.0923 -15.6527 -0.518762
-14.5194 -13.4648 -0.542191
-14.3384 -13.6951 -0.542131
-14.6076 -13.4051 -0.511543
-14.3465 -13.7157 -0.515075
-14.0989 -13.9986 -0.457517
-12.895 -15.033 -0.353681
-14.1129 -14.0013 -0.432325
-13.1036 -14.8547 -0.174946
-13.8031 -14.4427 -0.239859
-14.5144 -13.6128 -0.209863
-14.3753 -13.8205 -0.199318
-14.7422 -13.3433 -0.143739
-14.8355 -13.2604 -0.111986
-14.3705 -13.8117 -0.0109037
-12.702 -15.1303 0.143506
-11.9196 -16.0581 0.143792
-15.178 -12.9137 0.0585824
-14.78 -13.4169 0.0913243
-13.2708 -14.8094 0.175275
-14.988 -13.1288 0.122136
-11.6834 -16.6961 0.163405
-12.4106 -15.5423 0.318342
-14.3138 -14.0126 0.237215
-13.1873 -15.0153 0.353794
-14.473 -13.8467 0.279568
-12.7095 -15.2467 0.427655
-11.9466 -16.1514 0.429723
-11.9732 -16.1146 0.428172
-12.7247 -15.2415 0.421312
-13.4749 -14.5945 0.416386
-14.9977 -13.2281 0.347978
-14.943 -13.3211 0.41557
-12.3973 -15.7573 0.587732
-12.379 -15.7623 0.582344
-13.2322 -14.9005 0.71226
-12.2834 -15.5969 0.804786
-14.638 -13.7587 0.66399
-13.7627 -14.3548 0.749018
-13.7222 -14.5208 0.80801
-14.4222 -14.0887 0.774667
-15.2179 -13.1252 0.798269
-12.4627 -15.5531 0.976565
-12.0131 -16.3266 0.962931
-12.5713 -15.5703 1.00817
-12.8455 -15.3768 1.11901
-15.0311 -13.4582 1.12116
-14.5965 -14.049 1.32166
-14.8925 -13.7391 1.36268
-14.979 -13.6601 1.36692
-14.5577 -14.1245 1.35353
-12.3608 -15.6353 1.51929
-15.0624 -13.5335 1.41809
-13.6577 -14.0517 1.57078
-13.7536 -13.9315 1.5924
-12.3436 -15.6871 1.58925
-12.7584 -15.1983 1.58914
-15.4957 -13.0379 1.51842
-13.1664 -14.7128 1.63295
-15.2116 -13.4161 1.53566
-15.337 -13.2806 1.56121
-15.4186 -13.1903 1.58376
-13.4497 -14.3681 1.73894
-12.0882 -16.0179 1.71809
-12.4912 -15.5358 1.73592
-13.7451 -14.039 1.755
-13.3007 -14.5244 1.73863
-13.3592 -14.5016 1.73161
-15.1653 -13.5212 1.72399
-15.0075 -13.7453 1.74926
-14.9951 -13.7497 1.76216
-12.6772 -15.2099 1.90895
-15.2564 -13.5096 1.95297
-15.1705 -13.6339 1.96379
-15.1787 -13.6118 1.96962
-14.916 -13.9476 1.96488
-15.0912 -13.7459 1.99416
-15.4104 -13.3803 2.03394
-15.2193 -13.6031 2.11675
-13.6473 -14.3206 2.28063
-14.8577 -14.1182 2.28106
-11.4937 -14.2918 2.55328
-11.401 -14.3562 2.58113
-11.3964 -14.3782 2.57524
-11.0944 -14.7857 2.6353
-11.3997 -14.4465 2.67871
-11.6746 -14.1152 2.70958
-14.7828 -14.1602 2.57596
-11.0248 -14.8937 2.72384
-11.4528 -14.3977 2.7441
-11.6946 -14.0585 2.79639
-11.1689 -14.7296 2.77083
-11.6681 -14.1125 2.79641
-11.2053 -14.7537 2.84789
-11.424 -14.4912 2.85943
-11.4076 -14.4914 2.86708
-11.4649 -14.4449 2.89885
-11.4437 -14.4766 2.89184
-11.4469 -14.4535 2.91338
-11.7769 -14.01 3.11114
-11.0958 -14.8643 3.2709
-11.1578 -14.7953 3.28002
-12.2496 -14.9357 -0.982508
-11.5251 -15.7759 -0.948074
-11.6014 -15.7928 -0.833448
-11.6323 -15.799 -0.828772
-11.7012 -15.7805 -0.779694
-12.3067 -15.3321 -0.623071
-14.6645 -13.1937 -0.759466
-12.1044 -15.6019 -0.517613
-14.8664 -13.0278 -0.424355
-13.8332 -14.3633 -0.290487
-14.1767 -14.0051 -0.224769
-12.4285 -15.4928 -0.0565317
-14.3935 -13.7829 -0.183739
-14.7539 -13.3252 -0.171616
-13.995 -14.2481 -0.146003
-14.7273 -13.3523 -0.121713
-13.3661 -14.4262 0.0333919
-15.1189 -12.958 0.0746432
-14.4807 -13.7256 0.0662721
-14.7999 -13.3778 0.0958258
-13.2356 -14.8128 0.217824
-15.0359 -13.1308 0.204307
-14.9886 -13.1658 0.219379
-14.6591 -13.627 0.231143
-13.4635 -14.5465 0.355371
-13.3427 -14.7721 0.33186
-13.3856 -14.7704 0.351018
-12.7841 -15.2246 0.483802
-11.729 -16.7374 0.486025
-14.9916 -13.2879 0.459188
-12.7133 -15.3339 0.555724
-12.368 -15.7498 0.567826
-12.1001 -16.112 0.689879
-13.3823 -14.8364 0.677379
-13.4906 -14.7625 0.722875
-13.4643 -14.783 0.741486
-14.6346 -13.7778 0.703731
-15.1939 -13.1758 0.845187
-12.736 -15.4572 0.957104
-12.3724 -15.6081 0.976035
-12.8155 -15.3542 0.959153
-12.5882 -15.5486 0.99904
-12.4101 -15.6229 1.03193
-14.9574 -13.5022 0.964674
-13.7005 -14.2973 1.08467
-12.0044 -16.3938 1.12094
-15.0288 -13.453 1.06406
-15.1795 -13.2937 1.10219
-14.5426 -14.0873 1.12284
-13.0211 -15.1976 1.25632
-13.8697 -14.0977 1.30689
-14.5908 -14.0657 1.26762
-14.8778 -13.7498 1.3293
-13.7645 -13.9339 1.58948
-15.2269 -13.3561 1.549
-15.0983 -13.5253 1.57121
-12.555 -15.4959 1.72437
-15.1902 -13.4941 1.73711
-15.1203 -13.6145 1.7337
-15.1986 -13.4953 1.78847
-15.4744 -13.269 1.9798
-15.2781 -13.4518 1.98965
-15 -13.89 2.01122
-15.1509 -13.7146 2.13925
-15.2842 -13.6041 2.23598
-10.9364 -14.9434 2.54255
-11.5034 -14.2408 2.55827
-13.7028 -14.333 2.5293
-13.6544 -14.3679 2.53572
-11.688 -14.0927 2.71298
-14.7838 -14.1366 2.6024
-11.2517 -14.6519 2.77457
-14.904 -13.9663 2.60889
-14.9709 -13.898 2.62888
-11.1684 -14.7691 2.88013
-13.9073 -14.0849 2.80775
-11.1877 -14.7453 2.89481
-11.284 -14.6351 3.27956
-11.3053 -16.9071 -1.75133
-14.2136 -13.5649 -1.2916
-13.4967 -14.3997 -1.30349
-11.6165 -15.6963 -0.964617
-12.8669 -14.421 -0.893689
-12.8845 -14.3313 -0.854342
-14.5047 -13.2665 -1.11311
-11.5204 -15.9021 -0.833476
-14.0664 -13.8597 -1.05795
-11.657 -15.8013 -0.77389
-13.0053 -14.4558 -0.715677
-12.9781 -14.7326 -0.645743
-12.2634 -15.4528 -0.464945
-14.4608 -13.5861 -0.50298
-13.7889 -14.4726 -0.202871
-14.747 -13.3516 -0.139537
-12.6102 -15.2903 0.193707
-12.7317 -15.174 0.234955
-11.9609 -16.0665 0.223743
-14.9455 -13.2521 0.237432
-15.0204 -13.1993 0.244294
-11.7575 -16.7087 0.490817
-13.2242 -14.8981 0.554395
-11.9991 -16.1845 0.578367
-13.2271 -14.9736 0.55707
-13.1924 -15.0416 0.590076
-12.8761 -15.1781 0.71328
-12.0188 -16.2139 0.686275
-14.4284 -14.001 0.620049
-11.8449 -16.7208 0.663786
-12.8375 -15.2189 0.74292
-12.1227 -16.1199 0.722604
-12.8266 -15.2473 0.786785
-12.1603 -15.62 0.929528
-14.3714 -14.1473 0.754076
-12.0432 -16.2125 0.839155
-12.2694 -15.7062 0.989932
-14.8249 -13.6771 1.03677
-15.0224 -13.4697 1.13503
-14.5904 -14.0415 1.22996
-14.9069 -13.7737 1.53165
-14.9807 -13.6916 1.56169
-15.2744 -13.3546 1.59071
-12.4649 -15.5727 1.72817
-13.4521 -14.3962 1.75917
-15.01 -13.7061 1.74868
-14.8949 -13.8592 1.7343
-15.0839 -13.638 1.83115
-15.3139 -13.3627 1.82725
-15.3383 -13.4251 1.98876
-15.3363 -13.4383 2.01236
-15.0886 -13.7939 2.17887
-11.3919 -14.4111 2.57712
-14.8376 -14.2035 2.4474
-13.7825 -14.273 2.59685
-11.7704 -14.0666 2.99313
-11.701 -14.0569 3.11307
-11.0431 -16.1197 -1.601
-11.5118 -15.7997 -1.2712
-12.6703 -14.7231 -1.06162
-14.8305 -12.812 -1.23458
-11.598 -15.8568 -0.8207
-11.9427 -15.7588 -0.708895
-13.6171 -14.5763 -0.538358
-14.4298 -13.6382 -0.495297
-12.3895 -15.51 -0.0788661
-14.0291 -14.2197 -0.137818
-12.3335 -15.5997 0.106333
-11.882 -16.1352 0.180726
-12.0079 -16.019 0.151588
-14.9385 -13.1753 0.124662
-13.2182 -14.9095 0.348178
-13.1979 -14.9624 0.367421
-14.3214 -14.0559 0.409074
-12.8657 -15.1843 0.670972
-11.8466 -16.6552 0.658933
-14.6728 -13.8014 0.841188
-14.8895 -13.5449 0.898245
-12.1498 -16.2189 1.08916
-13.3858 -14.4177 1.57593
-13.456 -14.3401 1.61973
-13.4761 -14.3441 1.69119
-13.0622 -14.8572 1.72528
-13.6917 -14.2375 2.12928
-15.3913 -13.364 2.02901
-13.6681 -14.2784 2.29329
-13.807 -14.2232 2.46701
-11.1352 -17.0873 -1.78836
-12.3265 -14.8266 -1.25179
-11.638 -15.6205 -1.00508
-12.2902 -14.9716 -0.906708
-11.5746 -15.7833 -0.883219
-12.9142 -14.6096 -0.702281
-11.9633 -15.7663 -0.610023
-13.5695 -14.5466 -0.745783
-11.6996 -16.6715 0.0989416
-14.4453 -13.9105 0.355009
-12.7412 -15.3288 0.656131
-11.967 -16.2737 0.663883
-12.2796 -15.5268 0.974828
-12.6997 -15.3537 1.40282
-14.5423 -14.1237 1.33599
-13.7776 -14.0141 1.81285
-15.28 -13.3543 1.77021
-14.8541 -14.0457 1.94533
-13.6867 -14.2073 2.08868
-13.8647 -14.1261 2.44075
-11.387 -14.4703 2.75757
-10.8199 -17.4238 -2.18053
-14.47 -13.8033 0.294125
-13.5169 -14.2619 1.66417
-15.0671 -13.6935 1.78668
-13.6499 -14.2887 2.24929
-11.4177 -14.4212 2.67296
-12.1555 -15.448 -0.847409
-12.9562 -14.5579 -0.77207
-12.1334 -15.5045 -0.726602
-11.3877 -16.5936 -0.36465
-14.677 -14.0507 1.44498
-11.457 -14.3608 2.7179
-11.8411 -14.0361 2.85771
-11.4071 -14.4551 2.87617
-11.9835 -15.7641 -0.511943
-13.0488 -14.6193 -0.382582
-14.3439 -14.0585 0.557298
-14.4921 -13.9537 0.659255
-14.6682 -13.9138 1.06394
-13.9187 -14.0371 2.67348
-12.2669 -15.2876 -0.514631
-12.3467 -15.1922 -0.350991
-12.5669 -15.6329 0.520754
-12.0135 -14.0646 2.97926
-12.3593 -15.7707 1.03745
-14.8812 -12.8388 -0.976299
-15.1599 -12.8697 -0.129848
-14.635 -13.2615 -0.738056
-14.1876 -13.5666 -1.40531
-14.5525 -13.3861 -0.709956
-14.0688 -13.7517 -1.26004
-14.4252 -13.5419 -0.740544
-14.9433 -13.1946 0.11402
-14.7316 -13.3629 -0.160001
-15.3125 -13.0484 0.969106
-13.8568 -14.0832 -1.1448
-13.8547 -14.08 -1.10647
-13.8361 -14.099 -1.10511
-13.599 -14.2588 -1.39489
-15.4211 -13.077 1.39111
-15.1873 -13.278 1.15358
-14.4243 -13.8184 0.0303599
-15.1822 -13.3218 1.17835
-14.8296 -13.5805 0.677671
-13.1682 -14.6626 -1.71486
-13.162 -14.6577 -1.70552
-13.8541 -14.2334 -0.708755
-13.8275 -14.2373 -0.700063
-13.1836 -14.676 -1.63811
-15.0382 -13.6153 1.52169
-13.8579 -14.4075 -0.207838
-13.6038 -14.5881 -0.511357
-15.0027 -13.7156 1.72871
-14.5375 -14.0352 1.1058
-12.9432 -14.8083 -0.656852
-13.4305 -14.5955 0.323603
-14.9193 -13.9408 1.9541
-13.538 -14.561 0.519097
-13.2062 -14.9111 0.676904
-13.2126 -14.892 0.686362
-11.5266 -15.8535 -0.938543
-13.7119 -14.2789 2.38359
-13.6349 -14.3622 2.29193
-12.1977 -15.5961 -0.0857904
-12.4447 -15.4834 0.202288
-12.1363 -15.6618 -0.173473
-12.2862 -15.5373 0.319652
-12.2586 -15.5395 0.343544
-12.2929 -15.5469 0.384582
-12.2719 -15.5372 0.391222
-12.2659 -15.5541 0.402705
-12.263 -15.5647 0.457671
-12.2491 -15.5686 0.431533
-12.2932 -15.7811 0.252221
-12.2456 -15.8105 0.305199
-13.5821 -14.3313 2.9408
-12.2267 -15.6912 0.442539
-12.257 -15.8 0.369182
-12.2037 -15.8042 0.38313
-12.2549 -15.6013 0.7573
-11.538 -16.502 -0.657914
-11.5784 -16.5511 -0.474871
-11.5432 -16.5462 -0.476976
-11.5732 -16.5624 -0.424731
-11.5549 -16.5555 -0.465029
-11.5615 -16.5633 -0.439115
-11.5797 -16.5466 -0.393019
-11.5656 -16.5732 -0.379348
-11.6158 -16.5713 -0.263286
-12.45 -15.6028 1.69802
-11.7047 -14.0735 3.05119
-11.9336 -16.6166 0.569803
-11.7642 -16.7029 0.364091
-14.8247 -12.8258 -1.1468
-14.6354 -12.999 -1.41618
-15.0591 -12.7296 -0.69954
-14.448 -13.4114 -0.895023
-14.9578 -13.0799 -0.0780979
-14.3923 -13.5548 -0.743105
-14.5397 -13.481 -0.377107
-14.74 -13.391 -0.0779125
-14.0228 -13.891 -1.00969
-15.3612 -13.0175 1.04228
-14.0739 -13.9022 -0.899564
-13.5317 -14.2302 -1.67284
-14.0495 -13.9063 -0.917091
-14.5162 -13.614 -0.22008
-13.8536 -14.0769 -1.17136
-13.7135 -14.1401 -1.27905
-13.9176 -14.0351 -0.987076
-13.7375 -14.1437 -1.22475
-15.2085 -13.1772 0.924941
-13.8147 -14.1036 -1.12833
-13.8445 -14.2285 -0.739528
-13.196 -14.6614 -1.61204
-13.2189 -14.6774 -1.58347
-15.0209 -13.4778 1.18339
-15.5097 -13.1949 1.98029
-14.3516 -13.9803 0.230481
-15.2708 -13.3695 1.6329
-15.0821 -13.4751 1.38646
-13.8211 -14.3755 -0.390043
-14.8604 -13.7462 1.20414
-13.879 -14.3688 -0.213272
-13.8344 -14.4303 -0.234991
-14.3656 -14.1178 0.743583
-12.4204 -14.7823 -0.949085
-15.171 -13.5884 1.95924
-15.0299 -13.7204 1.74683
-12.9399 -14.8251 -0.639943
-15.0962 -13.7102 1.96526
-15.3077 -13.5884 2.25654
-13.2595 -14.6451 -0.134856
-13.2085 -14.659 -0.160495
-14.8743 -13.9039 1.72345
-12.4337 -14.8597 -0.706638
-12.0476 -15.1391 -1.2946
-14.6749 -14.0597 1.51195
-14.6495 -14.0978 1.49407
-14.7837 -14.0136 1.79858
-13.7931 -14.2128 1.12491
-13.6551 -14.4722 0.687109
-13.6469 -14.4823 0.669129
-13.6575 -14.4874 0.707451
-15.013 -13.8938 2.17775
-13.7541 -13.9481 1.56235
-13.6106 -14.5267 0.655746
-13.2727 -14.797 0.179299
-14.7651 -14.1034 1.88655
-13.6431 -14.6956 1.04942
-13.1919 -14.878 0.659328
-13.1935 -14.8921 0.633233
-13.3292 -15.0569 0.94898
-13.2996 -15.0572 0.906045
-12.6987 -15.2439 0.414691
-13.6892 -14.267 2.30736
-11.6954 -15.7799 -0.63436
-12.2708 -15.5798 -0.0931994
-11.4122 -15.9373 -0.996197
-12.1709 -15.6493 -0.190543
-11.5305 -15.9171 -0.840385
-13.6276 -14.3646 2.35953
-13.633 -14.36 2.39441
-13.6081 -14.388 2.36334
-13.2002 -14.6863 1.76247
-13.6591 -14.3838 2.48082
-13.6381 -14.3959 2.47481
-12.6499 -15.4085 0.647487
-12.9359 -15.159 1.28225
-12.9861 -15.091 1.40457
-12.9867 -14.9384 1.7464
-12.9912 -14.9424 1.74761
-12.6142 -15.5283 0.984758
-12.763 -15.1888 1.57501
-12.4048 -15.5413 0.945298
-11.0915 -17.1613 -1.80085
-12.1177 -14.0062 2.73574
-12.4239 -15.5654 1.01024
-12.6857 -15.261 1.5722
-11.535 -16.5135 -0.62444
-11.0986 -17.2044 -1.66909
-12.2543 -15.5736 0.996081
-12.3554 -15.6713 0.99656
-12.0298 -16.0647 0.373257
-11.5919 -16.5625 -0.420885
-11.6098 -16.5896 -0.237561
-11.6034 -16.5928 -0.253057
-11.3991 -14.3607 2.57825
-11.4266 -14.3893 2.67301
-11.5657 -14.3305 2.90859
-11.3812 -14.4468 2.68602
-11.2568 -14.6539 2.74818
-10.8883 -15.0361 2.54768
-14.802 -12.7873 -1.35627
-14.7821 -12.9317 -1.06102
-14.5861 -13.1797 -0.953713
-14.7278 -13.1596 -0.70583
-15.2131 -12.8615 0.0897503
-14.0597 -13.773 -1.22783
-14.3661 -13.6578 -0.57969
-14.4009 -13.6632 -0.502652
-14.0547 -13.9218 -0.87931
-13.8051 -14.1088 -1.2219
-13.5398 -14.2502 -1.5795
-15.1721 -13.1757 0.856304
-14.653 -13.5765 0.125645
-13.8199 -14.1496 -1.051
-15.549 -13 1.54987
-15.1698 -13.3321 1.17924
-13.1471 -14.686 -1.73289
-14.6538 -13.758 0.684754
-13.8175 -14.3615 -0.490196
-14.6087 -13.8246 0.744182
-13.8009 -14.3951 -0.439681
-14.7053 -13.8399 1.00876
-14.3076 -14.1257 0.400756
-14.3003 -14.1068 0.405801
-14.3324 -14.1212 0.618504
-14.5194 -14.0085 0.925503
-12.3938 -14.7752 -0.989031
-14.5873 -14.0186 1.16935
-14.963 -13.7897 1.76056
-12.3816 -14.8746 -0.694233
-14.5759 -14.1379 1.46414
-14.9907 -13.9072 2.07525
-13.0167 -14.9687 -0.197096
-11.4793 -15.4454 -1.48897
-15.068 -13.7947 2.61347
-13.2107 -14.9444 0.345018
-13.501 -14.2667 1.60891
-12.4213 -15.3219 -0.291247
-11.6356 -15.6759 -0.954104
-13.0789 -15.1848 0.537452
-12.7073 -15.2141 0.369141
-12.8346 -15.205 0.696726
-11.5202 -15.8876 -0.911623
-13.6684 -14.3324 2.32238
-13.7022 -14.3373 2.50812
-13.6514 -14.3597 2.48923
-12.4122 -15.5532 0.337108
-11.3678 -16.8179 -1.77926
-11.1989 -16.948 -1.93655
-10.9761 -17.1888 -2.08662
-12.4084 -15.7704 0.606886
-10.9159 -17.2363 -2.06108
-11.0551 -17.1755 -1.78051
-12.398 -15.613 1.02508
-10.97 -17.2967 -1.79558
-12.1047 -16.0449 0.929283
-11.4702 -14.2635 2.57378
-11.4053 -14.3717 2.56571
-11.4069 -14.4081 2.5342
-11.4062 -14.399 2.68156
-11.4438 -14.3995 2.7889
-11.1378 -14.6948 2.57969
-11.1473 -14.7446 2.73554
-10.9213 -14.9632 2.53564
-14.6867 -13.194 -0.760378
-13.5976 -14.2322 -1.45594
-13.8096 -14.121 -1.13633
-13.1811 -14.6342 -1.71936
-15.0028 -13.4672 1.09792
-13.2195 -14.6891 -1.44753
-14.5165 -13.8608 0.450653
-13.1606 -14.7918 -1.41973
-15.0807 -13.4835 1.44149
-13.8367 -14.3808 -0.334313
-15.4122 -13.395 2.04928
-14.4497 -14.0065 0.723753
-13.5301 -14.0192 0.410505
-14.3922 -14.1343 0.7732
-14.8551 -13.8833 1.62549
-12.3492 -14.8784 -0.896792
-12.2706 -14.9475 -0.964958
-14.5761 -14.0938 1.27664
-12.4202 -14.8622 -0.769884
-12.3936 -14.8459 -0.689041
-13.8108 -14.194 1.14064
-14.7315 -14.1566 1.93063
-12.6156 -14.9207 -0.0814219
-12.2843 -15.3333 -0.709725
-14.927 -13.9476 2.61038
-14.8959 -13.9655 2.59303
-14.8032 -14.2073 2.35128
-13.4533 -14.3754 1.68732
-13.1728 -15.0243 0.628904
-11.855 -15.7831 -0.812214
-11.6248 -15.7941 -0.816825
-11.5326 -15.809 -0.907621
-13.2247 -15.1912 0.951749
-13.7662 -14.2614 2.59669
-12.4482 -13.973 2.73703
-12.686 -15.5243 0.9921
-11.9128 -16.0198 0.121722
-11.9564 -14.0094 2.78923
-11.9495 -16.218 0.575364
-12.2319 -15.902 1.7246
-14.9528 -12.8618 -0.729993
-14.5834 -13.3978 -0.516213
-14.5347 -13.4089 -0.531797
-14.9541 -13.2342 0.22418
-15.2522 -13.2255 1.20542
-14.4118 -13.8391 0.00879267
-15.2828 -13.3493 1.5908
-14.3289 -14.02 0.289652
-14.6 -13.8397 0.791824
-15.4277 -13.3501 2.00793
-14.8836 -13.7741 1.33888
-15.1461 -13.6994 2.12187
-14.7787 -14.0871 1.87981
-14.8036 -14.0814 1.94354
-14.7575 -14.1171 1.88999
-12.6813 -14.9009 -0.0837221
-11.7622 -15.5198 -1.24781
-12.2616 -15.443 -0.465905
-11.1979 -15.9555 -1.54232
-11.6347 -15.7374 -0.885872
-13.8121 -14.2151 2.46645
-11.5456 -15.8854 -0.839016
-11.5114 -15.9152 -0.85499
-11.9074 -15.8124 -0.0622619
-12.8421 -15.3987 1.11238
-12.4994 -15.5547 0.993212
-12.2303 -15.5864 0.774875
-11.922 -14.0348 2.79208
-12.1034 -16.1722 0.849776
-12.0799 -16.3128 1.12053
-14.4023 -13.8259 0.0624099
-12.9426 -14.4488 -0.871305
-13.8329 -14.421 -0.256104
-12.297 -15.0087 -0.826178
-14.7283 -14.0468 1.66166
-14.8481 -14.0576 1.98941
-13.0199 -15.0878 0.206941
-12.6721 -15.1718 0.217404
-13.2555 -14.9876 0.792274
-13.6823 -14.2197 2.11577
-13.9283 -14.0401 2.56663
-13.7975 -14.1896 2.43206
-11.0531 -16.1277 -1.60192
-13.832 -14.1926 2.47926
-13.6818 -14.268 2.28077
-12.8657 -15.1728 0.686491
-12.6482 -15.5064 1.07774
-12.0173 -15.9945 0.17067
-11.0576 -17.1785 -1.80076
-12.7016 -15.4691 1.26699
-11.1824 -16.4784 -0.863786
-12.2597 -15.5901 0.96027
-11.8547 -16.1923 0.227789
-12.1007 -16.0762 0.662062
-14.8841 -12.9161 -0.781934
-14.5453 -13.8394 0.468464
-12.9512 -14.549 -0.686159
-12.6854 -14.7438 -1.03882
-13.6922 -14.2111 0.531672
-14.9466 -13.9027 2.00257
-11.6191 -15.7506 -0.896867
-12.2427 -15.5822 -0.127977
-12.2151 -15.6139 -0.201169
-12.9778 -15.1143 1.47041
-12.251 -15.5761 0.861965
-14.6679 -13.0271 -1.11131
-15.0904 -12.9472 -0.179399
-14.6791 -14.0415 1.44251
-13.7901 -14.2189 1.12525
-11.1331 -15.9675 -1.55145
-11.5546 -15.7632 -0.900346
-12.382 -15.6399 -0.281949
-13.652 -14.2976 2.25355
-12.2622 -15.6701 0.102353
-12.0028 -15.8625 -0.246819
-11.471 -14.3806 2.69866
-14.4726 -13.9942 0.631715
-13.1966 -14.4999 -0.216216
-13.5359 -14.2628 1.66385
-13.8928 -14.0604 2.38675
-11.6961 -16.6025 -0.118115
-14.3719 -14.0688 0.688088
-13.5467 -14.3061 0.52885
-13.7718 -14.1896 1.01513
-13.8165 -14.1896 1.16679
-11.002 -14.789 3.2753
-13.3198 -14.8969 0.769965
-13.8981 -14.0398 2.49286
-12.503 -15.0992 -0.271241
-11.6008 -15.8846 -0.695384
-11.6805 -15.9375 -0.404016
-11.6589 -14.0341 2.57971
-11.8614 -14.0121 2.99488
-12.3952 -15.7252 1.0718
-15.2161 -13.6445 2.70204
-15.1922 -12.8692 0.0574269
-15.1926 -13.3079 1.11953
-15.1803 -13.313 1.17766
-15.0618 -13.5183 1.34592
-14.8941 -13.6333 1.11447
-14.8361 -13.6978 1.08156
-14.7494 -13.127 -0.698145
-14.7314 -13.1267 -0.714126
-14.7337 -13.3474 -0.174694
-14.6527 -13.2355 -0.73463
-14.65 -13.233 -0.743513
-14.548 -13.3893 -0.699021
-14.575 -14.0393 1.16559
-14.4174 -13.6054 -0.483737
-14.4097 -13.5347 -0.744193
-14.287 -13.4501 -1.42077
-14.2106 -13.4901 -1.43479
-14.1862 -13.5707 -1.4316
-13.9925 -14.2546 -0.162431
-13.9553 -14.0213 -0.967776
-13.9138 -14.033 -1.00126
-13.2815 -14.6051 1.70724
-11.6997 -14.0877 3.0456
-13.8567 -14.1266 -0.928109
-13.8627 -14.2059 -0.691652
-13.8181 -13.9266 -1.59067
-13.8536 -14.0515 -1.13815
-13.8661 -14.0826 -1.11775
-13.6994 -14.0727 -1.56705
-13.4875 -14.5808 0.463491
-13.7003 -14.1914 -1.26219
-13.4289 -14.5951 0.322739
-13.4253 -14.573 0.256002
-13.4214 -14.5796 0.215231
-11.4858 -14.3882 3.31647
-13.2534 -14.8636 0.701576
-13.2107 -14.871 0.647006
-13.2269 -14.6478 -0.137092
-13.4591 -14.3835 -1.53013
-13.1968 -14.897 0.669489
-13.2415 -14.8873 0.264564
-13.1156 -14.7869 -0.206825
-13.0464 -14.8171 -0.376784
-13.2261 -14.7083 -1.44651
-13.1788 -14.6758 -1.74665
-13.1596 -14.6821 -1.68644
-10.937 -14.5318 3.3958
-12.3656 -14.8169 -0.954237
-12.2704 -15.5706 0.784021
-12.2822 -15.5598 0.421748
-12.2681 -15.5661 0.442598
-12.2663 -15.5432 0.332326
-12.2486 -15.5538 0.420107
-12.263 -15.57 0.439244
-12.223 -15.6525 0.480871
-12.2491 -15.5756 -0.0967702
-12.3014 -15.7658 0.255306
-12.2649 -15.7744 0.348849
-12.0393 -15.1445 -1.30527
-12.1221 -15.9548 0.973923
-11.9508 -16.2072 1.70415
-11.6194 -15.7224 -0.903319
-11.7735 -16.7018 0.515355
-11.6911 -16.3921 -0.372424
-11.6203 -16.5866 -0.257026
-11.5957 -16.5395 -0.387318
-11.5932 -16.5285 -0.440883
-11.575 -16.5479 -0.466562
-11.566 -16.558 -0.39581
-11.5708 -16.5488 -0.453713
-11.3836 -16.8093 -1.8176
-11.1672 -17.0215 -1.81394
-11.1544 -16.9508 -2.03052
-11.0226 -17.128 -2.02508
-15.5808 -13.0824 1.92528
-15.1773 -12.8938 0.0453845
-15.2047 -13.6003 2.0791
-15.1803 -13.2005 0.862548
-15.1176 -13.6959 1.98973
-15.0425 -13.4984 1.29459
-15.0814 -13.5834 1.51178
-15.0086 -12.9416 -0.328014
-14.9368 -12.8292 -0.771677
-14.847 -12.8334 -1.17398
-14.8831 -13.6227 1.09662
-14.8726 -13.9257 1.7203
-14.7904 -13.2661 -0.117231
-14.8098 -13.5822 0.704876
-14.8039 -13.5309 0.501182
-14.731 -13.1508 -0.697354
-14.7851 -14.0323 1.81854
-14.6844 -13.8215 0.924802
-14.6338 -13.6994 0.412196
-14.661 -14.1097 1.50597
-14.5845 -14.1432 1.48081
-14.4698 -13.2979 -1.05052
-14.4377 -13.397 -0.908546
-14.4433 -14.054 0.771512
-14.3287 -13.9656 0.234715
-13.647 -14.3709 2.48483
-13.646 -14.3664 2.40254
-13.6246 -14.3919 2.3724
-13.6137 -14.3758 2.29868
-14.3035 -14.1254 0.394348
-13.587 -14.1577 1.62737
-14.1029 -14.107 -0.231493
-13.7136 -14.3044 1.13404
-14.0556 -13.9083 -0.886094
-12.144 -13.9727 2.59904
-14.0355 -13.8996 -0.986464
-13.986 -14.0425 -0.770127
-11.7876 -14.0778 3.29007
-11.7453 -14.0024 3.09408
-13.9464 -14.0313 -0.970545
-13.8711 -13.9616 -1.42106
-13.8455 -14.0933 -1.15951
-13.833 -14.3414 -0.493256
-13.8267 -14.4214 -0.230319
-13.201 -14.6983 1.75219
-11.6952 -14.1349 2.76564
-13.7268 -14.1275 -1.30862
-13.4841 -14.6004 0.451856
-13.4507 -14.6087 0.397605
-13.4217 -14.5869 0.29164
-13.3948 -14.5088 0.0855489
-13.6492 -14.4556 -0.7529
-13.6403 -14.5636 -0.475648
-13.565 -14.2499 -1.5575
-13.0063 -14.874 1.61633
-11.4899 -14.3951 3.29357
-13.2865 -15.074 0.912628
-12.97 -15.0977 1.39636
-11.4336 -14.3541 2.57609
-11.4144 -14.3749 2.57228
-11.4056 -14.4971 2.86665
-12.7535 -15.2046 1.61401
-12.8175 -15.1802 0.417876
-12.8245 -15.1943 0.466796
-12.8428 -14.8802 -0.775837
-11.1889 -14.7204 2.74988
-12.4282 -14.7678 -0.933643
-12.442 -15.596 1.71399
-12.5988 -15.5386 0.964814
-12.3642 -15.7434 0.556795
-12.2949 -15.5571 -0.0788118
-12.2517 -15.5833 -0.108868
-10.875 -15.0463 2.54236
-12.2867 -15.7533 0.227635
-11.9367 -16.1779 1.60675
-11.9169 -16.2141 1.55858
-11.9861 -16.0485 0.225865
-11.647 -15.6567 -0.970029
-11.9349 -16.5714 0.569236
-11.5924 -15.7058 -1.28152
-11.7476 -16.688 0.537789
-11.436 -15.93 -0.983063
-11.6325 -16.5931 -0.212735
-11.6057 -16.5912 -0.239655
-11.6243 -16.5847 -0.241328
-11.5979 -16.5498 -0.418654
-11.5856 -16.6051 -0.268144
-11.5835 -16.5584 -0.416868
-11.5371 -16.5199 -0.616652
-11.3088 -16.5196 -0.742414
-11.0191 -17.2775 -1.81825
-15.5633 -13.1175 1.91499
-15.3879 -13.3679 1.99688
-15.1937 -13.3029 1.34884
-15.1565 -12.8523 -0.156339
-15.175 -13.2863 1.15974
-14.9875 -12.6436 -1.20622
-15.0213 -13.2245 0.368993
-14.9962 -13.8703 1.95444
-14.9461 -13.4748 0.829395
-14.9397 -13.262 0.179056
-14.9204 -13.2287 0.138684
-14.7523 -14.1668 2.60599
-14.7435 -13.3411 -0.108775
-14.5034 -13.5871 -0.223034
-14.4725 -13.2688 -1.134
-14.4231 -13.3986 -0.870273
-13.7186 -14.3356 2.51114
-13.6833 -14.3743 2.48841
-14.1171 -14.004 -0.465123
-13.434 -14.3624 1.71726
-13.3889 -14.4664 1.75538
-13.3379 -14.5694 1.7892
-13.8559 -14.0357 -1.1532
-13.8289 -14.3645 -0.321033
-13.7836 -14.4166 -0.452912
-11.5956 -14.2149 2.74857
-13.3169 -14.589 -0.043111
-12.9991 -14.9525 1.71029
-12.9255 -15.0183 1.71435
-11.4784 -14.2595 2.56708
-13.2499 -14.8004 0.168983
-11.4321 -14.3709 2.66007
-13.1442 -15.1705 0.719416
-13.0297 -15.1271 0.203633
-12.9458 -14.8992 -0.537922
-12.7221 -15.2224 0.352509
-11.1785 -14.7648 2.86191
-11.1593 -14.7537 2.76885
-11.141 -14.7087 2.59003
-12.601 -15.5653 1.00426
-12.389 -14.8587 -0.673117
-12.561 -15.5209 0.992948
-12.5208 -15.5614 0.965894
-12.3035 -14.8798 -0.939888
-12.4104 -15.5796 0.994416
-12.31 -15.5314 0.924585
-12.4211 -15.5414 0.302442
-12.1851 -15.8671 1.59063
-12.3577 -15.6533 -0.294054
-12.0702 -16.2415 0.972111
-11.9737 -16.0993 0.30337
-11.9695 -16.3651 0.860285
-11.7136 -15.7623 -0.66945
-11.6477 -15.7969 -0.723085
-11.6008 -15.7527 -0.900938
-11.9137 -16.6389 0.697304
-11.5137 -15.8175 -0.922737
-11.1416 -17.0156 -1.92217
-10.9972 -17.173 -2.09771
-10.9032 -17.2446 -2.05241
-15.4061 -13.3719 2.03725
-15.1519 -13.333 1.10643
-15.0382 -13.4084 1.03187
-15.0037 -12.9253 -0.355353
-15.0116 -13.2128 0.378256
-14.9304 -13.0496 -0.291971
-14.8183 -14.1837 2.35462
-14.7562 -14.1113 1.90664
-14.6459 -13.2049 -0.744527
-13.9553 -14.0631 2.60752
-14.6092 -13.8315 0.783321
-14.6098 -14.0548 1.26036
-14.5131 -13.545 -0.361375
-14.5059 -13.5278 -0.447519
-14.5209 -13.777 0.255128
-14.5376 -14.138 1.22984
-14.4443 -13.4266 -0.823848
-14.4409 -13.3959 -0.923853
-14.4754 -13.8718 0.363022
-14.3514 -13.8008 -0.106729
-14.352 -13.6287 -0.705424
-14.3345 -14.0873 0.602786
-14.0393 -13.9384 -0.779092
-13.845 -13.9485 -1.45173
-13.8244 -14.4293 -0.251925
-13.094 -14.6627 -0.290207
-11.4469 -14.4067 2.71565
-12.9835 -14.4958 -0.68556
-13.174 -14.9268 0.21191
-13.1585 -14.9921 0.338792
-12.6621 -14.9048 -0.0619554
-12.3915 -14.856 -0.681368
-12.3908 -15.6179 1.02287
-12.3726 -15.656 1.00974
-12.0339 -16.0023 0.19031
-12.0079 -16.0423 0.236954
-11.877 -15.821 -0.065586
-11.932 -16.0407 0.146985
-11.9337 -16.2139 0.421592
-11.6521 -15.7498 -0.731743
-11.5945 -15.7764 -0.900053
-11.4107 -15.9216 -1.15
-10.7304 -17.3616 -2.39585
-15.3695 -13.3426 1.82983
-15.2608 -12.7849 0.0145825
-15.2154 -13.4327 1.6958
-14.9176 -13.9359 2.61552
-14.8273 -12.8346 -1.17947
-14.875 -13.7441 1.29244
-14.7971 -14.1266 2.57709
-13.9737 -13.9812 2.82022
-14.7466 -13.4344 0.100894
-14.7537 -13.3445 -0.165654
-14.78 -14.1134 1.87729
-14.5819 -13.1822 -0.97389
-14.5618 -13.8107 0.476941
-13.8277 -14.1596 2.42063
-14.542 -14.1255 1.2676
-14.4725 -13.2528 -1.2427
-13.7817 -14.1252 2.20256
-14.4482 -14.0311 0.758106
-14.4206 -13.996 0.603577
-13.6762 -14.241 2.10852
-14.3767 -14.2134 0.93434
-13.8287 -14.4128 -0.230947
-13.6684 -14.3316 -1.00389
-13.0242 -14.4763 -0.729921
-12.8976 -14.3517 -0.889113
-11.3904 -14.3841 2.54516
-12.6381 -15.3531 0.439506
-12.6185 -15.3803 0.408281
-12.4547 -14.8847 -0.772573
-12.301 -14.9338 -0.893348
-12.2792 -14.911 -0.980542
-12.2278 -14.9728 -0.93338
-12.0976 -16.1258 0.733986
-12.0025 -16.0086 0.182827
-11.9774 -16.0008 0.12947
-11.743 -15.5267 -1.26976
-11.8538 -15.7845 -0.787065
-11.8763 -16.2659 0.477711
-11.6907 -15.7723 -0.650498
-11.8561 -16.2812 0.446242
-11.4787 -15.4642 -1.48177
-11.572 -15.8072 -0.914029
-11.1065 -16.4695 -0.929357
-14.8024 -13.5863 0.620354
-14.7377 -14.2826 2.5035
-14.6472 -14.0219 1.23733
-13.8341 -14.089 2.29458
-14.5584 -14.1238 1.32384
-13.8283 -14.1973 2.49182
-13.8113 -14.2097 2.47946
-14.3145 -14.2696 0.928029
-13.1919 -15.2257 0.979762
-12.7233 -15.4601 0.952753
-12.2674 -15.7798 0.191773
-12.3286 -15.6971 -0.324244
-12.0105 -15.6673 -0.674594
-12.0408 -16.2559 0.947791
-11.994 -16.1289 0.341427
-12.0039 -16.6235 0.924607
-11.5625 -15.7507 -1.26414
-10.7317 -17.3864 -2.35547
-14.8532 -14.0467 1.93267
-11.4418 -14.3624 2.6852
-13.0345 -14.6374 -0.328948
-12.8199 -15.128 0.477038
-12.35 -15.7852 0.551838
-12.2608 -15.4941 -0.432857
-11.9464 -16.2418 0.653401
-11.9178 -16.1253 0.177697
-11.4649 -15.879 -1.02719
-11.7123 -16.7138 0.221182
-11.1443 -17.0701 -1.74919
-14.6374 -14.0817 1.43794
-13.4747 -14.0936 0.298097
-12.9712 -14.943 -0.312705
-12.048 -15.4808 -0.823625
-11.9971 -15.8577 -0.239766
-11.9251 -15.9632 -0.0520625
-11.6714 -16.7138 0.167568
-10.7779 -17.3655 -2.25387
-10.667 -17.4476 -2.32858
-14.752 -12.9589 -1.17033
-14.6912 -14.0196 1.44798
-14.4864 -13.8274 0.31195
-13.3954 -14.9328 0.848095
-12.465 -15.5123 0.28654
-12.2753 -15.639 0.157536
-12.1355 -15.4248 -0.832152
-14.4045 -14.0815 0.666655
-13.8272 -14.1876 1.13097
-13.7813 -14.3268 0.701042
-11.6783 -14.0294 2.60187
-12.9864 -14.5668 -0.719931
-11.6676 -14.0349 2.45534
-11.9936 -15.6729 -0.688702
-11.7145 -14.1387 2.92122
-15.3944 -13.4476 2.26172
-15.4791 -13.1642 1.8307
-15.4171 -13.2453 1.82892
-15.3351 -13.3463 1.81765
-15.0143 -13.9079 2.13458
-11.6817 -14.0969 3.04923
-15.1701 -13.5837 1.84197
-13.661 -14.3417 2.31478
-15.1779 -13.3323 1.33364
-14.8861 -13.826 1.56075
-14.8643 -13.8475 1.55187
-15.3187 -13.0607 0.946816
-13.7968 -13.9961 1.79445
-14.8648 -13.7183 1.18604
-15.2442 -13.1087 0.821944
-14.5701 -14.0573 1.13986
-13.6079 -14.345 1.40928
-14.8979 -13.4266 0.541789
-14.6852 -13.6861 0.679599
-14.6989 -13.6657 0.541479
-15.1941 -12.8537 0.0457745
-15.1889 -12.8901 0.0632386
-15.1977 -12.8766 0.0545738
-15.1711 -12.8824 0.0538937
-14.9538 -13.2153 0.102266
-15.0816 -12.9801 -0.0192511
-14.7854 -13.4429 0.22211
-15.1535 -12.8685 -0.130406
-13.7964 -14.3417 0.814279
-15.0152 -13.0161 -0.13304
-14.3434 -14.068 0.42594
-14.83 -13.2518 -0.0650607
-14.5385 -13.6731 0.085799
-14.3229 -14.0548 0.271919
-14.9758 -12.9664 -0.329408
-14.7383 -13.346 -0.144767
-15.016 -12.8752 -0.459471
-14.98 -12.9181 -0.476796
-14.916 -12.9769 -0.501269
-14.7573 -13.1674 -0.495396
-13.2398 -14.8542 0.665166
-13.2216 -14.9152 0.692936
-11.9151 -16.1969 1.58754
-14.0722 -14.1897 -0.0901719
-13.4324 -14.5809 0.32158
-14.4317 -13.5576 -0.504488
-12.4971 -15.5604 1.00607
-14.4295 -13.5863 -0.489896
-13.4315 -14.5728 0.295027
-12.4342 -15.5487 0.97764
-14.6441 -13.2329 -0.735288
-14.8663 -12.837 -0.979391
-14.375 -13.7047 -0.518963
-14.5462 -13.3924 -0.708614
-14.2909 -13.7732 -0.4817
-14.2975 -13.7578 -0.485622
-14.5228 -13.3695 -0.707619
-13.9576 -14.3155 -0.196213
-14.5367 -13.365 -0.714638
-14.3692 -13.6341 -0.586018
-14.2413 -13.8355 -0.509831
-13.8481 -14.4071 -0.188738
-13.8705 -14.4043 -0.213599
-14.4217 -13.5248 -0.741958
-13.8297 -14.4414 -0.218199
-12.151 -15.9473 0.967835
-14.6166 -13.194 -1.03606
-14.2696 -13.743 -0.745239
-14.3122 -13.5851 -0.885739
-14.0724 -13.9279 -0.76904
-14.0401 -13.9356 -0.761452
-13.8668 -14.1975 -0.697101
-13.6034 -14.5868 -0.521378
-13.9631 -14.0299 -0.88745
-13.0781 -14.7623 -0.256562
-13.7726 -14.2735 -0.801771
-14.1232 -13.7192 -1.13649
-13.6809 -14.4487 -0.746412
-12.2189 -15.8168 0.400537
-13.8351 -14.1531 -0.919061
-14.2441 -13.4891 -1.34004
-14.2618 -13.4754 -1.36015
-14.2336 -13.5178 -1.38073
-14.2786 -13.443 -1.43893
-14.0709 -13.7484 -1.25784
-14.0534 -13.7563 -1.26583
-14.1879 -13.5673 -1.40562
-13.8353 -14.0761 -1.12964
-13.8487 -14.0711 -1.18203
-11.9828 -16.1143 0.316113
-12.951 -14.8077 -0.654007
-13.7189 -14.1621 -1.29164
-13.6199 -14.2279 -1.32754
-13.6705 -14.1526 -1.41327
-13.615 -14.2492 -1.41188
-13.5138 -14.3711 -1.39048
-13.6894 -14.0693 -1.58071
-13.3514 -14.5411 -1.38246
-13.3377 -14.5562 -1.39645
-11.5813 -16.5981 -0.268596
-11.5486 -16.6371 -0.242476
-13.1808 -14.6964 -1.65513
-13.2083 -14.6206 -1.74161
-11.5869 -16.545 -0.385936
-11.5896 -16.5462 -0.446451
-11.5754 -16.5674 -0.44394
-11.564 -16.5431 -0.462719
-11.5716 -16.5545 -0.456513
-11.9558 -15.6503 -0.843416
-11.5377 -15.8329 -0.914493
-11.3237 -16.9513 -1.65806
-11.3082 -16.9442 -1.68545
-11.3252 -16.9332 -1.68226
-11.084 -17.1465 -1.78634
-11.1568 -17.0347 -1.87559
-11.0032 -17.3061 -1.8174
-10.9574 -17.2931 -1.80715
-11.1679 -16.9725 -2.00305
-11.7941 -14.0437 3.28298
-15.0766 -13.8888 2.46166
-15.3046 -13.5913 2.28988
-12.3328 -13.9532 3.01648
-15.1687 -13.6528 2.10723
-15.334 -13.3672 1.87526
-15.027 -13.8616 1.96444
-15.2635 -13.3598 1.64057
-12.1045 -13.9911 2.75405
-13.7017 -14.2705 2.35974
-15.0199 -13.7127 1.75636
-13.6559 -14.3598 2.39868
-15.1543 -13.4794 1.56174
-12.1413 -13.9616 2.59948
-13.6308 -14.3793 2.29375
-14.7794 -14.035 1.82189
-13.6335 -14.3313 2.26593
-14.7228 -14.0837 1.8317
-14.8673 -13.9031 1.72909
-15.0613 -13.6127 1.52777
-15.0619 -13.569 1.50434
-11.4716 -14.421 2.90492
-14.7567 -13.9433 1.52125
-14.7586 -13.9789 1.52449
-15.0006 -13.5367 1.24309
-14.7071 -14.0497 1.53784
-14.6596 -14.1032 1.49439
-11.4069 -14.3729 2.67216
-11.4341 -14.403 2.65762
-13.7739 -14.0085 1.72946
-14.6174 -14.1543 1.48314
-14.8604 -13.7377 1.21795
-15.2065 -13.1849 0.901762
-13.6869 -14.124 1.73846
-14.8373 -13.745 1.19073
-11.4185 -14.3494 2.55728
-11.1923 -14.7432 2.78192
-11.1779 -14.7145 2.77278
-11.4294 -14.3587 2.5647
-14.5917 -14.0613 1.31379
-14.8405 -13.6859 1.07541
-13.6013 -14.1691 1.62814
-14.5625 -14.0111 1.15872
-14.7226 -13.8164 0.971376
-13.4521 -14.3615 1.64437
-14.7018 -13.8283 0.969432
-14.7267 -13.7673 0.937129
-14.5247 -14.1119 1.13437
-14.7582 -13.7117 0.894106
-13.281 -14.6048 1.73398
-13.2788 -14.5544 1.55887
-14.6077 -13.8573 0.809729
-14.5617 -13.9141 0.815796
-14.3784 -14.1115 0.764029
-15.129 -12.8566 -0.154483
-14.5499 -13.8656 0.431743
-13.6481 -14.6648 1.01822
-14.9855 -13.0844 -0.0756868
-14.7266 -13.4387 0.0795761
-14.3018 -14.1008 0.405282
-14.3193 -13.9949 0.237953
-13.3717 -14.9451 0.909924
-12.3648 -15.6621 1.50893
-14.8952 -13.0575 -0.418497
-13.464 -14.788 0.73216
-12.052 -16.1019 1.71476
-14.3854 -13.7904 -0.0627931
-14.5143 -13.5992 -0.219568
-14.3601 -13.8097 -0.172751
-13.1127 -15.1883 0.718854
-13.4363 -14.6176 0.350235
-12.5591 -15.538 0.993685
-12.5148 -15.5464 1.01978
-14.0056 -14.2374 -0.153588
-14.2193 -13.8615 -0.497394
-13.1658 -15.0272 0.364067
-12.7438 -15.2993 0.607856
-13.8199 -14.4355 -0.223324
-12.6615 -15.4203 0.640921
-13.2785 -14.8025 0.163986
-12.8034 -15.1761 0.450044
-14.8298 -12.8479 -1.25763
-12.239 -15.5709 0.778624
-14.4391 -13.402 -0.990227
-12.0111 -16.3092 0.971966
-13.229 -14.6843 -0.152405
-12.7451 -15.131 0.194963
-13.9875 -14.0621 -0.760201
-13.8634 -14.2068 -0.734347
-13.9494 -14.0221 -0.839464
-13.8479 -14.2146 -0.75648
-14.24 -13.5646 -1.11203
-12.2832 -15.5599 0.409711
-13.6883 -14.4178 -0.750481
-14.0211 -13.9139 -1.03024
-12.2295 -15.7995 0.378345
-12.2517 -15.795 0.349636
-13.9045 -14.0095 -1.02408
-12.2711 -15.5481 0.264858
-12.2519 -15.8124 0.324834
-14.2589 -13.4654 -1.35297
-14.3392 -13.4542 -1.39637
-12.3023 -15.766 0.242866
-11.9299 -16.5858 0.574355
-13.0261 -14.697 -0.42561
-14.2117 -13.5339 -1.37884
-14.2428 -13.4397 -1.50182
-14.0426 -13.7502 -1.38391
-13.8262 -14.0898 -1.23418
-12.2963 -15.5332 -0.0885788
-12.2879 -15.5635 -0.0780242
-13.7479 -14.1357 -1.28763
-11.8476 -16.2269 0.210273
-12.8301 -14.8968 -0.775999
-13.4561 -14.3399 -1.60114
-12.2418 -15.3884 -0.72688
-11.6364 -16.5838 -0.218308
-11.5867 -16.6641 -0.21841
-11.437 -16.8298 -0.178129
-13.2313 -14.5653 -1.71597
-13.1696 -14.6667 -1.75796
-13.1649 -14.6356 -1.77575
-11.5057 -16.5724 -0.454995
-11.6236 -15.6626 -0.971227
-11.4792 -15.8746 -0.954462
-11.4629 -15.8857 -0.963731
-11.435 -15.9025 -0.974652
-11.7163 -14.1517 3.31279
-14.7837 -14.1744 2.57349
-15.2259 -13.5935 2.10927
-15.193 -13.6814 2.15259
-11.7528 -14.0092 3.10352
-14.9897 -13.9817 2.26221
-11.7374 -14.0356 3.0912
-15.1471 -13.6541 1.98607
-13.6631 -14.375 2.50218
-14.8542 -14.0331 1.96359
-15.1946 -13.3993 1.51663
-13.6651 -14.3152 2.28533
-14.8652 -13.8997 1.75061
-11.6756 -14.0882 2.71277
-11.4018 -14.4773 2.87784
-15.0577 -13.5444 1.28521
-14.7085 -14.0222 1.51197
-14.6795 -14.0684 1.54661
-11.4038 -14.3886 2.68802
-13.7472 -14.0195 1.75324
-11.2253 -14.6403 2.78063
-11.4712 -14.2587 2.56943
-11.5048 -14.2565 2.54069
-15.173 -13.2084 0.872775
-11.2237 -14.6388 2.76746
-11.4255 -14.3395 2.5713
-14.5278 -14.1667 1.35554
-11.1484 -14.7568 2.74957
-13.3398 -14.5444 1.74116
-13.3732 -14.5002 1.72158
-14.5437 -14.0246 1.10204
-13.332 -14.5471 1.7475
-11.1159 -14.7883 2.65469
-13.2348 -14.6976 1.78464
-14.8307 -13.5939 0.717777
-14.5179 -13.9961 0.94525
-14.934 -13.3359 0.458697
-14.9377 -13.3275 0.449637
-15.0048 -13.1982 0.384599
-14.6446 -13.7777 0.689997
-14.6436 -13.7752 0.662607
-14.4315 -14.0855 0.78233
-14.455 -13.9986 0.691045
-14.5022 -13.8471 0.448388
-12.591 -15.3801 1.62921
-14.6008 -13.6216 0.202522
-12.6473 -15.3536 1.49887
-14.8292 -13.2555 -0.101888
-14.7694 -13.2811 -0.120857
-14.3023 -14.0281 0.226045
-13.4195 -14.9378 0.916406
-13.2587 -15.1409 1.01759
-12.1635 -15.8744 1.5843
-13.2577 -14.9375 0.509223
-14.9787 -12.7093 -1.05734
-14.5333 -13.3898 -0.65789
-14.3855 -13.6665 -0.516936
-13.0575 -15.1732 0.513498
-13.0851 -15.1661 0.491373
-14.3213 -13.7382 -0.501489
-14.3589 -13.6996 -0.521923
-12.3677 -15.5306 0.94617
-13.236 -14.9273 0.293386
-14.9831 -12.6214 -1.18898
-14.7887 -12.9164 -1.05564
-13.2517 -14.8326 0.185646
-12.7937 -15.1806 0.465714
-12.7733 -15.2058 0.500499
-13.8056 -14.4112 -0.294693
-13.2516 -14.5646 -0.133934
-12.0008 -16.6916 0.971862
-12.0544 -16.1965 0.816991
-13.8525 -14.2184 -0.735195
-14.0539 -13.9076 -0.923838
-14.1607 -13.7072 -1.06352
-14.0151 -13.8832 -0.970376
-13.0382 -14.648 -0.30993
-13.6493 -14.4948 -0.710492
-14.2889 -13.4471 -1.43543
-13.8207 -14.1199 -1.05169
-11.7682 -16.7113 0.657037
-12.3848 -15.56 0.0674714
-12.8965 -15.0345 -0.338908
-11.9427 -16.1913 0.430072
-11.9238 -16.2276 0.453303
-13.7979 -14.0933 -1.18493
-13.8332 -14.0443 -1.23103
-13.9779 -13.8412 -1.35505
-11.6921 -16.6867 0.162946
-12.3748 -14.8787 -0.839015
-13.1841 -14.6667 -1.72402
-11.6582 -15.7604 -0.701067
-11.7047 -15.7604 -0.749419
-11.6448 -15.8315 -0.743731
-11.027 -17.1834 -1.94726
-10.9847 -17.1758 -2.09104
-14.9665 -13.8848 2.65012
-13.9026 -14.0937 2.81611
-15.4895 -13.2118 1.96073
-15.4922 -13.219 1.92143
-15.1415 -13.7159 2.14383
-14.8871 -14.1061 2.27143
-12.1197 -14.0249 2.8547
-13.7313 -14.3147 2.51629
-14.8011 -14.1236 2.09803
-13.6528 -14.3776 2.5101
-15.2247 -13.4372 1.67603
-14.7583 -14.1219 1.9485
-11.5623 -14.3112 2.92532
-11.4602 -14.4559 2.90506
-15.1837 -13.3061 1.20067
-11.4292 -14.4108 2.71044
-13.7229 -14.0773 1.79062
-11.25 -14.6598 2.73763
-11.3998 -14.3808 2.54002
-11.3974 -14.4107 2.53985
-14.5966 -14.0894 1.27132
-14.5812 -14.1003 1.28882
-13.5664 -14.1777 1.65227
-14.6682 -13.8801 1.13514
-13.3172 -14.5748 1.80896
-13.3442 -14.5471 1.77263
-11.1574 -14.6822 2.59582
-14.6355 -13.785 0.705847
-12.9225 -15.0661 1.78004
-15.12 -12.9784 0.106093
-14.3509 -14.1368 0.743518
-12.5932 -15.3598 1.58803
-14.9862 -12.9162 -0.351469
-14.7595 -13.3165 -0.173845
-15.0962 -12.73 -0.689355
-14.5029 -13.6489 -0.210574
-14.3836 -13.7703 -0.171503
-14.897 -12.9166 -0.732092
-12.7874 -15.3314 0.911714
-12.3768 -15.5846 0.815336
-13.8559 -14.3732 -0.280158
-13.8014 -14.4343 -0.22614
-12.1203 -16.2526 1.0675
-13.8124 -14.4152 -0.311633
-12.7161 -15.2663 0.470874
-12.243 -15.5935 0.787001
-12.0797 -16.2404 0.899248
-12.363 -15.7695 0.518714
-12.6204 -14.925 -0.0650026
-12.0099 -16.1134 0.455478
-13.7257 -14.2738 -0.984813
-13.006 -14.4698 -0.729348
-12.9334 -14.8085 -0.655708
-13.549 -14.3726 -1.25667
-12.2134 -15.524 -0.503664
-12.3091 -15.3066 -0.642459
-12.0886 -15.6951 -0.453992
-13.2469 -14.6951 -1.44979
-13.2197 -14.7163 -1.44053
-11.5753 -16.6877 -0.0905372
-12.2423 -15.3221 -0.756026
-12.3868 -14.7566 -1.12857
-11.9692 -15.6753 -0.738613
-12.0555 -15.1663 -1.24537
-11.3905 -17.1862 -0.819054
-14.9118 -13.956 2.61559
-14.7851 -14.121 2.55962
-14.8113 -14.1963 2.46795
-11.7653 -14.0446 2.99769
-12.1587 -14.0198 2.8353
-15.2884 -13.3501 1.59965
-14.7691 -14.0913 1.89319
-15.0565 -13.4077 1.022
-14.4656 -14.0902 0.940999
-15.158 -12.8518 0.0377119
-14.44 -14.008 0.617499
-14.3895 -13.9037 0.26365
-14.4003 -13.836 0.018404
-14.6674 -13.3773 -0.211931
-13.2519 -14.9208 0.554092
-14.542 -13.4146 -0.517461
-13.2702 -14.888 0.374673
-12.782 -15.2638 0.621265
-13.8288 -14.4183 -0.226609
-12.1627 -15.6518 0.952268
-13.7917 -14.4749 -0.224395
-12.1363 -16.2414 1.06976
-13.8172 -14.3822 -0.323122
-12.0851 -16.2226 0.952626
-12.0008 -16.3022 0.923243
-12.596 -15.2525 0.141068
-12.6138 -14.915 -0.0766594
-11.8211 -16.6936 0.582494
-11.8891 -16.2665 0.443324
-13.945 -13.8676 -1.39882
-11.9496 -15.794 -0.0872622
-11.8686 -15.8137 -0.0441502
-12.1352 -15.614 -0.466905
-12.6825 -14.6146 -1.14991
-11.7106 -15.7861 -0.735133
-11.6486 -15.7897 -0.789229
-11.6544 -15.7785 -0.807083
-11.5441 -15.7393 -0.980169
-11.7486 -15.5253 -1.26747
-11.1157 -16.4723 -0.900125
-11.1174 -15.7575 -1.6188
-10.7248 -17.3847 -2.35931
-15.3442 -13.3657 1.84455
-13.7946 -14.2303 2.45718
-14.8332 -14.0419 1.9889
-11.9289 -14.0049 2.79481
-14.8238 -14.0944 1.95039
-13.8029 -14.1207 2.2221
-15.1783 -13.3914 1.40792
-14.7143 -14.0447 1.67801
-14.6211 -14.0842 1.37496
-13.6497 -14.0891 1.62824
-14.6438 -13.9944 1.21201
-15.1352 -12.9918 0.0906182
-15.0787 -13.0445 0.136264
-12.9821 -15.2721 1.20169
-12.7004 -15.5086 1.05881
-12.3977 -15.5946 0.972624
-12.7552 -15.309 0.668637
-12.8205 -15.1354 0.445256
-12.4092 -15.6385 0.717959
-14.7076 -12.9384 -1.37476
-11.9347 -16.2488 0.460862
-12.0032 -15.9736 0.153143
-12.3713 -15.3959 -0.353401
-12.0994 -15.5995 -0.54942
-12.3393 -14.9111 -0.887416
-11.6348 -15.7819 -0.85332
-11.6277 -15.7542 -0.87054
-14.8569 -14.0175 1.948
-13.5421 -14.1084 0.500938
-12.7818 -15.4342 1.11738
-12.2763 -15.5541 0.966919
-12.1307 -16.155 0.984365
-12.6833 -15.2001 0.218704
-11.9564 -16.2524 0.665103
-13.0316 -14.5748 -0.326009
-14.2428 -13.501 -1.33685
-12.2532 -15.5832 -0.134279
-11.8702 -15.8373 -0.132831
-11.9865 -15.7533 -0.620349
-11.5651 -15.7661 -0.948694
-11.1466 -16.4801 -0.905469
-11.4638 -14.3642 2.74188
-11.4298 -14.4085 2.68125
-14.581 -14.1088 1.27774
-13.5124 -14.2416 1.54579
-14.4772 -13.8278 0.283636
-13.7092 -14.1709 0.682352
-14.8461 -13.183 -0.194491
-12.0515 -16.0541 0.441378
-12.9651 -14.9759 -0.327273
-13.9011 -13.9272 -1.41664
-11.9976 -15.8492 -0.251576
-12.2903 -15.2792 -0.754428
-12.3294 -14.7806 -1.18319
-14.6942 -14.0298 1.44206
-13.6302 -14.2447 0.466784
-12.5721 -15.5624 1.00235
-11.9599 -15.896 -0.263341
-12.5235 -14.7813 -1.05849
-14.5014 -13.9447 0.671698
-11.774 -16.6244 0.249813
-12.3982 -15.2425 -0.374606
-12.1091 -15.424 -0.820691
-13.8792 -14.0742 2.4743
-14.3568 -14.0351 0.574848
-12.5878 -14.8068 -0.961451
-13.9594 -14.0678 2.66101
-13.8598 -14.2864 1.11778
-14.5536 -13.8392 0.49826
-13.075 -15.2065 1.09714
-13.0848 -14.6105 -0.210425
-11.6055 -15.8817 -0.693405
-12.5007 -14.0662 2.92491
-11.6252 -14.1485 3.20347
-12.8361 -15.4391 1.03459
-11.0946 -16.5277 -1.27934
-11.1157 -17.1225 -1.81804
-13.148 -14.6593 -1.71878
-13.2862 -14.5716 -1.64141
-13.428 -14.4151 -1.54451
-14.655 -12.9713 -1.38927
-13.671 -14.1548 -1.3919
-13.6728 -14.1651 -1.39298
-12.2838 -14.9382 -0.910988
-14.7394 -12.9975 -1.06698
-14.1175 -13.8121 -1.03118
