-12.6102 -14.7937 -3.65776
-12.6828 -14.77 -1.9838
-12.9459 -14.7423 0.644672
-12.6625 -14.8629 -3.19245
-12.6533 -14.8596 -3.18881
-11.4162 -14.048 2.05362
-12.6291 -14.8489 -1.86588
-12.6408 -14.8852 -1.03662
-12.4911 -15.1581 -1.48639
-12.5116 -15.1631 -0.606213
-12.3938 -15.2765 -1.1191
-12.2927 -15.1955 0.16446
-16.6222 -11.857 -0.384053
-16.7265 -11.9194 0.213916
-16.4551 -11.959 -0.625801
-16.2454 -12.0342 -1.03889
-16.4796 -12.1591 0.00667792
-16.3447 -12.3294 0.317109
-15.9544 -12.3517 -1.04629
-16.0153 -12.4048 -0.696313
-16.2913 -12.4914 0.570399
-15.9022 -12.4729 -0.655985
-16.2801 -12.6344 1.06148
-16.2521 -12.6905 1.04585
-15.9242 -12.6892 0.051643
-15.6584 -12.7367 -0.735868
-15.2671 -12.6799 -1.88356
-15.3331 -12.7151 -1.63942
-15.2941 -12.8143 -1.55609
-15.2998 -12.8353 -1.47567
-15.1943 -12.8239 -1.70099
-15.5243 -12.9076 -0.603304
-15.5193 -12.9506 -0.521686
-15.0634 -12.9653 -1.74859
-15.0598 -12.9841 -1.77076
-15.5714 -13.0372 -0.0599552
-13.7069 -13.0577 -2.34084
-15.8865 -13.4444 2.33812
-15.7084 -13.4516 1.72637
-15.4091 -13.4528 0.702066
-15.7054 -13.4983 1.99159
-15.6324 -13.5132 1.66259
-15.5907 -13.5602 1.80799
-15.8642 -13.6223 2.73157
-15.8589 -13.6099 2.70014
-15.5762 -13.5842 1.86662
-13.8247 -13.3082 -1.45373
-13.7755 -13.3057 -1.51833
-13.406 -13.305 -2.59
-13.3999 -13.3013 -2.57247
-15.7977 -13.6787 2.76765
-15.7219 -13.7157 2.67801
-15.4885 -13.6941 1.86408
-15.703 -13.7378 2.66947
-15.3238 -13.8865 1.89915
-15.3712 -13.9602 2.41609
-15.2665 -13.9618 2.07186
-15.3593 -13.9798 2.3838
-15.2217 -14.032 1.99244
-15.2911 -14.0532 2.33811
-14.0226 -14.089 -0.18924
-14.2429 -14.1455 0.696301
-12.9448 -13.8908 -2.16542
-14.1573 -14.2455 0.617301
-13.4968 -14.1725 -0.647719
-13.5826 -14.1911 -0.337069
-13.5846 -14.2049 1.01913
-13.4819 -14.2615 -0.420907
-13.3666 -14.2531 -0.713607
-11.8441 -13.6771 1.79556
-13.2026 -14.3281 -0.888746
-13.4343 -14.4166 -0.130382
-11.8151 -13.7425 1.86448
-11.7355 -13.7365 1.70326
-11.6733 -13.7173 1.40856
-12.9138 -14.4632 -3.5715
-12.9186 -14.4737 -3.56318
-12.92 -14.5307 -3.38561
-12.8819 -14.6195 -3.30647
-11.5812 -13.85 1.49683
-13.139 -14.605 -0.551915
-12.7707 -14.6548 -3.55088
-11.5627 -13.895 1.66314
-13.1401 -14.6841 -0.55923
-13.1183 -14.683 -0.640178
-12.7456 -14.6206 -2.20243
-12.959 -14.6296 -0.137214
-12.9416 -14.6437 -0.152914
-12.7108 -14.8228 -3.24034
-12.7863 -14.7565 -1.05773
-12.9499 -14.7442 0.63891
-12.7354 -14.7819 -0.99415
-12.6089 -14.8646 -3.25134
-11.3211 -14.0202 1.32348
-12.7442 -14.8059 -0.977276
-12.846 -14.786 0.58967
-12.7661 -14.8732 -0.704634
-11.2686 -14.0993 1.36018
-12.7475 -15.001 -2.52467
-12.6471 -14.8816 -1.03968
-11.2288 -14.1194 1.30446
-12.6851 -14.8926 0.304749
-11.1576 -14.1668 1.25432
-12.4793 -15.0086 -1.66849
-12.522 -15.1069 -2.83253
-12.6474 -15.0246 -0.621476
-12.5962 -15.112 -2.61083
-11.152 -14.1669 1.24824
-12.559 -15.1242 -2.6559
-12.63 -15.0485 -0.55569
-12.6353 -15.0994 -0.51139
-12.4961 -15.1593 -0.61447
-12.6072 -15.2697 -0.910122
-12.1814 -15.2391 -0.040628
-16.5059 -12.2443 0.452691
-15.9489 -12.3315 -1.02381
-16.0099 -12.3933 -0.686755
-16.0832 -12.5427 0.0954703
-16.2544 -12.606 0.83145
-15.5293 -12.9069 -0.612934
-15.4086 -13.2153 0.151581
-13.9333 -13.1875 -1.57661
-14.4807 -13.2625 0.379567
-13.9336 -13.2322 -1.40829
-13.8813 -13.2355 -1.4352
-14.5006 -13.3244 0.423315
-15.668 -13.5576 2.02814
-13.812 -13.3078 -1.46022
-15.7931 -13.6454 2.80133
-15.735 -13.6802 2.6078
-15.3869 -13.681 1.40347
-15.2118 -13.6862 0.933435
-14.2174 -13.5072 -0.631239
-15.2528 -13.673 1.10688
-15.1681 -13.7696 1.00841
-14.3803 -13.6324 -0.345169
-15.5763 -13.8536 2.58619
-14.1997 -13.7038 -0.667885
-15.0879 -13.8779 1.35553
-15.2993 -14.0373 2.34002
-14.1718 -13.8027 1.58779
-14.2459 -13.9254 -0.0120922
-13.6186 -13.8348 -1.23559
-14.1029 -14.0476 0.0834797
-13.4449 -14.0163 -3.43944
-13.4307 -14.0132 -3.46613
-12.9836 -13.9003 -2.08821
-12.8579 -13.915 -2.28035
-14.0228 -14.2897 0.397692
-13.546 -14.2578 -0.209745
-13.4389 -14.4623 0.0363547
-13.0571 -14.5008 -3.06788
-12.9249 -14.5764 -3.34204
-12.869 -14.5211 -0.412578
-12.6556 -14.6428 -3.86758
-12.7761 -14.7064 -1.22721
-12.8247 -14.724 0.818963
-12.6985 -14.8413 -0.380156
-12.6747 -14.8549 0.264102
-12.5587 -15.1389 -2.60337
-11.2032 -14.1895 1.87258
-12.6479 -15.1396 -1.15768
-12.6537 -15.1552 -1.08492
-12.5686 -15.1902 -0.417038
-12.4382 -15.1101 0.274499
-12.4025 -15.184 -0.0867699
-12.4764 -15.343 -1.05619
-16.9226 -11.4848 -0.597689
-16.4375 -11.9907 -0.430713
-16.4043 -11.9864 -0.54145
-16.2504 -12.2017 -0.515078
-15.9718 -12.3192 -1.00164
-15.5843 -12.5947 -1.2844
-15.1739 -12.874 -1.63758
-15.1533 -12.9161 -1.67823
-15.1381 -12.926 -1.71372
-15.3582 -13.0083 -0.798489
-13.7945 -13.0158 -2.29507
-14.3546 -13.1183 -0.987622
-13.8352 -13.2436 -1.4807
-13.8193 -13.2776 -1.45838
-15.6548 -13.5611 1.9966
-15.0359 -13.5368 0.037414
-13.7597 -13.3141 -1.51313
-13.7741 -13.3333 -1.50025
-13.7856 -13.3391 -1.47301
-13.6474 -13.3872 -1.6799
-15.1735 -13.6869 0.918377
-15.1221 -13.7952 0.979307
-15.4641 -13.9114 2.4777
-15.3183 -13.8995 1.89125
-15.1477 -13.8779 1.3913
-15.3398 -13.9193 2.11695
-15.344 -13.9716 2.21331
-15.311 -14.0161 2.34138
-14.4129 -13.7846 1.18892
-15.1512 -14.2662 2.56444
-14.0462 -14.1015 0.0378843
-13.4405 -13.9645 -0.905993
-13.4897 -14.0163 -1.3356
-13.4247 -13.999 -1.42947
-12.9376 -13.8754 -2.186
-12.9864 -13.916 -2.08265
-12.8808 -13.9662 -2.18577
-13.5852 -14.2729 -0.0585803
-13.3216 -14.5862 0.146939
-11.5976 -13.8351 1.57322
-12.8928 -14.5913 -1.12256
-12.7974 -14.6815 -0.368709
-12.738 -14.836 -0.828966
-12.683 -14.8458 -0.338533
-12.6238 -14.8995 0.262034
-12.6378 -15.106 -2.62081
-12.5667 -14.9988 -0.839615
-12.4731 -15.0033 0.572344
-12.4457 -15.2747 -1.13405
-12.4314 -15.3272 -1.02267
-12.2066 -15.2352 -0.00897279
-15.9022 -12.4629 -0.764332
-16.0507 -12.5928 0.0746898
-15.3107 -12.7059 -1.68601
-15.3472 -12.7913 -1.52251
-15.8757 -12.8855 0.525657
-13.9152 -12.7803 -2.0565
-15.471 -13.2765 0.479613
-14.9019 -13.2329 -1.4328
-15.766 -13.4064 1.82176
-15.3836 -13.4489 0.72809
-15.6432 -13.4932 1.63126
-15.3342 -13.4806 0.76163
-15.1042 -13.4786 -0.016714
-14.9685 -13.4738 -0.438131
-15.705 -13.734 2.64011
-15.1875 -13.7293 0.985585
-13.6308 -14.0677 -0.561299
-12.9302 -13.8953 -2.22356
-13.2291 -14.033 -1.77693
-13.2438 -14.0723 -1.74208
-12.8703 -14.1981 -2.43273
-13.4738 -14.3181 -0.254838
-13.425 -14.4051 -0.177826
-13.4172 -14.4299 -0.0308498
-13.4125 -14.4483 -0.135524
-13.2125 -14.5414 0.87813
-12.9929 -14.6063 -0.151164
-12.8114 -14.6465 -1.20729
-12.7917 -14.5705 -0.202344
-12.6043 -14.8914 -3.16305
-12.8029 -14.8777 -0.670711
-12.6963 -14.88 -0.844576
-12.5959 -15.0401 -0.759471
-12.3104 -15.1412 -0.0038198
-12.488 -15.3865 -0.733747
-16.4025 -12.3315 0.419845
-15.3377 -12.9404 -0.970742
-14.3526 -13.1238 -1.0747
-13.8041 -13.2412 -1.52337
-14.26 -13.4352 -0.650545
-14.2314 -13.6642 -0.620957
-14.1073 -13.8166 1.4301
-13.3311 -14.0979 -1.49646
-12.955 -14.3955 -3.72515
-13.0887 -14.4867 -0.744698
-12.7556 -14.6608 -3.47992
-13.0988 -14.765 -0.622507
-12.6955 -14.8979 -0.438124
-13.9337 -13.1871 -1.44821
-14.2586 -13.2884 -1.12508
-13.8808 -13.2284 -1.48182
-14.2288 -13.4789 -0.646768
-14.0348 -14.0923 0.0755189
-12.5955 -15.1217 -0.466202
-13.4889 -13.1869 -2.49836
-14.2856 -13.3964 -1.0167
-14.244 -13.5048 -0.561289
-14.2218 -14.1441 0.558969
-13.6147 -14.2112 0.999049
-13.2824 -14.3047 -0.95605
-12.6142 -15.1553 -1.12549
-13.3667 -14.0121 -1.54278
-16.0198 -12.6325 0.180449
-13.4739 -14.064 -1.3308
-12.8816 -14.0612 -1.91281
-13.0119 -14.7324 -0.707135
-14.4913 -13.8278 0.497094
-13.4739 -14.5922 0.153269
-15.682 -13.7501 2.54809
-15.5455 -13.6206 1.84045
-15.5637 -13.6042 1.85485
-15.5551 -13.5733 1.79476
-16.6438 -11.9813 0.0226194
-15.9942 -12.9132 0.90871
-16.342 -12.3375 0.311447
-11.4151 -14.0432 2.05793
-15.6516 -13.2797 1.09353
-11.3973 -14.0621 2.04596
-14.2081 -13.7212 1.47568
-14.0894 -13.8828 1.54719
-14.016 -13.8671 1.37623
-15.941 -12.6973 0.0470279
-13.8158 -14.0829 1.34162
-13.8139 -14.0927 1.35017
-15.7554 -12.7981 -0.110397
-15.6958 -12.9204 -0.000699063
-13.7264 -14.1534 1.24776
-15.9452 -12.416 -0.637985
-13.6389 -14.2219 1.19493
-15.8587 -12.5434 -0.759674
-15.3532 -13.1985 -0.138005
-15.6158 -12.7755 -0.626244
-13.5339 -14.2432 1.02594
-15.6681 -12.6913 -0.736024
-14.4138 -13.867 0.436277
-15.481 -12.9121 -0.653151
-15.8167 -12.4539 -1.17012
-13.3604 -14.4023 0.993555
-15.2376 -13.1951 -0.532863
-14.3293 -13.8723 0.216004
-13.202 -14.5574 0.866296
-14.3361 -13.6407 -0.443888
-15.2339 -12.9749 -1.27808
-15.2079 -12.9815 -1.23857
-15.2139 -12.9738 -1.26062
-15.1629 -13.0354 -1.29064
-13.0591 -14.6077 0.609946
-14.2065 -13.6831 -0.598492
-14.279 -13.5814 -0.820462
-14.2524 -13.5938 -0.822146
-14.2731 -13.5074 -1.00528
-13.3557 -14.6228 0.184265
-13.3885 -14.2631 -0.708096
-13.3736 -14.2683 -0.757247
-12.866 -14.543 -0.37799
-13.0629 -14.3867 -0.648553
-13.0442 -14.4539 -0.68739
-13.1117 -14.667 -0.599254
-12.3013 -15.1878 0.158109
-13.2942 -14.2143 -1.0886
-12.7237 -14.8495 -0.376131
-12.7334 -14.8104 -0.402604
-13.1798 -14.4759 -0.888316
-13.7406 -13.074 -2.32153
-12.2179 -15.2139 -0.0266377
-13.6918 -13.1027 -2.33939
-12.7029 -15.0254 -0.453472
-12.7045 -15.0144 -0.480679
-13.3516 -13.5518 -2.20658
-12.714 -14.8216 -0.989036
-13.4398 -13.2867 -2.57941
-12.7379 -14.7537 -1.24156
-12.5447 -15.3047 -0.940128
-12.8966 -14.4861 -2.18844
-12.6353 -14.8497 -1.87749
-12.6022 -14.8744 -1.86707
-12.6019 -15.1164 -2.59082
-13.1194 -14.262 -3.66522
-13.134 -14.26 -3.69137
-12.871 -14.6013 -3.30596
-12.9213 -14.4597 -3.56862
-12.7243 -14.8293 -3.19374
-12.8685 -14.5118 -3.65107
-12.9331 -14.4171 -3.76055
-12.6872 -14.725 -3.57535
-15.6942 -13.7305 2.65774
-15.4098 -14.0784 2.73
-15.4421 -13.9235 2.43056
-15.9303 -13.2112 1.61934
-15.2992 -14.0685 2.34689
-15.3079 -14.0376 2.32239
-15.5802 -13.5769 1.81341
-16.3381 -12.4297 0.631168
-16.9089 -11.638 -0.156484
-15.1809 -14.0541 1.97982
-15.3748 -13.7586 1.59792
-15.8325 -13.044 0.776585
-16.3581 -12.1217 -0.378769
-15.1194 -13.9109 1.34144
-11.7294 -13.702 1.46921
-15.0791 -13.915 1.32769
-15.0928 -13.8751 1.31599
-11.5363 -13.9532 1.67407
-11.6777 -13.734 1.43221
-15.6662 -13.0386 0.320159
-15.1982 -13.6871 0.942416
-11.5648 -13.8428 1.48288
-13.7835 -14.1131 1.33285
-14.4878 -13.2945 0.412636
-16.1997 -12.1244 -0.911934
-16.2128 -12.0518 -0.991219
-13.7026 -14.1733 1.25263
-15.9011 -12.4906 -0.642634
-14.5151 -13.8464 0.665769
-11.3153 -14.0119 1.3065
-11.2902 -14.0626 1.36772
-11.2752 -14.0595 1.34388
-11.2482 -14.1111 1.34959
-15.4388 -13.0211 -0.416947
-15.6504 -12.7038 -0.742252
-15.9588 -12.1894 -1.31449
-15.9507 -12.2457 -1.25804
-15.5125 -12.8984 -0.624593
-15.9718 -12.2053 -1.33493
-14.2597 -14.1444 0.678828
-15.1884 -13.2993 -0.343462
-15.3279 -13.0171 -0.810256
-15.3161 -13.0325 -0.806523
-14.3759 -13.7255 -0.0851242
-14.0188 -14.2838 0.388421
-15.2305 -12.9663 -1.23933
-14.1203 -13.9916 -0.172646
-15.3308 -12.7603 -1.60835
-13.0785 -14.6196 0.589215
-13.469 -14.4524 0.144913
-13.5289 -14.3584 -0.0962395
-13.5211 -14.2423 -0.363289
-13.4862 -14.281 -0.41835
-13.7966 -13.2656 -1.54715
-12.858 -14.5141 -0.330903
-12.3025 -15.2131 0.223015
-13.0898 -14.6367 -0.577772
-13.6242 -13.3326 -2.00289
-13.1045 -14.5404 -0.854223
-13.175 -14.5128 -0.904211
-12.1714 -15.2649 -0.0466499
-12.1713 -15.255 -0.0692977
-12.7169 -14.9262 -0.73306
-13.2194 -13.3506 -2.41084
-12.5972 -15.0227 -0.834489
-13.4134 -13.311 -2.59356
-12.558 -15.298 -0.938736
-12.8453 -13.9586 -2.2428
-12.5569 -15.0993 -1.50523
-13.4939 -13.9344 -3.55243
-12.5703 -15.1268 -2.66638
-12.5511 -15.0625 -2.87271
-12.9729 -14.4294 -3.65208
-12.6351 -14.8527 -3.26589
-12.9242 -14.3931 -3.86671
-12.685 -14.7192 -3.58325
-12.633 -14.7212 -3.71887
-12.6338 -14.7755 -3.684
-12.6568 -14.6252 -3.88951
-15.9974 -13.3467 2.41837
-15.7481 -13.7231 2.66714
-15.2238 -14.2185 2.61688
-16.2675 -12.7112 1.1153
-15.3755 -13.9359 2.25347
-15.377 -13.8195 1.91101
-15.1503 -13.8789 1.37719
-11.2115 -14.204 1.84398
-15.4585 -13.2722 0.483456
-16.1283 -12.0705 -1.32765
-13.5827 -14.1932 0.986371
-13.5539 -14.2403 1.02765
-15.935 -12.2571 -1.25312
-14.0652 -14.0788 0.0358889
-15.2684 -12.912 -1.30305
-13.9169 -14.2638 0.0887319
-15.3419 -12.7233 -1.6849
-14.2131 -13.6922 -0.654234
-13.4269 -14.4724 0.0298609
-13.4346 -14.4762 -0.0256359
-12.7164 -14.861 0.332396
-12.6898 -14.8707 0.306956
-12.4425 -15.1169 0.260488
-13.0166 -14.4832 -0.68581
-12.2554 -15.1861 -0.0161392
-12.7691 -14.773 -0.903312
-12.4943 -15.1694 -0.62318
-12.6665 -14.8532 -1.04186
-12.9585 -13.9707 -2.01833
-12.4173 -15.2825 -1.20734
-13.1756 -14.4157 -3.03612
-12.4269 -14.4927 -2.74379
-12.6171 -15.1338 -2.57931
-12.8928 -14.5824 -3.353
-12.8207 -14.6224 -3.4635
-12.8222 -14.4944 -3.83348
-15.4478 -13.9226 2.48072
-15.4804 -13.9015 2.44794
-15.5685 -13.6284 1.96756
-11.8699 -13.6115 1.75218
-15.9041 -13.0073 0.974098
-15.5648 -13.4518 1.2616
-15.3856 -13.4386 0.731503
-15.1906 -13.7306 0.99155
-13.8683 -14.0103 1.25156
-14.4643 -13.2987 0.336498
-15.9527 -12.3133 -0.931134
-15.999 -12.2943 -0.996111
-13.2876 -14.4596 0.932618
-15.2322 -12.9655 -1.25173
-15.1919 -12.8685 -1.65108
-15.1447 -12.9346 -1.72989
-14.8838 -13.2149 -1.45806
-13.3364 -14.6043 0.16208
-13.4277 -14.3978 -0.163632
-13.6451 -13.9922 -0.573721
-13.2568 -14.6361 -0.0283988
-12.9536 -14.6737 -0.119033
-13.7379 -13.3625 -1.5251
-13.3588 -14.2734 -0.69032
-12.736 -14.7029 -0.271996
-13.2183 -14.4278 -0.857093
-13.3212 -14.0373 -1.51365
-12.9954 -13.9672 -1.99655
-12.9176 -14.0122 -2.02852
-12.9452 -13.9021 -2.18502
-12.9207 -13.9578 -2.10431
-12.7457 -14.9954 -1.35544
-12.4193 -15.353 -1.02464
-12.4498 -15.2701 -1.14161
-13.027 -14.5219 -3.14033
-12.6306 -15.041 -2.6342
-13.0403 -14.3284 -3.6682
-12.5725 -14.8864 -3.51407
-15.837 -13.6484 2.77059
-15.6347 -13.5795 2.0161
-15.4594 -13.7464 2.00058
-15.3709 -13.7625 1.6342
-15.333 -13.485 0.726344
-15.5068 -13.1679 0.234319
-13.4026 -14.3908 0.986878
-14.2977 -13.4248 -0.595383
-12.9559 -14.7314 0.654019
-13.5326 -14.3312 -0.0908018
-13.4692 -14.4101 0.0198429
-13.5516 -14.3135 -0.130913
-13.4592 -14.3226 -0.255419
-13.4602 -14.3723 -0.266863
-12.8945 -14.5178 -0.352647
-12.4925 -15.2099 -0.467276
-12.5402 -15.1651 -0.582213
-13.1014 -14.2058 -1.63399
-12.9113 -13.9289 -2.19881
-12.8676 -14.6185 -3.31174
-12.8747 -14.5642 -3.4195
-14.1517 -13.8395 1.6738
-14.3915 -13.8101 1.28504
-15.1323 -13.7541 0.960187
-12.9717 -14.5422 -0.1766
-13.6532 -13.4044 -1.67313
-12.7137 -14.9045 -0.768965
-13.264 -14.0009 -1.78853
-12.6382 -14.9406 -0.88319
-12.6236 -14.897 -3.22183
-15.6317 -13.7754 2.61777
-16.0083 -12.6115 0.0346396
-15.2182 -13.6948 0.981018
-15.1281 -13.4739 0.126511
-13.3505 -14.4217 0.881901
-12.5912 -15.1222 -0.463078
-12.6125 -15.0944 -0.52955
-12.806 -14.6435 -1.22179
-15.3263 -13.6097 1.09201
-15.2758 -12.8464 -1.44827
-13.1231 -13.7707 -2.09505
-15.4338 -14.0086 2.81024
-16.2688 -12.5312 0.694483
-13.0551 -13.8076 -2.50164
-13.9977 -13.3061 -1.36223
-13.1984 -14.3202 -0.838545
-13.6698 -13.6685 -1.07193
-13.195 -14.3993 -1.10686
-15.5781 -13.6336 1.79152
-13.0378 -14.5417 -0.566846
-12.8237 -14.891 -0.597209
-12.8072 -14.3878 -1.56238
-12.7012 -14.8961 -0.308898
-12.8159 -14.2805 -1.86857
-12.6374 -12.8464 3.16249
-15.7317 -13.8331 2.95929
-15.6261 -13.7835 2.57803
-11.5611 -13.7861 1.36953
-15.5883 -13.6668 2.11481
-16.0601 -13.2002 2.12223
-14.0994 -13.8812 1.55808
-15.5668 -13.6034 1.88309
-16.0321 -13.1639 1.92497
-13.8315 -14.0682 1.35617
-14.1381 -13.7889 1.40419
-15.8529 -13.3259 1.78586
-15.3378 -13.7526 1.58883
-15.3922 -13.7349 1.5938
-15.3263 -13.7853 1.55426
-13.3827 -14.4268 1.01463
-15.1192 -13.8789 1.30072
-15.3318 -13.7116 1.3205
-15.2547 -13.7122 1.17142
-14.3957 -13.8351 1.00527
-14.4022 -13.8023 0.993046
-15.3584 -13.6074 1.12006
-12.9188 -14.7253 0.634823
-16.2499 -12.6974 1.096
-12.5245 -15.0775 0.32567
-16.2034 -12.7115 0.982426
-14.5475 -13.535 0.596801
-14.4112 -13.8725 0.477838
-14.416 -13.8848 0.448991
-14.4046 -13.8651 0.454198
-16.392 -12.4192 0.65206
-12.2219 -15.2167 -0.0436273
-15.4547 -13.2885 0.440259
-13.9873 -14.1216 0.213423
-13.9658 -14.0971 0.172144
-12.4307 -15.1523 -0.136938
-14.3312 -13.8408 0.149895
-14.0367 -14.0963 0.0239203
-16.403 -12.2834 0.299524
-12.8204 -14.5113 -0.299906
-15.092 -13.4696 -0.0654115
-12.7181 -14.8687 -0.367007
-15.0773 -13.4923 -0.083261
-12.5574 -15.1887 -0.440477
-15.9588 -12.6954 0.0325339
-12.8666 -14.5073 -0.363352
-12.7064 -15.0401 -0.4651
-15.7365 -12.8068 -0.111477
-16.4374 -12.1352 -0.0308866
-12.8931 -14.6913 -0.513483
-12.8611 -14.7048 -0.528739
-13.1409 -14.5927 -0.577271
-16.4919 -12.0973 -0.134885
-14.3572 -13.6409 -0.436403
-14.3546 -13.6292 -0.447674
-14.3323 -13.6338 -0.468536
-13.3253 -14.3596 -0.593967
-13.0405 -14.445 -0.637903
-15.4336 -13.0092 -0.414594
-13.0866 -14.3858 -0.634307
-13.0125 -14.5128 -0.70206
-15.179 -13.2382 -0.511238
-14.2107 -13.6858 -0.599398
-15.1953 -13.2441 -0.526569
-13.1562 -14.2927 -0.709836
-12.5872 -15.0235 -0.836863
-14.1855 -13.7203 -0.604636
-14.1947 -13.7123 -0.639672
-14.258 -13.4522 -0.595471
-12.6802 -14.9167 -0.871477
-16.4114 -12.0583 -0.435406
-15.6094 -12.7778 -0.608145
-15.3779 -13.002 -0.664224
-14.2324 -13.6151 -0.790987
-15.9114 -12.4917 -0.657849
-15.9312 -12.4787 -0.67297
-14.2477 -13.5927 -0.797714
-15.9633 -12.4612 -0.660024
-16.5704 -11.856 -0.56139
-14.2413 -13.585 -0.831028
-12.3996 -15.2446 -1.11845
-13.3454 -14.1803 -1.04521
-13.3507 -14.1774 -1.06704
-14.2975 -13.5056 -1.00702
-13.3336 -14.1796 -1.07301
-14.2717 -13.5018 -1.02504
-16.2115 -12.1392 -0.904459
-16.043 -12.2846 -0.945343
-16.0014 -12.3268 -0.987746
-14.3325 -12.9557 -1.08338
-15.7955 -12.4678 -1.15335
-15.1899 -12.9907 -1.24774
-15.2033 -12.9778 -1.25169
-16.1291 -12.0588 -1.28109
-13.4254 -13.9114 -1.53979
-15.8454 -12.2723 -1.48583
-13.7747 -13.3078 -1.48254
-13.7425 -13.3773 -1.52428
-15.2476 -12.8022 -1.64108
-15.1643 -12.9053 -1.68525
-12.6236 -14.862 -1.83769
-12.6385 -14.8552 -1.85496
-15.491 -12.5539 -1.72547
-15.3323 -12.6636 -1.8214
-15.2643 -12.6649 -1.90908
-13.8172 -13.2134 -1.88036
-13.9496 -12.8416 -1.87272
-12.8915 -14.5 -2.18982
-12.8909 -14.4357 -2.21891
-13.7337 -13.0593 -2.31983
-12.6259 -14.8678 -3.20386
-12.6454 -14.8522 -3.24165
-12.9728 -14.5289 -3.26987
-12.9245 -14.5758 -3.33128
-12.953 -14.5202 -3.36649
-12.6528 -14.8036 -3.45869
-12.8412 -14.6059 -3.48891
-13.3265 -14.086 -3.5442
-12.6956 -14.7133 -3.56807
-12.9444 -14.4761 -3.5828
-12.9805 -14.4225 -3.59428
-12.5917 -14.7741 -3.6573
-12.7974 -14.5616 -3.73218
-12.767 -14.5763 -3.75978
-11.8145 -13.7341 1.89367
-11.5872 -13.9066 1.70149
-11.8172 -13.6781 1.76208
-15.4227 -14.0556 2.72932
-15.7467 -13.6742 2.70413
-15.7092 -13.7377 2.66743
-15.8348 -13.6081 2.70288
-11.6104 -13.7988 1.52888
-15.491 -13.8737 2.46811
-11.3118 -14.0851 1.37122
-15.2906 -14.0547 2.34749
-11.6117 -13.7602 1.44857
-15.3226 -13.9493 2.11194
-15.1843 -14.0577 2.00275
-15.3393 -13.8817 1.89351
-14.1716 -13.8185 1.56923
-14.0864 -13.9034 1.54677
-14.2177 -13.7079 1.48004
-13.9477 -13.9242 1.2949
-13.646 -14.2143 1.20012
-15.3721 -13.6905 1.49666
-15.2178 -13.8596 1.47358
-15.9026 -13.2158 1.64735
-15.1843 -13.8984 1.44473
-15.1408 -13.8813 1.3721
-13.5441 -14.2872 1.04531
-15.6904 -13.3809 1.42591
-13.5842 -14.2061 1.0329
-15.5844 -13.4595 1.36859
-13.191 -14.5397 0.853309
-12.758 -14.8833 0.483661
-14.2626 -14.1702 0.690278
-14.2791 -14.1254 0.682703
-16.0149 -12.8928 0.943488
-12.6881 -14.8712 0.316181
-12.3759 -15.1528 0.236796
-14.4531 -13.8501 0.554259
-12.2899 -15.1941 0.137108
-14.3451 -13.8604 0.340012
-15.4585 -13.2658 0.489428
-14.468 -13.2875 0.386356
-15.4618 -13.3025 0.460548
-13.1708 -14.6732 0.100118
-13.4887 -14.4479 0.131309
-13.433 -14.4901 0.103591
-14.3296 -13.8204 0.125642
-16.2274 -12.4843 0.348434
-12.9113 -14.6726 -0.183148
-13.5095 -14.3447 -0.094249
-12.7883 -14.6198 -0.312369
-14.124 -13.9787 -0.186317
-16.0346 -12.5989 0.100478
-12.8336 -14.5785 -0.379821
-14.3697 -13.6424 -0.263225
-13.5138 -14.259 -0.380847
-14.4168 -13.5951 -0.272029
-16.3429 -12.2375 -0.048371
-12.6696 -14.9957 -0.626878
-15.8749 -12.5888 -0.260547
-15.0668 -13.411 -0.40558
-16.9461 -11.625 -0.107849
-15.5193 -12.9727 -0.349598
-16.9188 -11.6168 -0.124444
-13.1196 -14.7256 -0.666764
-16.8898 -11.6475 -0.147344
-12.7012 -14.9179 -0.710852
-16.3847 -12.1338 -0.292018
-14.1823 -13.7752 -0.584131
-14.2052 -13.7425 -0.602077
-16.3641 -12.105 -0.357923
-12.5668 -15.0172 -0.820433
-16.3456 -12.1318 -0.400859
-14.2455 -13.6811 -0.680739
-12.5344 -15.3138 -0.937524
-12.564 -15.2749 -0.958886
-15.5398 -12.862 -0.613858
-15.6283 -12.7734 -0.601994
-12.8501 -14.7419 -0.913758
-12.8103 -14.7432 -0.921314
-12.7591 -14.785 -0.937848
-13.2318 -14.4226 -0.911044
-16.9343 -11.4773 -0.58515
-12.6215 -15.1447 -1.1368
-13.3814 -14.1799 -1.0307
-12.8606 -14.657 -1.11636
-15.3343 -12.9385 -0.972188
-13.5811 -13.96 -1.11123
-15.339 -12.9379 -1.03666
-12.5754 -15.1667 -1.29306
-16.3555 -11.9427 -0.890427
-15.5015 -12.7963 -1.01764
-16.044 -12.2597 -0.981862
-15.965 -12.3186 -1.03639
-15.2858 -12.9011 -1.34909
-16.1275 -12.0642 -1.27555
-12.4639 -15.1673 -1.59712
-15.4588 -12.6908 -1.37976
-15.2816 -12.856 -1.46479
-13.9472 -13.1714 -1.43869
-12.6665 -14.8863 -1.80003
-13.6441 -13.4155 -1.57585
-15.2064 -12.8335 -1.6789
-13.6586 -13.3905 -1.63699
-13.6532 -13.3594 -1.66959
-15.4765 -12.5646 -1.75275
-12.4217 -15.0404 -1.93246
-13.0071 -13.9089 -2.09359
-13.0445 -13.8439 -2.08818
-13.8189 -13.027 -2.27812
-12.6069 -15.1337 -2.61033
-13.7428 -13.0974 -2.33144
-13.7468 -13.0755 -2.34297
-12.5622 -15.0588 -2.87593
-12.6473 -14.8581 -3.19699
-13.0298 -14.4512 -3.35091
-12.9362 -14.5684 -3.37083
-12.66 -14.7444 -3.50686
-12.8197 -14.5919 -3.49637
-12.6865 -14.7295 -3.56002
-12.9665 -14.4525 -3.57012
-13.0852 -14.3375 -3.64419
-12.9939 -14.4074 -3.63049
-12.9606 -14.4426 -3.6376
-12.8511 -14.4897 -3.64862
-13.0827 -14.267 -3.74543
-12.9111 -14.4674 -3.74617
-12.8359 -14.497 -3.80527
-12.6104 -14.586 -4.23464
-15.245 -14.189 2.62096
-15.7829 -13.6695 2.78023
-15.5541 -13.8559 2.5583
-11.5748 -13.82 1.49622
-15.2955 -14.0334 2.33607
-16.0045 -13.3296 2.42544
-15.9276 -13.4107 2.40193
-15.354 -13.945 2.09954
-15.576 -13.6721 2.10403
-15.5146 -13.7501 2.04784
-15.5022 -13.7349 1.98882
-15.3609 -13.8312 1.93546
-14.0316 -13.9848 1.6386
-11.1182 -14.1276 1.00285
-15.5432 -13.6628 1.87301
-15.3532 -13.8032 1.70808
-15.1794 -13.8785 1.53751
-13.8506 -14.0147 1.20155
-15.4705 -13.6176 1.48729
-13.56 -14.2478 1.01386
-12.8749 -14.7076 0.829829
-15.156 -13.7387 1.00632
-15.1473 -13.7179 0.968819
-15.387 -13.4129 0.677844
-13.4601 -14.4966 0.143948
-12.403 -15.1848 -0.0960206
-13.4235 -14.4715 0.0521249
-14.1086 -14.06 0.0754199
-14.0911 -14.0545 0.0416793
-13.0038 -14.6242 -0.111956
-15.8784 -12.7829 0.18346
-13.3715 -14.4216 -0.225785
-12.7034 -14.8892 -0.364994
-14.0504 -14.0576 -0.172965
-15.1614 -13.4418 -0.0478919
-16.5874 -12.0564 0.196133
-12.8524 -14.5663 -0.327124
-12.7551 -14.8076 -0.403474
-13.5888 -14.2211 -0.289577
-13.4616 -14.308 -0.405144
-16.4379 -12.148 0.00340951
-16.7692 -11.8334 0.0114899
-12.5636 -15.1177 -0.587765
-16.7485 -11.8434 -0.0171427
-16.6992 -11.8714 -0.0364669
-15.1676 -13.3085 -0.331773
-15.0243 -13.415 -0.425248
-16.6623 -11.8702 -0.255898
-12.5573 -15.0401 -0.861673
-15.5312 -12.8792 -0.645516
-15.3881 -12.9851 -0.673938
-14.9948 -13.3587 -0.752016
-16.4331 -11.9951 -0.554417
-15.9199 -12.4996 -0.668835
-15.3251 -12.9196 -1.12994
-12.4479 -15.219 -1.45287
-12.4733 -15.2088 -1.48024
-14.8382 -13.2683 -1.42036
-13.5876 -13.7594 -1.57642
-13.7417 -13.3282 -1.5069
-15.0783 -12.9773 -1.75471
-13.3105 -13.9863 -1.75298
-12.6517 -14.8093 -1.91785
-12.6817 -14.7358 -2.03837
-12.9812 -13.9598 -2.01713
-12.8901 -14.0293 -2.07105
-13.8687 -12.9283 -2.22729
-12.8197 -14.2141 -2.46651
-12.8582 -14.1912 -2.47124
-12.9889 -13.9111 -2.49232
-12.9423 -14.5614 -3.3519
-13.3987 -14.004 -3.48494
-13.0798 -14.3256 -3.50515
-13.0844 -14.3082 -3.64371
-12.8513 -14.4878 -3.72061
-15.8397 -13.6462 2.77468
-15.445 -13.9177 2.46841
-15.4738 -13.9143 2.43375
-15.8756 -13.4489 2.32856
-15.4466 -13.7481 1.96192
-15.3624 -13.8555 1.90839
-15.3242 -13.8948 1.87867
-15.8765 -13.3397 1.96812
-15.3869 -13.7288 1.69682
-15.4593 -13.7 1.68316
-13.8372 -14.0727 1.35596
-14.419 -13.805 1.18523
-14.4104 -13.8385 1.01333
-15.1954 -13.7221 0.980883
-12.6036 -14.9197 0.254916
-13.369 -14.6027 0.214809
-12.4243 -15.2032 -0.0862677
-16.4793 -12.2522 0.460264
-12.716 -15.0312 -0.277579
-13.4548 -14.3941 -0.154179
-12.7773 -14.6827 -0.293744
-12.803 -14.5877 -0.292958
-13.5123 -14.3279 -0.211974
-15.6709 -12.9564 0.0188648
-15.1313 -13.4247 -0.0962588
-15.8943 -12.7002 0.000711854
-16.4789 -12.1358 0.00414819
-13.6626 -13.9905 -0.575246
-16.5048 -11.9725 -0.400024
-12.6786 -14.9123 -0.843983
-15.0282 -13.3654 -0.776535
-12.7119 -14.816 -1.00593
-12.6636 -14.8781 -1.01765
-12.6439 -14.8894 -1.03141
-12.4643 -15.2637 -1.13306
-12.447 -15.2558 -1.18061
-12.8987 -14.6124 -1.09238
-15.9061 -12.4013 -0.875934
-15.3783 -12.9212 -1.11786
-15.3492 -12.9019 -1.14458
-14.346 -13.0066 -1.09572
-13.6315 -13.8318 -1.25457
-13.4796 -13.9899 -1.33957
-15.5829 -12.6131 -1.283
-13.8231 -13.3231 -1.42967
-15.2718 -12.778 -1.64069
-15.1435 -12.9378 -1.71497
-15.3679 -12.6257 -1.82709
-13.6224 -13.3789 -1.98202
-12.9876 -13.8807 -2.0831
-12.5675 -15.1298 -2.61351
-13.7826 -13.0165 -2.31317
-13.4795 -13.2335 -2.56102
-12.5711 -15.0363 -2.88786
-13.1109 -14.4861 -3.03369
-16.0463 -13.3145 2.47448
-14.1453 -13.8622 1.70104
-16.0318 -13.26 2.12028
-15.6932 -13.543 2.02115
-15.6679 -13.4621 1.70468
-13.863 -14.004 1.26554
-14.3353 -13.7751 1.31138
-13.393 -14.3826 1.00291
-15.573 -13.4813 1.43154
-13.4253 -14.3466 0.910177
-15.8921 -13.0949 1.19258
-15.1703 -13.7382 0.932401
-12.3949 -15.1343 0.324226
-12.371 -15.1592 0.324009
-12.7869 -14.7794 0.382717
-13.9163 -14.219 0.0481327
-12.7434 -14.796 -0.283758
-16.5378 -12.0013 -0.183694
-16.4678 -12.0885 -0.231613
-12.6862 -14.9597 -0.762933
-12.6875 -14.9072 -0.829407
-16.2613 -12.2026 -0.496925
-15.3798 -13.0044 -0.805683
-15.9024 -12.4736 -0.747438
-13.4599 -14.1553 -1.01317
-16.042 -12.2825 -0.946753
-13.3824 -14.0265 -1.45027
-13.6963 -13.4951 -1.40163
-14.9194 -13.1668 -1.45753
-13.6298 -13.7363 -1.48978
-15.3346 -12.7279 -1.69641
-15.371 -12.5644 -1.97497
-12.9793 -13.969 -2.0932
-12.9114 -13.9213 -2.19921
-12.9053 -13.9462 -2.24033
-12.5947 -15.059 -2.64147
-12.9065 -14.5246 -3.48863
-11.9915 -13.7128 2.12119
-15.6333 -13.8962 2.86236
-15.3731 -13.9126 2.1863
-14.1648 -13.8385 1.66897
-14.1994 -13.8281 1.67411
-14.1451 -13.827 1.60289
-13.8169 -14.0543 1.29538
-15.4609 -13.5042 1.15353
-15.3896 -13.4174 0.711578
-14.4444 -13.3223 0.35992
-13.509 -14.3756 -0.0455704
-13.5385 -14.2912 -0.134523
-15.2338 -13.3409 -0.0230771
-12.8211 -14.6035 -0.411344
-14.2057 -13.8832 -0.294532
-12.6863 -14.9286 -0.804534
-12.7601 -14.8643 -0.789838
-15.293 -12.8218 -1.45571
-13.2651 -14.0027 -1.77897
-12.9439 -14.0105 -1.92196
-12.8585 -14.5613 -3.4231
-14.1701 -13.7989 1.59085
-14.1101 -13.8531 1.49403
-15.4398 -13.4524 0.801727
-15.9623 -12.8167 0.594961
-12.8555 -14.546 -0.194229
-12.5471 -15.2711 -0.928696
-12.6811 -14.9994 -1.34384
-12.5715 -15.0639 -1.5471
-13.8635 -13.2353 -1.51142
-13.7569 -14.0935 1.22591
-15.2284 -13.682 1.00022
-12.6377 -14.9005 0.283087
-13.364 -14.2246 -1.03379
-13.6076 -13.9361 -1.06891
-13.5722 -13.8829 -1.24721
-13.8461 -13.323 -1.41179
-13.6203 -13.4408 -1.59687
-13.0422 -13.9974 -1.84641
-12.9601 -13.8793 -2.50428
-13.1957 -13.4083 -2.42498
-14.3493 -13.8254 0.869206
-14.0348 -14.2253 0.233402
-12.7739 -14.858 -0.72887
-13.3626 -14.1974 -1.03682
-12.7329 -14.9433 -0.274629
-16.0057 -12.6452 0.178866
-13.5627 -14.0959 -1.02009
-14.2962 -13.9016 1.15693
-14.1253 -13.7379 -0.630686
-13.1091 -14.4819 -0.341266
-12.7025 -14.881 -1.55951
-13.8016 -13.3818 -1.46164
-14.7352 -13.4423 0.0814604
-13.0245 -14.6239 -0.919982
-13.1407 -14.4299 -1.14604
-12.8342 -14.3062 -1.89406
-13.0938 -13.7801 -1.95142
-12.6808 -14.8693 -2.16908
-13.4014 -13.3 -2.56654
-12.9254 -14.4853 -3.54689
-12.812 -14.5786 -3.58344
-12.6151 -14.7794 -3.68314
-12.6723 -14.7101 -3.58533
-12.8734 -14.6049 -3.46845
-15.2725 -12.674 -1.9297
-12.6855 -14.7624 -3.50078
-15.4608 -12.5768 -1.76362
-12.5833 -14.8348 -3.48984
-13.0204 -14.4896 -3.21186
-12.5148 -14.9417 -3.47419
-16.5808 -11.7614 -0.879979
-12.6614 -14.857 -3.24335
-12.6504 -14.8423 -3.26883
-12.8972 -14.6559 -3.09374
-15.3229 -12.8141 -1.49953
-15.4514 -12.6904 -1.39526
-16.4081 -11.964 -0.731266
-12.5178 -15.0037 -3.15947
-13.0383 -13.8271 -2.112
-16.7498 -11.7605 -0.296414
-13.6693 -13.3721 -1.6636
-12.941 -13.9218 -2.12663
-16.4354 -12.0088 -0.478192
-13.7343 -13.3857 -1.52819
-15.903 -12.493 -0.716525
-16.3926 -12.0867 -0.339097
-16.3978 -12.1319 -0.308445
-15.6585 -12.7204 -0.7551
-16.6284 -11.9449 -0.0117939
-15.6645 -12.7292 -0.54987
-15.5826 -12.8255 -0.595894
-14.9619 -13.3951 -0.737832
-15.049 -13.3458 -0.718112
-16.0445 -12.5976 0.0647242
-15.7181 -12.862 -0.183275
-16.219 -12.5061 0.362272
-15.1002 -13.3768 -0.373643
-15.8249 -12.8127 0.169437
-15.7517 -12.8862 0.261753
-14.3288 -13.6363 -0.46701
-15.2534 -13.3584 0.00320263
-15.1144 -13.4521 -0.0442423
-15.5171 -13.148 0.25941
-12.8839 -14.5843 -1.18632
-16.1212 -12.7525 0.814024
-16.2953 -12.6338 1.07419
-16.2525 -12.654 1.05012
-15.5632 -13.2284 0.565571
-15.5455 -13.2594 0.549397
-14.4655 -13.328 0.428824
-12.6797 -14.8603 -1.03915
-13.5491 -14.2023 -0.387512
-13.3882 -14.432 -0.211925
-12.6977 -15.019 -0.507234
-12.6562 -15.0528 -0.513194
-12.6284 -15.0809 -0.541154
-12.6411 -15.0737 -0.519033
-13.3689 -14.5309 0.0421611
-13.4557 -14.4711 0.104948
-15.9167 -13.2027 1.6214
-15.3722 -13.7389 1.65705
-13.9388 -13.9434 1.32784
-14.0866 -13.8894 1.52282
-13.6377 -14.2405 1.21473
-13.3702 -14.4379 1.0041
-12.5015 -15.056 0.293613
-15.3037 -13.951 2.09165
-15.4262 -13.9223 2.44294
-11.5943 -13.7759 1.37988
-11.636 -13.7621 1.42971
-14.9222 -14.351 2.80109
-12.6518 -14.609 -4.03241
-12.8388 -14.4941 -3.70997
-12.769 -14.5586 -3.7077
-13.0742 -14.335 -3.51261
-12.8984 -14.4812 -3.61099
-12.8967 -14.4891 -3.57957
-12.7184 -14.6557 -3.70664
-13.0468 -14.43 -3.35983
-12.8289 -14.6234 -3.46443
-12.7477 -14.7044 -3.42519
-12.6485 -14.8121 -3.43406
-16.5944 -11.7332 -0.842135
-16.2206 -12.0294 -1.03877
-15.2176 -12.8578 -1.58114
-15.3212 -12.8203 -1.52342
-16.4463 -11.9346 -0.705394
-15.1114 -13.0492 -1.36789
-15.2976 -12.9167 -1.1827
-15.6055 -12.6883 -0.970088
-13.7086 -13.3706 -1.56954
-15.884 -12.4935 -0.675275
-16.4749 -12.0725 -0.252264
-16.2429 -12.2426 -0.320864
-13.5833 -13.7593 -1.56941
-15.1695 -13.135 -0.883218
-15.5354 -12.8872 -0.578743
-13.3694 -13.9833 -1.59894
-15.348 -13.2009 -0.167129
-12.6594 -14.9209 -1.79474
-14.2024 -13.7292 -0.607691
-15.1241 -13.4415 -0.0679447
-15.9837 -12.9397 1.05306
-13.5083 -14.2673 -0.368557
-12.6216 -15.1495 -1.16675
-12.7693 -14.8849 -0.693184
-13.9336 -14.1274 0.0982582
-12.6285 -14.9725 -0.788669
-12.9183 -14.4945 -0.338815
-14.5006 -13.8372 0.655531
-15.1773 -13.7591 0.979861
-12.6179 -15.0915 -0.570972
-12.5539 -15.1392 -0.596821
-13.9044 -14.3795 0.314614
-13.3342 -14.5617 0.0599626
-15.1356 -13.7924 1.1393
-13.8596 -14.4678 0.38275
-13.3763 -14.5879 0.217562
-15.7517 -13.4412 1.88123
-15.408 -13.8303 1.94011
-15.6137 -13.6419 2.13774
-13.256 -14.5001 0.890628
-15.307 -13.9375 2.10405
-15.5621 -13.8562 2.54897
-15.5651 -13.8188 2.62778
-11.1562 -14.1175 1.01909
-11.2889 -14.0503 1.29542
-11.221 -14.0966 1.30114
-11.559 -13.9138 1.68803
-12.7841 -14.4891 -3.84347
-13.0657 -14.3165 -3.64829
-13.0673 -13.4555 -2.73885
-13.544 -13.1935 -2.48618
-12.801 -14.6312 -3.48521
-15.4942 -12.5353 -1.73668
-12.6731 -14.7862 -3.44835
-13.9157 -12.8681 -1.86583
-13.0125 -14.5175 -3.12358
-13.1699 -14.3885 -3.01909
-15.2093 -12.8597 -1.66074
-16.0063 -12.2929 -0.930942
-13.0526 -13.8428 -2.12793
-16.5143 -11.9179 -0.439226
-13.6784 -13.4063 -1.51502
-13.7362 -13.4406 -1.43718
-16.4619 -12.1226 -0.165242
-15.3385 -13.022 -0.813966
-15.3715 -13.0086 -0.795833
-13.4746 -13.885 -1.54106
-13.1885 -14.2082 -1.50369
-14.3873 -13.6215 -0.320272
-15.1486 -13.4052 -0.0492022
-15.4943 -13.163 0.259514
-15.0523 -13.5278 -0.0568134
-14.3777 -13.5163 -0.13441
-14.4547 -13.3092 0.358408
-12.68 -14.8507 -1.02831
-12.4323 -15.2564 -1.22024
-12.5994 -14.9931 -0.823298
-12.8889 -14.5179 -0.349658
-12.7296 -14.7419 -0.31505
-15.6103 -13.433 1.33112
-13.1713 -14.7166 0.0636943
-15.7709 -13.4147 1.80831
-15.3669 -13.858 1.94436
-15.4063 -13.8477 1.95508
-15.3975 -13.9684 2.41752
-15.204 -14.1917 2.50498
-11.7633 -13.6605 1.48197
-11.8617 -13.6514 1.70223
-11.8676 -13.611 1.75021
-11.2482 -14.0978 1.29062
-12.9858 -13.4518 -2.7573
-13.3667 -13.3474 -2.62765
-13.9163 -12.8298 -2.06564
-15.3534 -12.6681 -1.88779
-15.3772 -12.6449 -1.82797
-12.668 -14.8163 -3.24661
-15.2048 -12.8708 -1.65947
-12.5069 -14.9874 -3.22321
-14.0683 -13.2248 -1.43309
-12.9537 -13.9849 -2.08621
-12.9945 -13.953 -2.01559
-12.9308 -14.0321 -2.06606
-15.3138 -12.9516 -0.980069
-12.4658 -15.2125 -1.47014
-13.0998 -14.5615 -0.431492
-12.3902 -15.0913 0.0669909
-12.4804 -15.1098 0.2897
-12.3354 -15.1775 0.168842
-11.7683 -13.7212 1.68962
-11.2616 -14.1313 1.47668
-11.7844 -13.7321 2.01797
-12.8601 -14.5768 -3.38079
-13.9143 -12.8471 -1.8774
-16.5332 -11.7427 -0.870845
-12.5639 -14.9867 -3.19734
-13.6905 -13.3531 -1.65108
-13.7023 -13.4882 -1.39592
-13.6093 -13.8182 -1.40602
-12.7201 -15.0369 -0.346631
-13.5249 -13.8552 -1.60265
-12.5405 -15.2845 -0.924328
-12.6226 -15.0159 -0.635869
-15.7906 -13.4322 1.92464
-12.169 -15.2756 -0.0596208
-12.7812 -14.7112 -1.09909
-15.3298 -13.6116 1.12211
-13.4359 -14.4372 0.709652
-13.2409 -14.4671 0.728727
-13.0744 -13.9625 -1.83808
-13.3528 -14.224 -1.27467
-12.8362 -14.7273 -0.945146
-13.3612 -14.5689 0.151213
-13.8727 -13.5214 -1.15122
-13.4462 -13.985 -1.48429
-13.7097 -13.8941 -0.95285
-14.3311 -14.077 0.328474
-13.0132 -14.6453 -0.403719
-12.9993 -14.6586 -0.909895
-16.566 -11.7481 -0.882932
-15.9188 -12.4891 -0.66232
-16.1202 -12.4252 -0.187484
-13.7414 -13.0584 -2.31205
-15.3215 -12.9647 -1.03847
-15.4845 -12.9464 -0.486253
-16.2987 -12.6424 1.08708
-16.2726 -12.6555 1.08513
-13.3998 -13.3113 -2.59983
-13.3864 -13.3109 -2.56693
-16.2709 -12.6963 1.07742
-16.2464 -12.6999 1.0694
-14.8898 -13.2296 -1.41309
-15.2157 -13.2056 -0.564371
-13.8403 -13.2637 -1.37713
-13.78 -13.3003 -1.5248
-13.7404 -13.308 -1.50768
-13.6535 -13.3647 -1.66797
-13.6582 -13.3647 -1.64676
-15.5164 -13.1665 0.249258
-13.7635 -13.3688 -1.51454
-15.4874 -13.2148 0.289546
-16.2004 -12.9227 1.68411
-15.1019 -13.4682 -0.0838225
-16.0824 -13.1734 2.13276
-15.5554 -13.3808 1.0953
-15.3487 -13.4867 0.876751
-14.4055 -13.6504 -0.298383
-14.1881 -13.7432 -0.607457
-13.0141 -14.4111 -3.48051
-15.3285 -13.5966 1.08897
-15.3188 -13.6202 1.12962
-12.8984 -14.4623 -3.61517
-15.858 -13.4425 2.33411
-15.7229 -13.5161 2.04565
-15.5637 -13.5826 1.84547
-14.3284 -13.8538 0.128529
-15.402 -13.7127 1.58344
-15.5205 -13.6725 1.94224
-14.1313 -13.9809 -0.171806
-14.5187 -13.8398 0.655507
-15.826 -13.6105 2.69285
-13.7102 -14.019 -0.471156
-15.4018 -13.7894 1.92534
-12.5929 -14.7899 -3.66357
-13.417 -14.2182 -0.98754
-15.7133 -13.7324 2.67776
-12.8685 -14.4889 -2.21726
-13.9505 -14.1228 0.160238
-12.6629 -14.8413 -3.22125
-15.2536 -14.0073 2.04522
-13.5029 -14.2475 -0.421241
-15.1971 -14.0272 1.99147
-13.4473 -14.2778 -0.418998
-12.5444 -14.9751 -3.21618
-12.6256 -12.8629 3.16218
-12.5968 -12.889 3.14762
-12.774 -14.6994 -1.81901
-13.8412 -14.0829 1.33678
-12.7338 -15.0237 -2.5024
-12.8964 -14.6079 -1.09314
-13.5692 -14.234 1.02007
-12.7358 -14.8059 -0.996703
-12.7407 -14.8027 -1.0002
-12.679 -14.8608 -1.00626
-12.6531 -14.8954 -1.02378
-13.1484 -14.5424 0.675367
-12.7124 -14.8102 -0.44046
-13.0893 -14.6162 0.67825
-11.6539 -13.7277 1.42474
-12.5352 -15.1667 -1.34042
-11.5689 -13.7828 1.34867
-11.81 -13.732 1.83959
-12.6621 -15.0954 -0.498217
-12.8612 -14.7753 0.611178
-12.5361 -15.1348 -0.616861
-12.5744 -15.2839 -0.907972
-12.5227 -15.1293 -0.629904
-12.556 -15.1681 -0.423428
-11.5515 -13.9645 1.68886
-11.3025 -14.0691 1.37997
-11.158 -14.177 1.25796
-16.5815 -11.8244 -0.533013
-16.4523 -12.0246 -0.454277
-16.4966 -12.0575 -0.186768
-15.9695 -12.3479 -1.00545
-15.6157 -12.5558 -1.28399
-15.08 -12.7689 -2.25082
-15.8559 -12.4843 -0.703305
-15.2352 -12.8262 -1.54682
-13.7486 -13.0556 -2.32101
-15.0625 -13.0357 -1.51008
-13.7114 -13.1058 -2.35704
-15.4511 -13.0147 -0.408364
-13.9222 -13.2074 -1.42542
-15.9255 -12.9489 0.852229
-13.7486 -13.3654 -1.51715
-15.1772 -13.3002 -0.341898
-13.6943 -13.38 -1.53851
-14.2686 -13.55 -1.05023
-15.3875 -13.4292 0.687372
-13.0919 -14.2643 -3.72946
-13.0766 -14.2865 -3.70433
-14.38 -13.6212 -0.338686
-15.8099 -13.3374 1.75908
-12.9466 -13.9094 -2.13981
-13.6524 -13.8348 -1.25811
-15.5905 -13.4755 1.52595
-13.3035 -13.97 -1.74184
-12.9254 -13.9946 -2.05807
-12.8908 -14.5127 -3.55283
-15.379 -13.6922 1.51327
-12.8872 -14.591 -3.31074
-12.6264 -14.7642 -3.69161
-12.4111 -14.3433 -2.5568
-15.8316 -13.673 2.80371
-14.1024 -14.0696 0.0547517
-15.3251 -13.872 1.8972
-13.5276 -14.1506 -0.644351
-15.6006 -13.8181 2.584
-15.6051 -13.8236 2.61536
-13.6192 -14.1605 -0.31011
-15.4505 -13.9509 2.43676
-14.2464 -14.1714 0.697484
-13.5799 -14.2984 -0.0509532
-12.6875 -14.7198 -2.05113
-13.4403 -14.3883 -0.160072
-12.8501 -14.5651 -1.18556
-12.7673 -14.8074 -1.78637
-13.4695 -14.4586 0.119921
-12.7738 -14.6622 -1.24273
-13.6051 -14.2227 1.02449
-13.4161 -14.4732 0.0450045
-12.641 -14.8365 -1.88425
-12.5897 -15.1397 -2.6347
-13.3673 -14.5406 0.0279474
-13.6365 -14.2163 1.27336
-13.3263 -14.5597 -0.0119663
-12.8953 -14.5396 -0.39109
-12.9044 -14.6956 -0.171491
-12.7171 -14.8574 -0.835482
-12.7085 -14.8592 -0.835841
-11.8188 -13.6701 1.76382
-12.7027 -14.86 -0.374663
-12.6269 -15.0132 -0.768618
-12.5717 -15.2655 -0.945012
-12.6497 -14.8764 0.296597
-12.6195 -15.1159 -0.419943
-11.147 -14.1218 0.995861
-10.8499 -14.1687 1.8333
-16.5529 -11.7632 -0.921106
-16.6059 -11.8607 -0.392799
-16.4379 -12.0115 -0.5123
-15.9652 -12.2354 -1.35809
-16.0713 -12.2508 -0.951805
-16.4668 -12.0987 -0.0961192
-15.9626 -12.3265 -0.998293
-16.2848 -12.2439 -0.147808
-16.5278 -12.2454 0.459181
-15.3706 -12.7543 -1.47825
-15.1527 -12.9175 -1.69547
-13.7204 -13.0567 -2.38314
-13.6508 -13.0973 -2.46692
-13.9214 -13.2256 -1.41315
-15.1795 -13.2342 -0.571009
-13.8238 -13.2888 -1.51526
-15.475 -13.1799 0.24898
-15.4717 -13.2173 0.214262
-15.6491 -13.3112 1.1366
-15.4442 -13.4235 0.844074
-13.0796 -13.8003 -2.11268
-13.0583 -14.3301 -3.63375
-12.9078 -13.9993 -2.12958
-15.211 -13.6497 0.848412
-13.5426 -13.9376 -1.14995
-12.7173 -14.5855 -3.84155
-15.6222 -13.5934 2.01411
-12.9146 -14.5471 -3.34745
-14.2304 -13.9287 -0.0392964
-13.249 -14.1147 -1.47358
-15.856 -13.5875 2.72258
-15.8083 -13.6355 2.65576
-15.773 -13.6678 2.62389
-15.1552 -13.8754 1.4075
-15.735 -13.6971 2.63496
-14.0161 -14.0956 -0.172595
-14.3141 -13.9948 0.417025
-12.6772 -14.7746 -3.4491
-15.2961 -13.9023 1.86364
-15.6181 -13.791 2.62653
-15.3429 -13.9161 2.11529
-13.356 -14.2582 -0.89925
-15.4919 -13.8692 2.47831
-15.5251 -13.893 2.56352
-12.9562 -14.2978 -1.26314
-12.6277 -14.8597 -3.2212
-15.4303 -13.9076 2.46673
-15.3247 -13.9575 2.26099
-13.5024 -14.2759 -0.370731
-12.9536 -14.6386 -0.122111
-13.0567 -14.6123 0.61521
-12.5691 -15.0269 -0.85094
-12.4606 -15.2675 -1.14461
-11.5259 -13.9233 1.67596
-12.4051 -15.1732 -0.09803
-12.1874 -15.252 -0.0346418
-16.501 -11.7674 -0.95707
-16.2629 -11.9815 -1.14562
-16.2262 -12.7087 1.08999
-13.8853 -13.2286 -1.44165
-13.8615 -13.2681 -1.48106
-13.8687 -13.2999 -1.4449
-13.7629 -13.3868 -1.39712
-15.1908 -13.4 -0.0629725
-15.1786 -13.4488 -0.0505339
-14.266 -13.424 -0.659977
-13.0939 -13.789 -2.0578
-15.1515 -13.7174 0.922974
-13.135 -14.2037 -1.64451
-15.6728 -13.7312 2.63128
-13.1705 -14.3805 -1.44136
-13.9346 -13.949 1.28373
-12.6066 -14.9654 -3.02994
-13.8367 -14.0486 1.27568
-12.8629 -14.6239 -1.1246
-13.394 -14.4835 0.636678
-13.1883 -14.649 0.0741888
-15.3336 -12.9162 -0.975471
-13.4282 -13.3291 -2.56128
-14.3618 -13.1312 -1.05387
-14.2097 -13.2277 -1.3616
-13.7376 -13.3182 -1.60235
-13.6669 -13.3741 -1.64046
-13.7648 -13.4233 -1.37745
-13.6357 -13.4803 -1.34578
-15.3918 -13.5439 1.08758
-13.3023 -13.9796 -1.77364
-15.6099 -13.5384 1.73392
-12.9737 -14.021 -1.98752
-15.1792 -13.7139 0.991956
-13.4268 -14.2397 -1.28734
-13.4294 -14.1516 -1.0189
-13.9381 -13.9441 1.24484
-12.7906 -14.7491 -1.80995
-13.419 -14.4952 0.131563
-13.495 -14.5238 0.411728
-13.2426 -14.6413 0.0642672
-12.5146 -15.1635 -0.599547
-12.5139 -15.2111 -0.46925
-16.3525 -12.1893 -0.146204
-15.5106 -12.6429 -1.34845
-14.306 -13.4496 -1.0053
-15.4159 -13.4506 0.797356
-12.9957 -13.841 -2.16561
-14.244 -13.7185 1.44929
-13.2378 -14.258 -1.11341
-12.8105 -14.6863 -1.10325
-13.3908 -14.532 0.152657
-12.8482 -14.7831 0.617857
-12.4974 -15.0563 0.313703
-13.9786 -13.2056 -1.46177
-14.2131 -13.2995 -1.11586
-14.2682 -13.4298 -1.01064
-13.8593 -13.892 -0.701499
-13.9481 -13.9131 1.27134
-13.0983 -14.4768 -0.749157
-12.5948 -15.1239 -0.454407
-15.2602 -13.6469 0.904276
-13.0073 -13.8526 -2.18605
-13.2452 -14.3563 -0.819462
-13.4715 -13.9838 -1.45929
-12.88 -14.2807 -1.93613
-12.8717 -14.503 -1.38067
-12.6898 -14.8567 -1.78561
-12.8805 -13.9021 -2.89868
-16.3546 -12.1192 -0.400247
-16.1824 -12.576 0.518035
-15.9498 -12.4356 -0.646087
-15.96 -12.2358 -1.29037
-15.9244 -12.2648 -1.25478
-15.5646 -13.5759 1.83197
-15.5662 -13.4365 1.27773
-15.5363 -12.8875 -0.601881
-15.4091 -14.0855 2.73633
-15.3078 -12.8115 -1.52105
-15.3114 -12.8433 -1.51698
-15.1226 -14.2479 2.3972
-11.7773 -13.7324 1.70963
-13.7187 -13.0661 -2.35364
-11.5809 -13.7909 1.33984
-13.326 -14.4538 0.950039
-13.4161 -13.2817 -2.57884
-13.8319 -14.3596 0.0621851
-13.402 -13.3012 -2.59434
-11.3127 -14.0224 1.26629
-13.4281 -14.3872 -0.162448
-13.3863 -14.248 -0.749063
-10.8376 -14.1836 1.79213
-13.3331 -14.5824 0.00722606
-13.1268 -13.5488 -3.06953
-12.9429 -13.9111 -2.11128
-12.7398 -14.8194 -0.396035
-12.7862 -14.8802 -0.680792
-12.7846 -14.7587 -1.03592
-12.757 -14.8901 -0.66989
-12.8866 -14.473 -2.22477
-12.7232 -14.8707 -0.813575
-12.6532 -15.0538 -0.523059
-12.6533 -14.9045 -1.03659
-12.6171 -15.0874 -0.496926
-12.9486 -14.4349 -3.63077
-12.9079 -14.4483 -3.73924
-16.731 -11.9326 0.206111
-16.4269 -12.0306 -0.473208
-16.0649 -12.2553 -0.947026
-15.6159 -13.8378 2.5802
-15.595 -13.8329 2.60671
-15.5677 -12.5938 -1.28866
-15.4859 -13.2805 0.487467
-15.3825 -13.6701 1.41409
-15.4116 -13.4213 0.679508
-15.3673 -12.5886 -1.92086
-15.2828 -14.0612 2.34142
-15.3097 -12.8417 -1.48509
-15.0968 -13.897 1.28333
-14.8587 -14.401 2.70766
-13.8138 -14.0379 1.22357
-14.0993 -14.0642 0.0549772
-13.6508 -13.3853 -1.65907
-13.7024 -14.0145 -0.498469
-13.6107 -14.0059 -0.55749
-13.6174 -13.8574 -1.26612
-13.5539 -14.0716 -0.649831
-13.5537 -14.0787 -0.622866
-13.3455 -14.5385 -0.00160425
-13.142 -13.5382 -3.0803
-12.9745 -13.9808 -1.90545
-12.8139 -14.5621 -0.190809
-12.9475 -14.6471 -0.127925
-12.6088 -14.914 0.22181
-12.7589 -14.6448 -1.26044
-12.7634 -14.7825 -0.933684
-12.6898 -14.8484 -1.01304
-12.6854 -15.0448 -0.514715
-12.6056 -14.9948 -0.755637
-15.8625 -12.8872 0.594776
-15.5282 -13.7534 2.0424
-15.3945 -13.4511 0.706314
-15.3335 -13.9646 2.23954
-15.3057 -14.039 2.34625
-14.468 -13.3349 0.381854
-14.4449 -13.3141 0.358752
-15.1749 -13.7363 0.957
-15.1139 -13.8679 1.39392
-15.153 -12.9393 -1.72684
-14.1928 -13.6973 -0.663957
-13.8308 -13.3638 -1.33826
-13.7809 -13.3976 -1.43197
-13.5612 -14.2428 1.048
-13.592 -14.2753 -0.0716395
-13.4122 -14.4908 0.663434
-13.5291 -13.9389 -1.1983
-13.5136 -14.342 -0.163055
-13.3133 -14.182 -1.13571
-13.257 -14.6364 0.0201612
-13.2585 -14.6209 -0.0133488
-13.1117 -14.2756 -1.49428
-12.8665 -13.9555 -2.18122
-12.7223 -14.8657 -0.80653
-12.6978 -14.8424 -1.00606
-12.571 -15.0918 -0.587007
-12.5604 -15.2718 -0.966798
-12.4404 -15.2563 -1.14964
-12.408 -15.2493 -1.12637
-12.5169 -14.9156 -3.50836
-15.894 -12.4453 -0.764154
-15.6924 -13.7364 2.65166
-13.9394 -13.157 -1.54002
-13.4878 -14.2749 0.954399
-13.6454 -13.9969 -0.589269
-13.5729 -13.8402 -1.50307
-13.4749 -14.3385 -0.248729
-13.4582 -14.4287 0.0188494
-12.8687 -14.5 -0.368874
-12.8601 -14.2283 -2.42115
-12.7779 -14.6378 -1.26625
-15.8387 -13.6338 2.75041
-15.6601 -13.7889 2.63031
-15.5214 -13.1417 0.231908
-14.4606 -13.4228 0.398057
-15.0144 -13.4508 -0.435508
-13.2275 -14.3242 -1.07781
-13.0565 -14.562 -0.741116
-12.9 -14.5801 -3.32334
-15.3986 -13.4066 0.688039
-15.2121 -13.6381 0.89078
-14.2256 -13.7285 1.53901
-14.4862 -13.4098 0.330572
-13.5661 -13.9376 -1.106
-13.3966 -14.2761 -0.711673
-12.5683 -15.1005 -0.64476
-15.6356 -13.446 1.57278
-14.4559 -13.396 0.275056
-13.7349 -14.127 1.2995
-13.6729 -14.4586 0.266823
-13.5272 -14.0055 -0.979145
-13.4302 -13.8912 -1.62179
-12.7365 -14.6997 -1.20964
-15.3864 -13.4403 0.85353
-13.0486 -13.8654 -2.54601
-13.6325 -13.6625 -1.12355
-12.8246 -14.2715 -1.71038
-12.8309 -14.2285 -1.95045
-15.74 -13.4371 1.87461
-15.5654 -13.6066 1.86332
-16.3616 -12.3293 0.298285
-11.5675 -13.9079 1.66526
-15.9185 -12.7049 0.0900942
-15.9523 -12.6608 0.0226744
-16.3544 -12.1372 -0.401316
-11.2943 -14.0938 1.38597
-15.4751 -13.1932 0.281973
-15.9387 -12.2338 -1.28452
-13.9999 -14.322 0.406697
-13.957 -14.0948 0.125084
-13.5156 -14.4469 0.170454
-13.6305 -14.1693 -0.284655
-13.5471 -14.2006 -0.352055
-14.1975 -13.2377 -1.40287
-13.7606 -13.294 -1.53251
-13.3654 -14.2828 -0.78064
-13.372 -14.2464 -0.817772
-13.0562 -14.4395 -0.657568
-12.7812 -14.814 -0.388823
-13.1653 -14.4922 -0.86205
-13.1641 -14.4838 -0.885357
-12.1722 -15.2316 -0.0779786
-12.182 -15.2504 -0.102585
-13.7209 -13.1079 -2.36365
-12.7132 -14.7546 -1.23323
-12.4342 -15.2589 -1.42132
-13.0021 -14.4766 -3.3501
-12.9692 -14.4462 -3.53471
-12.6096 -14.7938 -3.68358
-15.7036 -13.7214 2.67218
-15.7343 -13.4201 1.77772
-16.3156 -12.5881 0.911961
-11.8276 -13.6733 1.74482
-14.1818 -13.8126 1.57197
-15.0985 -13.9126 1.29941
-15.1454 -13.7627 0.984289
-16.4358 -12.0037 -0.489696
-16.3687 -12.1042 -0.415461
-15.5141 -13.1733 0.26211
-13.6308 -14.1854 1.13314
-11.2253 -14.1231 1.29791
-16.2116 -12.1547 -0.913968
-15.3666 -13.0574 -0.537404
-14.1227 -14.0687 0.0530596
-14.1655 -13.9903 -0.0945426
-13.4542 -14.4527 0.106621
-13.712 -13.7127 -0.659326
-12.6895 -14.8539 0.304911
-13.5064 -14.236 -0.402284
-12.3716 -15.1762 0.339555
-13.209 -14.4378 -0.914526
-12.6988 -15.0225 -0.491769
-12.6468 -15.0368 -0.52647
-12.6032 -15.0843 -0.543537
-12.5425 -15.1253 -0.606288
-12.7568 -14.7963 -0.985928
-12.6628 -14.8647 -1.05237
-12.5688 -15.2721 -0.928049
-12.961 -13.9649 -2.02981
-12.9987 -14.5199 -3.33122
-12.6212 -14.9825 -2.95395
-13.0867 -14.33 -3.64437
-16.3128 -12.5594 0.908046
-15.9936 -12.964 1.07856
-13.8393 -14.0261 1.26493
-16.6049 -11.7638 -0.725073
-14.4607 -13.3138 0.353061
-13.2112 -14.5218 0.788429
-12.8704 -14.7168 0.844907
-14.0535 -14.0883 0.00399879
-13.0936 -14.6811 0.484376
-13.1299 -14.6379 0.475128
-13.4309 -14.4649 -0.0345065
-15.183 -12.9071 -1.68459
-13.2538 -14.6076 -0.0544524
-12.3729 -15.1604 0.320558
-13.7274 -13.6541 -1.52084
-12.2156 -15.2508 0.00102641
-13.2099 -14.4328 -0.892236
-13.5814 -13.7737 -1.56559
-13.4151 -13.99 -1.43457
-12.7805 -14.8855 -0.722495
-12.6352 -15.0552 -0.519611
-12.7458 -14.8966 -0.679699
-12.5101 -15.2173 -0.446452
-12.507 -15.1682 -0.626454
-13.2855 -13.9608 -1.76457
-12.5092 -15.2023 -1.36418
-13.017 -14.4564 -3.40009
-12.8309 -14.6758 -3.33183
-12.8942 -14.551 -3.47093
-12.6137 -14.8799 -3.18099
-12.5728 -14.945 -3.18057
-12.6114 -13.8562 2.21285
-13.8136 -14.091 1.34622
-15.4791 -13.1849 0.230294
-15.8496 -12.502 -0.668604
-16.0025 -12.3073 -0.899084
-13.2857 -14.4915 0.920891
-12.9309 -14.7173 0.644952
-14.1261 -14.0034 -0.111823
-15.468 -12.6851 -1.42358
-13.4252 -14.537 0.201539
-13.5851 -14.2829 -0.0423215
-13.4731 -14.3557 -0.186898
