-15.6103 -13.3363 2.06874
-15.6601 -13.3068 2.21096
-14.9603 -14.105 2.18261
-15.2844 -13.8291 2.3609
-15.5956 -13.4722 2.41049
-15.1645 -13.9652 2.36124
-15.5038 -13.6316 2.4474
-14.918 -14.2364 2.41765
-11.3653 -14.4058 2.47395
-12.2215 -13.8773 2.71501
-12.2669 -14.7839 -1.56465
-13.7316 -14.1785 -1.47175
-14.3176 -13.6361 -1.14655
-14.4494 -13.5211 -1.00016
-12.6355 -14.4581 -1.11009
-11.8607 -15.2395 -1.29666
-14.1856 -13.9389 -0.702068
-15.1117 -13.1201 0.0279863
-12.9702 -14.4994 -0.258124
-13.5517 -14.5835 0.225475
-11.877 -16.2938 -0.192332
-12.9319 -14.9754 0.269722
-14.0748 -13.8013 0.674256
-12.7008 -15.2727 0.553368
-13.4461 -14.9115 0.84812
-15.1006 -13.5965 1.16145
-13.0666 -15.0659 0.908826
-14.7958 -13.9922 1.34591
-15.11 -13.6399 1.44972
-14.8199 -14.1162 1.59603
-14.6984 -14.1937 1.59511
-13.1521 -14.7313 1.55007
-15.5629 -13.2984 1.7943
-13.6717 -14.3448 2.0919
-15.5781 -13.4281 2.27874
-11.8687 -13.9325 2.81025
-13.0883 -14.0876 -1.30211
-13.7801 -14.1276 -1.44416
-14.2346 -13.9033 -0.702322
-15.2495 -13.0852 0.323317
-14.5399 -13.8623 0.184187
-12.1399 -15.6837 -0.152755
-14.5793 -13.8533 0.332441
-15.1276 -13.5083 0.935063
-13.0196 -15.0003 0.646499
-12.6537 -15.288 0.770661
-14.8999 -13.924 1.30007
-12.8513 -15.1217 1.22914
-14.8808 -13.9429 1.44332
-15.4684 -13.3073 1.59704
-14.8265 -14.0839 1.57637
-15.1391 -13.7303 1.66821
-15.1569 -13.7748 1.87391
-13.9545 -13.9699 2.12616
-15.4989 -13.6685 2.5511
-14.8309 -14.2977 2.53499
-12.8894 -14.4415 -0.926923
-15.1216 -13.2184 0.184304
-12.8546 -15.0729 0.178327
-14.7948 -13.7197 0.519829
-13.847 -14.4643 0.905871
-15.4185 -13.3086 1.47316
-12.4073 -13.8948 3.0562
-12.4815 -14.8972 -1.0914
-12.6233 -15.2162 0.164461
-13.0461 -14.9084 0.412179
-12.6557 -15.2482 0.641506
-12.7395 -15.2484 0.647577
-14.0315 -14.0788 1.10977
-14.6873 -14.0524 1.344
-13.3625 -14.5106 -0.288923
-12.5066 -14.6057 -1.15898
-14.6626 -13.8783 0.614624
-13.9682 -13.8043 1.96168
-15.0483 -13.9372 1.90738
-12.8985 -14.7531 -0.222731
-11.5897 -16.2147 -0.697327
-13.9492 -13.8259 1.63518
-13.9931 -14.0098 2.47943
-11.8108 -13.9404 2.67694
-12.9909 -15.1323 0.86925
-11.989 -13.8841 2.82292
-13.8541 -14.0861 2.04563
-15.4537 -12.8038 0.149578
-15.1083 -12.9358 -0.540341
-15.306 -12.9729 0.0852472
-15.2679 -12.9796 0.11451
-14.8995 -13.2351 -0.444241
-15.1882 -13.1035 0.159528
-14.8155 -13.3898 -0.256531
-14.4063 -13.6745 -0.850311
-15.683 -13.107 1.65934
-14.3108 -13.7006 -1.02986
-15.3382 -13.249 0.999164
-15.11 -13.3922 0.66459
-15.264 -13.34 0.97605
-14.2944 -13.7443 -0.847482
-15.5162 -13.2443 1.46351
-13.8982 -13.9644 -1.48809
-15.2824 -13.3686 1.10944
-14.9408 -13.4981 0.505983
-14.6834 -13.6409 0.021501
-14.8269 -13.6227 0.375198
-15.7085 -13.2275 2.10039
-15.025 -13.5257 0.814339
-15.0238 -13.5499 0.784413
-13.8739 -14.0614 -1.27404
-14.3189 -13.8991 -0.502164
-15.7137 -13.2375 2.23853
-14.5969 -13.845 0.310113
-14.4625 -13.8978 0.0733363
-14.4604 -13.931 0.107011
-15.2779 -13.6431 1.88785
-15.1599 -13.9113 2.24573
-13.5388 -14.5471 0.569357
-12.5455 -15.0097 -0.891001
-12.9864 -14.9388 0.303784
-12.6971 -15.1685 0.0815956
-13.0502 -15.019 0.712281
-12.541 -15.1191 0.0840722
-13.338 -14.5692 1.62012
-13.1433 -14.9465 1.07559
-13.1787 -14.6687 1.4771
-12.6248 -15.4082 0.355448
-12.6223 -15.2597 0.507252
-12.7297 -15.2399 0.71849
-12.4747 -15.2233 0.592457
-12.8278 -15.2291 1.01683
-12.1908 -15.7603 0.15711
-11.9027 -16.2751 0.10274
-12.2945 -15.6185 1.29712
-12.3001 -15.6039 1.29083
-15.4544 -12.7116 -0.0575314
-15.2318 -12.8288 -0.492582
-15.606 -12.6991 0.306888
-15.1017 -12.9073 -0.597556
-14.919 -13.0629 -0.849577
-15.1683 -13.1265 0.0393661
-15.1267 -13.1092 0.0252146
-15.1998 -13.1609 0.271138
-14.9087 -13.2932 -0.136442
-14.5205 -13.5226 -0.823041
-14.3895 -13.6286 -0.940846
-15.5287 -13.1654 1.40786
-15.1049 -13.3816 0.59739
-15.6612 -13.1085 1.72757
-14.3982 -13.6709 -0.722281
-15.626 -13.1665 1.6773
-15.58 -13.177 1.59646
-15.5027 -13.2442 1.43756
-15.3272 -13.3434 1.2708
-14.4126 -13.8091 -0.351344
-15.6404 -13.2736 2.04293
-14.8626 -13.6532 0.614775
-14.8421 -13.6693 0.636389
-15.2891 -13.5164 1.54453
-14.4629 -13.8982 0.120247
-15.1897 -13.56 1.43757
-15.1453 -13.6218 1.35741
-15.2665 -13.7651 2.23299
-12.8061 -14.2937 -1.03737
-14.7661 -14.0683 1.53205
-14.9289 -14.059 1.8871
-13.8905 -14.242 0.634132
-13.5591 -14.5429 0.129227
-14.7538 -14.2618 1.9093
-13.5626 -14.5727 0.256765
-13.9561 -13.8724 1.66965
-13.432 -14.6614 0.0871037
-12.7976 -14.7814 -0.396246
-13.7716 -14.0502 1.57851
-13.4575 -14.6234 0.560093
-13.6262 -14.748 0.941315
-12.9908 -14.8764 0.183662
-12.9886 -14.9375 0.286372
-13.4901 -14.3528 1.53607
-12.7141 -15.1483 0.144338
-14.0296 -14.0597 2.87836
-13.0437 -15.0871 0.824103
-12.6937 -15.3848 0.394586
-12.624 -15.2789 0.573813
-12.6044 -15.2804 0.737027
-12.8748 -14.9693 1.39291
-12.197 -15.7731 0.130355
-12.74 -15.1587 1.38555
-12.7149 -15.1421 1.3762
-12.729 -15.1721 1.36039
-11.9362 -16.2717 -0.0871892
-11.9201 -16.2912 0.0813362
-11.9257 -16.2925 0.132116
-11.8691 -16.2632 0.155549
-12.2792 -13.8587 2.58146
-12.139 -15.7711 1.3553
-11.5467 -14.225 2.53875
-15.5718 -12.6691 0.111401
-15.4253 -12.9564 0.423103
-15.2904 -12.9981 0.204572
-15.3382 -13.0799 0.412056
-14.9242 -13.2582 -0.30185
-14.9456 -13.256 -0.266728
-14.7929 -13.3519 -0.450465
-14.4679 -13.5165 -0.935453
-14.5169 -13.5945 -0.704885
-14.3451 -13.6519 -0.961513
-14.9776 -13.4117 0.349556
-15.1231 -13.3731 0.643274
-14.3956 -13.6937 -0.729887
-15.4371 -13.2661 1.31299
-15.1124 -13.3914 0.727419
-15.4575 -13.2485 1.45705
-15.7304 -13.2032 2.14521
-14.9379 -13.6082 0.779469
-15.0567 -13.5688 1.03407
-15.602 -13.3286 2.07724
-13.9266 -14.1022 -1.10746
-15.1056 -13.626 1.14987
-14.9829 -13.7045 1.04903
-14.421 -13.9521 0.0179823
-14.9474 -13.7022 1.01961
-14.6001 -13.8718 0.358227
-15.3003 -13.578 1.66899
-14.817 -13.9086 1.22878
-14.8503 -14.0344 1.56986
-12.7669 -14.3701 -1.01388
-14.0911 -13.9312 1.35043
-13.6295 -14.5534 0.528153
-13.8816 -14.4739 1.00063
-13.8482 -14.4952 0.981668
-11.8062 -14.9088 -1.805
-12.6971 -14.9511 -0.503023
-13.6358 -14.7706 0.949991
-12.9793 -14.8399 0.110173
-13.0622 -14.8866 0.288723
-13.5079 -14.3838 1.6396
-13.0824 -14.973 0.703601
-12.6558 -15.1917 0.11764
-13.818 -14.2839 2.44921
-13.1584 -14.9327 1.13115
-13.1561 -14.9067 1.17171
-12.6068 -15.3977 0.288218
-12.6065 -15.409 0.322144
-12.5853 -15.2182 0.664268
-12.5488 -15.2263 0.660109
-12.8333 -15.1748 1.11899
-11.9571 -16.2605 0.108455
-12.419 -15.5041 1.40231
-11.3252 -14.4294 2.37466
-15.0196 -13.0752 -0.420138
-14.7895 -13.2771 -0.564995
-15.5135 -13.1018 1.11495
-15.0135 -13.4042 0.360946
-14.3057 -13.7097 -0.987602
-15.5617 -13.3305 1.85198
-14.8189 -13.6672 0.463862
-15.4483 -13.3865 1.71598
-15.6308 -13.3164 2.14213
-14.4155 -13.942 0.0217669
-14.5991 -13.8617 0.325644
-14.5303 -13.8986 0.25397
-14.4702 -13.9111 0.149016
-14.1709 -14.1295 -0.265645
-14.797 -13.9211 1.06947
-13.8856 -13.6983 0.438195
-14.8061 -13.9317 1.2421
-14.844 -13.9462 1.30411
-14.8331 -13.9595 1.34007
-15.4354 -13.6871 2.40338
-12.8235 -14.2713 -1.06989
-15.1027 -13.9462 2.07663
-12.6456 -14.3986 -1.19503
-12.7214 -14.4732 -1.02909
-14.1098 -13.9139 1.31687
-13.8504 -14.2848 0.56524
-14.7994 -14.1926 1.80786
-14.1171 -13.9148 1.37084
-14.7734 -14.2317 1.8913
-15.1146 -14.0398 2.59922
-13.6009 -14.5583 0.475653
-13.6348 -14.5671 0.539485
-13.2952 -14.7631 0.0576926
-14.8293 -14.3362 2.37042
-14.8621 -14.1881 2.64562
-13.7803 -14.095 1.70595
-13.061 -14.8037 0.246988
-13.3553 -14.8885 0.52331
-12.9861 -15.0665 0.760544
-11.343 -16.5344 -2.43094
-12.8707 -15.2294 0.772136
-12.6391 -15.2742 0.563974
-12.5267 -15.2194 0.520896
-12.5109 -15.2219 0.579263
-12.8932 -15.2032 1.06058
-12.8187 -15.1946 1.06696
-12.6423 -15.4645 0.894121
-12.1625 -15.7448 0.0735328
-12.1901 -15.7981 0.373031
-12.2004 -15.8438 0.424478
-12.0901 -15.9006 0.267954
-11.9167 -16.2959 0.143076
-12.1355 -16.0472 0.750048
-15.127 -12.9413 -0.566614
-14.9322 -13.2454 -0.222058
-14.4963 -13.6089 -0.69853
-14.2862 -13.6983 -1.0522
-14.4174 -13.6571 -0.750847
-14.7929 -13.6318 0.381661
-13.7148 -14.1931 -1.49594
-14.645 -13.7705 0.30339
-14.4961 -13.8943 0.144636
-14.4941 -13.9195 0.18355
-14.5494 -14.024 0.562108
-15.2562 -13.7083 1.96169
-15.2641 -13.8479 2.35563
-12.8588 -14.3688 -0.930494
-12.6736 -14.4044 -1.14032
-12.6169 -14.4628 -1.17026
-12.6209 -14.4999 -1.09148
-13.5354 -14.5309 0.0803891
-14.006 -13.7312 1.98423
-13.4973 -14.6306 0.421717
-14.032 -13.8228 2.06028
-12.6025 -14.9417 -0.755769
-12.766 -14.9054 -0.417411
-13.9872 -14.0774 2.44621
-13.9702 -14.0974 2.42921
-12.9422 -15.0143 0.350022
-12.9803 -15.0104 0.550002
-12.9437 -15.0421 0.541492
-13.0668 -15.0394 0.790927
-13.1278 -15.0341 0.936776
-13.1398 -14.9499 1.10696
-12.2194 -15.5662 -0.20082
-12.8256 -15.1486 1.17992
-12.1097 -15.823 0.0784405
-12.058 -15.8561 0.0557724
-12.2021 -15.842 0.33385
-15.3197 -12.8402 -0.201709
-14.3888 -13.6723 -0.772298
-15.3132 -13.3856 1.22939
-15.1067 -13.4643 0.886966
-15.5239 -13.4122 2.04667
-15.5816 -13.4551 2.27214
-13.2376 -14.0296 -1.09964
-13.1504 -14.2179 -1.15008
-14.8771 -13.8943 1.27109
-15.1143 -14.0114 2.31115
-13.5391 -14.5792 0.257889
-12.1984 -14.8464 -1.55369
-13.6638 -14.1626 1.52421
-12.4209 -15.2335 -0.43065
-14.0884 -13.9532 2.8388
-12.8738 -15.1302 0.460692
-11.5061 -15.8448 -1.51238
-12.2332 -15.7524 0.31565
-12.1251 -15.8817 0.268209
-12.3198 -15.6203 1.3765
-11.9001 -13.9151 2.82022
-14.9034 -13.0604 -0.794132
-14.421 -13.4499 -1.27584
-14.0878 -13.8136 -1.3561
-14.7644 -13.5733 0.107774
-14.5248 -13.8859 0.201336
-15.2996 -13.5365 1.66852
-14.4082 -13.9527 0.0115524
-15.1404 -13.7723 1.85489
-14.7979 -14.0513 1.44772
-13.2996 -14.6313 -0.333393
-13.5423 -14.5463 0.132415
-13.2641 -14.6863 -0.330385
-12.9884 -14.8877 0.207702
-13.5967 -14.2533 1.70462
-13.9475 -14.1293 2.40047
-12.4307 -15.1641 -0.453146
-12.8647 -15.1428 1.27248
-15.2978 -12.8301 -0.225108
-14.1504 -13.7687 -1.35237
-14.891 -13.9383 1.47019
-13.7788 -14.4155 0.749241
-13.9826 -14.1042 2.437
-13.6202 -14.4717 2.78672
-12.2643 -15.6837 0.205126
-11.811 -16.3648 -0.199267
-12.4068 -15.4346 1.28042
-11.2229 -14.5748 2.57321
-14.1429 -13.7243 -1.49567
-14.3825 -13.9322 -0.084271
-13.5978 -14.6956 0.712397
-14.0243 -13.9389 2.18393
-12.6736 -15.1467 -0.024095
-12.6247 -15.1997 0.185582
-11.5362 -14.2816 2.62237
-12.9892 -14.3436 -1.26803
-12.4752 -14.9696 -0.972027
-13.372 -14.9532 1.14653
-12.7395 -15.2638 0.772024
-13.1749 -14.653 -0.410017
-13.9118 -13.9798 2.04416
-13.0741 -14.6573 -0.45323
-12.8833 -14.7993 -0.266825
-11.7617 -15.569 -1.32904
-15.4578 -12.7975 0.143755
-15.4286 -12.7621 -0.0303122
-15.3886 -12.9143 0.27355
-15.3845 -12.8091 -0.0576014
-15.1761 -13.1031 0.177011
-15.0957 -13.5845 1.19279
-15.0986 -13.365 0.601373
-15.1519 -13.1108 0.0194395
-14.866 -14.2282 2.6619
-14.9662 -13.9817 1.90202
-14.9767 -13.0897 -0.511464
-14.9934 -12.9797 -0.858746
-14.9001 -13.1919 -0.44556
-14.7283 -14.1412 1.50455
-14.7739 -13.1527 -1.03834
-14.6713 -13.6392 0.0266981
-14.563 -13.8727 0.346263
-14.5822 -13.3701 -1.04257
-14.5909 -13.3239 -1.16632
-14.5579 -13.4072 -1.03101
-14.467 -13.9084 0.0708127
-14.5221 -13.5475 -0.743846
-14.4326 -13.7807 -0.334222
-14.3133 -13.742 -0.818569
-14.1728 -14.1365 -0.236416
-14.1718 -13.71 -1.38595
-13.8663 -14.0466 -1.30262
-13.4527 -14.611 0.572233
-13.6504 -14.158 -1.75919
-13.0854 -14.8908 0.445304
-12.9839 -14.883 0.191844
-12.8597 -15.2405 1.01769
-12.8857 -14.9921 0.164885
-12.7296 -15.111 -0.0463462
-12.6416 -15.4118 0.332696
-15.6924 -13.1926 2.08346
-15.6123 -13.3377 2.06991
-15.5825 -13.1803 1.61291
-15.6109 -12.6968 0.295918
-15.4612 -13.2678 1.41147
-15.4871 -12.7852 0.228483
-15.4628 -12.7104 -0.04168
-15.4407 -12.8305 0.132519
-15.3832 -13.0298 0.447487
-15.2481 -13.7376 2.07428
-15.2928 -13.5234 1.53689
-15.1537 -13.294 0.578667
-15.1421 -13.3576 0.637504
-15.22 -12.6985 -0.830779
-14.8388 -14.2191 2.66281
-14.9721 -13.6929 1.01075
-14.8632 -14.0286 1.58525
-14.9421 -13.2516 -0.267254
-14.7435 -14.2761 1.90174
-14.8852 -13.5942 0.39996
-14.8838 -13.2607 -0.396269
-14.7186 -14.1752 1.54067
-14.7678 -13.8464 0.846736
-14.6185 -13.8349 0.315387
-14.588 -13.7549 0.0758327
-13.9722 -13.8785 1.72605
-14.6055 -13.3386 -1.01195
-14.5373 -13.4412 -0.830693
-13.8083 -14.2277 2.33587
-14.053 -14.013 1.11093
-14.0611 -14.0359 1.05697
-13.7727 -14.0385 1.57599
-14.3701 -13.9548 -0.156261
-14.3804 -13.9603 -0.181715
-14.3178 -13.9906 -0.200295
-14.3092 -13.7493 -0.793923
-14.3075 -13.7506 -0.816885
-14.3328 -13.5153 -1.38742
-14.0138 -13.8629 -1.47015
-13.6346 -14.7235 0.959894
-13.5318 -14.5387 0.561271
-13.5781 -14.5902 0.428228
-13.4717 -14.6364 0.601621
-13.2086 -14.6918 1.57628
-13.5436 -14.5262 0.12147
-12.2728 -13.851 2.59216
-13.3231 -14.8541 0.329318
-12.2007 -13.831 2.5161
-12.8923 -14.9821 1.40352
-13.0651 -15.0926 0.820745
-13.0188 -15.0328 0.692228
-12.9964 -14.8757 0.162868
-12.7511 -15.1521 1.37187
-12.6251 -15.2793 1.46984
-12.7964 -14.7665 -0.419747
-12.5897 -15.2191 0.675049
-12.7105 -15.1754 0.140393
-12.6188 -15.4048 0.345919
-12.6105 -15.3888 0.337725
-12.4843 -15.2102 0.58518
-11.847 -15.3993 -1.17208
-15.7062 -13.2719 2.23018
-15.4936 -13.2485 1.43511
-15.3801 -13.5965 2.16655
-15.3206 -13.6622 2.13847
-15.2237 -13.8429 2.74563
-15.3599 -13.4744 1.70344
-15.326 -13.4539 1.57071
-15.1427 -13.9449 2.66184
-15.4069 -12.5925 -0.564856
-15.2566 -13.3952 1.12678
-15.336 -12.8001 -0.206315
-15.3146 -12.7591 -0.373772
-15.1678 -13.3681 0.752862
-15.0511 -13.8779 1.82807
-15.0786 -13.6656 1.30205
-15.1599 -13.096 0.0148184
-14.9135 -13.989 1.62079
-14.9496 -13.6078 0.796521
-14.9286 -13.3018 -0.079774
-14.9504 -13.1669 -0.390382
-14.9559 -13.1797 -0.409801
-14.9086 -13.0961 -0.734591
-14.7708 -14.0164 1.23393
-14.8466 -13.0999 -0.762396
-14.7787 -13.6921 0.459865
-14.7893 -13.3088 -0.5619
-14.6063 -13.8146 0.321978
-14.1247 -13.917 1.34679
-14.4716 -13.8857 0.107113
-13.6544 -14.2042 1.64685
-13.6456 -14.2164 1.66346
-13.8461 -14.5082 0.9805
-14.0753 -14.2464 -0.245565
-13.3242 -14.5453 1.52936
-13.2688 -14.5712 1.44376
-13.7904 -14.1262 -1.43965
-13.4021 -14.9139 0.788451
-12.2941 -13.8286 2.49622
-13.0605 -14.8528 1.57487
-13.0233 -15.0467 0.678675
-12.9936 -14.9197 0.297542
-12.6145 -15.3303 1.45759
-12.6989 -14.927 -0.516041
-12.5059 -15.2376 0.654875
-12.5035 -15.2431 0.506541
-12.602 -14.9554 -0.738626
-12.2829 -15.3701 -0.600751
-12.203 -15.7623 0.131843
-12.0893 -15.6873 -0.235615
-12.0008 -15.1029 -1.27652
-11.8785 -16.333 0.0291388
-11.8244 -16.0035 -0.971181
-15.5628 -13.3248 1.84234
-15.4392 -13.4811 1.92399
-15.2616 -13.744 2.11738
-15.1773 -12.8525 -0.467395
-15.0753 -13.6171 1.17208
-15.0104 -13.4395 0.350981
-14.9759 -13.4195 0.360448
-14.9234 -13.1064 -0.622179
-14.8076 -14.0499 1.43866
-14.8501 -13.0974 -0.806103
-14.8031 -13.317 -0.497967
-14.7363 -13.5406 -0.105834
-14.7745 -13.4177 -0.391678
-14.7004 -13.4635 -0.41381
-14.6813 -13.4787 -0.377565
-14.5869 -13.9272 0.430176
-13.9775 -13.816 1.58613
-14.505 -13.8974 0.149544
-14.5039 -13.7566 -0.25116
-14.0629 -14.0118 1.1713
-14.4455 -13.4349 -1.29085
-13.8414 -13.7318 0.444224
-14.3028 -13.8207 -0.7125
-14.0211 -14.276 -0.219292
-12.2953 -13.8885 2.68767
-12.9471 -15.1336 0.728991
-12.252 -15.5966 -0.145507
-12.1371 -16.0684 0.732251
-12.1714 -15.7565 0.0704143
-12.1681 -14.9212 -1.58787
-11.9353 -16.2946 0.0537425
-11.3407 -16.5406 -2.4195
-15.6773 -13.2883 2.19412
-15.2764 -13.8307 2.34187
-15.2539 -13.7145 1.9709
-15.2277 -13.706 1.89193
-15.164 -13.0774 -0.000423715
-15.0424 -13.6525 1.2667
-14.9428 -14.1106 2.20772
-14.9581 -14.0471 2.01541
-15.1048 -12.9047 -0.573014
-15.1146 -12.836 -0.761299
-14.8185 -14.0118 1.34484
-14.6416 -13.7969 0.300602
-13.9248 -14.0664 2.22593
-13.8726 -14.2271 2.57779
-14.5443 -13.8519 0.123825
-14.5017 -13.918 0.202623
-14.4763 -13.9078 0.181877
-14.4584 -13.9154 0.120183
-13.582 -14.3603 2.88623
-14.3683 -13.8991 -0.206298
-14.4334 -13.4542 -1.19967
-14.2936 -13.6989 -1.03066
-14.2713 -13.6991 -1.09353
-13.4653 -14.4588 1.72274
-13.6402 -14.5598 0.529672
-13.2198 -14.6634 1.53176
-13.5514 -14.5644 0.255796
-13.7485 -14.1479 -1.46018
-13.0049 -14.8828 0.276092
-11.872 -13.9159 2.8278
-11.8691 -13.9326 2.8679
-12.8284 -14.9801 -0.0170037
-12.5614 -15.3331 1.29478
-12.826 -14.3842 -0.975529
-12.8023 -14.3639 -1.02742
-12.5697 -15.2143 0.692264
-12.5681 -15.2783 0.719203
-12.5368 -15.2206 0.567552
-12.1258 -15.8535 1.42618
-12.1911 -15.9961 0.70301
-12.1359 -16.0566 0.755012
-12.1378 -15.8841 0.335834
-11.8976 -16.2889 -0.116521
-15.5557 -13.3244 1.89604
-15.3079 -13.5887 1.6947
-15.0973 -13.4065 0.699496
-14.9464 -14.0632 2.03517
-14.9419 -13.6123 0.838172
-14.8765 -13.9297 1.45592
-14.5415 -13.6681 -0.406053
-13.6649 -14.3135 2.8969
-13.7792 -14.0828 1.68583
-14.382 -13.4914 -1.28098
-13.7828 -14.4923 0.6487
-13.3163 -14.9564 1.24699
-12.1096 -13.8592 2.57325
-12.859 -15.0206 1.40981
-13.0069 -15.0639 0.698238
-12.8772 -15.1238 1.23219
-12.9514 -15.1607 0.75101
-12.9342 -14.874 0.00152784
-12.8262 -15.2436 0.855658
-12.8303 -15.2124 0.838211
-12.5808 -15.3626 1.4833
-12.1992 -15.6686 0.0709854
-12.1486 -15.7578 0.0323922
-12.1215 -14.9577 -1.57551
-15.1606 -13.4633 0.953667
-15.1989 -12.9609 -0.262829
-15.0399 -13.6956 1.2827
-14.5253 -13.8844 0.253165
-14.3378 -13.6055 -1.17786
-13.8949 -14.486 0.969281
-13.351 -13.9082 -0.945874
-13.0406 -14.9207 0.481039
-12.7241 -14.4315 -1.03777
-11.5242 -14.1984 2.42801
-12.3096 -15.2317 -0.920084
-14.0832 -13.9169 1.41169
-13.9447 -13.8345 1.54986
-13.8703 -13.9004 1.54508
-14.1162 -13.7054 -1.39427
-13.4502 -14.2017 -0.444415
-12.9323 -14.6675 -0.227738
-15.1974 -13.082 0.0963256
-14.3593 -13.9408 -0.0796238
-12.3011 -15.3006 -0.83913
-15.0132 -13.9588 1.90029
-14.0634 -13.8511 1.45093
-13.1726 -14.082 -1.11877
-13.1632 -14.2407 -1.06695
-12.6545 -15.2751 0.25764
-13.9317 -13.9256 1.87125
-13.4226 -14.5314 -0.193534
-13.2641 -14.9777 0.92539
-12.7075 -14.3575 -1.04423
-12.9327 -14.2277 -1.32715
-12.1968 -15.3464 -0.707178
-11.4489 -16.1543 -1.01152
-12.5978 -14.6923 -0.791686
-11.8204 -14.0477 2.72593
-15.7027 -13.2217 2.17483
-15.6967 -13.2384 2.09538
-15.2733 -13.7516 2.23647
-15.6981 -13.1054 1.7621
-15.245 -13.7283 2.06152
-15.4126 -13.4531 1.74113
-14.9442 -13.999 1.8788
-15.0112 -13.9064 1.7886
-15.4649 -13.2286 1.40173
-15.2768 -13.4917 1.39825
-15.5943 -13.0138 1.0657
-15.0554 -13.6869 1.32207
-15.1803 -13.5313 1.2384
-15.1903 -13.5165 1.22578
-15.1373 -13.5307 1.20467
-15.3515 -13.2188 1.04235
-15.3554 -13.2698 0.971711
-15.2798 -13.3128 0.981426
-13.9264 -13.8927 1.65399
-15.0532 -13.6441 1.13569
-15.2263 -13.3998 0.973537
-15.5036 -12.987 0.776073
-14.8071 -13.8381 0.937039
-15.279 -13.213 0.645933
-14.5742 -14.1182 1.02821
-15.289 -13.1892 0.64277
-15.0122 -13.5195 0.721958
-15.1166 -13.3726 0.618508
-13.193 -14.6783 1.49773
-14.9262 -13.5923 0.556425
-14.917 -13.5482 0.511127
-15.277 -13.0719 0.305976
-15.393 -12.8972 0.204671
-15.1632 -13.1941 0.307346
-15.4741 -12.8091 0.15222
-15.3565 -12.9243 0.171463
-14.9805 -13.4135 0.337041
-13.2613 -14.9923 1.18798
-14.8103 -13.6179 0.378262
-15.3549 -12.8709 0.0983685
-15.1709 -13.1098 0.163876
-15.2852 -12.9979 0.104153
-14.9991 -13.3586 0.238315
-15.1758 -13.1024 0.144864
-14.8828 -13.4837 0.266549
-14.5668 -13.9266 0.417163
-14.854 -13.5258 0.281336
-15.2531 -12.9804 0.0602006
-14.8966 -13.4144 0.210126
-13.1672 -14.9989 1.0535
-14.7869 -13.6009 0.241696
-14.9853 -13.3007 0.0920156
-12.8569 -15.2414 1.00548
-13.4977 -14.6161 0.611194
-14.4832 -13.8952 0.0965958
-14.4885 -13.8952 0.105427
-14.4846 -13.8925 0.0874794
-15.3966 -12.6837 -0.326535
-14.4369 -13.9289 0.0979138
-14.4453 -13.9577 0.0932442
-15.4425 -12.6265 -0.384711
-14.4587 -13.9013 0.0717045
-15.2461 -12.8779 -0.302488
-14.4517 -13.8307 -0.0926992
-14.9717 -13.1033 -0.450918
-14.7599 -13.4178 -0.382014
-12.1981 -16.03 0.738962
-12.1746 -16.0281 0.730844
-14.1444 -14.1485 -0.220757
-14.1584 -14.1335 -0.240909
-14.5461 -13.6573 -0.421757
-14.2 -14.0905 -0.267245
-12.4778 -15.2089 0.590695
-14.7978 -13.323 -0.593565
-12.9889 -14.8722 0.195772
-14.2084 -14.0117 -0.488693
-14.1681 -14.0402 -0.493116
-14.7116 -13.302 -0.755575
-14.9526 -12.9809 -0.879093
-14.9908 -12.9695 -0.902427
-12.717 -15.103 0.0671494
-14.2854 -13.8634 -0.68637
-14.1709 -13.9102 -0.781587
-11.9031 -16.2864 0.0907196
-14.1614 -13.8952 -0.870205
-13.2927 -14.5205 -0.466592
-14.2115 -13.7548 -1.05766
-14.1717 -13.8118 -1.06
-13.928 -14.0753 -1.08503
-13.3258 -14.3599 -0.789797
-13.9089 -14.0485 -1.30426
-13.8644 -14.0277 -1.48421
-13.7689 -14.0898 -1.4738
-12.8375 -14.2808 -1.08393
-13.761 -14.0359 -1.6972
-13.7846 -14.0079 -1.7175
-13.6463 -14.1747 -1.76995
-11.856 -15.3856 -1.13287
-14.8445 -14.2225 2.66372
-14.8528 -14.2156 2.66027
-15.6302 -13.2515 2.04729
-15.6295 -13.2923 2.03815
-15.5049 -13.4233 2.0498
-15.6843 -13.0922 1.66257
-15.157 -13.7814 1.89648
-15.1413 -13.7904 1.84246
-15.29 -13.5567 1.68531
-15.4786 -13.2511 1.42419
-15.0797 -13.7874 1.66857
-15.1839 -13.5791 1.42712
-15.1374 -13.6352 1.3723
-15.1243 -13.6489 1.33834
-15.3024 -13.3678 1.1459
-15.2702 -13.397 1.13696
-15.1182 -13.5834 1.20193
-14.7512 -14.0462 1.29632
-14.7542 -14.0469 1.29672
-15.5189 -12.9374 0.797693
-15.1812 -13.4127 0.947968
-14.6412 -14.0699 1.18255
-15.1077 -13.4871 0.913235
-14.8235 -13.8586 1.04892
-14.9166 -13.6968 0.939292
-14.7124 -13.977 1.02616
-15.0016 -13.5561 0.814031
-14.884 -13.6817 0.790393
-15.3214 -13.063 0.445208
-15.4325 -12.8465 0.258918
-14.9216 -13.5473 0.54415
-15.0528 -13.3596 0.466451
-13.9116 -14.4717 1.01579
-15.094 -13.3137 0.398194
-15.4829 -12.7548 0.0961804
-14.7147 -13.7661 0.483456
-15.4268 -12.8442 0.11872
-15.1841 -13.098 0.162577
-14.8756 -13.5052 0.2695
-13.994 -13.8791 0.677629
-15.113 -13.1851 0.0826875
-15.1451 -13.1266 0.0720617
-15.1594 -13.1377 0.031636
-14.7795 -13.5828 0.143875
-14.6787 -13.6514 0.0504107
-14.5919 -13.7534 0.0625819
-13.0559 -15.0706 0.818763
-14.9268 -13.2934 -0.135606
-13.6076 -14.5593 0.507102
-15.424 -12.6142 -0.512001
-14.5338 -13.7742 -0.172281
-13.5709 -14.5711 0.267246
-13.3191 -14.8434 0.3589
-14.8119 -13.3952 -0.389331
-14.5154 -13.6936 -0.279998
-13.4064 -14.7024 0.193751
-13.5371 -14.5374 0.122588
-14.4119 -13.797 -0.373541
-13.0115 -14.9267 0.325672
-14.4643 -13.7478 -0.461311
-14.4016 -13.7619 -0.467022
-12.4434 -15.2276 0.50612
-14.8764 -13.1789 -0.657829
-14.7648 -13.2541 -0.749796
-14.8452 -13.149 -0.789093
-14.7819 -13.2421 -0.765649
-14.3275 -13.7972 -0.709447
-14.3178 -13.7379 -0.790891
-12.2179 -15.7593 0.14323
-14.3725 -13.6325 -0.829614
-11.9058 -16.2936 0.203656
-11.928 -16.2926 0.145886
-11.8658 -16.2882 0.143997
-12.2619 -15.6501 0.0426639
-14.2641 -13.7563 -0.866593
-13.2882 -14.5204 -0.499835
-14.2445 -13.7661 -1.02068
-14.2514 -13.7133 -1.05119
-14.3169 -13.6873 -1.11502
-14.1446 -13.7797 -1.24541
-14.189 -13.7326 -1.34127
-13.8885 -14.0687 -1.29164
-13.8801 -14.0254 -1.30207
-13.788 -14.1339 -1.39575
-13.7507 -14.1422 -1.38695
-11.8238 -16.0486 -0.859306
-12.8233 -14.2843 -1.04212
-13.6452 -14.1437 -1.78695
-13.6412 -14.1326 -1.77086
-15.2928 -13.7581 2.7821
-15.576 -13.498 2.44268
-15.4869 -13.5846 2.39942
-15.3514 -13.6587 2.1421
-15.5485 -13.3364 1.91135
-15.5376 -13.3326 1.83469
-14.6604 -14.4373 2.17886
-14.9592 -14.0675 2.0225
-15.3045 -13.5678 1.69642
-15.2778 -13.5702 1.6886
-15.2463 -13.5351 1.53734
-15.1083 -13.6682 1.393
-15.5426 -13.0829 1.08053
-12.3108 -13.8417 2.49216
-12.184 -13.8541 2.49974
-13.6249 -14.2077 1.63234
-15.1293 -13.4659 0.872298
-15.3119 -13.1954 0.742263
-11.5653 -14.2004 2.53725
-15.214 -13.3045 0.739985
-14.8664 -13.6857 0.833749
-15.1842 -13.3153 0.622791
-13.1662 -14.6736 1.48823
-14.8654 -13.6422 0.611927
-13.9382 -14.1169 1.02479
-13.982 -14.1208 1.00676
-14.7867 -13.6949 0.432341
-13.6217 -14.7496 0.952907
-12.7552 -15.1374 1.39811
-15.2371 -13.0307 0.0700197
-12.4386 -15.5072 1.38947
-14.552 -13.9032 0.279617
-12.9139 -15.2224 1.06054
-14.9482 -13.3231 -0.0953395
-12.6651 -15.4781 0.899135
-14.3748 -13.957 -0.0247677
-13.5948 -14.5612 0.294698
-14.3285 -13.9636 -0.168957
-14.3078 -14.0223 -0.19892
-14.476 -13.7256 -0.299216
-14.7987 -13.3037 -0.508866
-13.0046 -14.9281 0.299299
-14.0893 -14.2512 -0.246
-12.4973 -15.2322 0.516906
-12.4705 -15.2361 0.481607
-15.1031 -12.8289 -0.781569
-12.9883 -14.891 0.17334
-14.6723 -13.4162 -0.635757
-14.8738 -13.1102 -0.7705
-14.9362 -13.0286 -0.867627
-14.9263 -13.0389 -0.871281
-12.2107 -15.7437 0.126819
-14.4766 -13.5192 -0.957148
-12.1506 -15.7412 0.0428559
-12.1837 -15.7088 0.000409611
-14.3218 -13.6719 -1.0442
-11.9387 -16.2706 -0.0753714
-11.907 -16.297 -0.0859597
-14.1163 -13.8631 -1.00249
-14.1113 -13.865 -1.03446
-14.254 -13.7169 -1.11975
-14.0512 -13.8336 -1.32484
-14.0413 -13.8207 -1.4302
-13.6477 -14.2131 -1.55709
-13.1553 -14.1881 -1.19876
-13.1483 -14.156 -1.20118
-12.7998 -14.3706 -0.991735
-13.1615 -14.1593 -1.22552
-15.4011 -13.7003 2.41727
-15.1304 -13.9975 2.35263
-15.28 -13.7404 2.09921
-15.5503 -13.3763 1.96049
-15.2521 -13.7098 1.98062
-15.2422 -13.7294 1.89929
-12.7376 -13.9368 2.7747
-13.9059 -14.1298 2.35378
-13.8082 -14.2557 2.37203
-14.788 -14.2413 1.89473
-15.4878 -13.2388 1.40271
-14.8103 -14.1751 1.78908
-15.2664 -13.5027 1.39096
-14.7186 -14.1531 1.56616
-15.5054 -13.0976 1.06982
-15.5264 -13.0634 1.05464
-14.7873 -13.9762 1.29688
-14.8217 -13.9254 1.30674
-14.8342 -13.9227 1.29174
-14.7838 -13.9296 1.07325
-15.2466 -13.2372 0.715192
-13.9787 -14.1361 1.07264
-12.8706 -15.0524 1.49559
-14.8343 -13.6379 0.488248
-14.9831 -13.4166 0.369694
-15.1824 -13.1765 0.298893
-15.0108 -13.415 0.345872
-13.501 -14.8786 0.842201
-14.581 -13.8631 0.282625
-14.4946 -13.9224 0.221621
-14.4895 -13.9289 0.137807
-14.4968 -13.8657 0.124213
-13.6361 -14.5648 0.520988
-14.4881 -13.9053 0.110098
-14.5006 -13.8789 0.105522
-13.0432 -15.0639 0.808295
-13.8655 -13.7157 0.436434
-13.8686 -13.694 0.42769
-13.8409 -13.7055 0.424531
-13.0164 -15.026 0.681947
-14.5555 -13.7352 -0.131996
-13.0178 -14.9875 0.616104
-13.0862 -14.8848 0.529237
-14.3325 -13.9553 -0.195759
-14.4901 -13.6971 -0.390349
-14.539 -13.6621 -0.428225
-14.0173 -14.2556 -0.230785
-14.7851 -13.33 -0.553612
-14.0448 -14.2542 -0.25881
-12.9486 -14.9105 0.208429
-12.9784 -14.9 0.151325
-14.7869 -13.2518 -0.688521
-14.5502 -13.5335 -0.725152
-12.0828 -15.9076 0.259351
-14.4302 -13.5412 -0.926793
-14.4073 -13.6021 -0.915554
-13.4299 -14.1539 -0.46209
-14.2917 -13.7123 -0.996712
-14.2564 -13.6971 -1.13677
-14.2301 -13.6933 -1.17383
-14.0811 -13.9017 -1.1135
-13.3237 -14.1072 -0.818544
-12.8407 -14.3798 -0.810659
-15.6571 -13.3022 2.18848
-15.1789 -13.8854 2.1108
-12.3015 -13.8803 2.69816
-12.4956 -13.795 2.44798
-13.7868 -14.0955 1.70797
-15.1284 -13.4537 0.906451
-15.0698 -13.49 0.736454
-15.3821 -13.0638 0.573479
-15.3266 -13.0365 0.363025
-15.1946 -13.0978 0.0789805
-14.4883 -13.9052 0.150025
-14.5492 -13.8453 0.109772
-14.5271 -13.8608 0.118043
-12.8726 -15.2141 0.776891
-12.6948 -15.2934 0.747
-14.9298 -13.2361 -0.310918
-13.0366 -14.9838 0.567976
-12.5921 -15.2232 0.714926
-14.5091 -13.696 -0.317829
-12.6079 -15.2489 0.565464
-12.5142 -15.2359 0.540877
-13.0365 -14.7662 0.0499235
-14.3 -13.8557 -0.617402
-13.3412 -14.576 -0.311775
-13.0373 -14.5006 -0.228956
-11.9339 -16.2657 -0.131085
-12.1623 -15.5356 -0.297597
-12.8251 -14.392 -0.901694
-12.5009 -14.9848 -0.910657
-13.1165 -14.1105 -1.23997
-12.8042 -14.2205 -1.29433
-12.1787 -14.8716 -1.57976
-12.0095 -15.0533 -1.61388
-11.5139 -15.3846 -1.96059
-15.5551 -13.2914 1.8661
-15.1009 -13.8177 1.88688
-15.2284 -13.6347 1.70102
-14.8346 -14.1768 1.92872
-13.5906 -14.4813 2.32968
-13.6451 -14.3315 2.08237
-14.709 -14.2101 1.6272
-13.6486 -14.1721 1.52226
-15.2413 -13.2358 0.682634
-11.7727 -13.6627 2.19522
-14.8304 -13.6939 0.619238
-14.6362 -13.7832 0.35021
-14.8644 -13.4832 0.210442
-12.1553 -15.8416 1.35563
-15.0192 -13.1374 -0.358379
-12.2465 -15.7513 0.246365
-12.2033 -15.7153 -0.0533096
-12.162 -15.6362 -0.190151
-14.3238 -13.6212 -1.15489
-13.9145 -14.0123 -1.27968
-13.7442 -14.164 -1.4547
-13.1015 -14.1482 -1.40056
-12.3445 -14.7317 -1.55679
-11.4175 -16.4378 -2.33155
-14.1954 -14.0147 2.64897
-13.6019 -14.4278 2.79353
-13.9637 -13.9826 2.12177
-10.9242 -14.4367 3.05256
-14.1627 -13.9432 1.28711
-15.3024 -13.0986 0.425228
-14.7432 -13.5325 -0.102278
-14.7069 -13.5062 -0.0974938
-12.4592 -15.215 0.621979
-14.2749 -13.6822 -1.09392
-12.7754 -14.2986 -1.13642
-12.6515 -14.4067 -1.19419
-14.0698 -13.8873 1.40064
-15.2946 -13.0373 0.389642
-13.2377 -14.9176 1.25051
-12.971 -14.8293 0.0277553
-14.3021 -13.6853 -0.90701
-14.4404 -13.4622 -1.26056
-11.8326 -13.88 2.9235
-14.6952 -14.0336 1.33643
-13.8804 -13.9242 1.54957
-14.8408 -13.5607 0.345135
-15.4835 -12.6866 -0.120423
-13.1041 -14.9914 0.854723
-13.0719 -14.8894 0.478809
-13.0667 -14.8533 0.354336
-12.6626 -15.1518 -0.0373599
-13.4227 -14.0286 -0.757131
-13.4566 -13.9975 -0.8377
-12.2661 -15.2717 -0.829692
-11.6079 -15.9378 -1.22922
-14.0179 -13.9412 2.22588
-13.0907 -14.1786 -1.22703
-13.4163 -14.5291 -0.221367
-13.1299 -14.6541 -0.226145
-11.979 -13.9106 2.80813
-14.0818 -14.07 -0.898771
-13.8422 -14.0972 2.04832
-14.4656 -13.4566 -1.18445
-15.0414 -12.8985 -0.847707
-14.4738 -13.5105 -0.967856
-11.8154 -15.305 -1.32998
-14.8849 -13.1298 -0.663539
-14.2549 -13.8658 -0.670922
-14.7956 -13.3735 -0.404166
-15.3988 -12.7572 -0.156964
-14.7754 -13.4184 -0.380135
-15.4452 -12.7222 -0.0627422
-14.8067 -13.3844 -0.266567
-15.4076 -12.7785 -0.00623543
-15.412 -12.7969 -0.00325871
-14.8872 -13.386 -0.073509
-14.5437 -13.7158 -0.139669
-14.5341 -13.735 -0.147753
-14.1533 -14.1422 -0.258872
-15.2002 -13.0435 0.10199
-15.0651 -13.2027 0.046652
-15.498 -12.7613 0.226145
-15.3786 -12.9308 0.16342
-15.1177 -13.1845 0.102546
-14.6599 -13.6511 0.0180085
-15.1276 -13.2031 0.223787
-14.7723 -13.5485 0.124187
-15.0364 -13.3212 0.230852
-14.8868 -13.4595 0.185971
-14.9106 -13.4459 0.201079
-14.4618 -13.8932 0.056947
-14.4666 -13.8945 0.104471
-14.4482 -13.9203 0.111997
-14.9778 -13.3993 0.284435
-14.6857 -13.7509 0.315212
-13.0255 -14.8469 0.197101
-12.9302 -14.9689 0.185133
-15.0806 -13.4021 0.697784
-15.0744 -13.442 0.719866
-15.0066 -13.5456 0.781395
-13.4948 -14.6063 0.605724
-15.2081 -13.3751 0.931397
-14.9175 -13.7024 0.92402
-15.6339 -13.0104 1.21115
-15.6351 -12.9686 1.21703
-14.8708 -13.8032 1.09538
-15.1668 -13.5486 1.22799
-15.4755 -13.2547 1.46861
-15.159 -13.6074 1.40932
-15.159 -13.6125 1.49582
-14.8727 -13.9703 1.44936
-15.4356 -13.3693 1.61488
-12.2821 -15.6197 1.26994
-15.4297 -13.4374 1.76214
-15.0251 -13.8972 1.79894
-14.8523 -14.1023 1.78723
-15.2903 -13.6233 1.88467
-15.5246 -13.4343 2.04869
-14.8805 -14.1274 2.02406
-15.3655 -13.6956 2.27354
-14.0622 -13.8701 -1.30255
-12.7867 -14.3752 -1.01743
-15.1 -12.9494 -0.583342
-14.6338 -13.5853 -0.447144
-15.5895 -12.6686 0.156958
-14.3063 -14.0295 -0.179136
-14.0533 -14.2847 -0.24852
-15.1906 -13.1635 0.282095
-15.2208 -13.1277 0.309781
-14.784 -13.6203 0.272894
-14.7278 -13.6974 0.319241
-14.6029 -13.8503 0.363188
-14.7163 -13.7777 0.488762
-15.1472 -13.348 0.69031
-15.1007 -13.4117 0.689921
-15.1967 -13.3225 0.760653
-12.6447 -15.3925 0.350006
-15.1374 -13.3931 0.838899
-15.2504 -13.3506 0.940912
-12.6392 -15.2851 0.562825
-12.6894 -15.2937 0.57166
-14.7544 -13.8537 0.854179
-15.263 -13.3829 0.987879
-15.5046 -13.1045 1.12938
-15.2796 -13.3718 1.11003
-12.2098 -15.9719 0.727269
-15.0818 -13.6851 1.31248
-15.2624 -13.4853 1.40532
-15.2931 -13.4928 1.41897
-12.7348 -15.1464 1.36954
-14.9657 -13.9652 1.63921
-14.9154 -13.9921 1.60983
-15.4031 -13.5097 1.88795
-15.0541 -13.9279 1.82815
-15.5198 -13.4512 2.1234
-15.2157 -13.8352 2.11503
-15.107 -14.0303 2.35835
-15.338 -13.8436 2.60152
-13.8158 -13.9859 -1.70398
-14.2814 -13.8519 -0.698042
-14.1842 -14.0378 -0.473925
-11.816 -16.0327 -0.909714
-14.8213 -13.5823 0.173485
-14.5017 -13.8683 0.0944013
-14.483 -13.9343 0.124874
-13.5364 -14.4989 0.072284
-12.6788 -15.1959 0.111693
-15.5586 -12.9167 0.718047
-15.19 -13.2962 0.629216
-15.4778 -13.1365 1.15626
-15.1559 -13.6127 1.37952
-15.09 -13.6961 1.43786
-12.5942 -15.36 1.5196
-13.5113 -14.3209 1.81828
-15.5171 -13.4533 2.07171
-11.0442 -14.6999 2.2047
-15.2586 -13.8212 2.2861
-15.4855 -13.6043 2.41799
-15.0369 -14.1008 2.36687
-15.5322 -13.534 2.4579
-14.9761 -12.9483 -0.904085
-13.1061 -14.1649 -1.22538
-14.2966 -13.7088 -1.03256
-15.4513 -12.7146 -0.0896017
-13.034 -14.4955 -0.186286
-14.586 -13.837 0.275307
-14.8356 -13.6404 0.495242
-14.6835 -13.8013 0.457475
-14.6269 -13.8994 0.470204
-14.9007 -13.6873 0.861326
-14.7511 -13.8686 0.853847
-13 -15.0704 0.709633
-15.5191 -13.2106 1.40822
-13.1114 -14.9326 1.15852
-12.8509 -15.1701 1.10732
-14.8838 -13.9287 1.45316
-15.0897 -13.7837 1.6672
-15.5751 -13.3446 2.06608
-15.4259 -13.5999 2.18114
-14.9549 -14.1165 2.18851
-13.854 -14.2611 2.4466
-14.7532 -14.323 2.63742
-15.0754 -13.9733 2.76328
-12.8407 -14.2226 -1.29994
-14.3075 -13.6862 -1.09086
-12.7372 -14.3679 -1.10102
-11.8342 -15.2908 -1.32153
-14.7211 -13.363 -0.62671
-14.1697 -13.9496 -0.713494
-15.2345 -12.8746 -0.26902
-14.3854 -13.8127 -0.41807
-14.431 -13.8381 -0.166786
-15.3814 -12.9441 0.241942
-15.3683 -12.9792 0.357656
-14.4944 -13.8852 0.156546
-12.1753 -15.7786 0.0795917
-12.5465 -15.2127 0.641992
-12.5368 -15.189 0.661718
-13.0046 -15.1049 0.788172
-14.7565 -13.8979 1.02373
-15.1082 -13.6238 1.15819
-14.8843 -13.8962 1.30435
-14.7265 -14.1636 1.56099
-11.5143 -14.2141 2.44166
-14.7987 -14.3494 2.52988
-14.4645 -13.4197 -1.13067
-12.7051 -14.4289 -1.08946
-14.707 -13.5545 -0.100685
-14.5618 -13.874 0.202811
-13.4933 -14.5597 0.0672796
-14.7269 -13.6871 0.312192
-13.5912 -14.5372 0.209461
-12.8022 -15.2127 0.810729
-15.5044 -13.2264 1.45984
-14.8022 -14.0395 1.42413
-12.6083 -15.2917 1.28878
-13.2121 -14.6523 1.41931
-14.4602 -13.6334 -0.751017
-14.2681 -13.8224 -0.690978
-13.0642 -14.8147 0.290374
-13.8272 -14.4519 0.837621
-13.6264 -14.4355 2.81625
-12.4042 -13.8999 3.0768
-13.0846 -14.1582 -1.36868
-14.1838 -13.7394 -1.24661
-14.6522 -13.793 0.371483
-12.969 -15.1652 0.896842
-15.0043 -13.9376 1.86007
-14.0451 -13.8793 0.683064
-13.2466 -14.9567 1.17367
-12.6241 -15.3055 1.47181
-14.6821 -13.7622 0.394652
-13.2964 -14.951 0.941721
-11.7493 -14.0196 2.80118
-12.0372 -13.755 2.26106
-14.7873 -13.2535 -0.74593
-14.5628 -13.4633 -0.821777
-14.3659 -13.6157 -0.932539
-15.1341 -13.2152 0.238127
-14.5054 -13.7039 -0.406363
-14.7846 -13.5656 0.14305
-15.1067 -13.3929 0.60305
-15.0993 -13.384 0.604915
-14.8821 -13.6315 0.563136
-14.4821 -13.8911 0.123681
-14.4496 -13.9224 0.0959716
-15.4981 -13.2639 1.39106
-14.6472 -13.8183 0.351377
-12.8066 -14.2721 -1.07262
-12.7786 -14.2879 -1.0619
-15.1808 -13.5782 1.44241
-12.3147 -15.1386 -1.14684
-13.5572 -14.5458 0.12883
-13.5787 -14.565 0.289073
-15.2468 -13.732 2.07638
-14.7292 -14.1157 1.52447
-15.306 -13.7136 2.21253
-13.5099 -14.6123 0.390928
-15.4877 -13.6397 2.42148
-13.4805 -14.5967 0.565641
-13.4633 -14.6062 0.588773
-13.8906 -14.4708 1.01462
-13.0087 -14.9231 0.31378
-14.7517 -14.2591 1.91328
-13.7862 -14.0334 1.57193
-13.625 -14.7644 0.954619
-13.812 -14.079 1.74991
-13.6116 -14.2021 1.59251
-15.0394 -14.0162 2.72042
-13.4854 -14.3511 1.53613
-13.0681 -15.0624 0.832868
-12.4726 -15.2132 0.578458
-12.6126 -15.2345 0.630051
-12.7342 -15.2656 0.728209
-12.1982 -15.7592 0.139104
-11.931 -16.3006 0.0844201
-12.915 -14.9934 1.5561
-11.5626 -14.2177 2.55572
-15.3829 -12.7399 -0.274279
-14.3968 -13.5031 -1.31429
-14.3806 -13.6293 -0.973387
-14.2671 -13.7232 -1.03191
-14.0287 -13.9389 -1.12637
-15.1236 -13.3611 0.653599
-15.5583 -13.161 1.3825
-14.6775 -13.7453 0.314235
-14.8141 -13.6619 0.50629
-14.956 -13.6036 0.782846
-15.0691 -13.5528 1.04819
-15.3515 -13.4086 1.50016
-12.8848 -14.3946 -0.807088
-12.5757 -14.8416 -1.11132
-15.6101 -13.336 2.06108
-14.8665 -13.8984 1.28035
-13.4592 -14.5877 0.0636971
-12.6362 -14.9378 -0.716556
-15.3828 -13.5949 2.15666
-11.8908 -15.317 -1.26119
-14.8832 -14.0423 1.59552
-14.0897 -13.9048 1.35002
-11.845 -15.4005 -1.13903
-13.882 -14.4665 1.0082
-14.8846 -14.1386 2.0072
-15.0604 -14.0324 2.35625
-13.7781 -14.0247 1.55996
-12.6549 -15.1655 0.0454318
-13.7214 -14.1043 1.5529
-13.0895 -14.9887 0.747417
-12.9645 -15.1019 0.677623
-12.6282 -15.267 0.585818
-12.554 -15.2302 0.541893
-12.7894 -15.2376 0.716022
-12.5193 -15.2272 0.614549
-12.1462 -15.7548 0.0807228
-12.8133 -15.1852 1.03947
-11.9852 -16.2813 0.124522
-11.9371 -16.2882 0.125203
-11.9116 -16.2785 0.171649
-12.3206 -13.8358 2.50058
-11.5313 -14.1856 2.35227
-11.6343 -14.1784 2.65029
-11.4795 -13.6055 3.23528
-15.2644 -12.9947 0.21639
-14.2115 -13.7331 -1.225
-14.5314 -13.5487 -0.711435
-13.8916 -14.0599 -1.33892
-13.8727 -14.084 -1.28525
-15.1361 -13.3931 0.716693
-14.3824 -13.9254 -0.102669
-14.4581 -13.9155 0.13662
-15.0452 -13.5473 0.920624
-14.6027 -13.8412 0.361767
-14.5892 -13.8735 0.344231
-14.9463 -13.6979 1.0347
-11.865 -15.2115 -1.66325
-15.5845 -13.3868 2.17117
-13.5615 -14.4857 0.0615499
-12.7627 -14.9055 -0.417132
-11.965 -15.2306 -1.17086
-15.0379 -13.8938 1.79985
-15.1055 -13.8403 1.849
-12.0034 -15.2159 -1.09639
-15.2728 -13.7689 2.13652
-15.4308 -13.6893 2.41528
-11.4416 -15.8118 -1.41806
-14.7738 -14.2201 1.90467
-15.3132 -13.8709 2.58462
-15.3083 -13.8526 2.59409
-12.6597 -15.1948 0.103094
-13.6185 -14.202 1.57587
-14.8025 -14.3659 2.38117
-13.0094 -15.0754 0.781665
-12.6655 -15.3914 0.361065
-12.5307 -15.2305 0.548644
-12.17 -15.7648 0.0765011
-12.8752 -15.2114 1.02941
-12.8841 -15.2077 1.06656
-12.1835 -15.8124 0.243105
-12.8861 -15.1894 1.08872
-12.1499 -15.8354 0.201997
-12.8208 -15.166 1.10514
-11.907 -16.2997 0.132103
-12.0016 -15.9656 1.22654
-11.6078 -14.0636 2.31709
-13.692 -14.1945 -1.52175
-14.238 -13.8562 -0.700733
-14.8078 -13.6232 0.3709
-14.4394 -13.9199 0.0724471
-14.4684 -13.9357 0.113307
-14.4841 -13.9141 0.179011
-14.5554 -13.9091 0.318028
-14.5679 -13.92 0.465197
-12.6328 -14.4926 -1.10697
-15.3335 -13.4042 1.52871
-15.4813 -13.3446 1.73623
-15.6086 -13.3609 2.12064
-15.1558 -13.7053 1.67959
-15.318 -13.5738 1.89643
-12.0218 -15.2068 -1.18084
-11.8298 -15.3058 -1.28754
-13.6281 -14.5648 0.497405
-15.4622 -13.6423 2.41658
-12.9537 -14.9429 0.208025
-12.1211 -15.3382 -0.405542
-12.2052 -15.5411 -0.256312
-12.9908 -15.0735 0.704657
-14.9368 -14.2387 2.53017
-12.9058 -15.2001 0.730711
-12.9654 -15.15 0.871732
-12.5779 -15.2261 0.622589
-13.183 -14.6881 1.47188
-11.8814 -16.2588 -0.224088
-12.2276 -13.8832 2.71925
-14.7759 -13.3151 -0.590267
-14.8269 -13.3381 -0.378815
-14.41 -13.6648 -0.779788
-14.7958 -13.569 0.150636
-15.1127 -13.4305 0.792029
-14.4372 -13.9151 0.0338117
-14.4955 -13.907 0.158634
-14.7736 -14.0391 1.41908
-13.737 -14.499 0.595601
-12.9766 -14.848 0.06974
-15.2491 -13.8157 2.29838
-12.4402 -15.1978 -0.435545
-13.025 -14.8601 0.259581
-11.4813 -15.8295 -1.3944
-11.4979 -15.904 -1.30403
-12.9476 -15.0253 0.42713
-12.9659 -15.0378 0.555672
-13.1176 -14.9626 0.762404
-13.5372 -14.3314 1.62632
-12.4973 -15.2459 0.530501
-14.7475 -14.3166 2.62766
-12.9132 -15.1384 1.20597
-12.213 -15.8355 0.390353
-12.849 -15.1318 1.20512
-14.0515 -14.0002 2.84594
-11.8505 -13.9173 2.81826
-14.7516 -13.3176 -0.607751
-14.2293 -13.6917 -1.18908
-15.2745 -13.0617 0.286014
-15.4036 -12.9984 0.501094
-14.4018 -13.942 -0.00359054
-14.1902 -14.0921 -0.232606
-14.5244 -13.8836 0.183737
-15.4229 -13.5626 2.18353
-13.5808 -14.5888 0.472469
-11.459 -15.8677 -1.52927
-12.4683 -15.223 -0.397465
-12.4595 -15.2618 0.712808
-13.914 -14.1343 2.41611
-14.0714 -13.961 2.70362
-14.6789 -13.5669 -0.121756
-14.3385 -13.9632 -0.0945936
-15.4768 -13.238 1.36181
-12.7624 -14.2797 -1.14493
-13.2361 -14.631 -0.311005
-14.8281 -14.2983 2.55218
-13.1288 -14.9246 1.18975
-13.1149 -14.874 1.32532
-14.3812 -13.6717 -0.853643
-14.4636 -13.9208 0.0322313
-14.0683 -13.8697 1.41767
-13.0943 -15.0011 0.820559
-15.2957 -13.3477 1.14078
-14.0239 -13.9439 2.15822
-11.9066 -16.2929 -0.0210061
-13.0569 -14.3264 -1.20344
-13.4225 -14.5493 -0.254866
-12.7726 -14.6001 -0.606129
-12.3588 -15.193 -0.85546
-13.041 -15.1066 0.947434
-11.9975 -14.0086 2.80402
-11.5973 -15.7464 -1.19823
-14.6582 -13.8218 0.424473
-15.2134 -12.8311 -0.491417
-14.9419 -13.3034 -0.0741294
-15.1108 -13.377 0.648127
-15.2914 -13.4589 1.42148
-15.151 -13.6043 1.35466
-14.4313 -13.4691 -1.23272
-15.1979 -13.6914 1.86676
-14.3171 -13.6595 -1.08035
-14.3279 -13.7526 -0.707647
-15.1591 -14.0013 2.35577
-14.6057 -13.8704 0.384509
-14.2734 -13.8177 -0.687135
-14.268 -13.8431 -0.676117
-14.4953 -13.9128 0.139293
-14.2913 -13.8525 -0.666809
-14.299 -13.8809 -0.494142
-14.304 -13.8867 -0.497556
-14.0066 -13.8725 -1.44115
-14.7351 -14.1381 1.53217
-14.1837 -14.0377 -0.495526
-13.8988 -14.0643 -1.28916
-13.6625 -14.1311 -1.78723
-13.643 -14.1547 -1.7773
-13.6388 -14.1741 -1.80177
-13.6821 -14.2089 -0.0324283
-13.3878 -14.2287 -0.39439
-13.8021 -14.0704 1.75602
-13.9048 -14.4912 1.03072
-13.33 -14.3772 -0.783591
-13.6008 -14.5714 0.284717
-13.579 -14.5938 0.416137
-13.5005 -14.5815 0.585904
-13.007 -14.9307 0.294102
-13.0456 -15.0573 0.838898
-13.0555 -15.0866 0.818524
-12.6871 -15.1599 0.0940815
-12.8561 -15.2027 0.712932
-12.5105 -15.1633 -0.362467
-12.9067 -15.0076 1.56448
-12.6116 -15.4113 0.3621
-12.5928 -15.2188 0.677909
-11.9432 -16.3008 -0.0727095
-11.9234 -16.2628 0.147699
-11.5695 -14.2126 2.53198
-11.5312 -14.2571 3.04172
-15.3222 -12.7908 -0.1987
-15.7002 -13.2105 2.08236
-15.4673 -13.2451 1.42289
-14.9609 -13.1696 -0.387497
-15.5628 -13.4182 2.08759
-14.9303 -13.2544 -0.298275
-14.9128 -13.2581 -0.264783
-14.9174 -13.3311 -0.0882871
-14.8057 -13.3387 -0.438522
-15.2918 -13.5071 1.52461
-14.566 -13.3701 -1.1014
-15.0911 -13.6193 1.16323
-14.6568 -13.5163 -0.422557
-14.7489 -13.5472 -0.0909611
-15.3157 -13.698 2.1356
-14.3887 -13.6259 -0.954231
-14.3912 -13.6508 -0.821541
-14.306 -13.7201 -1.00742
-14.6221 -13.8452 0.294062
-14.5899 -13.9156 0.468257
-14.1654 -14.1078 -0.245365
-13.951 -14.0819 -1.06789
-14.1061 -13.8996 1.36285
-14.1136 -13.8932 1.31257
-14.0542 -14.2715 -0.256737
-14.1104 -13.9289 1.3307
-13.9746 -14.3144 0.78008
-13.1676 -14.1671 -1.1939
-13.6498 -14.5661 0.559722
-13.614 -14.5771 0.549942
-12.7975 -14.253 -1.14999
-13.5041 -14.8964 0.869079
-12.5144 -14.5232 -1.54868
-13.3333 -14.5086 1.51663
-13.5689 -14.403 2.86152
-12.5268 -15.1395 -0.354529
-12.8298 -15.2061 1.07105
-12.6535 -15.2616 0.511208
-12.0413 -15.2235 -1.10072
-12.5181 -15.2236 0.592872
-11.8467 -15.4181 -1.15952
-12.1346 -15.9528 0.500086
-11.9814 -16.3383 0.246357
-11.9303 -16.2878 0.127181
-11.5398 -14.2009 2.51762
-11.2997 -14.456 2.47596
-15.5187 -13.09 1.10573
-15.3757 -13.0618 0.604413
-15.3042 -13.0404 0.333053
-15.4455 -13.2554 1.34611
-15.2083 -13.2055 0.286591
-15.5794 -13.3305 2.05093
-15.5525 -13.3163 1.84706
-15.4952 -13.3528 1.8144
-14.9018 -13.309 -0.102058
-14.7915 -13.3218 -0.524984
-14.807 -13.3419 -0.427253
-14.818 -13.3428 -0.366776
-15.1397 -13.4277 0.826454
-14.8042 -13.3695 -0.390607
-14.5291 -13.3725 -1.13664
-15.2753 -13.7436 2.14796
-14.1785 -13.7208 -1.32699
-14.7596 -13.8366 0.778838
-14.2933 -13.8182 -0.717671
-14.2906 -13.8748 -0.594542
-14.4643 -13.9312 0.135286
-14.3826 -13.952 -0.107721
-13.9883 -13.8673 1.74286
-13.9645 -13.8587 1.67771
-13.9942 -14.3125 0.78786
-13.7863 -14.4403 0.837895
-13.6329 -14.2294 1.63297
-12.8192 -14.2571 -1.08315
-13.0186 -14.5062 -0.215302
-12.6277 -14.4666 -1.15678
-13.3556 -14.9348 0.568741
-12.7028 -14.9043 -0.613937
-12.9042 -15.2138 1.03838
-12.8339 -15.1859 1.04068
-12.8289 -15.2063 1.04068
-12.5777 -15.2316 0.605853
-12.503 -15.2291 0.580025
-12.6563 -15.4474 0.892618
-12.5257 -15.3432 0.722496
-12.1586 -15.353 -0.387775
-11.5825 -15.3374 -1.95417
-12.1646 -15.8707 0.315723
-12.1218 -16.0643 0.709736
-11.3594 -16.6274 -2.17892
-15.0102 -13.1299 -0.356551
-15.5942 -13.3131 2.04858
-15.1499 -13.4518 0.927026
-14.5723 -13.4247 -0.982592
-14.7739 -13.5825 0.0868429
-14.4713 -13.5827 -0.733856
-14.4226 -13.6524 -0.742171
-14.8499 -13.8873 1.26169
-14.5291 -13.8503 0.151897
-14.4828 -13.8913 0.171146
-14.6359 -13.9565 0.825587
-14.4623 -13.9179 0.175639
-13.8925 -14.0584 -1.26668
-14.7158 -14.1965 1.63734
-13.9889 -13.9061 1.8649
-13.4556 -14.4317 -0.00160882
-13.5321 -14.5536 0.233388
-12.8055 -14.2244 -1.26038
-13.5005 -14.6296 0.419888
-12.8463 -14.3683 -0.947941
-12.7795 -14.4235 -0.997069
-13.4724 -14.4329 1.7058
-12.9731 -14.6911 -0.079802
-12.9907 -14.7774 -0.0327713
-13.125 -14.9487 1.08519
-12.8988 -15.0237 0.25175
-12.3132 -15.1577 -1.00639
-12.1784 -15.5291 -0.29737
-12.2215 -15.6945 0.0163627
-12.1124 -15.6578 -0.187662
-11.8856 -16.1916 -0.338729
-11.907 -16.3053 -0.103413
-15.4961 -13.1677 1.2872
-15.4799 -13.4054 1.87688
-15.0994 -13.4132 0.692967
-15.1488 -13.4423 0.941157
-14.793 -13.6669 0.377842
-14.5488 -13.6541 -0.425491
-14.5176 -13.6669 -0.43318
-14.8728 -13.9313 1.28007
-14.5011 -13.9027 0.215449
-14.7483 -14.0385 1.33383
-14.0943 -13.9022 -1.01352
-14.0904 -13.9289 -0.955928
-13.7193 -14.1742 -1.50311
-13.8153 -14.1388 2.06045
-12.6351 -14.4907 -1.12844
-13.0026 -14.6952 -0.100452
-12.9873 -14.7015 -0.147121
-13.0376 -14.8991 0.269372
-13.0746 -14.8981 0.525729
-12.96 -15.0332 0.430369
-12.9514 -15.125 0.743491
-12.1595 -15.7508 0.00868915
-11.4664 -15.8492 -1.53117
-11.4785 -15.8892 -1.31798
-12.1639 -16.0128 0.71706
-11.8438 -16.1817 -0.407093
-15.5252 -13.1463 1.21764
-15.2975 -13.0984 0.419779
-14.7979 -13.5541 0.109693
-14.5435 -13.8718 0.201174
-14.7406 -14.0396 1.36231
-14.8602 -14.1705 1.92342
-13.3436 -14.117 -0.795629
-13.8748 -14.4377 0.899973
-13.8646 -14.4702 0.982463
-13.9311 -14.1344 2.42248
-13.2777 -14.6668 -0.320044
-13.0904 -14.8744 0.488531
-13.0854 -15.0581 0.864944
-12.96 -15.0598 0.583885
-11.8422 -16.3001 -0.22588
-15.2257 -12.9164 -0.273587
-15.4244 -13.0506 0.658081
-14.9464 -13.0993 -0.621903
-14.3686 -13.9334 -0.0481685
-13.2977 -14.7601 0.0739041
-12.4208 -15.0616 -0.946588
-11.577 -15.9282 -1.21951
-12.955 -15.2055 0.899859
-11.6858 -15.9827 -1.05167
-13.9686 -13.8802 1.78953
-13.716 -14.114 1.62097
-12.8138 -14.4929 -0.65992
-12.8627 -15.2338 0.827553
-14.0325 -13.9997 1.00379
-13.207 -14.3571 -0.95145
-13.94 -14.0187 2.04863
-12.3524 -15.1342 -1.00599
-13.6907 -14.2123 -0.850722
-13.4849 -14.8215 0.721644
-13.1983 -14.7658 0.234879
-15.7112 -13.2302 2.0822
-15.6673 -13.2649 2.06365
-15.4466 -13.3089 1.52823
-15.4704 -13.2611 1.4052
-15.3114 -13.4307 1.4841
-15.1065 -13.5748 1.22538
-14.7498 -13.5585 0.0961173
-13.9563 -13.8841 1.71675
-14.6515 -13.7873 0.310212
-14.5607 -13.8347 0.0983696
-13.7956 -14.0826 1.75918
-14.4345 -13.4753 -1.22509
-14.3615 -13.7805 -0.721324
-13.8954 -14.4952 1.02166
-14.3118 -13.7156 -1.03166
-14.2567 -13.7333 -1.06237
-14.243 -13.7294 -1.13812
-14.205 -13.7713 -0.999646
-13.5798 -14.5718 0.287738
-13.4412 -14.6441 0.555938
-13.8923 -14.0612 -1.28433
-13.0371 -15.0784 0.832863
-13.6585 -14.2334 -1.53967
-13.0799 -14.8823 0.448842
-12.7337 -15.1524 1.40701
-12.6305 -15.4099 0.344567
-11.9228 -16.285 0.143269
-11.8396 -16.0469 -0.843645
-11.829 -16.0278 -0.89869
-15.5322 -13.3846 2.0266
-15.3025 -13.4423 1.5094
-15.1782 -13.9716 2.35164
-15.3032 -13.4678 1.42199
-15.4498 -12.7162 -0.0750297
-15.4077 -12.6222 -0.531828
-15.3542 -12.7385 -0.333478
-15.1192 -13.3701 0.660724
-14.8639 -13.6519 0.61246
-14.9289 -13.3235 -0.0866074
-14.7108 -13.9028 0.84147
-14.912 -13.0462 -0.833104
-14.6587 -13.7764 0.340499
-14.1082 -13.9027 1.31723
-13.8027 -14.0378 1.57885
-14.5217 -13.7448 -0.257407
-14.4187 -13.9219 -0.0173929
-14.5929 -13.3844 -1.00801
-14.5175 -13.5263 -0.817374
-13.8802 -14.467 0.998657
-14.3159 -13.8055 -0.696633
-14.209 -13.9814 -0.485625
-14.2728 -13.6986 -1.02337
-14.2978 -13.6225 -1.19107
-14.2146 -13.7976 -0.953794
-13.6231 -14.5781 0.540879
-13.664 -14.4552 0.267863
-14.0065 -13.9146 -1.42579
-13.881 -14.0738 -1.28303
-13.8771 -14.0701 -1.31155
-13.8539 -14.0736 -1.33227
-13.1437 -14.9511 1.09691
-13.875 -13.9588 -1.63406
-12.8646 -15.1961 1.07415
-13.1422 -14.1549 -1.19738
-12.5639 -15.2386 0.546553
