-13.8457 -12.8814 -2.71088
-15.6516 -8.8047 -0.0703227
-15.609 -13.1903 -1.72986
-17.1283 -11.0045 -1.33107
-16.1744 -9.89956 0.0278676
-13.9887 -12.4769 0.103643
-18.0312 -11.5978 0.654273
-18.041 -10.1444 0.126307
-16.6566 -10.4314 0.789878
-17.6537 -10.7117 -0.109545
-14.6657 -13.1034 -1.33529
-16.0082 -9.67572 -0.0221271
-14.1792 -12.8251 -1.20194
-15.9173 -11.6615 -1.27837
-14.5684 -10.3575 1.12982
-15.0837 -12.6011 -0.518993
-16.7087 -13.1291 -0.214384
-17.1058 -10.2427 0.475697
-15.5455 -10.7531 -1.07317
-14.9921 -11.2577 -3.66192
-15.9757 -12.0583 0.409643
-15.8485 -13.2386 -2.8381
-14.931 -13.2882 -2.53913
-17.4777 -10.8739 0.550556
-16.8748 -11.9237 -1.54952
-15.2259 -12.5825 0.354815
-17.7076 -10.7448 -1.08596
-16.248 -10.8535 -1.42685
-15.1639 -10.8448 0.794783
-16.9617 -10.8316 1.42227
-16.2667 -11.5136 0.254304
-15.1268 -12.3216 -2.40258
-16.4355 -10.7629 -0.706588
-14.8556 -11.7734 -0.508907
-15.85 -12.365 0.104453
-15.9091 -10.2967 -0.69518
-16.5228 -11.2199 -0.824038
-15.5167 -11.0023 -0.729116
-15.6408 -12.5807 -1.1396
-14.6519 -12.2687 -0.410949
-14.7666 -12.4202 -0.958138
-16.4852 -13.1072 -0.617979
-14.6458 -12.3173 -0.641158
-13.2591 -11.2008 -0.359543
-14.4177 -11.3132 2.19764
-17.2496 -12.6411 1.32095
-14.6677 -12.6081 0.273248
-22.7363 -8.98288 -4.64669
-22.685 -8.1462 -5.17618
-20.1445 -11.8439 -5.97512
-20.2456 -10.816 -6.86135
-20.0406 -12.0628 -5.41501
-21.6844 -10.6985 -6.12884
-19.1354 -9.95475 -4.27693
-20.3353 -10.8159 -4.03262
-20.3254 -11.3552 -3.10674
-20.1061 -11.0112 -3.82886
-18.503 -10.6667 -1.71894
-17.1723 -12.1483 -4.85558
-19.8707 -11.7285 -3.97811
-16.7677 -11.7909 -2.35158
-19.2116 -9.75779 -5.12441
-19.323 -10.3206 -3.57057
-19.9675 -12.2853 -4.35026
-17.0998 -10.536 -5.70045
-17.7848 -10.8742 -5.30499
-16.9248 -10.3069 -1.56302
-17.6733 -13.4342 -4.05848
-18.22 -12.2153 -4.94535
-17.4945 -9.76917 -1.5371
-20.9958 -10.8088 -1.80833
-17.5513 -12.8092 -3.16907
-21.3903 -10.2454 -2.5383
-17.7897 -12.8309 -1.63188
-18.0526 -9.77051 -5.12494
-16.5377 -13.3528 -3.79261
-15.8528 -11.2858 -5.17094
-19.1176 -10.9156 -5.90192
-15.4318 -11.6393 -4.38071
-19.8676 -10.6749 -3.87614
-16.3994 -11.5932 -4.56425
-19.2756 -11.5294 -3.19186
-15.9591 -12.9615 -5.20922
-19.8644 -9.53227 -2.06609
-14.6201 -11.3367 -4.01393
-18.2005 -11.2365 -4.12151
-15.6184 -13.2173 -4.29083
-15.1115 -11.7461 -2.71971
-14.6247 -10.602 -2.76177
-20.1022 -11.8509 -0.122606
-17.3068 -12.4041 -5.03332
-18.7739 -10.2723 0.204633
-17.4322 -9.97225 -3.17552
-17.06 -11.1308 -1.56695
-16.3214 -12.4983 -2.44822
-18.6446 -13.375 -2.39887
-17.6084 -12.1324 -2.67877
-16.8951 -10.6701 -3.33226
-18.1193 -11.6973 -1.77949
-15.8022 -11.271 -1.37093
-16.0809 -11.8855 -2.83504
-20.6439 -12.2157 1.6574
-13.784 -10.6713 -1.83028
-14.6844 -9.71061 -2.97787
-15.5065 -11.7336 -2.83801
-18.3515 -11.3981 -0.463273
-15.112 -11.8677 -2.75517
-18.8981 -11.1887 -2.09432
-20.7742 -12.0696 -1.33824
-18.4647 -10.6437 0.196551
-15.2539 -11.7218 -6.02644
-15.6998 -11.0109 -3.20669
-14.2201 -13.2623 -1.6049
-21.6301 -10.7028 0.16249
-13.3352 -10.1771 -2.64523
-17.439 -12.5027 -0.487193
-14.8679 -10.8745 -1.16507
-20.547 -12.2528 1.44036
-13.6351 -11.9652 -5.04287
-19.88 -12.1228 -0.510025
-16.4173 -11.7343 -1.80147
-15.7336 -11.6144 -1.42635
-14.7659 -11.8494 -3.95013
-16.5418 -12.1167 -2.2491
-15.7186 -12.1056 -3.77869
-15.1412 -12.3807 -4.2993
-15.1305 -12.053 -1.46835
-16.5388 -11.538 -3.08138
-14.4795 -10.4244 -2.43807
-14.758 -12.3759 -3.32167
-20.0581 -10.642 -0.483452
-16.4144 -8.74254 1.03252
-20.2645 -10.8277 -0.0938702
-14.7922 -12.3625 -1.317
-15.3244 -11.5629 -0.299494
-15.8556 -8.47265 0.424951
-15.9469 -12.9117 -1.14823
-13.9408 -12.6586 -3.66212
-13.8387 -12.6491 -2.57041
-13.8923 -12.2159 -2.17739
-12.9108 -12.347 -2.84869
-17.643 -12.645 -1.22745
-13.8137 -11.2083 -3.00847
-14.8015 -12.5288 -2.78412
-15.9057 -11.5631 -0.244814
-19.0124 -9.97095 -0.318569
-15.3955 -10.8588 -0.881034
-18.1018 -10.596 -0.614047
-14.6781 -11.9468 -2.74928
-18.6166 -10.9637 0.867327
-13.3853 -12.6417 -1.83038
-14.5209 -13.0116 -3.53998
-18.3476 -12.2901 2.23803
-16.4784 -12.5179 -0.4815
-16.2492 -12.1464 -0.316152
-15.9099 -8.95543 2.4578
-15.2587 -9.6078 -0.355978
-14.9804 -11.6412 -2.82496
-13.9504 -12.9219 -0.510826
-15.5936 -12.2977 -0.539274
-16.5937 -12.6506 -1.81979
-14.118 -12.0053 -1.38009
-14.1543 -11.0132 -0.38354
-15.2926 -10.4138 -0.727813
-14.4297 -10.0503 0.086544
-15.357 -12.7442 -3.07405
-16.7105 -13.7468 -0.222543
-16.7041 -11.8456 -0.000210907
-14.8842 -11.7581 -1.29658
-15.8625 -11.1037 0.59922
-16.1116 -12.1763 -1.00001
-14.9128 -11.6383 -2.12108
-13.9292 -12.2668 -1.37316
-15.0033 -14.6296 -3.37946
-16.3397 -10.3488 0.0492114
-15.5803 -13.1549 0.138644
-13.4723 -12.9404 -3.51212
-13.6478 -11.014 -1.32281
-17.5374 -11.7665 2.35579
-15.1944 -11.0598 -0.758528
-16.2752 -10.6379 -1.59841
-17.1006 -11.3359 1.04057
-15.51 -11.3951 1.30236
-17.0582 -10.5341 -1.18884
-15.3297 -12.1813 0.316389
-16.4249 -12.0386 -0.0441064
-14.2171 -11.7329 -1.75576
-16.0744 -11.9022 2.53834
-15.4114 -11.1671 0.812225
-16.4985 -9.18186 -0.0823696
-15.0277 -10.9372 0.22737
-16.1401 -12.9858 0.256915
-16.2271 -11.2361 -1.54057
-16.453 -13.7805 -0.712202
-13.0412 -10.4614 -0.194728
-15.8684 -12.2372 -0.630305
-14.6617 -11.4718 -1.85598
-15.8978 -11.9297 -0.211886
-15.1325 -11.1289 1.41953
-16.1964 -10.3171 0.0521226
-15.0171 -11.6561 -0.37728
-16.1881 -13.9565 1.49625
-15.9029 -11.0204 1.3886
-16.2344 -12.3996 -1.07581
-15.0786 -11.824 -0.325878
-22.0015 -9.98143 -4.26189
-19.5959 -11.1035 -3.34223
-18.1435 -12.896 -3.50378
-15.8747 -11.0499 -4.57793
-16.1274 -12.5557 -3.97877
-18.9348 -12.9046 -4.21526
-16.5449 -11.226 -2.57334
-18.0861 -12.6233 -3.14005
-19.632 -11.3574 -3.32719
-15.9883 -11.6166 -4.53635
-16.1529 -12.3913 -4.54036
-17.03 -11.2357 -2.95867
-18.2388 -11.3899 -3.46116
-16.2042 -11.2331 -5.47454
-17.0269 -11.7319 -4.20101
-16.7506 -12.7881 -2.81207
-16.5326 -11.7406 -3.35166
-16.2587 -11.0262 -3.20231
-15.5607 -12.9169 -5.33264
-15.3899 -12.1433 -3.00234
-14.4822 -11.414 -3.58239
-21.1607 -11.2442 -2.19653
-15.0324 -12.1088 -1.31395
-16.9173 -11.4567 -2.6275
-17.2215 -9.55665 -2.79359
-17.9474 -11.6134 -2.76123
-15.6627 -11.7325 -3.8518
-16.2361 -13.116 -4.353
-15.2232 -12.051 -4.74458
-16.1912 -10.2183 -1.84892
-22.0205 -10.8418 -0.893843
-16.4821 -12.2099 -2.80662
-16.9468 -11.4811 0.0690165
-16.2825 -11.6531 -1.71812
-15.4342 -12.2979 -3.68115
-15.5488 -11.52 -4.69372
-14.532 -13.7797 -2.17838
-15.2193 -10.5652 -1.68446
-17.2172 -11.19 -2.92232
-15.2834 -10.1932 -3.08454
-15.2806 -13.6556 -3.5539
-15.8662 -12.3672 -3.08131
-15.6972 -12.0297 -3.25971
-15.5681 -11.8921 -1.69355
-15.5395 -10.5907 -1.42934
-14.2944 -13.0745 -4.62947
-14.7812 -13.0789 -4.15293
-14.5672 -11.8953 -3.53565
-13.1181 -13.1135 -3.21784
-14.2311 -11.4979 -4.06038
-19.4529 -11.6414 -0.158164
-14.8935 -11.4104 -1.68206
-13.5248 -11.8789 -3.7559
-19.5924 -12.1818 0.719448
-16.8218 -14.6101 -1.25562
-16.9625 -12.1701 -2.17232
-18.5867 -10.8915 1.98062
-16.0281 -11.355 -0.143194
-15.5036 -12.5988 -2.75181
-14.8999 -11.1449 -1.28038
-13.1087 -11.9484 -4.22787
-16.698 -11.7174 -1.27715
-15.3666 -12.3478 -2.36573
-16.3807 -12.5595 -0.644706
-16.1505 -12.7051 -2.89618
-14.475 -14.2741 -2.36039
-18.6902 -11.7497 0.370316
-17.5645 -11.6077 -2.00278
-18.6235 -8.8133 0.513431
-15.9447 -9.89756 -1.48174
-16.6694 -10.6415 1.42037
-15.9077 -12.3379 0.96128
-17.1818 -8.34571 -0.590084
-17.3902 -12.7145 -0.251754
-15.8844 -10.9979 -1.27535
-16.8746 -12.9908 0.847186
-16.6773 -10.5409 0.0710922
-13.8731 -10.622 -1.89418
-16.8992 -10.059 0.84671
-17.6741 -10.5928 0.127284
-16.9159 -11.422 0.323571
-16.4614 -11.8254 -0.880468
-16.5606 -10.4661 -0.318241
-16.6605 -12.6713 -2.22146
-15.695 -7.8234 -0.411336
-16.9375 -12.137 2.01946
-18.0475 -10.5442 -0.654764
-13.7179 -15.512 -1.74819
-15.0828 -12.4643 -0.0988243
-15.3332 -12.2399 -1.38892
-14.9201 -12.0622 0.0682248
-15.5169 -12.1132 -0.350046
-15.4216 -12.406 -1.23733
-15.8854 -11.0666 -1.59913
-15.6788 -11.3574 -0.157994
-17.0279 -11.5198 0.55174
-16.1177 -12.6063 0.757376
-14.7707 -10.1992 -0.349472
-15.2067 -10.1777 0.080738
-16.8143 -11.3216 -0.589037
-15.2332 -12.8725 -2.95611
-16.8504 -11.2391 -0.382446
-16.8012 -11.6547 0.594696
-14.9053 -12.3339 -0.358853
-14.7403 -12.6852 -0.487776
-14.6753 -10.3262 0.796692
-16.8844 -12.9769 -1.44828
-19.6253 -11.0216 -4.17188
-18.3171 -11.8219 -3.875
-20.3759 -10.3761 -3.48569
-16.0521 -10.7359 -1.05656
-16.8209 -12.4246 -4.9995
-17.4525 -9.85288 -2.23648
-17.5885 -11.5031 -2.15316
-16.6161 -9.82839 -2.88407
-16.2461 -12.9585 -5.05666
-15.4663 -9.06997 -3.67111
-16.6982 -10.4792 -4.46588
-16.5071 -12.8334 -2.85963
-18.8633 -10.8733 -2.41106
-13.5874 -12.1798 -3.13625
-14.9817 -9.46474 -3.11448
-15.0722 -10.9284 -4.13156
-15.2332 -12.1811 -2.94888
-16.6925 -12.6719 -3.99766
-14.7667 -13.0613 -4.62125
-17.9381 -12.0661 -4.35596
-15.8212 -13.1419 -4.33952
-16.6549 -12.9667 -2.80715
-15.3602 -11.2313 -2.19628
-14.6714 -13.0072 -0.959332
-14.7636 -11.8366 -3.36567
-15.7493 -12.0401 -2.48261
-13.6004 -11.0924 -3.27046
-16.3363 -11.5043 -4.7017
-19.8063 -11.7511 1.37237
-18.3474 -12.4261 -4.73693
-14.9813 -14.4633 -2.20196
-17.4105 -12.8919 -1.9038
-14.8374 -12.8718 -2.22738
-15.3859 -11.2589 -0.475509
-15.4567 -10.1605 0.512855
-15.2449 -14.1255 -3.44466
-17.1317 -11.8909 0.274019
-16.3761 -13.693 -3.31313
-14.7917 -7.03677 -0.898418
-15.993 -10.0801 -0.631562
-14.9704 -10.7363 -5.10538
-19.2684 -10.7142 0.512797
-18.1237 -9.45837 -0.698395
-18.4619 -10.7646 -0.664652
-14.2831 -12.4418 -1.36124
-18.5394 -12.3169 -0.90612
-14.9675 -12.02 -1.51358
-15.339 -12.2528 -0.206121
-16.1742 -12.0673 -2.03842
-17.0226 -11.7035 1.72961
-12.6886 -13.1161 -1.86125
-15.405 -13.3547 -1.2664
-14.2275 -11.8632 -3.29038
-15.5459 -11.8999 -1.45287
-15.446 -12.234 0.19489
-15.7998 -10.9103 -0.0661357
-16.7562 -11.101 -0.337605
-15.633 -12.1246 0.63373
-16.9197 -11.6397 -0.706493
-14.604 -13.8267 -0.423472
-12.8088 -12.3411 0.236067
-14.2638 -11.201 1.71965
-16.0789 -10.9495 0.0753952
-15.2515 -13.0125 0.806873
-22.9503 -10.6757 -5.02945
-17.8063 -9.36399 -3.88379
-16.968 -11.7152 -2.9491
-15.6658 -10.5834 -0.733274
-14.7125 -11.6007 -3.85164
-16.0829 -12.5178 -2.28872
-16.0539 -12.0725 -3.54082
-17.4306 -10.932 -2.75856
-17.6445 -10.4074 -1.02989
-18.14 -11.3691 -1.74114
-15.4857 -12.511 -0.360528
-18.1399 -12.1297 -1.21792
-16.1362 -11.4891 -1.52019
-18.3407 -10.5324 -1.45704
-16.2003 -11.2356 -0.122286
-14.399 -12.8599 -2.77098
-16.8503 -10.8024 1.96073
-18.2041 -11.7152 -1.68527
-17.1307 -8.75147 -0.978612
-15.665 -10.1609 0.267392
-17.8581 -9.48713 1.40461
-15.2279 -10.4189 -0.712299
-14.2764 -12.9588 -1.44797
-15.1622 -12.7887 -0.852955
-16.2812 -11.7315 0.292704
-14.2879 -14.7043 -0.451818
-15.5958 -13.0389 -1.81097
-18.1822 -11.6151 -1.67817
-15.1703 -11.1749 -0.0360544
-16.0513 -12.4571 1.28449
-16.1994 -12.6925 -3.97931
-15.8761 -10.5945 -4.9397
-15.9546 -11.8085 -1.63206
-17.286 -10.033 -0.51984
-15.7834 -10.2568 -0.789874
-19.7395 -10.7308 1.93449
-14.592 -12.3379 -2.46306
-15.3075 -12.4163 -2.13901
-19.0523 -9.75362 -1.64401
-14.9607 -12.2011 -3.31217
-16.2145 -9.89916 0.231435
-15.8267 -13.0089 0.232252
-16.8697 -12.7769 -0.867815
-16.8471 -11.4687 0.156598
-16.6339 -10.7278 -1.47712
-15.7278 -9.86727 0.331252
-13.8128 -12.1089 0.527695
-22.3209 -10.7142 -3.39264
-15.454 -9.39489 -2.02705
-15.1537 -12.6444 -4.32696
-18.1681 -9.68394 -1.70873
-15.7354 -10.0455 -0.788077
-18.1445 -11.8634 -1.67063
-16.7183 -12.4001 -0.2612
-14.4192 -11.6145 -3.09822
-15.0697 -10.7983 -0.99275
-14.3182 -13.2181 -0.471618
-15.8952 -10.2655 -0.488996
-17.4927 -10.088 0.621744
-17.3788 -11.781 -0.579326
-13.8243 -11.7655 -3.19966
-16.3194 -10.8782 -1.51219
-16.151 -10.5791 0.726513
-14.5772 -12.5555 -2.3827
-14.453 -11.4313 0.0198533
-15.7588 -11.4558 -2.54516
-14.709 -12.6463 -0.386455
-16.8027 -9.88542 -1.28279
-18.962 -11.1238 -3.32116
-17.1448 -10.6996 -0.111326
-17.7454 -12.7195 -1.87943
-16.2948 -11.6408 -3.36754
-17.2201 -10.9902 0.392917
-15.3094 -12.0618 0.313651
-17.2543 -12.0044 -4.73025
-15.0366 -10.8082 -0.653444
-15.6667 -11.163 -1.51678
-17.5713 -12.3433 0.438231
-15.4626 -10.6776 -0.467544
-14.8639 -11.7446 -1.03737
-16.5208 -12.1095 -2.19797
-15.2079 -11.628 -0.828365
-16.9278 -9.57297 -1.82553
-16.1823 -11.7678 -0.869409
-14.9234 -10.3899 -2.82817
-14.996 -13.8622 -1.61575
-14.1412 -11.7247 -4.43597
-16.2783 -9.38683 1.69665
-16.4165 -8.10354 2.4283
-17.3466 -9.96583 1.27467
-16.7263 -8.79834 0.962727
-22.2039 -10.6821 0.13565
-23.4832 -8.62957 -4.63862
-21.0301 -10.7346 -0.507282
-19.9834 -12.0409 0.334247
-21.1687 -11.2553 -1.6473
-16.6667 -11.3736 0.755859
-19.902 -11.3565 0.475219
-20.5791 -11.315 -3.46864
-17.934 -10.3857 0.187499
-20.3681 -9.57681 1.39273
-21.0586 -10.4463 -0.393295
-20.1737 -11.0774 0.0232001
-20.575 -10.2481 -4.12614
-17.4083 -10.7756 2.15061
-19.8127 -11.1182 -2.12458
-17.1371 -9.23283 -0.832378
-17.8626 -12.6155 0.239822
-17.2204 -9.61344 1.25903
-20.2687 -11.1282 -2.84773
-20.2007 -9.94022 -4.01179
-21.3512 -12.026 -5.60126
-15.0535 -10.1613 1.69201
-19.6901 -13.4074 -3.26333
-20.3589 -10.0017 -4.75881
-20.8884 -10.6326 -0.681221
-17.8365 -10.8722 -3.57402
-16.7768 -11.4224 -3.92209
-18.2975 -11.1276 -4.08192
-20.0064 -11.6897 -1.45184
-19.0889 -12.246 -2.9471
-19.701 -10.2525 -2.33095
-18.3161 -11.684 -4.66696
-17.1625 -11.1512 0.0670838
-19.6926 -11.4054 -2.16267
-17.4178 -10.3469 -0.649907
-16.1201 -11.2757 -0.901706
-16.181 -11.2811 -0.786321
-17.9588 -11.742 -0.594293
-18.5638 -10.97 -3.05118
-17.1286 -9.29398 0.217835
-20.2185 -10.8425 -3.72519
-17.0629 -11.2111 -0.427946
-16.5977 -11.2177 0.633443
-13.7452 -10.8461 -0.0892837
-17.2087 -9.25797 -1.18261
-19.6337 -10.4104 -3.28392
-16.1014 -10.0554 -1.01464
-17.018 -9.98243 -0.0685919
-19.3172 -10.5987 -4.57411
-18.2417 -10.1142 -5.67234
-18.5916 -12.1682 -3.21159
-17.7291 -8.8583 -1.58691
-16.4277 -10.1506 -0.282503
-17.1524 -11.3951 1.16895
-15.8756 -10.9136 -1.68846
-16.5081 -10.3915 -1.02565
-15.054 -9.83915 -0.387381
-15.8666 -11.2592 -1.59272
-16.7389 -11.2841 -1.13961
-16.3385 -12.4521 -2.12456
-15.4347 -12.7275 0.427657
-15.5394 -9.18067 -1.90567
-17.1569 -10.6885 0.329889
-15.5124 -11.4163 -0.632631
-16.4589 -10.07 -0.343799
-16.4434 -9.90843 -0.252403
-15.9567 -10.524 -1.30137
-16.3602 -10.6998 -0.00933139
-14.8563 -11.9293 -1.01523
-16.5565 -11.6851 0.900123
-16.1138 -10.9731 -1.85523
-16.3472 -10.6326 0.631161
-16.0764 -12.6026 -1.71821
-16.4915 -12.4175 -4.7
-16.0773 -10.128 -1.18588
-16.2664 -10.9831 -3.61179
-15.371 -10.9917 0.383637
-16.8486 -12.1728 -3.13413
-15.7599 -10.1776 -1.78878
-15.5677 -11.9648 0.3805
-16.3809 -13.0213 1.00033
-13.8811 -12.0469 -1.79614
-15.8602 -9.08246 -3.10664
-17.2583 -12.8336 -3.63621
-14.9059 -9.50513 -2.07222
-16.5351 -12.6906 -3.60956
-14.8966 -10.7068 0.0311317
-17.3149 -11.0972 -3.47799
-16.587 -11.2323 -6.75193
-13.949 -12.9027 -6.16844
-17.9742 -10.6243 -4.7676
-17.1881 -11.7205 -3.77163
-15.1045 -13.2033 -3.0338
-16.6974 -11.9143 -3.7974
-16.3738 -13.1886 -4.91426
-17.6833 -10.0242 -3.62733
-14.6504 -11.5642 0.026542
-15.8205 -11.7856 -4.42666
-16.4728 -12.5151 -3.85283
-16.0314 -12.327 -5.53149
-17.2546 -10.5918 -4.23103
-15.5464 -15.2674 -5.4459
-15.4066 -11.9789 -0.963767
-14.9736 -10.8485 -3.34006
-14.5668 -10.7182 -2.62446
-14.6209 -10.9227 -3.75795
-14.497 -12.2819 -3.01046
-16.6274 -12.9915 -3.02119
-15.9209 -12.4806 -3.89501
-13.2927 -13.7546 -1.86649
-13.6739 -12.5012 -2.09538
-14.1249 -12.9641 -4.12959
-14.03 -13.3906 -3.90415
-13.4485 -10.8831 -1.8445
-14.8925 -13.9307 -2.84771
-14.1199 -13.0333 -3.23637
-12.1857 -11.8498 -2.26542
-15.0877 -11.7808 -3.7577
-14.6158 -12.5758 -4.15497
-13.6314 -14.4595 -1.48256
-13.3063 -11.9872 -2.96618
-14.2597 -12.4717 -1.70286
-15.147 -12.0166 -4.39309
-15.9578 -11.4572 -3.48796
-12.8283 -12.2943 -3.64028
-15.6468 -12.8967 -2.63703
-13.9984 -13.0278 -3.04939
-12.8914 -13.3884 -2.28821
-17.3625 -11.2667 -3.5311
-13.426 -12.8621 -5.06278
-13.4854 -12.6637 -3.28002
-13.3385 -13.7464 -1.61405
-21.8348 -7.45681 0.498826
-17.7724 -9.30798 0.958018
-21.1361 -9.87836 1.51558
-19.3965 -11.2315 3.7432
-22.5022 -9.2707 -0.395901
-23.1389 -10.6011 -5.07845
-20.1245 -10.9125 0.888175
-20.7501 -9.37706 -0.427348
-18.0454 -12.0123 -0.469298
-20.8775 -10.5197 1.07199
-20.3965 -10.7622 -0.184952
-20.0215 -9.60549 -0.663433
-18.7211 -10.8015 -0.913814
-21.8451 -11.4911 -2.71318
-19.1914 -9.3976 -0.176527
-19.6261 -11.649 -0.507441
-15.4284 -10.6019 1.99033
-20.4087 -12.3526 -1.0047
-20.4433 -11.0325 -2.73995
-18.0007 -10.6816 -0.876196
-19.5891 -10.8895 -1.34526
-19.8584 -11.9756 -2.86387
-17.5997 -8.86519 -3.1272
-21.0723 -10.2927 -4.57224
-16.1455 -9.74433 0.454896
-18.9446 -10.2725 -0.386101
-20.7206 -10.0213 -5.26231
-19.9439 -11.553 -3.39596
-19.375 -10.4927 -4.89311
-19.2046 -11.0266 -2.29909
-19.3359 -10.9596 -4.219
-18.8013 -11.1274 -4.9839
-19.8952 -10.2231 -1.99106
-20.565 -11.4926 0.876543
-18.3156 -9.75011 1.07024
-21.0195 -10.9161 -4.09587
-18.9096 -9.76021 -3.80228
-18.444 -11.9774 -2.12725
-18.6193 -10.0091 -5.0158
-18.4561 -9.37713 -2.6064
-18.0318 -11.3167 -0.292787
-18.3343 -10.2747 -0.187058
-15.4173 -13.1118 0.683772
-18.126 -11.2106 -2.62572
-15.7152 -12.5273 0.270424
-17.902 -10.8352 -0.669976
-16.5597 -10.4079 -0.292098
-19.1276 -12.5753 -0.323374
-19.3831 -10.2298 -4.25043
-21.799 -8.46487 -2.57539
-18.0601 -11.0719 0.941162
-16.4703 -11.3613 -3.1401
-19.4289 -11.0632 -3.22517
-17.309 -11.3344 0.931901
-18.8843 -9.56397 -5.43328
-19.6573 -11.4038 -4.55915
-15.7108 -12.1029 1.66718
-16.8361 -12.7644 1.06147
-15.8246 -13.2398 -0.986355
-16.7218 -11.5077 -1.88956
-16.8019 -10.3405 -2.05811
-15.7544 -10.5339 1.03524
-19.2569 -11.9473 -4.94071
-17.3469 -11.6982 -1.69389
-16.2865 -11.482 -2.4911
-17.4723 -11.2169 -2.20554
-17.5554 -11.2238 -3.69087
-15.1337 -12.0339 0.92166
-16.9602 -10.2166 -0.168927
-16.4872 -11.9756 -0.00438049
-15.2667 -11.7226 0.301625
-18.9297 -12.5052 -5.37882
-16.3583 -10.6246 -2.72149
-16.8685 -11.8064 -1.45387
-15.8326 -12.2918 1.52353
-14.9488 -12.2773 -0.39337
-15.8633 -10.9177 -1.98872
-15.0284 -10.9994 0.129365
-15.0456 -9.62663 -1.67257
-14.8324 -12.1989 -0.524148
-15.9818 -12.8686 -0.117189
-17.8555 -11.0257 -3.13266
-16.6233 -11.1613 -5.1987
-15.7243 -12.5825 0.995812
-16.6187 -13.6538 -5.45512
-15.999 -11.4889 -0.369136
-15.8182 -12.7347 1.65055
-17.4893 -11.7778 -3.18457
-15.3738 -12.1401 0.237086
-15.7365 -11.3663 -3.13276
-16.1987 -11.8918 -1.55392
-15.5127 -11.4131 -2.54243
-16.5024 -10.7022 -2.49261
-14.6285 -10.7356 -2.29862
-16.5635 -12.8851 -0.285231
-12.8407 -11.8671 -2.37885
-14.6532 -12.8218 0.844666
-16.9762 -11.0976 0.81345
-14.6522 -11.4887 -0.857396
-16.7819 -10.9193 -2.75946
-15.9925 -12.4601 -3.4181
-16.6588 -10.5116 -1.01773
-14.4313 -11.1131 -0.732723
-16.9686 -13.101 -0.0635361
-16.2223 -10.0569 -1.88183
-15.0546 -10.7968 -0.0056228
-15.0772 -13.3814 -1.19987
-15.7421 -13.0192 -3.63422
-17.5031 -12.944 -1.26985
-15.6738 -11.5184 -0.331589
-17.5308 -11.1198 -2.18764
-16.5743 -14.1414 -3.15543
-13.2264 -11.0495 -1.44902
-17.2644 -10.0236 -4.46597
-15.8847 -11.4348 -3.13486
-15.5277 -10.5616 -1.69682
-16.7376 -11.511 -1.22634
-15.7724 -10.165 -1.85872
-14.6024 -11.0307 -0.450657
-14.5731 -12.2102 -2.49258
-16.789 -12.989 0.409354
-14.6922 -12.3833 -3.9623
-14.3715 -10.4005 -1.57692
-16.0429 -11.3574 -3.16582
-14.8352 -11.4431 -1.33711
-16.9127 -11.5461 -4.94852
-14.83 -10.8392 -4.35357
-17.1936 -11.9114 -3.36263
-13.4412 -12.2325 -0.873863
-16.1994 -11.333 -4.19074
-14.5405 -10.3002 -0.25328
-15.3277 -11.6122 -3.39962
-12.5214 -12.8222 -2.84783
-16.2708 -10.5788 -2.75851
-13.7039 -11.7424 -4.63708
-16.508 -12.9481 -1.88815
-15.073 -12.2677 -4.70304
-14.5062 -10.1341 -1.04927
-15.2242 -12.847 -3.23058
-13.8888 -11.9742 -1.24783
-15.3343 -12.8882 -3.30039
-14.6934 -13.0699 -4.62768
-14.7977 -11.299 -5.53613
-14.8002 -10.3782 -3.02332
-13.9055 -11.0382 -2.43512
-13.6773 -13.1629 -2.91876
-14.4846 -13.289 -1.18878
-14.2332 -12.4793 -3.3845
-13.5679 -12.0295 -4.80229
-15.0692 -12.9609 -3.99447
-14.2397 -12.2594 -3.7199
-15.6403 -13.1973 -2.47319
-15.1885 -11.3249 -1.52361
-15.2838 -14.2558 -2.64211
-14.6003 -13.1522 -1.29518
-13.9973 -11.245 -3.26988
-15.3869 -12.3553 -1.06348
-14.2555 -12.8354 -3.26111
-13.1145 -11.5163 -4.63835
-14.7897 -13.2658 -5.21074
-15.6225 -12.8011 -4.08239
-15.1269 -13.1541 -2.11584
-11.77 -12.195 -3.68147
-14.5069 -12.7632 -3.49981
-14.6592 -12.5382 -4.69127
-16.3844 -10.3865 1.24955
-24.2389 -8.51353 -7.11635
-20.3064 -9.30458 1.34591
-18.7689 -11.516 -0.101246
-21.1146 -12.7626 0.699533
-18.5618 -8.64427 -0.891694
-19.5687 -11.9833 0.603597
-20.8423 -12.1067 0.390628
-18.7836 -11.5119 1.07098
-18.2389 -12.7613 -0.527815
-19.6169 -11.353 -1.50417
-20.3786 -12.0579 -2.94145
-19.5125 -12.072 -2.55036
-21.4877 -10.812 -4.51655
-18.0065 -10.2776 -0.114083
-21.7699 -13.3007 -6.8672
-15.8227 -12.9675 1.51599
-20.1795 -11.6231 -2.48253
-17.8641 -11.1091 -5.14775
-18.2873 -11.6954 0.152709
-16.8486 -9.81517 1.46565
-16.2017 -13.3286 -1.29429
-17.3795 -11.5501 1.30188
-16.3671 -11.7148 1.02052
-17.0077 -10.299 -1.1149
-17.7158 -12.3179 -2.61973
-19.1109 -11.1569 -2.75356
-16.537 -9.9231 2.776
-18.2643 -11.5343 -3.22525
-15.9177 -10.8263 0.913065
-19.2451 -11.9825 -1.14059
-15.65 -10.8681 -1.13994
-16.3007 -11.9767 1.54031
-18.8329 -12.0986 -4.4889
-16.038 -10.9871 0.399666
-16.0894 -11.6672 -2.97096
-15.8463 -10.7149 -0.213614
-17.5599 -12.2402 -1.84856
-15.92 -11.8022 -0.553226
-16.2768 -11.3868 -0.968407
-16.5351 -11.5726 -0.690276
-17.3913 -12.9618 -0.107181
-16.9946 -12.0435 -0.072326
-17.6063 -12.519 -0.577843
-13.2676 -10.3784 0.40705
-15.4079 -9.70033 -2.1925
-17.5638 -11.9845 -4.66646
-16.382 -11.5329 -1.64895
-16.7296 -12.1004 -2.34423
-16.432 -9.92103 -2.02994
-18.0822 -11.9492 -2.29662
-15.208 -11.1531 -0.161765
-16.9528 -11.4638 -0.851557
-16.378 -11.3294 -0.847131
-18.2588 -10.8424 0.232372
-16.0773 -13.2634 0.560157
-18.0221 -13.3787 -0.916366
-17.6883 -11.5306 -3.61144
-15.6772 -11.6388 -1.27187
-15.0371 -9.18498 -0.0204098
-16.5328 -10.6423 0.385865
-16.368 -11.5334 -1.02039
-14.4626 -10.3944 -0.362503
-14.3678 -10.6298 -0.0842318
-16.15 -12.0279 -3.85506
-16.5173 -12.2501 -1.89034
-15.9482 -11.2158 -1.01271
-17.8189 -12.1902 -4.27692
-17.3717 -12.9076 -3.95398
-16.6337 -9.14371 -1.43727
-12.3115 -11.8268 -4.10034
-15.2079 -12.0066 -2.62594
-16.473 -12.0302 -4.26553
-14.5265 -9.88659 0.191147
-14.7506 -13.2768 -2.88026
-15.7992 -12.0267 -1.1997
-17.0944 -12.5943 -2.594
-14.2782 -11.7179 -1.75901
-16.9729 -12.161 -3.34053
-16.9301 -12.9382 -3.80918
-14.8695 -14.6236 -0.0653864
-14.8729 -11.1123 -2.59329
-15.7916 -11.5683 -3.14749
-16.5484 -9.8006 -3.71226
-14.2503 -12.7313 -2.09436
-15.8667 -13.3316 -1.5978
-17.8463 -13.5474 -4.40594
-13.296 -11.836 -2.11012
-16.8459 -13.1217 -3.33183
-14.05 -12.4304 -4.69115
-14.0995 -13.0128 -3.52
-15.4053 -13.3293 -1.29894
-14.6182 -12.9767 -3.70456
-14.0687 -14.0575 -2.64072
-13.5646 -11.5679 -0.798076
-14.7631 -12.2887 -1.76726
-12.2544 -13.9991 -3.98394
-14.6605 -12.5758 -1.93788
-15.1083 -11.3998 -4.43555
-15.5207 -11.5212 -1.37038
-13.3166 -11.3068 -4.33178
-13.7901 -12.907 -2.80064
-14.5041 -14.6776 -2.30332
-12.7598 -11.6798 -3.71019
-14.6834 -12.0888 -5.04714
-13.7328 -13.3697 -3.57012
-19.8414 -10.4394 0.592556
-20.3929 -12.224 -0.665711
-17.1804 -10.9901 0.281396
-21.0766 -9.57061 -1.10366
-16.4744 -12.0593 1.16236
-18.1118 -11.1077 -3.04664
-20.2958 -12.4669 -2.40846
-15.3359 -10.9458 0.564756
-17.2619 -10.0796 0.976645
-17.0727 -10.0249 -2.25636
-16.7423 -8.98612 -0.979762
-16.7571 -10.2924 -0.707299
-16.1369 -12.3487 -1.41385
-16.4436 -11.3228 -1.69745
-14.4168 -9.15823 -0.763791
-14.7834 -11.4093 -1.49074
-18.1925 -11.298 -0.819782
-15.8998 -9.84736 1.15385
-16.8746 -12.9479 0.0626765
-14.8016 -12.6713 1.72419
-16.1591 -11.3736 -1.12547
-16.3942 -10.9383 -2.65832
-17.7811 -12.4981 -5.28479
-16.0579 -11.6349 -0.963894
-17.6283 -12.1621 -4.49142
-14.9065 -12.6723 0.584669
-15.0012 -11.4669 -3.54546
-14.2306 -10.6289 -0.664027
-16.4086 -9.55839 -1.5407
-17.1335 -10.9376 -2.15212
-16.6427 -12.6351 1.09265
-17.1604 -12.1003 -4.68032
-16.2351 -12.5682 -3.56313
-15.1914 -11.7991 1.31457
-14.6723 -10.6305 -3.04818
-15.3084 -10.7765 -1.76144
-16.4582 -12.0571 -1.67681
-15.7389 -13.0387 -2.26672
-15.9149 -12.5266 -3.16511
-14.7324 -11.0837 -3.31189
-13.6579 -10.9445 -3.01751
-17.3609 -11.5283 -2.88962
-15.5027 -12.0334 -0.795929
-15.3021 -10.5222 -3.62681
-15.1704 -12.5233 -2.29502
-14.9396 -13.4591 -2.35492
-15.6588 -12.9404 -3.83065
-15.9101 -11.445 -4.01212
-15.0048 -12.0758 -2.28106
-16.9882 -9.76297 -4.78
-15.6222 -13.4669 -2.85118
-13.8717 -12.7486 -2.46418
-14.7569 -12.7489 -4.27906
-15.2432 -12.8872 -1.66685
-15.611 -12.0512 -4.94646
-15.1505 -10.6236 -2.67812
-15.8867 -13.807 -2.62552
-15.2887 -10.7121 -4.3933
-14.0508 -11.1013 -3.02045
-12.4438 -12.1537 -2.73002
-19.0821 -11.0384 0.217138
-16.9734 -11.8244 0.960101
-17.2061 -10.0181 1.30124
-18.733 -10.7919 0.238767
-20.9099 -10.7281 -2.67131
-21.0372 -10.6957 -2.17451
-17.4848 -9.7555 0.0733871
-17.0077 -11.167 -3.15589
-17.3865 -10.4516 -1.59448
-15.5742 -10.0483 0.0326403
-19.2748 -11.0773 -4.09879
-16.5141 -12.8539 0.478331
-15.9845 -12.7464 0.56436
-14.8396 -9.81785 -0.237581
-14.8948 -12.3346 -0.417985
-16.0055 -11.6701 0.00114149
-15.8378 -11.4283 1.66323
-15.3431 -11.3261 -0.854366
-15.8734 -11.9081 -2.0451
-15.8699 -9.57602 -2.95618
-15.9982 -10.2835 -4.90264
-16.3238 -11.6345 0.691763
-14.5235 -13.5877 -0.803672
-17.0343 -10.7861 -1.56267
-15.0414 -12.4023 -2.13442
-16.1198 -10.0949 -4.86075
-16.4213 -10.8674 -0.575424
-16.245 -8.8131 -1.01623
-14.5345 -13.4873 -1.39148
-15.4754 -11.4652 -2.30888
-15.6299 -12.252 -3.47701
-15.2979 -11.0823 -1.97308
-17.1155 -10.978 -3.34834
-16.0232 -10.746 -0.86794
-14.6633 -10.658 -3.18757
-17.1437 -11.3456 -3.62536
-13.9726 -13.2896 -2.07715
-14.9358 -13.3762 -3.85173
-14.8214 -15.0022 -1.29706
-16.2557 -13.4601 -3.14316
-13.9655 -11.9964 -2.26276
-15.3846 -12.3492 -4.41121
-14.6248 -10.6063 -3.2869
-16.495 -10.0106 -0.553976
-18.631 -10.119 0.418777
-17.2154 -11.212 -1.00544
-18.0242 -12.1673 -0.228194
-15.7432 -10.865 0.511574
-18.2169 -12.4186 -0.44882
-15.5328 -10.668 0.949936
-16.5067 -12.7979 -1.29768
-16.9619 -13.6302 -0.401633
-13.0168 -13.5766 -3.27352
-14.7786 -12.5322 -3.81095
-14.5683 -10.8915 -3.07872
-17.7584 -13.3108 0.709841
-17.2079 -10.3032 -2.51384
-15.29 -12.8474 -1.43871
-15.6234 -12.5291 -2.27566
-14.9131 -10.8918 -1.87436
-13.1066 -13.0369 -4.52042
-17.7237 -11.118 -1.51045
-15.7389 -12.5718 -1.41163
-16.5671 -9.93097 -2.76667
-16.8814 -12.1011 0.0642228
-16.9012 -12.2518 -0.742301
-16.0881 -9.65283 -1.14658
-15.9086 -11.9585 -1.82439
-13.0486 -11.9643 -2.28593
-15.5691 -12.6093 -2.43734
-21.8174 -10.7965 -4.58426
-16.3328 -12.0645 1.61465
-14.0923 -8.99634 -1.33404
-16.4994 -10.427 -0.894681
-15.9679 -11.0394 -4.9259
-15.7916 -13.392 -2.00992
-14.2025 -12.3962 -3.60172
-14.605 -12.1775 -1.32588
-14.0185 -12.728 -3.0216
-14.4782 -14.3626 -2.4128
-15.4041 -12.0603 -0.748251
-15.9223 -9.49518 -0.956929
-15.3119 -11.9957 -2.20978
-15.5588 -11.4927 -3.57846
-15.3842 -13.1638 -0.391629
-14.6235 -11.3154 -3.5374
-16.7773 -11.4039 -0.343904
-15.3182 -13.6775 -0.986229
-14.2182 -11.1435 -1.86243
-15.2869 -11.7038 -2.47446
-15.255 -12.7508 -3.22096
-16.7826 -12.0805 -4.09393
-18.1345 -10.4859 -1.53763
-18.4553 -10.446 -1.16769
-15.7729 -10.8647 -4.28911
-21.6401 -9.42383 2.521
-14.8818 -8.88123 0.236511
-14.465 -10.5885 1.89956
-15.8213 -10.0695 0.00922463
-21.0593 -9.77349 -1.61302
-20.9603 -9.70951 0.849674
-20.5819 -9.96801 -0.28419
-21.8926 -9.24466 0.169884
-19.7728 -11.6611 -0.779999
-18.8284 -10.6774 0.64553
-16.9521 -11.0938 0.542687
-16.4842 -13.8495 -1.19952
-17.8826 -9.7899 -0.327577
-17.7135 -9.03023 0.790906
-17.0556 -11.8003 2.34913
-17.8432 -11.1623 0.798892
-17.2981 -10.5267 0.383532
-21.0428 -10.7708 -0.246371
-18.8278 -10.6588 2.21657
-18.8431 -12.764 0.234609
-15.9268 -11.9114 -0.954298
-16.2051 -12.0267 0.205635
-16.7175 -11.4655 0.613309
-19.1552 -11.9011 -0.85312
-19.5277 -10.9003 -2.52363
-17.5828 -11.2207 -2.16646
-15.9828 -11.0039 -0.734542
-20.6568 -8.20837 -0.863629
-19.494 -10.2795 -2.92857
-22.1772 -9.08393 -0.586514
-16.8726 -14.3462 1.13328
-17.9108 -9.87087 0.81507
-15.4561 -10.5688 -0.746253
-16.7446 -11.9019 -1.45699
-14.3216 -10.7196 -1.63911
-15.0774 -12.6736 -0.244026
-13.8146 -10.7039 1.78476
-14.676 -13.4546 0.0992531
-18.7839 -11.2905 -1.23796
-13.8992 -12.2725 -0.698245
-15.5293 -9.88368 0.201463
-16.4179 -10.1622 -1.64277
-19.5203 -11.6217 -1.66372
-16.6393 -12.1559 -0.381011
-15.8202 -13.4525 -0.773984
-15.6912 -11.9035 -1.86795
-16.7281 -11.4728 -0.341415
-15.2569 -11.5641 0.95127
-17.3786 -10.9011 -1.67719
-15.4583 -11.8561 -1.46527
-17.0515 -10.7642 0.185424
-18.9787 -10.0526 -4.1654
-14.8187 -10.4624 -0.814552
-17.2646 -11.3725 -2.71165
-17.3522 -12.1819 -1.29077
-15.2878 -13.9108 -0.0589558
-15.2243 -11.9082 -0.630886
-15.7034 -12.5019 -1.35094
-15.2164 -12.4929 -1.35654
-16.7183 -10.4025 -2.10652
-15.137 -10.5699 -1.84588
-18.1618 -11.077 -1.72112
-15.6616 -11.8998 -0.469237
-17.6655 -10.6469 -2.17501
-18.1421 -11.1436 0.762261
-17.1809 -11.3667 -0.0450241
-18.8524 -11.4382 -0.628299
-14.5381 -9.49371 -2.4146
-19.0951 -10.0901 -1.80353
-15.6131 -10.959 -0.528526
-17.6064 -12.5136 -0.577191
-19.9998 -8.63944 -3.1466
-19.2652 -11.7937 -1.41539
-18.9237 -11.2813 -2.98276
-19.4932 -11.9017 -3.2945
-22.829 -9.71408 -4.45534
-15.9011 -10.587 -2.65475
-17.0663 -11.7508 -0.656528
-15.4686 -9.10198 -2.24431
-15.0782 -11.2777 -2.23629
-17.4934 -12.2644 -1.35568
-18.2745 -12.3411 -2.00564
-20.498 -10.9177 -2.8525
-16.242 -10.2585 -2.85202
-15.5057 -10.7415 -1.11916
-15.7701 -11.7292 -0.508618
-15.9302 -12.2825 -3.8308
-20.054 -11.1833 -3.58338
-18.0911 -11.9256 -4.58389
-13.6405 -11.4621 -0.52057
-20.1195 -10.0278 -3.89234
-15.7517 -11.4308 -0.765903
-15.4574 -13.1824 -2.22124
-20.3303 -12.2555 -3.03088
-20.9286 -12.4595 -3.02559
-14.2081 -11.0091 -2.41489
-15.8657 -9.43812 -3.11074
-13.723 -13.0885 -3.15532
-20.9153 -10.9369 -4.92914
-15.965 -12.5548 -2.19696
-15.9249 -10.7575 -0.830864
-15.8631 -12.3184 -2.60834
-12.8281 -13.647 -2.72328
-20.7102 -10.7083 -5.17119
-20.4557 -13.5075 -4.31195
-13.5601 -12.9802 -1.98069
-18.9785 -12.3908 -4.28023
-16.5126 -12.1094 -4.03362
-13.8966 -13.2093 -2.93033
-18.1054 -11.2558 -3.2246
-19.8135 -11.0619 -2.31353
-16.3115 -11.1638 -2.19731
-17.5294 -11.1465 -3.77385
-16.5854 -12.7435 -3.08993
-17.5714 -11.8744 -2.65892
-15.4281 -13.1818 -4.06367
-15.4 -13.4837 -2.41405
-15.7086 -10.5226 -2.56951
-18.3633 -12.5628 -4.23592
-16.6961 -12.3986 -6.26105
-13.6541 -12.3107 -2.96069
-14.1754 -11.5737 -3.18759
-13.6393 -11.8576 -2.15502
-13.5677 -13.1396 -2.70103
-13.236 -11.623 -2.60697
-15.3103 -10.6138 -4.19703
-15.8935 -11.4786 -2.28209
-18.0563 -11.867 -3.36937
-15.9644 -10.5185 -4.18379
-17.013 -11.3748 -4.39722
-18.1483 -11.9841 -4.65144
-14.5731 -11.6463 -4.407
-15.425 -12.1064 -2.6717
-15.9295 -14.3539 -2.37627
-16.4576 -11.8538 -3.79283
-14.9934 -13.1582 -3.49367
-17.3563 -11.2427 -4.28798
-15.3199 -10.5847 -4.07876
-16.5784 -12.504 -4.0578
-15.0044 -12.3102 -3.99769
-14.0712 -11.2884 -2.79693
-12.9149 -12.3302 -3.43648
-12.4745 -12.5697 -2.13232
-13.4577 -12.0905 -4.05403
-14.0465 -13.0772 -4.49127
-13.1675 -13.1153 -3.16039
-12.8663 -12.7542 -3.79996
-13.6952 -11.7894 -2.23391
-14.1045 -12.0837 -3.1476
-13.9809 -12.8861 -3.31173
-14.5225 -12.3845 -4.27175
-13.4133 -10.7823 -2.7435
-15.1009 -11.2947 -2.51918
-21.2824 -8.66567 1.02178
-20.7469 -8.61039 -0.463567
-17.0731 -9.81146 2.33578
-17.5775 -9.79736 2.20757
-14.6309 -9.24881 2.83873
-23.4252 -10.9259 -0.43714
-20.8774 -10.7369 -0.0744586
-18.1191 -11.3928 -0.317245
-15.8416 -12.6399 0.939432
-16.4811 -10.4458 1.3825
-17.8442 -12.2768 1.46329
-14.532 -12.3787 0.566791
-16.3659 -12.0057 -0.206229
-17.5376 -10.7542 -0.503747
-19.6822 -11.4528 -3.12645
-20.5237 -11.7775 -0.8274
-20.3991 -11.9447 -0.719025
-18.9162 -9.12915 -0.68506
-20.2211 -9.09256 -0.467658
-19.9603 -11.8768 -0.954544
-19.0596 -11.5893 -1.24247
-19.9118 -11.5444 -0.724336
-16.3004 -9.92755 -0.0879871
-15.6947 -11.0744 -1.0308
-16.6143 -12.0911 0.773826
-14.1146 -10.6636 0.502342
-14.5627 -11.6299 1.33279
-16.1557 -10.6351 0.991838
-14.5318 -11.7499 1.0645
-15.5758 -12.8951 0.984204
-16.4306 -11.2028 -0.090104
-16.9287 -11.4742 -1.03324
-18.7185 -11.9913 -1.89583
-15.236 -12.8496 1.20307
-15.6259 -12.3779 0.291213
-17.003 -12.0732 0.89536
-15.4997 -13.0277 -2.0621
-15.6554 -10.225 -0.0236251
-15.0298 -10.0733 -0.393118
-16.7546 -11.3178 -1.63798
-16.8432 -12.3635 -1.1024
-16.3903 -10.9673 -1.93308
-19.809 -10.4367 -1.78847
-16.1187 -10.8841 0.0517671
-19.5037 -12.1068 -0.940021
-20.4512 -9.42873 -1.35019
-13.4856 -13.0397 -0.876758
-16.4526 -12.7736 -1.40106
-13.4259 -11.6923 -1.27826
-16.655 -12.4316 -1.35816
-16.0604 -11.3605 0.130674
-16.4055 -10.1038 -0.666387
-16.5534 -11.8354 -1.68145
-15.763 -9.28038 -0.513758
-16.0506 -11.6034 -0.12027
-16.2945 -11.1943 -1.70455
-14.9018 -12.5047 0.453209
-15.2879 -11.2752 -0.319004
-20.1257 -10.4402 -2.82502
-20.5026 -13.7491 -1.18692
-15.3285 -11.3184 -2.64732
-19.6188 -10.9362 -2.11612
-15.7913 -12.7603 -0.832073
-18.5621 -13.3537 -2.38184
-20.0509 -11.414 -2.00865
-18.3377 -12.139 -2.99372
-15.5143 -12.9828 -1.00559
-19.1874 -10.9221 -3.5721
-21.3214 -10.5105 -2.68232
-18.9893 -9.22865 -2.68473
-17.0827 -11.7227 1.24557
-16.4908 -11.0236 -1.96492
-18.2214 -11.1731 -3.7866
-16.2029 -10.4981 -0.293152
-16.1718 -13.2174 -0.175462
-17.9207 -8.91265 -1.75729
-19.1305 -11.152 -4.2512
-14.7599 -13.0321 -1.89611
-20.8238 -11.1276 -4.25808
-15.1344 -11.4826 -0.274393
-20.4732 -11.6418 -4.85788
-20.4557 -10.138 -4.87726
-15.7375 -11.027 -1.24083
-15.167 -11.0054 -2.47573
-19.9696 -9.81241 -4.13952
-20.9841 -10.4667 -4.48041
-16.0137 -11.4937 -2.65325
-18.7339 -9.12434 -2.54113
-14.453 -12.1672 -1.7957
-16.1901 -11.6182 -2.70349
-19.8482 -12.0849 -4.49321
-19.7984 -10.6178 -2.96
-19.1968 -9.58018 -5.12554
-13.4598 -10.7637 -3.61086
-15.8976 -13.2316 -1.81748
-19.6222 -9.68409 -4.67793
-17.6617 -10.7474 -3.38755
-15.4943 -11.7231 -2.51461
-21.6455 -10.1819 -6.52884
-20.7521 -9.52879 -3.99076
-19.5309 -9.88547 -6.03178
-15.1513 -11.4886 -4.26559
-14.1194 -14.7668 -3.3041
-14.9039 -12.1837 -2.29838
-17.9182 -11.079 -3.50259
-19.1597 -13.1987 -4.18107
-17.9727 -11.9767 -4.17557
-17.9599 -12.3384 -3.65384
-20.3641 -11.2732 -4.28722
-15.7211 -11.9073 -3.27842
-15.9557 -12.1043 -3.42043
-16.5315 -12.7554 -5.8901
-17.7421 -10.9623 -5.25865
-14.6061 -12.8464 -2.02073
-14.0711 -11.335 -1.48097
-18.3894 -12.7154 -3.43929
-18.0535 -11.6465 -5.55825
-13.419 -12.0098 -4.18612
-16.5815 -12.7484 -3.91691
-16.3122 -12.4435 -5.07171
-17.3803 -11.9596 -4.63102
-18.1662 -10.8136 -4.99692
-15.1331 -11.8853 -1.89525
-14.4257 -12.6163 -2.71249
-16.1105 -13.0698 -2.51722
-16.6756 -13.1041 -0.872677
-13.6224 -11.9172 -2.39872
-13.8912 -12.7006 -4.04942
-15.1707 -12.987 -2.36239
-16.499 -12.5815 -4.17424
-14.5143 -11.7523 -4.25188
-16.9834 -10.9259 -3.24156
-15.447 -12.5302 -2.3179
-14.346 -10.5025 -4.01344
-17.0447 -13.2867 -1.99767
-14.5703 -11.6196 -3.71627
-15.4633 -12.1849 -4.44924
-15.2273 -12.6128 -4.38481
-17.3496 -11.4633 -4.54594
-13.9275 -11.6913 -2.22845
-16.1363 -11.9558 -2.89976
-17.4839 -11.1939 -2.92525
-15.2912 -11.5871 -5.6353
-15.1818 -11.6646 -6.53278
-14.5777 -12.3518 -3.73951
-14.86 -12.8193 -3.5177
-13.798 -12.1244 -2.4193
-14.6202 -12.0592 -4.89821
-13.8404 -12.2667 -4.82562
-14.3278 -13.175 -2.77956
-16.9855 -12.9294 -3.04811
-14.7256 -12.8542 -4.07766
-13.8853 -12.1101 -4.82205
-13.4585 -11.0079 -4.04563
-20.2835 -10.9695 1.74793
-22.7868 -10.5782 1.28373
-16.8971 -10.6715 -0.0311498
-17.4674 -10.1215 0.39635
-17.4978 -13.1413 -0.636734
-16.8554 -12.4777 3.07132
-18.9826 -10.6445 0.728197
-15.4929 -9.90215 0.120838
-17.3272 -12.0014 -0.573956
-16.5941 -10.8756 -1.50967
-22.2029 -10.9544 -2.42187
-15.7861 -10.9244 -0.798725
-16.841 -12.665 -0.649227
-19.6545 -12.7461 0.486943
-16.7392 -12.2223 -0.802065
-17.7821 -10.4943 -0.395355
-16.4684 -12.1483 -0.010629
-17.9096 -12.5406 -0.666956
-15.3963 -10.901 1.19486
-15.9056 -12.1844 -0.218803
-16.1256 -9.19346 -0.688796
-16.2191 -12.178 0.0778892
-15.9709 -11.1028 -0.422621
-14.7449 -12.1253 -0.496711
-18.361 -11.1156 -2.59636
-16.6557 -11.9135 -0.270734
-18.0204 -11.6416 -1.67538
-14.828 -12.7527 -0.478449
-19.8254 -13.2891 -0.511386
-15.7303 -9.71715 0.31376
-15.1336 -12.1914 -0.875907
-15.3065 -12.4456 -1.43642
-18.4689 -11.0091 -2.21225
-14.9184 -13.8183 -0.546038
-14.949 -11.325 -0.187315
-16.911 -11.0343 -1.38919
-15.8569 -9.80848 -2.78379
-15.4564 -13.3295 -2.8152
-16.1365 -10.7331 -1.25141
-16.8648 -11.2887 -2.4864
-16.6137 -12.6149 -1.97122
-16.4552 -10.4923 -1.77915
-16.0032 -11.7412 -1.68736
-17.6501 -12.3215 -2.63921
-18.462 -10.3593 -1.48284
-15.2051 -11.5044 -3.37454
-20.5694 -11.0971 -2.74469
-19.6855 -10.9202 -4.83839
-19.9656 -11.357 -5.25836
-22.0867 -8.47348 -3.26352
-18.735 -9.59395 -3.93585
-19.3387 -11.0326 -3.00931
-14.2016 -12.5262 -1.6221
-15.9357 -12.4934 -3.09869
-18.7678 -10.1914 -2.44702
-14.7795 -10.6869 -3.48875
-16.5356 -11.0029 -1.53543
-14.9421 -12.1158 -0.732229
-16.9979 -12.9158 1.01979
-20.2969 -11.5438 -4.43076
-16.2703 -11.3503 -2.99813
-15.5017 -12.3533 -1.36602
-19.3233 -10.1834 -4.33025
-16.809 -9.94746 -0.567624
-18.6878 -11.6035 -3.70957
-19.0717 -11.0141 -4.91565
-18.8802 -11.4549 -2.89895
-14.796 -10.7859 -2.98655
-16.0074 -11.3222 -3.5715
-17.6954 -10.8827 -4.85641
-13.552 -12.1832 -2.43239
-15.2704 -12.9198 -3.27778
-14.5705 -11.5516 -3.5482
-15.2593 -11.6106 -1.79584
-17.9828 -10.8326 -3.24327
-17.3484 -11.8609 -5.6506
-18.5887 -10.2653 -5.39419
-14.1164 -11.0754 -4.06558
-16.0494 -10.648 -3.23504
-15.2846 -11.5852 -4.0872
-17.017 -11.6247 -1.1521
-15.9225 -11.8561 -3.26327
-15.5597 -10.9619 -3.92734
-16.1485 -10.6422 -4.10617
-14.4038 -12.1981 -2.57029
-15.1636 -10.6062 -4.606
-16.129 -10.8657 -1.7389
-16.9843 -11.6598 -3.17592
-13.8765 -13.1481 -1.8725
-17.728 -11.3983 -2.34121
-16.3328 -11.8535 -3.28724
-17.0343 -11.2975 -3.68601
-17.2351 -11.8415 -4.91044
-16.4272 -11.9864 -3.24107
-16.1235 -12.2872 -3.56527
-18.3729 -11.267 -3.2057
-15.6423 -10.9349 -2.42553
-17.8245 -10.3735 -5.10263
-15.9802 -11.5667 -4.8922
-15.8183 -12.9464 -3.81962
-14.6749 -10.5457 -4.33481
-15.547 -12.0243 -3.11945
-15.5688 -11.9078 -3.061
-14.6128 -14.5895 -3.16385
-14.749 -14.3864 -4.14814
-15.8504 -13.7402 -3.8402
-15.086 -13.0247 -4.20285
-13.6353 -12.4587 -3.35717
-15.3572 -12.9922 -3.20409
-13.0564 -13.8414 -3.32444
-14.7392 -12.6459 -3.9978
-12.5254 -13.7225 -3.2522
-14.9592 -13.2867 -4.69872
-21.021 -7.74493 3.85084
-17.8071 -10.3992 -0.193069
-17.3288 -12.1112 1.06591
-18.7047 -11.8306 0.423162
-18.0403 -11.4162 -0.379974
-18.3148 -11.1961 0.294593
-17.4651 -11.5389 -0.243878
-16.1433 -10.0465 -0.20583
-15.4286 -14.543 -0.913233
-15.8723 -10.8141 0.0743295
-16.3375 -12.6971 -0.212061
-17.3813 -10.8525 0.471977
-16.4032 -11.8436 0.0699871
-17.5678 -10.9491 -0.854256
-16.369 -11.0704 -1.89701
-18.0849 -11.9658 0.696933
-17.5325 -10.7678 -2.12595
-15.5539 -12.6208 0.666708
-18.8048 -10.338 -3.67566
-19.2283 -11.2974 0.846839
-15.5859 -10.774 -2.55662
-15.7917 -11.6339 -2.31166
-14.2854 -10.5577 -0.591541
-15.1289 -11.4215 -0.851536
-19.0474 -12.0531 -2.74517
-21.01 -10.9981 -1.63777
-21.2509 -9.63286 -3.75032
-23.2236 -9.02307 -4.40078
-14.7196 -10.1695 -0.965609
-19.8201 -9.87225 -2.34151
-17.9738 -12.5234 -2.20412
-17.0416 -11.4797 -1.08461
-17.3804 -11.145 -2.93793
-15.3494 -12.3309 -0.760813
-16.6043 -12.1496 -0.933834
-15.2475 -9.04547 -2.53381
-15.2695 -10.5154 -2.06309
-19.282 -10.2612 -3.96947
-18.1199 -12.4258 -2.08034
-17.1536 -11.9079 0.409026
-14.6958 -13.9552 -4.58781
-15.3185 -10.7138 -2.50115
-15.0498 -11.1057 -2.64954
-16.1141 -11.8282 -1.64759
-16.2417 -12.491 -2.22966
-14.7357 -10.9329 -2.14587
-18.6339 -12.7409 -4.84273
-18.5408 -11.0549 -4.68266
-15.4304 -12.8542 -0.466079
-15.2926 -12.6834 -2.42094
-15.7527 -11.9912 -1.19859
-16.3324 -11.1582 -1.12804
-15.0293 -13.2524 -3.55659
-14.1805 -12.7207 -1.09761
-13.9946 -12.1015 -1.90624
-16.1257 -11.2134 -6.1636
-16.0825 -11.8937 -2.32591
-16.7149 -11.4875 -4.0112
-15.2359 -12.566 -3.37791
-14.9941 -11.9275 -3.15284
-16.0838 -12.7454 -3.27159
-13.8838 -10.7847 -2.7924
-18.4002 -14.6402 -4.82456
-16.3703 -11.6846 -3.00632
-15.9021 -10.8943 -3.44477
-14.079 -11.7605 -4.52042
-16.8064 -10.8449 -4.88181
-15.818 -11.9722 -3.73636
-15.4089 -11.0057 -4.54519
-13.9633 -11.5113 -2.58105
-13.8283 -12.5358 -3.88227
-13.9233 -12.096 -4.79382
-15.3629 -10.9829 -3.27982
-13.1265 -13.1383 -4.07653
-18.9485 -11.8897 1.21665
-17.1803 -11.1229 1.11314
-17.3954 -12.3203 0.803303
-17.2381 -10.5011 0.439941
-19.3626 -11.7533 0.0503372
-15.2434 -11.9113 -0.295051
-18.5574 -11.0522 -1.26709
-19.4841 -10.3406 -1.21385
-17.1544 -10.8181 -0.357696
-18.5873 -11.0214 -3.9494
-16.9537 -10.9854 -2.55109
-15.151 -8.80102 -0.219366
-17.0675 -11.2319 1.21083
-15.9964 -13.1352 -0.43109
-14.4369 -11.4886 -0.730563
-16.1303 -10.9536 -2.80493
-14.9349 -10.8676 -0.607737
-16.2346 -12.5784 2.2397
-14.6877 -10.0674 0.112365
-16.0361 -10.8875 -0.781592
-19.2102 -11.6434 -0.603746
-17.1297 -9.93253 -0.808075
-16.1882 -11.5432 -0.0341369
-18.3986 -10.8967 -4.39124
-16.4998 -11.1067 -1.05005
-16.9084 -12.73 -2.87341
-13.9039 -11.5345 -1.54769
-16.603 -11.3206 -1.37957
-17.3171 -10.9489 -2.21007
-16.2145 -10.9993 -3.10649
-18.2632 -11.1044 -2.89714
-16.0179 -11.1261 -3.78456
-15.2226 -12.6119 -1.58331
-17.2681 -12.466 -2.00801
-15.3582 -10.6384 -1.84688
-16.3417 -10.3809 -3.2948
-15.2462 -11.3746 -2.10681
-13.7761 -11.3886 -1.83222
-16.1439 -13.8667 -3.23089
-15.0457 -11.2213 -3.76676
-16.4412 -13.5804 -4.15422
-15.0505 -10.386 -0.226879
-16.3113 -8.71099 -4.67043
-14.7349 -11.2619 -0.74049
-17.3257 -11.9379 -2.87921
-19.4584 -10.705 -4.48412
-15.8384 -11.2542 -3.4001
-19.7927 -9.75338 -4.84667
-13.7261 -12.8853 -2.80087
-17.5634 -10.0126 -4.49705
-16.1426 -12.6779 -2.10044
-18.2867 -11.6605 -4.53976
-15.6716 -10.2217 -3.51032
-16.9831 -12.408 -2.77628
-14.1396 -10.2315 -4.46191
-15.7448 -11.3778 -1.44846
-15.2119 -13.2233 -4.53644
-14.781 -11.5028 -4.1264
-15.1229 -11.5417 -2.11376
-17.1395 -10.3655 -2.9886
-18.0033 -12.1981 -4.05534
-12.4673 -11.7428 -2.5038
-12.4514 -11.5889 -2.38661
-15.9326 -11.4481 -7.17823
-15.0211 -13.338 -4.60219
-16.6528 -11.9964 -1.81314
-14.999 -11.6715 -3.52656
-14.1911 -13.5219 -4.6998
-17.2031 -10.8438 1.62359
-16.6075 -10.0261 1.80346
-20.1181 -10.512 -0.400397
-17.9135 -11.9934 -0.485546
-15.9314 -11.9972 0.221283
-17.7175 -12.2389 -0.291117
-15.8711 -9.51744 -0.633398
-14.7556 -12.434 -0.728856
-16.3306 -13.5499 -0.514273
-15.0332 -11.7897 0.641738
-16.5431 -11.6471 -0.169606
-17.1437 -9.34137 -0.554303
-18.3036 -12.1403 0.904306
-15.1011 -11.887 -2.38607
-15.6585 -10.897 -1.16497
-17.3907 -11.576 -3.71167
-22.1758 -9.95493 -4.8998
-15.2495 -12.3785 -1.07082
-17.1035 -12.0236 -2.80087
-16.1767 -11.9199 1.04424
-15.7803 -12.3377 -4.41531
-15.2594 -13.6758 -2.28157
-16.7561 -11.7586 -3.17585
-16.8188 -12.6775 -1.85104
-15.0829 -10.7412 -1.64424
-17.3675 -12.6085 -2.07189
-14.8497 -13.064 -2.44383
-15.9006 -12.5393 -1.64449
-14.6629 -13.3003 -4.47023
-17.8016 -11.7246 0.326936
-18.5065 -9.08233 0.857613
-18.91 -12.2538 -0.415292
-16.5708 -9.45831 -1.9768
-19.0538 -10.3413 -1.2629
-15.9677 -12.1121 1.50641
-15.5776 -10.1539 -0.760497
-16.6246 -10.9156 2.51138
-19.3468 -10.3316 -3.24896
-16.0574 -10.8223 -1.40684
-16.9392 -12.8207 -2.12269
-14.8899 -12.8267 -0.820162
-15.3447 -11.4756 -0.965711
-13.7813 -14.1242 -1.44445
-15.8704 -13.1115 -1.13799
-14.1799 -10.5231 -1.03949
-15.7176 -10.3096 -3.06851
-14.2757 -12.8995 -1.01148
-15.8043 -12.6838 -2.75799
-15.1718 -11.4327 -5.20223
-16.1038 -9.12066 2.03224
-17.7306 -11.7181 -0.00332016
-15.0231 -11.8761 0.122666
-17.6412 -12.1375 1.33451
-15.586 -11.5798 0.516678
-16.3828 -10.5258 -2.58822
-15.1664 -10.0155 -1.6623
-15.9018 -9.78314 -1.82255
-14.9928 -12.7806 -3.09942
-17.1016 -11.6528 -2.70622
-14.1192 -13.8856 -3.13321
-13.7889 -11.1743 -1.55718
-17.2346 -10.2311 -1.65274
-16.5641 -11.4042 -1.2038
-16.7213 -12.602 0.446211
-17.7284 -13.0607 -1.45501
-16.1992 -12.6729 -2.36543
-17.0261 -12.2393 -5.05924
-15.5402 -10.8602 -1.41621
-14.6986 -11.5323 -0.444454
-15.9963 -11.7294 -2.19012
-15.7653 -10.5423 -2.05222
-14.2113 -11.0032 -2.38154
-13.8116 -12.6389 -1.93414
-13.6299 -13.7902 -2.94338
-16.5476 -11.9311 -0.30345
-16.3591 -12.5949 -2.93517
-16.0672 -10.0201 -3.20156
-16.3547 -12.4031 -3.69678
-16.4385 -11.7504 -0.730086
-15.4644 -9.20281 -1.12732
-15.7273 -11.9333 -3.8689
-17.3295 -12.8848 -3.88753
-14.3531 -12.2256 -2.37658
-15.9992 -11.4543 -4.93453
-17.4395 -11.2172 -3.98438
-16.3328 -12.7021 -3.94142
-14.4882 -11.8903 -2.35321
-15.2179 -13.9251 -4.34689
-14.2989 -11.541 -2.83705
-15.7377 -13.9917 -5.08113
-16.6416 -10.3745 -4.0519
-17.8722 -10.9238 -5.0211
-17.0628 -13.281 -6.04408
-15.7215 -12.6426 -4.35684
-14.9758 -12.7562 -1.78617
-20.5344 -9.94178 -2.7206
-17.1188 -11.7298 -3.25724
-17.6102 -11.2804 -5.62001
-18.2515 -10.7537 -4.91174
-20.2679 -9.71112 -5.40358
-14.8755 -14.671 -3.17803
-15.2224 -11.1967 -2.56772
-13.3732 -11.6635 -2.70432
-21.2081 -11.3694 -5.06856
-14.8157 -10.8363 -1.38528
-15.9144 -11.9287 -2.40886
-14.7518 -11.4447 -2.70839
-13.7592 -12.4772 -2.81912
-15.9333 -11.4719 -4.06513
-14.5451 -13.8903 -2.86941
-18.7562 -10.1091 -2.95071
-17.9014 -12.3507 -3.99908
-16.6981 -11.3197 -1.55097
-14.7171 -11.243 -3.2691
-15.2955 -12.8378 -1.96096
-17.3904 -11.0752 -2.93881
-14.6534 -13.7465 -1.79715
-16.0068 -12.4392 -2.1854
-19.9975 -10.6042 -3.64554
-13.6222 -11.7464 -0.41005
-15.4976 -11.5705 -2.13685
-20.1011 -10.1699 -0.89386
-19.4621 -10.5275 -1.22443
-21.1789 -10.653 0.524757
-19.6526 -11.2662 -0.810775
-21.3538 -10.3463 -1.30089
-18.7747 -11.194 -0.931939
-17.2119 -10.0169 -0.834468
-18.9995 -11.477 -1.20421
-19.4922 -11.0372 -0.253317
-22.108 -10.6774 -0.803912
-15.3026 -11.7569 -1.45658
-20.6674 -11.7055 -2.76207
-16.5473 -11.2269 -1.17754
-16.1118 -12.1757 0.528398
-16.9091 -10.6701 0.632223
-15.116 -11.846 -1.45924
-15.8998 -11.4017 -0.448451
-20.7809 -11.865 -0.198174
-18.2952 -11.7306 -1.43454
-14.5503 -11.2543 -0.672643
-15.861 -9.89398 1.33546
-15.8137 -11.0499 0.213306
-15.098 -12.5052 -1.23567
-15.0803 -11.9017 0.0324753
-14.8274 -10.3839 1.61934
-15.6172 -10.9965 -0.980889
-14.5582 -11.9496 0.208378
-16.6408 -10.2241 -1.48143
-16.0273 -11.1591 1.26085
-14.5388 -12.0436 2.27098
-21.3172 -11.0567 1.70915
-18.8644 -11.0127 -1.40618
-18.7618 -12.153 1.44627
-15.8053 -14.1295 -0.148067
-19.4584 -10.4653 2.30003
-20.0593 -12.0377 -0.15127
-15.9534 -10.5552 -0.980394
-15.7745 -10.6038 -0.146558
-15.1929 -8.5533 0.650578
-13.6742 -12.9109 -2.80289
-14.5513 -13.4496 -1.98258
-15.2798 -11.9633 -2.20209
-14.9804 -10.4273 -4.17283
-15.1659 -13.9887 -1.52393
-15.3469 -12.8464 -5.72456
-16.2181 -11.6263 -3.44118
-13.089 -12.3713 -3.96605
-19.332 -11.5861 -4.83328
-17.7675 -12.6062 -5.33634
-20.0091 -10.3633 -3.21109
-15.3753 -12.6368 -3.62509
-16.0711 -10.5541 -3.877
-15.9282 -11.2887 -4.49634
-16.7543 -11.9429 -2.08536
-20.8478 -10.4831 -3.8382
-16.6826 -11.8136 -4.07583
-19.7484 -11.044 -3.7367
-18.0605 -9.69092 -4.23425
-15.1801 -11.6831 -2.18829
-15.2659 -12.3813 -1.08804
-14.6406 -12.4203 -2.98355
-14.8647 -11.1843 -3.11676
-16.4646 -11.7664 -3.5249
-22.747 -11.5509 -3.1606
-14.2941 -13.0433 -3.12315
-16.1741 -11.318 0.0807857
-17.3197 -10.688 -3.38214
-18.6525 -11.2525 -2.26185
-16.0486 -12.8719 -1.98906
-15.8288 -12.4993 -0.843668
-16.3306 -10.2673 -2.68055
-20.5296 -11.196 -2.80353
-17.0754 -11.2021 -2.35127
-19.6194 -10.3872 -1.71447
-14.9613 -12.5479 0.267095
-18.8852 -12.8193 -0.957511
-19.84 -10.7473 -1.15093
-18.1966 -11.6516 -0.423491
-16.9396 -11.545 -0.624488
-14.9581 -10.1796 0.703242
