-18.7801 -9.85275 -2.87947
-15.4769 -10.9427 -0.0645402
-16.3604 -13.1506 -3.66215
-15.6325 -11.5289 1.34875
-14.7229 -10.4472 -0.424481
-14.3274 -11.2663 0.0583052
-16.3242 -12.0478 -0.460588
-13.9949 -9.99702 0.1489
-15.3026 -11.6137 0.569274
-15.9839 -12.5173 1.28711
-16.3152 -10.0448 -1.27639
-15.7453 -11.5245 1.52418
-15.1493 -11.5068 -0.517872
-16.2341 -11.7407 -3.54616
-15.7517 -13.2704 -2.65383
-14.9411 -12.8666 -2.1841
-13.3573 -12.919 -2.8759
-13.901 -12.2797 -1.83906
-14.3525 -10.7457 -3.00105
-14.4666 -13.2727 -3.2413
-17.7558 -12.2048 2.02486
-18.823 -10.4593 -0.0864672
-20.0726 -11.2867 0.989467
-19.5241 -12.9006 2.22778
-20.6682 -14.1248 2.27726
-18.9741 -11.1485 -1.01417
-17.6295 -12.1334 -1.21796
-18.5122 -12.2084 1.41929
-21.1979 -10.6528 -1.9407
-17.8947 -12.3993 -0.198368
-19.1308 -11.9835 -2.00059
-19.8211 -11.931 3.04216
-19.0878 -12.0665 -1.28496
-19.1011 -9.40001 -2.16725
-17.9977 -9.96578 -4.70766
-18.1246 -9.70846 -2.51824
-16.6304 -11.8596 0.861906
-17.1046 -10.7717 0.9119
-19.468 -10.4216 -0.935598
-17.7489 -12.1231 -1.01713
-19.2751 -11.0113 1.20722
-16.434 -12.772 0.493076
-15.0444 -10.3511 1.79664
-16.6982 -11.4458 1.2634
-14.528 -9.34491 1.46624
-19.8813 -9.20012 -1.88769
-17.8854 -10.9948 -0.479045
-15.0456 -10.2767 2.57327
-19.1684 -10.6062 0.0476405
-14.8972 -10.0293 1.96456
-15.9147 -10.6076 -0.165286
-15.5534 -9.74432 0.117476
-17.3474 -12.4662 0.100366
-15.1675 -7.97435 1.70976
-17.2488 -12.0449 0.644663
-15.5224 -13.2977 0.436814
-17.4386 -12.1937 -1.51425
-16.1772 -10.4107 -0.745108
-16.7585 -12.5544 -0.541151
-18.304 -9.61904 -3.68698
-18.2332 -11.1573 -0.0279827
-16.6522 -11.4164 -3.48212
-15.568 -10.9914 0.0453299
-16.2446 -11.7435 -2.5132
-14.8877 -11.9518 -0.679299
-16.541 -12.4998 -0.444168
-15.3605 -12.6016 -0.726076
-17.6392 -11.0381 -2.8899
-16.0176 -11.1004 -0.350808
-15.3994 -11.5891 -2.57775
-17.4292 -12.6966 0.617648
-15.362 -12.0153 -0.599484
-15.5256 -10.8977 -0.41707
-18.1388 -11.957 -1.81443
-14.3853 -11.3876 0.152557
-15.6945 -11.3531 -1.17171
-14.8894 -13.0002 -0.523704
-13.9093 -12.7098 -1.77551
-14.9812 -12.9549 -3.43454
-13.4897 -12.7628 -2.78965
-15.0715 -12.6204 -1.82448
-18.9322 -12.3469 0.952694
-18.5351 -12.129 0.558225
-19.044 -12.0599 0.510334
-19.1386 -12.8812 -2.54527
-18.3544 -11.611 -1.36013
-18.6615 -11.1053 -0.980355
-17.6564 -12.7406 -2.03945
-18.4679 -10.8689 -3.21293
-18.6759 -12.8117 -1.34058
-18.1374 -10.6814 -4.41521
-16.8176 -10.5868 0.719707
-16.5323 -10.6758 0.090259
-19.1946 -11.3151 -3.66783
-17.4721 -11.074 -0.707267
-16.5158 -12.3989 -4.43685
-17.011 -11.4128 -1.6802
-18.3524 -12.2623 -3.40671
-16.7099 -11.5429 -1.54873
-16.8072 -13.5845 0.536665
-16.4687 -10.2865 -0.421576
-16.5993 -10.2627 -0.836529
-14.2081 -10.7085 1.08949
-14.7781 -10.639 -1.43995
-17.9767 -10.9689 -2.29133
-16.6683 -10.773 -2.52884
-14.2497 -11.282 -2.32331
-15.5353 -10.7459 -1.33944
-15.982 -12.6034 0.562036
-15.8881 -12.3814 1.59442
-15.9288 -10.8859 -1.91774
-15.7447 -10.9003 -0.374982
-15.7055 -12.0297 -1.35178
-15.6011 -11.175 -0.202652
-14.8489 -12.7031 -2.06739
-15.2703 -11.4141 -0.980936
-13.8154 -12.8947 -1.01692
-13.3712 -12.5817 -1.25417
-14.5394 -11.0686 -2.71177
-16.3759 -10.767 -3.1989
-14.6687 -12.8435 -2.81493
-18.9228 -9.73289 2.28916
-16.7 -10.6387 1.43464
-19.0953 -11.6877 -0.559554
-19.5168 -11.4502 -1.96406
-18.8506 -9.60318 -3.12862
-19.2474 -11.9429 -3.1798
-18.2767 -11.1076 -3.11183
-19.5329 -11.2441 0.779858
-17.9681 -11.577 0.787424
-19.1635 -10.3732 -1.44393
-17.5621 -11.6 -0.388988
-18.6502 -11.953 -2.69615
-18.278 -11.924 -4.97805
-15.5673 -11.3875 1.0575
-18.0255 -10.7047 -0.0306494
-13.8383 -11.6637 -0.345937
-17.6668 -12.1327 -1.25572
-18.0105 -10.184 1.33443
-18.3896 -12.8162 -3.51449
-18.8354 -11.1524 -1.20044
-17.2613 -11.6388 -0.993869
-15.6605 -11.885 -2.13874
-16.8184 -13.0754 -0.143622
-17.392 -11.2424 -2.98419
-16.2982 -11.1658 1.49532
-16.823 -11.9899 -2.53842
-17.8359 -13.252 0.0309733
-17.35 -11.8942 -2.08807
-16.5219 -12.0991 -0.937599
-16.654 -13.4456 -0.341751
-14.6337 -12.7679 -1.77009
-15.4396 -12.9335 -2.76546
-14.9271 -12.3438 -0.755438
-15.2229 -11.7292 -3.42816
-16.0821 -11.8446 -1.79912
-16.171 -11.1313 -0.852811
-15.2745 -12.8885 -3.27804
-14.864 -11.7074 -2.01954
-20.3511 -9.59276 -1.98977
-16.8599 -11.8646 -0.114177
-18.9034 -11.2278 0.890098
-18.2179 -9.6759 0.7707
-20.2038 -10.4649 -0.584042
-19.0541 -10.6664 -1.27523
-18.7467 -11.2103 -1.41402
-18.7317 -12.3608 -2.79567
-19.1247 -10.4759 -2.68831
-19.2283 -10.773 -1.93675
-17.5035 -10.1975 -3.72655
-16.6119 -9.77691 0.539226
-16.6545 -12.1795 -0.522029
-14.3662 -11.8139 0.0546023
-17.9359 -12.3506 -4.36557
-16.2067 -13.0098 -3.52289
-16.7951 -11.4317 -2.41788
-14.522 -11.3797 -0.191058
-15.466 -10.4338 -2.27573
-13.2519 -12.3296 -0.0360054
-15.6685 -12.1394 -0.281769
-17.7054 -12.4533 0.149073
-16.3362 -12.9357 1.51775
-14.1804 -11.5682 -1.41251
-14.0075 -11.4375 -0.317139
-14.3271 -11.4287 -1.71586
-19.8987 -11.4829 -1.77156
-19.024 -11.4628 -3.09269
-17.3498 -10.338 0.691492
-18.5374 -10.6182 -2.50457
-17.2849 -11.5743 -2.30354
-15.273 -12.2588 1.76401
-15.281 -12.1899 -0.341421
-15.4332 -10.4049 0.420512
-15.7007 -11.3622 -2.20954
-14.4651 -12.3055 -0.280073
-15.7433 -12.1337 -2.63216
-15.3189 -10.8274 -3.50467
-13.9735 -13.0882 -4.93334
-16.2489 -10.8347 -3.56502
-16.3463 -12.666 -1.18428
-14.8862 -11.1326 -1.16943
-20.1372 -9.71652 -3.33955
-15.5156 -13.3484 -1.29699
-15.3788 -10.5652 0.60814
-17.2789 -11.8793 -4.50865
-16.2626 -11.2901 -1.82485
-15.4106 -12.3634 -0.0675148
-16.6193 -11.1979 -2.19586
-13.9018 -11.7683 -0.26008
-14.5605 -13.6756 -1.86448
-16.4089 -11.3581 -1.7063
-17.8663 -12.2218 -1.27469
-20.0424 -11.5388 0.470222
-21.7478 -10.128 0.900918
-19.8993 -10.015 1.0907
-15.1191 -9.23368 2.00226
-20.8639 -12.0573 -1.11062
-19.7946 -9.32425 0.22741
-16.5718 -10.1052 -0.0827489
-19.9498 -11.6684 -0.768222
-20.3435 -11.0917 -0.133276
-21.0091 -8.36637 -1.09796
-17.905 -14.1005 0.867639
-19.6172 -11.9992 -0.768875
-21.4431 -11.0833 0.091086
-18.1854 -12.4265 -0.328829
-19.3629 -12.977 0.987531
-15.7673 -9.48992 0.272627
-20.8218 -9.68034 -1.10592
-16.96 -11.7501 -0.327196
-18.4548 -12.7808 -0.954448
-15.1842 -11.6472 0.0814949
-20.6435 -10.0452 -2.91032
-19.9723 -10.6779 -2.08224
-18.556 -11.3588 -0.71438
-16.5482 -11.1936 0.667923
-16.0927 -13.8583 -0.478112
-17.6548 -12.2826 -0.818492
-19.7885 -10.5042 -2.23908
-21.935 -8.9317 -0.775055
-19.913 -11.6486 -2.28378
-18.3767 -10.0359 -2.1841
-16.0254 -9.47345 -1.76262
-17.2168 -10.758 -0.14511
-17.0363 -12.1848 1.2812
-15.5524 -10.5405 1.08893
-20.6658 -12.0813 -0.939219
-18.5164 -11.5881 -2.32093
-18.2402 -12.8395 -2.16212
-14.9557 -11.3884 -1.81466
-20.0159 -11.6155 -1.71493
-18.2862 -11.3361 -1.69852
-19.2891 -11.7243 -3.13487
-20.6026 -11.8113 -2.42167
-18.0193 -11.8435 -0.616172
-17.4934 -11.7168 -2.5576
-16.8399 -11.0431 -0.989039
-17.5907 -12.3313 0.150116
-19.0891 -10.5675 -1.29524
-15.9789 -13.6849 0.332292
-16.2873 -10.5197 0.818558
-20.102 -11.6686 -2.82769
-20.5366 -11.0396 -1.34943
-20.1864 -10.8543 -1.55912
-18.425 -10.426 -2.25647
-19.4589 -8.89663 -4.03886
-18.4003 -10.9349 -1.21153
-16.559 -10.3219 -0.646413
-19.0143 -12.6513 0.786436
-17.9517 -12.4388 -4.26001
-16.9474 -11.1856 -3.51494
-19.5208 -10.7828 -1.65398
-16.4771 -10.6551 -0.0398969
-18.0203 -12.1263 -2.79174
-18.666 -10.4855 -0.788326
-18.2935 -11.4438 -3.5686
-19.0789 -10.7257 -2.14063
-18.7303 -11.859 -0.597054
-18.2672 -13.2375 -2.83237
-18.2624 -12.2541 -2.87927
-16.5934 -12.2102 -2.58974
-17.3462 -11.0194 -3.11378
-15.9853 -11.1113 -1.13547
-15.4506 -12.3716 -1.10667
-17.4196 -11.5859 -3.15771
-18.4635 -12.5402 -3.27501
-18.8366 -10.993 -4.01251
-17.6028 -12.2491 0.907705
-19.0877 -11.0109 -1.58733
-19.1677 -11.7114 -3.20351
-17.4254 -12.9198 -2.67644
-14.0884 -10.8095 -2.91521
-18.4294 -12.5722 -0.484946
-19.2251 -10.7856 -0.834955
-16.4858 -10.9251 0.34557
-16.854 -12.2919 -1.31756
-18.7557 -12.7265 -2.98568
-14.791 -13.5406 -0.399646
-17.658 -11.4772 -2.12725
-16.6519 -11.2247 -3.03142
-15.8663 -10.3317 -1.86087
-16.7946 -11.9284 -2.43003
-17.0364 -12.4457 -2.40375
-16.3298 -12.0313 -2.57137
-14.4867 -11.7781 -2.26271
-15.5084 -11.5039 -1.39724
-17.2802 -11.0627 -3.72773
-16.2393 -11.9062 -2.25652
-16.8163 -11.4287 -2.02367
-16.7764 -12.6759 -2.08499
-16.2513 -11.1339 -1.81353
-14.4366 -10.8291 -3.81652
-15.6098 -11.6593 -1.20623
-15.9426 -12.8894 -4.33722
-13.0104 -11.2585 -0.42035
-19.8601 -11.2096 0.767979
-19.5422 -10.0741 1.44583
-17.6179 -11.4435 0.0209459
-18.6085 -11.0921 2.10718
-18.514 -10.1471 -1.06661
-17.9689 -11.635 0.0248962
-21.0599 -11.4902 -0.823331
-15.3922 -11.2963 1.95577
-16.1335 -8.64421 4.52222
-14.675 -10.0452 2.59985
-19.2123 -11.1673 2.6276
-19.4015 -13.0142 2.03397
-18.9336 -12.5857 0.235779
-17.3883 -10.826 0.737064
-17.8123 -12.4779 0.773918
-13.2708 -10.2392 1.52634
-17.3812 -10.4549 -1.40541
-16.3151 -11.2931 2.74136
-17.3608 -10.5607 0.80113
-17.9214 -12.5602 0.228989
-20.053 -12.607 -1.89017
-19.8194 -12.0031 -0.789333
-21.9408 -10.8767 -0.789212
-20.3591 -12.423 -2.30676
-19.6143 -10.7099 -1.59071
-18.6891 -10.9974 0.687626
-17.3637 -9.35415 0.538001
-18.5742 -9.58332 0.0581953
-18.6597 -11.3126 -0.546152
-20.287 -10.5262 1.48817
-16.149 -11.363 0.781466
-17.1571 -11.0191 -0.0693114
-16.9101 -10.7339 0.434184
-17.0919 -11.9973 0.94948
-15.7643 -10.3894 2.0722
-19.031 -9.83655 -3.3869
-19.0153 -11.7503 -2.00542
-17.7803 -11.5111 -0.232084
-18.8157 -10.0134 -1.96244
-18.4151 -10.7883 -2.72394
-18.9212 -9.42715 -3.14948
-16.3932 -11.2238 1.97551
-16.157 -11.9057 1.47926
-16.5112 -12.3474 2.38978
-16.2053 -11.3532 -0.474937
-20.1454 -11.0467 -1.0025
-18.3887 -12.0277 -2.36144
-17.922 -10.806 -1.53767
-18.4242 -10.3485 -0.0413009
-17.806 -10.8136 -1.33197
-17.7197 -11.4533 -1.02111
-17.6209 -11.7585 -2.21912
-17.6024 -12.1065 -1.00655
-16.0481 -12.3235 -0.643086
-17.2438 -13.0995 -1.59146
-20.3312 -11.0403 -2.46716
-19.5647 -9.9891 -2.8926
-19.538 -10.7732 -1.99795
-16.9971 -12.4949 -0.769583
-16.1278 -12.5253 -1.11286
-18.3564 -11.443 -1.49385
-19.4991 -9.85987 1.0941
-15.9949 -11.7126 1.01075
-16.27 -12.322 0.494283
-19.7301 -10.9635 -2.14247
-19.4101 -9.95157 -1.12811
-16.6006 -10.9692 -0.566193
-14.6721 -12.1812 -0.556134
-16.4088 -10.3061 -2.13561
-17.7422 -11.5426 -3.13441
-18.1825 -10.3918 -1.81758
-19.02 -12.0081 -1.32553
-20.2304 -11.9188 -2.93872
-17.1866 -11.5647 -0.780733
-16.1064 -11.1543 -3.13179
-16.658 -11.9737 -1.2592
-18.2322 -11.2418 -4.56438
-17.5335 -12.7251 -4.23963
-18.169 -11.2571 -2.2074
-17.5642 -11.6859 -3.10054
-18.2242 -10.3479 -2.05931
-18.7075 -11.8714 -3.86314
-18.774 -11.4997 -2.82209
-14.4666 -13.7646 -2.94878
-16.6549 -10.7464 -0.895919
-17.092 -12.3975 -2.74207
-15.4299 -12.9514 -1.32302
-16.6991 -12.1132 -1.42006
-16.0497 -11.7246 -2.99261
-14.7595 -14.9002 -2.09793
-13.821 -11.9326 -2.70911
-14.3952 -11.4409 -2.20775
-14.8623 -12.1483 -4.51889
-14.6064 -11.3302 -1.49391
-18.3363 -12.9079 3.10054
-19.238 -9.76751 0.928484
-18.3623 -11.0619 -0.830686
-20.22 -11.7243 -0.482938
-20.4949 -12.0121 0.695157
-19.0231 -11.3052 0.907071
-16.4663 -11.48 1.22569
-19.0082 -10.556 1.63533
-18.6697 -11.2245 -0.635501
-18.1975 -11.3084 -0.130733
-19.2686 -10.6681 -1.83313
-19.6703 -10.0583 2.0132
-15.9406 -12.6031 -0.358281
-21.8914 -8.8264 -1.13587
-21.4683 -9.51462 -1.24788
-17.8274 -9.58109 -1.38885
-18.7871 -12.9205 -1.00729
-17.6272 -11.1222 -1.79312
-20.3557 -10.031 -1.38198
-17.5351 -11.7036 -0.111329
-18.9487 -12.5452 1.48664
-18.8819 -13.2918 -1.41784
-17.6773 -12.1503 1.19623
-19.7172 -10.6348 -2.40459
-21.08 -12.703 -2.96947
-15.7652 -12.0956 0.619256
-15.7288 -12.7612 -0.441685
-21.6958 -10.9559 -2.6718
-16.4662 -14.113 0.831787
-17.1285 -12.2938 0.48065
-19.1816 -11.3694 -1.79998
-14.2682 -12.1469 1.63449
-20.4566 -9.98907 -3.10665
-16.5827 -10.1209 0.150958
-19.2035 -10.1399 -3.12303
-16.0676 -13.8476 1.55492
-18.9199 -9.75727 -0.272441
-20.3111 -10.5306 -0.024686
-17.575 -10.8325 -1.5537
-16.017 -12.0307 1.56822
-18.6445 -12.0544 -3.4914
-19.4169 -11.7503 -1.42727
-20.1315 -11.4939 -3.56433
-18.4711 -10.6328 -2.84935
-19.5512 -9.77054 -3.37476
-18.6931 -11.9166 -2.45292
-16.4331 -11.756 -1.12982
-18.1097 -12.0173 -1.03634
-14.776 -11.7107 0.918679
-15.9489 -11.6546 -0.143049
-20.1135 -13.4625 -5.51908
-16.528 -9.87559 -1.62501
-20.3968 -12.0615 -2.77639
-18.8743 -12.1927 -3.94641
-15.3267 -12.9968 2.5348
-19.7684 -12.629 -3.59266
-14.4528 -10.8333 -1.4627
-15.6513 -14.1865 0.492402
-17.5492 -11.5216 -0.614138
-16.6658 -12.5885 -1.04612
-14.0023 -10.7075 -1.88967
-16.5994 -12.1035 -2.5008
-15.7082 -10.8931 -0.251207
-17.1542 -11.7638 -3.13468
-14.6736 -12.3613 0.176212
-13.7976 -11.6924 -1.62871
-15.3132 -13.1808 -2.44786
-14.9709 -12.0079 -3.05055
-14.3402 -11.5248 -3.50969
-13.3794 -14.0862 -5.14594
-18.8548 -11.7162 1.99253
-18.8668 -13.1006 1.08235
-18.8012 -10.3549 1.47473
-19.8403 -11.7823 1.11119
-19.9615 -10.8832 0.517306
-17.9812 -11.287 -0.212138
-15.4691 -11.7647 0.17179
-17.855 -11.433 -0.417459
-19.5117 -10.422 -1.09033
-18.5314 -11.763 2.55932
-16.4804 -9.10411 -1.46567
-18.5575 -10.7442 -2.4499
-19.3625 -10.8421 -2.74112
-14.6569 -9.668 0.151994
-18.246 -11.4126 -0.558953
-17.7442 -11.4299 -0.319189
-19.4497 -12.2255 -1.62223
-15.734 -11.632 0.856073
-15.4072 -12.5035 -0.52468
-16.7244 -11.8799 -0.458735
-17.4306 -12.2625 -1.76587
-16.6657 -11.8426 0.688347
-19.6372 -12.3994 -1.57981
-20.4377 -12.1167 -3.53224
-15.6619 -11.3147 1.23527
-18.7239 -10.9087 -2.15414
-17.0757 -11.2683 -0.759523
-16.9309 -11.6214 -1.74257
-16.9885 -9.69271 -2.77147
-14.1582 -10.9026 -0.880884
-14.9716 -11.8842 -0.288531
-16.8997 -12.2681 2.34047
-15.491 -11.0951 -2.56972
-13.5821 -12.3682 -1.05444
-15.4317 -11.1563 -1.70254
-16.3448 -13.0681 -3.66202
-18.0104 -12.339 -4.29929
-16.7582 -10.2212 -2.47955
-17.5597 -9.96109 -3.00265
-15.055 -11.983 -1.34545
-15.6783 -11.6143 -1.31322
-14.1601 -11.9786 -1.08113
-15.6731 -11.5201 -0.859654
-14.3843 -11.3416 -2.48153
-14.9477 -11.6885 -2.18617
-20.1249 -10.6048 0.30444
-18.2134 -10.2175 -0.17114
-20.1009 -9.30716 -0.307417
-22.134 -11.2754 0.0516796
-18.1791 -12.0109 1.26058
-19.0352 -11.898 -0.569107
-22.209 -10.7575 -1.2908
-16.6043 -12.3518 -0.0405967
-19.994 -10.7616 -1.44744
-18.7204 -12.4597 1.31678
-18.4195 -11.606 -1.35084
-17.2437 -12.0922 0.0737669
-18.1574 -11.5199 0.0778222
-18.989 -10.7986 -2.14844
-18.4529 -10.6113 -3.69504
-17.0912 -12.5106 0.380541
-17.8182 -11.0035 -1.31407
-17.0882 -9.70561 0.886801
-14.3872 -11.7648 0.202363
-16.1769 -11.1683 -1.80168
-15.4124 -10.1481 -0.199679
-16.6481 -11.659 -0.946421
-16.0084 -10.9344 -1.28852
-17.7913 -12.1307 -1.26148
-18.2085 -10.1323 -0.962839
-18.5161 -10.9477 -3.12932
-19.1237 -10.9519 -0.424547
-16.3764 -11.3437 -0.154208
-16.8437 -12.9708 -0.737531
-13.98 -13.7917 1.15704
-16.2066 -11.9823 -0.515091
-18.3266 -13.4199 -1.33724
-17.211 -11.5972 -2.86491
-15.8946 -13.2895 -0.321294
-15.2315 -12.2914 -1.98629
-15.4339 -13.2758 -1.11599
-16.3329 -12.9012 -1.85017
-17.6927 -12.0639 0.227086
-13.9941 -11.1245 -1.42735
-18.2904 -11.7596 -1.56483
-17.8148 -10.3211 -4.15827
-18.5105 -10.4826 -2.23264
-17.8982 -11.2225 -2.16296
-15.5449 -12.1004 -1.58388
-14.8654 -9.83108 -3.12019
-15.6584 -11.9254 -2.52452
-14.6354 -10.7699 -1.44247
-15.8096 -12.7606 -2.98443
-18.7559 -9.98257 -1.5553
-14.2309 -10.2112 1.25678
-16.1607 -11.5618 1.68097
-17.7954 -11.5085 0.287228
-17.5153 -9.48305 -0.711753
-15.8052 -11.3739 -1.16673
-17.2652 -10.0673 -1.12745
-14.6268 -11.7871 1.00924
-14.865 -12.7899 0.00358176
-15.3721 -13.6723 -0.417599
-16.2773 -12.9456 -1.90636
-16.67 -11.926 -1.99645
-20.7344 -10.0256 0.522387
-18.5735 -11.3566 -0.00151523
-17.3894 -11.3191 1.29031
-16.4937 -11.5284 0.0340207
-18.9644 -12.8443 -0.178201
-15.6986 -12.0096 1.04986
-14.9958 -11.3889 0.818434
-14.2968 -11.1488 -0.00507512
-19.4217 -9.06082 -2.9318
-14.82 -9.99065 0.121165
-16.8261 -10.9122 -1.39428
-15.5145 -13.3873 -0.513737
-15.0719 -10.7914 2.10309
-19.3036 -9.91035 -0.361872
-14.9239 -12.8181 2.30011
-18.3239 -11.5487 -0.879792
-16.8454 -11.2266 -0.311842
-20.0144 -11.1801 -2.06723
-17.173 -12.5066 -2.17066
-14.4489 -11.5713 -1.29162
-16.6366 -11.9084 -2.78371
-16.0659 -11.4616 0.746191
-17.6521 -13.5489 -2.29512
-13.8214 -12.4498 0.626913
-16.3205 -12.9515 -0.690629
-14.9102 -10.0433 1.32445
-16.9599 -12.4496 2.13947
-16.2314 -12.492 -2.21219
-14.3556 -14.4134 -1.92376
-13.509 -11.231 -1.90993
-14.9112 -12.9608 -3.07025
-15.0027 -11.9289 -1.66644
-17.7424 -11.8435 -2.80048
-16.9097 -10.5178 -3.52039
-19.5834 -12.2287 -2.27038
-12.3868 -14.5827 -0.889798
-18.6962 -12.5379 -2.09612
-19.3035 -12.0519 -2.94739
-15.7155 -11.4985 -1.82978
-19.8203 -11.1218 -2.95673
-20.5963 -10.3976 -4.23843
-16.5073 -10.2774 -1.35311
-16.5982 -12.3776 -1.48406
-18.4041 -11.2655 -2.28938
-17.4932 -11.9404 -2.85581
-19.9566 -11.8288 -2.90407
-17.4438 -14.9064 -0.802878
-17.6595 -11.2357 -1.14209
-18.352 -12.7093 -1.80987
-17.968 -11.405 -4.46689
-16.2964 -13.2061 -0.999761
-20.4607 -10.9783 -0.05925
-16.754 -10.8808 -1.06343
-17.924 -12.0865 -1.76205
-16.6912 -11.9867 -3.27995
-15.6425 -10.5742 -1.17447
-17.6716 -12.7251 0.136154
-16.9352 -9.82162 -0.983986
-18.3641 -10.4989 -0.605788
-18.3196 -10.2767 -0.221606
-15.7198 -11.1919 0.622645
-19.114 -9.26312 -1.01183
-18.4212 -10.7312 -0.129129
-16.7668 -11.2727 -2.22297
-15.0592 -12.6524 0.457434
-16.8563 -12.8793 -0.0210989
-19.8833 -12.6962 -0.804032
-19.7647 -8.50364 -1.14705
-15.6318 -13.7077 1.16202
-21.6434 -13.6212 -0.455911
-19.7019 -11.4994 -1.44313
-20.236 -11.1697 -0.0110016
-17.535 -10.4638 -0.442139
-15.8186 -9.74704 -1.0924
-18.058 -13.9058 -0.133762
-14.8451 -13.1692 1.88263
-18.1054 -13.1941 1.101
-13.7003 -9.89329 -2.14557
-16.2861 -11.2562 -0.478275
-15.7757 -10.9248 0.151731
-16.1741 -14.7721 0.00368581
-15.6948 -11.8349 0.553646
-16.4744 -11.3834 0.8143
-19.6674 -10.0429 -0.485959
-18.1551 -10.4051 -0.141394
-20.2491 -12.8518 0.901124
-19.7242 -11.7709 0.413953
-18.8425 -12.0588 -0.852715
-20.7207 -12.2535 -0.134188
-18.4146 -12.7918 0.260559
-18.1022 -10.0702 -1.9237
-18.3834 -11.4204 0.696148
-15.4114 -11.7285 -0.0830637
-16.2358 -11.4847 1.40993
-14.6274 -12.3169 1.9304
-15.0331 -12.4156 -0.380075
-15.067 -10.9776 -0.394686
-18.426 -10.9268 -0.447847
-15.6076 -12.7922 2.54789
-17.3686 -12.4679 0.473775
-14.8532 -13.08 -0.217881
-18.6211 -10.1562 1.16411
-18.4496 -12.0359 0.473686
-16.208 -12.0532 0.284415
-17.3327 -11.668 0.715502
-17.6242 -12.281 1.7103
-17.2407 -10.1392 0.896636
-18.6705 -10.5708 2.97674
-16.537 -11.7858 1.42435
-16.4982 -10.1257 2.54363
-18.4798 -10.1518 1.40238
-20.5384 -12.3116 1.6564
-19.0353 -10.0668 0.944585
-19.0283 -11.1116 -0.130332
-20.1035 -11.1443 1.94363
-19.7896 -10.8129 1.26137
-18.6462 -10.5323 0.21975
-17.5931 -11.2226 0.655187
-19.0771 -11.463 -0.251787
-19.5514 -11.3346 -1.03075
-18.1936 -11.012 1.97568
-18.363 -10.5784 2.85753
-20.2071 -10.029 2.22222
-20.1262 -11.2053 2.02682
-16.0631 -10.1132 0.97584
-14.8338 -8.96328 2.21572
-15.195 -12.1049 2.50012
-16.4023 -10.6028 1.96206
-15.5416 -9.29398 1.88407
-15.4599 -13.2669 -2.71365
-17.47 -9.24372 -3.07091
-17.4671 -10.5382 -2.32431
-14.5467 -14.3385 -2.78634
-16.6791 -11.3828 -2.80419
-15.0574 -10.8784 -2.84424
-12.5451 -13.0963 -4.08753
-18.7293 -12.3555 -3.84703
-15.9866 -10.5835 -2.30866
-20.3689 -10.3181 -1.28135
-19.241 -11.4599 -2.45132
-20.49 -12.7609 -2.39715
-17.5171 -10.6019 -3.47831
-16.9679 -10.2458 -2.10222
-18.4677 -9.79588 -2.3152
-17.9946 -11.517 -3.08634
-16.7252 -11.4569 -1.91163
-18.6033 -12.7235 -0.538666
-18.5292 -13.4153 -0.179781
-20.8 -11.0735 -1.33763
-18.2723 -10.6877 0.201529
-15.4123 -13.2281 -2.59773
-19.479 -13.1369 -0.900674
-21.0708 -12.2472 -1.25636
-17.341 -10.3531 -0.500549
-20.4523 -12.3771 -0.441053
-19.8402 -10.8215 -0.0312782
-17.1022 -11.4644 -0.864757
-16.2541 -10.9245 -1.38857
-17.3334 -11.0628 1.2809
-15.1891 -11.1185 0.589093
-16.433 -12.9031 -0.305837
-17.9111 -11.5063 0.515156
-17.1181 -11.9288 -0.633505
-16.0764 -11.9897 0.327233
-17.5322 -10.8253 1.06997
-20.2964 -10.9985 -0.5753
-18.9445 -11.7907 2.43601
-19.6682 -13.4288 0.521712
-15.9502 -10.5163 0.692371
-19.5296 -11.8258 -0.489132
-16.9653 -11.2817 -0.258908
-19.2223 -9.83361 3.41111
-15.3481 -10.3696 -0.963081
-15.2347 -10.5418 -0.386274
-18.5705 -11.4482 0.667503
-19.2013 -9.55691 -1.10858
-16.8653 -12.3169 -0.480173
-18.176 -11.8639 0.796209
-19.8912 -11.273 2.20956
-18.8845 -11.0928 1.78401
-17.7597 -10.7365 -0.156881
-20.4471 -10.0988 2.79019
-19.0689 -11.0363 -0.0470807
-19.8862 -11.0088 2.34735
-15.2134 -10.5229 1.523
-15.6625 -8.57873 2.05272
-14.4574 -11.6943 -2.75619
-16.5311 -12.4203 -3.86345
-15.0143 -11.1537 -2.53864
-12.4635 -13.2694 -2.80228
-14.6698 -12.1152 -1.29931
-20.8276 -12.7369 -0.287483
-17.013 -11.9413 -1.89821
-15.9045 -11.7612 -3.33715
-16.6331 -10.5297 -1.50425
-17.9815 -11 -1.62633
-16.8641 -11.2031 -1.74541
-16.7779 -11.725 1.54118
-16.4335 -10.7926 -0.51623
-15.9368 -11.9174 -0.306648
-15.7288 -10.7771 0.682716
-19.1115 -11.6857 -1.46774
-14.5929 -12.2398 0.455401
-19.6897 -11.3844 1.3352
-18.3692 -13.5416 -0.22839
-17.6084 -10.942 0.522345
-16.7998 -12.5474 1.11229
-21.0184 -11.2998 0.270379
-19.3041 -10.7455 0.793055
-17.1828 -11.2341 0.949014
-17.9821 -9.28838 0.76745
-15.4242 -11.8155 1.97644
-18.4606 -11.9241 0.408644
-17.922 -12.4308 0.766322
-21.1767 -9.37184 2.47808
-20.4983 -12.3235 0.975971
-16.0633 -10.5311 2.65764
-15.7125 -10.438 2.44903
-15.3494 -10.1245 0.578971
-17.5095 -10.2745 1.61602
-17.1532 -10.3573 2.42733
-14.0847 -12.4191 -2.68725
-20.3865 -10.9131 -2.75994
-17.9252 -10.5137 -2.74156
-15.5023 -11.2463 -2.39304
-17.5537 -11.433 -1.34391
-18.0598 -11.9965 -0.982721
-16.7699 -10.9675 -0.893815
-16.9899 -8.82794 -0.117861
-17.7545 -10.4937 -1.23732
-16.2095 -11.5171 0.438819
-21.1755 -13.5867 -2.04306
-18.2337 -11.251 -0.305814
-12.7346 -12.1084 -0.0304044
-16.0552 -11.7066 0.262534
-19.4291 -12.3514 0.926364
-19.5058 -10.5475 1.09373
-20.1917 -10.1378 1.10366
-15.5035 -10.5218 2.2431
-19.0317 -11.3446 -2.3265
-19.8424 -10.7083 -1.05815
-18.3292 -11.1828 -2.65438
-17.3862 -11.7753 -3.33616
-19.8034 -10.566 -3.10166
-17.6817 -12.1655 -2.5891
-14.9874 -10.7791 -0.0634588
-19.1129 -9.37595 -1.62033
-17.1389 -13.4081 -0.837647
-14.2865 -12.1493 0.761795
-15.4618 -12.9745 1.7046
-18.9563 -12.2659 0.0884789
-20.0247 -11.3446 -0.163269
-15.7611 -13.871 -3.64603
-14.561 -12.8425 -4.23215
-17.0971 -10.2993 -1.22086
-16.1532 -10.2495 -2.36799
-16.6951 -11.5344 -1.39796
-14.2137 -13.013 -1.5148
-18.1376 -10.3051 -2.67763
-17.8332 -12.9562 1.16281
-17.5146 -12.1356 -0.469476
-14.7968 -11.9863 1.06093
-18.4947 -11.6704 0.0469588
-17.6596 -10.1459 -1.51965
-18.8958 -11.6478 0.817927
-15.6926 -11.7813 -1.01761
-19.3671 -10.8674 0.989438
-14.2364 -10.3038 -1.02749
-16.0089 -10.5492 -3.16546
-16.807 -10.6128 0.397982
-18.5446 -12.1249 0.296602
-15.328 -11.4783 0.661163
-16.5904 -12.0851 1.38135
-15.2605 -10.3811 -0.0800358
-17.0598 -12.398 -1.11652
-18.8615 -11.3789 2.42888
-16.7018 -12.1099 -2.22549
-15.4819 -11.9083 -0.368142
-16.0553 -11.6008 -0.265193
-20.4681 -11.6171 -0.864431
-19.5392 -9.63274 -2.00072
-19.5019 -10.0215 -2.97302
-19.578 -11.009 -2.00578
-19.5017 -12.2225 -2.04929
-19.0965 -10.6715 -3.19888
-17.0182 -10.3638 -2.79879
-18.0745 -9.52817 -1.86879
-20.5729 -10.7178 -0.844561
-19.9915 -11.3717 -0.64767
-19.6904 -8.92411 -1.10913
-19.3339 -11.7382 0.662503
-19.1215 -12.3832 -2.85785
-17.3585 -12.247 -2.09166
-14.9434 -13.3798 -5.47942
-20.7047 -11.0904 -0.27156
-20.695 -12.9199 -1.03688
-14.8051 -12.9615 -3.37376
-17.4942 -13.1395 -2.74467
-17.0577 -11.7677 -1.25492
-18.6428 -12.416 -2.09701
-16.3781 -11.5623 -0.655379
-18.2102 -11.5349 -0.295287
-15.8368 -11.5218 -1.57277
-16.1977 -11.9431 -3.06265
-16.7114 -12.3823 -0.874429
-16.4613 -11.0713 0.133322
-19.0797 -10.8593 -1.3499
-19.7 -9.453 -1.94487
-18.9583 -9.20365 0.220826
-18.8789 -13.3238 -1.81079
-19.0941 -10.9257 -0.183313
-19.8547 -10.8959 1.12769
-15.1369 -12.0997 -1.15061
-17.9886 -12.1203 1.33499
-19.2156 -10.2548 1.11305
-18.7737 -10.5509 0.12941
-18.1742 -11.7894 -0.715033
-16.683 -12.4176 -2.08063
-17.4179 -12.076 0.401502
-20.1706 -10.755 4.09801
-20.1847 -10.4483 0.587276
-20.4963 -10.1447 1.01787
-16.4771 -12.6671 1.37989
-19.1621 -11.4813 -0.378168
-16.501 -12.5566 -2.06831
-19.4311 -10.329 1.03376
-16.6225 -10.2577 1.172
-19.8114 -11.3344 1.42212
-14.8157 -11.0525 -1.47397
-14.7476 -10.825 -0.13804
-22.0189 -9.40403 3.25179
-15.687 -11.7099 0.618626
-16.3694 -10.2111 1.87787
-17.5101 -8.95067 1.26084
-17.6596 -11.7449 1.96659
-17.2199 -11.0146 0.597086
-16.3343 -10.7458 -0.840162
-16.2839 -12.3801 1.99611
-15.7439 -11.7497 0.208935
-19.0371 -10.2542 0.288474
-15.0914 -11.4035 0.711767
-16.4926 -11.647 0.0993597
-16.753 -10.5741 -0.0471089
-15.5994 -11.0748 0.200138
-15.7844 -9.75278 0.590026
-16.7679 -9.66651 2.29192
-16.789 -7.92483 1.68689
-14.5005 -8.76952 0.896848
-17.0771 -10.7502 -2.91987
-15.3564 -11.8085 -3.95741
-19.9896 -11.6249 -1.40282
-18.4909 -11.3956 -2.39732
-19.0853 -11.3706 -0.446571
-16.7553 -11.0475 -0.416245
-15.9959 -12.6372 -3.18317
-14.5283 -13.4356 -1.93803
-17.0345 -11.9341 -1.25239
-19.7073 -9.67163 0.264966
-19.3924 -8.75663 -0.920989
-15.3101 -12.5375 -1.47473
-14.8874 -13.8157 -0.668411
-13.666 -12.3595 -3.49683
-16.4788 -11.8949 -1.84962
-15.5964 -10.955 -2.30463
-17.1273 -11.4581 0.0324218
-16.0667 -13.6048 -1.70492
-14.6558 -10.7896 -2.70076
-21.3192 -13.5024 -0.867314
-19.5714 -10.23 -1.0711
-19.2986 -11.8162 0.0959832
-13.9103 -10.8982 -2.41504
-15.6562 -10.5009 -2.8908
-16.592 -10.7397 -0.50688
-19.8781 -13.4533 0.803309
-19.4409 -11.6057 -0.453504
-17.3091 -10.6204 0.963932
-19.7936 -11.2631 1.1938
-20.6487 -12.9485 0.533149
-20.8189 -10.6902 0.579481
-21.3655 -10.2521 1.39221
-16.6248 -12.2213 -1.52902
-16.1828 -10.2306 -0.469566
-19.1955 -11.5591 2.51633
-16.5445 -9.33762 -0.569977
-14.2491 -12.5811 -1.98622
-17.5591 -13.5513 -0.460478
-17.4875 -11.8494 -0.585186
-18.3995 -11.9792 -0.796562
-15.1611 -10.7127 1.36286
-15.5409 -13.4315 -0.391502
-18.4312 -10.6473 2.41679
-15.5407 -12.4768 0.637013
-16.4492 -12.0359 -0.275226
-18.0843 -10.3485 1.90298
-15.4589 -10.7882 0.789566
-15.4165 -9.46874 2.02016
-14.5486 -11.887 1.24188
-19.8445 -10.4669 -2.11149
-20.7555 -13.3401 -3.51995
-17.113 -10.4376 -3.40998
-18.1647 -10.6992 -1.55026
-20.5693 -10.5999 -1.28341
-17.7194 -13.0385 -1.0479
-16.1637 -9.28972 -2.57216
-18.877 -12.1528 -2.20302
-14.7356 -11.1971 -3.36662
-17.184 -11.7384 -2.63493
-15.6819 -10.5699 -0.755565
-14.0774 -14.4019 -0.69094
-15.4914 -9.06222 -0.741045
-16.8875 -10.9111 -0.466068
-16.9036 -10.2451 -0.896117
-16.1704 -9.92076 -1.67668
-19.3883 -12.3518 -0.395743
-18.9186 -10.7482 -0.420403
-15.6188 -10.2617 -0.222403
-18.9984 -9.80226 1.06335
-17.9225 -11.5726 -1.2132
-16.0974 -11.9395 -1.86349
-18.3958 -11.5994 -0.207098
-22.7265 -10.6495 0.349147
-19.3056 -10.5014 2.26625
-18.2963 -10.8731 1.1253
-15.481 -11.1725 -2.71368
-14.9797 -11.6098 -1.19754
-16.9636 -10.9434 0.818503
-18.4322 -10.8764 2.71486
-16.0936 -9.2114 -0.48151
-19.9075 -11.9314 -0.336445
-16.4246 -11.9066 -1.95348
-15.9736 -12.0497 -0.162148
-19.3983 -12.2463 1.47782
-17.192 -10.8237 0.829514
-16.0561 -12.1931 1.10942
-15.539 -12.5116 -0.640473
-17.2964 -11.6183 -1.48652
-18.6242 -11.5845 -1.94878
-16.1329 -10.7871 -1.07152
-17.8525 -9.81021 -1.97644
-15.6418 -10.3302 -2.36405
-16.2882 -10.3826 -4.26834
-15.4545 -9.45072 -2.31279
-15.3322 -11.3814 -2.46496
-18.4032 -11.3991 -0.745249
-20.7534 -11.3855 0.011495
-15.3407 -10.4134 0.836835
-16.1242 -12.4227 -0.840576
-16.5765 -11.7424 -2.67627
-17.5739 -13.2811 1.00509
-16.6039 -12.4288 -0.0562124
-15.5312 -12.0734 -0.453475
-15.2942 -12.7382 -1.09786
-15.2658 -11.7653 0.924804
-15.0317 -11.6591 1.02519
-14.7132 -12.9394 -0.412632
-16.9486 -11.7017 -2.69561
-19.2718 -11.9299 -3.72664
-15.2918 -10.9514 -0.851396
-17.4669 -13.3024 -0.631459
-19.5197 -10.2991 0.594439
-17.5209 -13.0377 -0.520395
-17.9752 -10.5196 2.30751
-16.1666 -12.1943 0.239952
-15.992 -12.4368 -2.4346
-19.158 -10.4653 0.469406
-13.6686 -12.5589 -0.717779
-19.157 -10.3533 -4.08446
-16.4211 -11.978 -2.23581
-18.3618 -11.9607 0.615148
-17.5072 -10.0786 -2.67368
-16.3901 -13.0433 -1.50473
-17.769 -13.3337 -1.41525
-15.8677 -11.8666 -1.05075
-17.5288 -10.9845 -0.220571
-16.1873 -12.1009 0.827404
-15.6615 -9.77928 2.47311
-12.8747 -13.0072 1.52916
-16.3896 -13.0399 0.274943
-15.1995 -12.9664 -1.84806
-19.1908 -10.6421 -0.230584
-17.3801 -10.933 -1.53781
-18.9193 -10.2844 -1.13511
-16.3146 -11.1892 -1.06659
-17.5158 -10.5261 -0.936406
-19.5989 -11.894 -2.13612
-19.4045 -8.97133 -0.951297
-18.0561 -11.7839 -0.615158
-17.6317 -11.4698 -3.56244
-19.3082 -13.1335 -1.50365
-18.5948 -13.508 -2.41935
-18.4789 -10.8498 1.70099
-18.7219 -11.2434 -0.395437
-20.4829 -8.99371 -1.33911
-18.4363 -10.1603 -1.02699
-18.133 -12.4295 -2.42521
-17.9242 -14.1245 -1.48205
-17.9529 -13.6931 -3.3257
-18.2728 -11.8993 1.41095
-16.5548 -12.0771 -3.93025
-19.5154 -9.56093 0.357034
-15.4598 -11.3696 -1.57565
-16.0767 -11.5287 -0.267286
-17.722 -11.1483 -1.33451
-15.6831 -10.0225 -1.7909
-18.0492 -11.352 -3.12613
-17.8343 -11.5199 -0.106394
-17.6511 -12.8019 -1.7712
-16.5036 -13.0497 -0.363185
-16.1443 -10.5882 -0.59777
-13.4197 -14.1393 -1.82307
-15.9488 -10.2686 -0.105148
-15.3445 -12.8463 -1.10835
-15.4125 -10.4981 -1.44708
-15.3113 -13.0746 0.599861
-12.9135 -12.7096 1.01267
-19.1337 -10.9184 -1.44687
-20.6359 -10.3761 0.0406052
-16.5756 -12.1963 -2.14534
-20.8019 -12.2767 0.340316
-18.6949 -14.2297 1.35367
-19.0822 -12.1115 0.0714702
-17.55 -11.3073 -1.29496
-18.7381 -9.45035 1.46756
-17.8664 -10.4218 -0.484925
-18.4549 -12.2151 1.26683
-16.5357 -12.361 -0.866734
-14.1858 -11.179 -2.36457
-16.6212 -11.6362 0.887836
-19.0878 -11.0239 1.47803
-15.3096 -12.0248 0.771715
-14.6129 -10.0719 1.92201
-16.665 -13.1315 0.172915
-15.1687 -12.3823 -3.81747
-16.8135 -10.1177 -1.32981
-14.539 -12.4948 -3.55938
-14.5799 -11.9638 0.557711
-15.478 -11.1658 -0.0717423
-19.1592 -10.602 -1.71043
-18.333 -13.944 -3.8771
-18.6708 -11.41 -3.05605
-19.7679 -9.51553 0.304808
-22.5596 -10.432 1.16433
-17.3553 -10.9104 -0.345867
-20.5236 -10.7284 0.385933
-17.4846 -12.5238 -3.25251
-19.508 -11.6342 -0.82149
-19.597 -9.10411 2.89328
-16.0863 -10.7842 -2.02905
-19.7765 -11.6655 2.65159
-16.3885 -12.3325 -0.972335
-16.4779 -11.0272 0.514443
-13.5106 -12.613 -3.18075
-15.4324 -13.6508 -2.21018
-15.7529 -11.5134 0.72968
-15.0588 -12.6555 -1.1384
-14.301 -14.1725 0.557346
-14.4055 -11.6897 -4.88422
-16.8408 -12.4465 -0.612864
-16.8625 -11.1896 -3.75805
-16.1683 -11.2727 -1.83812
-19.7084 -12.056 -0.362704
-16.5382 -11.8257 -1.59472
-15.585 -11.8753 -1.71086
-16.6848 -11.6863 -0.809268
-15.5783 -11.4548 -0.23756
-15.8338 -12.0631 -0.972493
-17.822 -10.6675 -0.298358
-16.0235 -11.4366 -3.63467
-16.7847 -11.1835 -1.33541
-19.1648 -10.0928 -1.78383
-15.9707 -12.502 -2.16192
-15.8972 -11.7658 -2.11076
-17.915 -11.4886 0.22566
-15.5816 -12.1481 -1.38705
-16.5765 -11.2438 0.261206
-19.0501 -11.1893 -0.31618
-18.8281 -12.8654 1.02581
-13.5987 -11.3414 -1.13655
-20.4321 -11.4901 0.570251
-20.4171 -10.1215 -0.0771671
-15.412 -10.5596 0.04882
-13.8831 -13.0865 -0.49907
-17.091 -13.6565 -1.84503
-14.5901 -12.1907 -1.38822
-15.9056 -11.9392 -1.62206
-14.9281 -12.8274 -1.39119
-19.3583 -11.5996 -1.89534
-19.9715 -12.5864 -1.95516
-20.263 -11.0579 0.836435
-19.698 -10.5813 -1.5454
-19.2663 -11.257 -1.96459
-17.5912 -11.9782 -0.411207
-19.2453 -11.6929 -3.95759
-17.2419 -9.93685 -0.878785
-16.8661 -11.7473 0.301249
-16.4439 -10.3195 -1.71712
-16.9457 -9.29306 0.0645214
-14.1525 -12.4022 -4.9307
-18.4593 -11.3878 1.10787
-14.5913 -13.3309 -1.04544
-14.7049 -11.5622 0.722238
-15.962 -12.7506 -0.391187
-20.3988 -10.5886 -3.89606
-20.045 -10.8983 0.448726
-19.7826 -11.3119 -1.65621
-17.7027 -11.7095 1.54648
-18.6327 -9.89606 1.68363
-19.1241 -11.6733 -1.23973
-19.4699 -11.0007 -1.06269
-17.4768 -11.1627 0.870638
-15.4301 -10.8348 -2.02019
-15.7532 -12.2161 -1.6469
-16.0612 -9.98806 -1.06054
-17.0417 -12.0436 0.94097
-16.3159 -13.4067 -2.48412
-16.7453 -11.7882 -2.2633
-13.9034 -12.8989 -2.164
-16.1285 -11.7708 0.579447
-15.9981 -13.2396 -1.25519
-13.9587 -12.6987 -3.22112
-15.4964 -13.4051 2.02528
-16.6276 -11.4079 -0.120463
-15.7241 -13.2196 -0.0468741
-15.5869 -12.4046 -2.30829
-13.6217 -12.1184 -3.83211
-19.6154 -11.5086 -2.16277
-18.5121 -11.6591 -0.387816
-19.9806 -12.0262 -2.62322
-17.8802 -11.2415 -3.17388
-20.1317 -11.5916 1.366
-17.3559 -10.3087 0.702474
-18.7195 -10.8291 0.803965
-17.4188 -10.7755 -0.0905159
-15.5106 -12.1547 -1.49446
-15.9516 -13.1429 -0.640613
-14.7237 -11.4454 -1.93667
-19.0757 -11.826 -0.74849
-19.2382 -11.8995 -1.76159
-18.7661 -13.6648 -0.194021
-18.1685 -11.7039 -1.1892
-18.2094 -10.1304 -0.0379735
-15.7154 -10.2282 -1.76318
-16.9647 -12.2066 0.124707
-17.829 -9.31582 0.467615
-14.7433 -12.6564 -0.803101
-16.4664 -12.8399 -0.681472
-16.194 -11.7213 -1.47626
-15.0765 -13.7078 -0.618789
-20.6548 -10.5318 -1.86683
-19.621 -11.9262 -0.38975
-17.9634 -11.3779 1.31166
-17.9191 -9.19716 -0.499225
-18.416 -10.2122 1.48256
-17.4797 -11.2122 0.249433
-16.0012 -12.0483 0.634543
-14.5737 -11.1775 1.84474
-14.4066 -10.1146 -2.73482
-17.6784 -10.6444 -3.08177
-17.6174 -11.925 -0.809861
-15.6477 -10.5348 -2.00126
-14.4795 -10.4782 -1.66513
-15.4818 -12.9599 -0.737601
-11.9507 -12.2665 -0.493676
-16.3903 -12.0347 -2.92114
-16.7486 -10.8863 0.816314
-17.5674 -12.9573 -0.165612
-14.8407 -11.8795 -0.555848
-12.5412 -13.4411 -0.00944249
-14.5953 -9.89274 -1.89716
-15.7732 -13.0333 -0.286964
-15.9365 -9.97297 0.679015
-19.7465 -10.3087 -0.602552
-19.6066 -12.0597 1.18488
-18.7738 -10.3613 -1.13946
-18.6927 -10.6364 -0.842545
-19.1098 -9.34827 -1.36097
-20.3856 -10.4524 -1.52984
-18.3313 -11.9887 -2.21887
-17.4418 -11.3008 1.11738
-20.3222 -10.3021 -2.20801
-16.3709 -9.22397 2.1981
-16.3 -10.9446 1.09941
-19.8635 -10.5236 0.0323493
-15.7911 -9.79982 2.46116
-18.2491 -12.7065 -0.763638
-18.9272 -12.1704 -2.63649
-16.4971 -12.0809 -0.0088077
-15.4563 -11.2798 1.02953
-14.4502 -9.57351 1.68767
-17.4919 -11.3544 1.39141
-15.4084 -12.119 -1.55345
-15.7806 -10.8255 -0.961715
-14.8572 -14.1132 -0.280428
-15.3433 -11.9985 -2.23122
-15.5153 -10.8938 0.388027
-14.8808 -11.3521 -3.91793
-15.6102 -12.5896 0.138422
-15.6191 -12.3908 -0.867811
-14.0382 -12.2206 -0.761323
-13.6673 -13.1255 -3.19929
-16.2251 -12.123 -3.64534
-20.6498 -9.57192 -1.56388
-19.3358 -11.1174 -1.14108
-17.3789 -12.2545 0.649428
-18.2103 -11.4495 -3.17545
-18.7554 -10.1946 -0.671213
-18.4797 -11.004 -2.01591
-19.9057 -11.3417 -1.03966
-18.4607 -11.0553 -2.76147
-18.0074 -10.5429 0.0462102
-19.4224 -13.5006 -1.704
-18.1732 -9.96425 -0.51256
-19.5555 -11.7011 -2.27463
-15.6264 -8.76747 2.37051
-16.8166 -11.4921 -1.19372
-18.8286 -9.84842 -0.53648
-15.7784 -10.3348 3.27253
-18.142 -10.5289 0.394029
-14.967 -11.2198 0.209142
-16.1541 -11.9628 -1.1494
-16.545 -10.997 0.0701446
-15.4405 -11.8296 0.0199591
-16.2262 -11.8967 -0.20206
-15.4271 -12.1381 -0.185444
-15.0757 -10.6242 -0.879375
-14.9387 -13.2876 0.910101
-16.7521 -11.0328 -1.31957
-15.1329 -12.8577 -1.81373
-13.9856 -11.2253 0.273679
-14.9733 -10.6771 -2.44171
-14.9123 -11.9707 -1.7363
-14.9682 -11.6094 -1.772
-13.6354 -13.6336 -1.95007
-14.9308 -13.3396 -0.927328
-15.3778 -14.0265 0.344392
-15.6662 -11.7348 -3.02264
-13.096 -11.6512 -2.12543
-14.2441 -11.2166 -3.30643
-13.465 -12.0786 -3.49829
-20.0197 -10.8118 -0.204194
-19.7278 -12.6914 0.934829
-19.8774 -11.6099 0.607829
-19.8647 -10.2768 -0.534017
-18.4623 -12.4081 -2.12137
-19.7561 -11.6113 -3.68492
-19.7527 -9.40295 -1.35811
-20.4116 -10.5948 -2.59438
-18.5303 -11.2897 -2.25556
-15.7447 -10.239 0.157734
-17.1144 -11.6023 -2.10416
-18.134 -11.4 -1.86831
-17.4001 -10.7028 -2.34537
-17.4263 -11.5803 -1.39094
-15.8511 -11.374 -0.409522
-16.2262 -11.7125 0.571314
-15.7905 -13.4102 -1.31099
-16.0729 -9.4514 0.0776858
-18.0231 -12.0829 -0.268961
-15.1579 -10.6285 -0.437471
-15.6811 -12.2244 -0.873917
-16.0603 -11.166 -0.854659
-14.2014 -11.0064 -0.49822
-17.2236 -13.1465 -0.901874
-12.9394 -11.7487 -0.83092
-13.496 -12.8388 -1.28822
-13.9562 -11.6803 -1.29809
-15.2147 -12.1485 -3.49645
-13.4513 -12.3566 -3.30569
-18.9387 -12.3044 0.00319282
-21.0117 -9.63868 -0.82554
-19.3105 -10.2304 -1.3262
-20.4177 -11.4469 -0.75087
-19.625 -10.589 -3.11455
-18.0724 -10.4687 -0.793974
-17.4297 -11.2766 1.30643
-16.0229 -12.7259 0.123348
-18.8425 -10.8981 1.39777
-19.2693 -11.8162 0.0902612
-16.7939 -10.5839 -2.78167
-18.9274 -11.4258 -3.0643
-19.3814 -12.9229 -3.34448
-15.9645 -12.1299 -2.90433
-15.7551 -13.3547 -1.44867
-16.3756 -12.0924 -1.52256
-14.8728 -10.8771 0.932067
-14.8757 -11.7687 -1.96583
-13.2689 -13.2248 -2.37929
-20.2062 -11.2804 -2.4557
-20.6404 -10.1678 -1.54724
-19.9552 -10.2334 -3.12491
-16.5329 -11.3904 1.1863
-18.6565 -10.6606 -2.06168
-18.9073 -9.08858 -2.78685
-17.8639 -12.0509 -0.863724
-17.0831 -11.9277 -1.03749
-16.6585 -10.8607 -0.310223
-14.8129 -11.9067 -1.48179
-15.6521 -13.1483 -1.29325
-17.2756 -11.8092 -3.23933
-15.8091 -11.3925 -0.644139
-15.7233 -12.3733 -0.457994
-17.3981 -10.2111 1.88325
-16.9748 -11.5171 -0.300381
-14.0983 -13.6254 -0.191639
-20.1032 -13.1766 -0.0467904
-16.8024 -12.1631 -0.232564
-13.4368 -12.0469 -0.262836
-14.8036 -11.4494 0.486069
-18.9814 -9.99354 2.17653
-19.5584 -8.81791 0.388528
-16.0241 -11.3977 0.936557
-18.3123 -12.5918 2.12249
-18.4918 -10.2956 0.111607
-19.6082 -11.8677 -0.444245
-18.7792 -10.2935 -0.0995967
-18.6526 -12.1354 -1.23078
-17.4898 -11.8005 0.470747
-18.1864 -12.4239 -1.42454
-15.7039 -11.1046 -0.0468473
-17.303 -11.3142 -0.437216
-20.7896 -10.2138 -2.30109
-19.7324 -10.1044 -2.23248
-15.5181 -9.51288 -0.694807
-15.6464 -10.6361 0.75411
-20.0199 -12.7677 -3.01214
-15.5058 -10.7378 0.995218
-14.2244 -10.9909 0.771167
-18.8818 -13.2725 -1.13624
-19.8417 -9.88188 -2.09471
-18.2508 -12.4146 -0.277622
-18.2122 -11.4991 -0.241821
-17.0671 -10.7201 -0.205079
-19.4201 -12.5639 -2.30569
-20.1613 -11.2363 -4.53736
-18.2378 -9.57212 -3.17574
-19.3231 -10.9301 -2.49961
-15.6901 -9.79233 2.47794
-15.7709 -11.3331 -0.879219
-18.0944 -11.7551 -0.0590453
-17.6258 -11.5138 -1.88285
-19.3245 -11.9851 -0.807902
-18.7337 -10.5895 -1.84187
-19.5652 -11.8289 -2.93381
-16.1059 -12.713 -2.67833
-16.4955 -12.1473 0.258455
-18.4301 -9.94236 -1.42493
-15.1645 -10.8334 0.885828
-19.3141 -10.6568 -1.6465
-18.5989 -11.3418 -4.48637
-16.4901 -13.7267 -0.604202
-18.2887 -12.048 -1.95534
-16.8398 -11.481 1.58452
-16.4335 -12.1158 -1.69336
-16.568 -10.3766 1.30153
-16.2123 -12.0567 0.539526
-14.9897 -11.194 -0.147944
-16.3552 -12.0342 -2.07827
-15.1783 -10.7802 0.00760434
-15.8081 -12.0103 -2.35766
-16.6481 -11.7571 -0.523963
-13.7067 -11.68 -0.362223
-18.6914 -10.1217 -3.46338
-17.2007 -11.53 -1.96264
-16.3661 -10.4964 -1.34713
-16.4714 -10.9618 -2.3997
-16.7244 -11.0371 -0.339012
-16.1481 -11.2712 -1.73625
-17.4031 -11.2195 -2.65405
-15.1276 -12.3815 -0.561797
-15.5881 -11.448 -0.419778
-17.0665 -10.5268 -1.59664
-13.9882 -12.9818 -1.38628
-14.4174 -11.8265 -0.341148
-15.9282 -10.5574 -2.44133
-16.0442 -11.1808 -0.932334
-11.9456 -12.3896 -4.02415
-13.5364 -11.6156 -3.39679
-18.7135 -12.0831 2.1481
-18.9612 -10.0255 2.61061
-18.154 -10.3281 -0.339336
-18.7367 -9.10109 0.493089
-17.575 -10.9113 0.235322
-16.3957 -10.3453 0.0248459
-18.4195 -11.6003 2.07622
-16.1996 -11.5951 0.641383
-20.6513 -11.741 -2.41953
-20.8171 -11.4348 -0.861037
-15.993 -8.98317 1.46956
-19.1638 -8.7353 -3.99398
-16.937 -10.8012 0.68786
-19.0091 -11.7969 -1.49688
-19.4957 -11.1397 -2.26534
-18.7971 -11.6225 0.105078
-17.1761 -10.4045 -0.903222
-19.3723 -10.1168 -1.81135
-19.6064 -11.6138 -2.70388
-17.0864 -9.63214 0.252595
-17.8359 -10.5544 -0.230672
-19.2646 -12.8942 -4.80238
-16.7271 -8.89659 1.61953
-16.1639 -12.2489 0.139292
-14.1752 -12.7257 1.06605
-18.5387 -12.3973 -1.7464
-15.9536 -10.9825 -1.52937
-16.5551 -10.1783 -1.63454
-16.9698 -13.5668 -2.49685
-17.3179 -10.7196 -3.50201
-18.6866 -10.423 -3.39999
-16.7772 -12.2215 -0.407495
-15.8173 -13.2827 -0.312623
-16.7024 -10.6044 -2.35087
-14.1572 -10.0448 -0.875459
-15.6625 -13.4315 -0.254567
-16.4385 -12.9937 -2.08048
-14.2813 -12.2655 -0.5636
-15.5853 -12.7077 -0.0232995
-15.7276 -12.4764 -2.07741
-15.6303 -10.8078 -4.63145
-20.555 -11.7741 3.35107
-19.1208 -11.2561 -0.359827
-17.3249 -10.8803 0.423791
-17.7657 -11.9923 1.10923
-15.3367 -9.95452 1.50032
-18.9912 -9.49568 -0.362097
-17.871 -8.48533 -2.17399
-19.1086 -10.8521 -1.17335
-18.4347 -10.1198 -0.745259
-18.5232 -11.3607 0.360321
-19.0908 -13.1786 -1.47402
-15.2679 -12.0996 -0.766289
-19.4626 -11.6393 -0.963109
-17.9573 -12.1501 -2.46263
-20.1146 -12.0844 -1.82329
-17.2276 -11.3729 0.229576
-16.467 -11.7379 2.1252
-18.4901 -11.2655 1.69899
-15.7904 -11.4356 0.820855
-15.2549 -11.8364 -0.373501
-16.2928 -12.1302 0.711219
-16.3778 -12.1142 -3.73938
-16.7478 -12.0028 -3.37955
-14.1752 -12.8128 -0.373771
-16.0281 -11.4506 -0.366056
-15.6679 -11.723 -2.39792
-16.6111 -10.9564 0.349019
-16.7929 -12.5529 0.184778
-18.2073 -10.3799 -0.870157
-16.5014 -12.1436 -3.25185
-16.2968 -12.767 -0.357583
-16.2362 -11.7804 -0.963873
-16.0008 -12.4562 -0.850898
-17.8433 -13.1352 -0.23538
-14.4603 -10.6626 -0.381684
-15.9644 -12.2469 -1.78357
-15.2171 -12.363 -2.56118
-15.0985 -11.307 -1.35002
-17.6955 -10.8713 -1.84997
-14.8414 -13.2928 -0.646281
-13.6097 -13.6136 -0.0454654
-16.4117 -12.1826 -0.0875952
-15.1842 -12.1491 -2.64415
-15.3256 -12.2619 -1.57787
-15.5268 -11.9834 -4.21835
-16.0294 -9.91557 -1.64341
-14.7204 -11.2295 -1.46926
-15.6132 -11.9296 -3.68608
-14.7345 -13.253 -1.21872
-13.0825 -12.9588 -4.75173
-13.9786 -14.3461 -3.79222
-18.9788 -12.6266 2.48105
-18.6334 -12.5252 -0.626415
-19.3351 -10.7706 -0.93901
-15.6797 -9.77981 2.62444
-14.3417 -9.52076 0.615343
-16.6872 -11.1233 -0.237493
-15.4076 -11.1273 1.97248
-18.3382 -11.0929 -2.52081
-20.2398 -11.2764 -0.287838
-20.2501 -11.4592 -3.254
-17.3408 -10.8984 -0.465947
-15.6532 -12.4862 -1.24043
-16.0095 -10.1488 -1.2082
-20.1687 -11.9082 -0.752496
-15.4588 -11.0795 0.837387
-16.9026 -11.446 -0.787408
-17.6404 -11.1279 -3.20344
-16.7948 -12.3766 -1.20343
-17.4425 -10.2536 -2.3505
-16.9929 -11.3581 -1.56177
-15.0629 -12.034 0.401092
-16.7248 -12.8957 -1.96356
-15.7236 -11.0443 -0.224504
-16.5085 -11.9267 0.131926
-15.3468 -12.3374 -0.813816
-16.6977 -13.6061 -1.48828
-14.0943 -12.0086 -1.26726
-14.7433 -13.5099 -1.33113
-16.3131 -12.087 -4.24958
-14.9721 -9.62326 -0.107145
-16.9881 -12.4207 2.30298
-16.3564 -11.9423 0.328803
-17.9375 -11.8644 -0.574267
-14.7562 -9.92843 -1.14064
-14.7437 -11.1959 0.231341
-18.5521 -10.6342 -0.59024
-14.9541 -12.8322 1.52018
-16.7972 -11.7609 -1.12298
-15.1504 -12.0975 -1.2875
-16.3554 -11.4478 -0.565629
-17.6421 -11.2723 -2.47058
-17.637 -12.1176 -0.31803
-16.54 -12.5969 -0.235631
-15.421 -12.6263 1.18803
-15.617 -11.1508 0.71398
-15.1475 -12.2364 -0.770416
-14.1584 -12.8153 -2.05055
-13.2259 -13.6826 -2.16394
-16.7659 -13.2515 -0.45088
-14.9944 -10.6091 1.22797
-16.9392 -10.6367 -1.75035
-16.1199 -13.3122 -0.940759
-15.2847 -12.7778 0.131436
-18.0408 -13.0566 -1.99798
-16.1162 -11.7012 0.372385
-19.3239 -12.0067 -0.242729
-16.705 -10.0562 -1.65803
-15.5131 -12.2511 -1.11732
-16.8675 -13.4685 -3.75895
-16.1848 -12.4484 -2.02919
-15.5239 -12.3066 -0.96385
-15.9707 -13.4001 -0.513974
-16.6491 -12.2772 -2.62903
-15.9041 -11.4202 -2.02726
-14.6394 -12.4568 -1.20901
-16.2268 -10.8723 -0.67524
-15.7334 -13.6851 0.248059
-18.82 -11.917 2.63577
-19.8491 -10.2968 2.2051
-20.8461 -9.28045 0.432557
-17.6045 -9.65824 2.11693
-20.7394 -12.4253 1.81275
-19.9283 -11.5665 1.0216
-15.5743 -9.19038 -1.29976
-16.1716 -12.6113 1.54376
-15.0368 -10.7818 2.91141
-15.5722 -8.56534 1.30301
-16.1766 -8.55839 0.728528
-16.1272 -11.4121 1.69955
-20.3741 -10.7563 0.371077
-15.7878 -9.15771 1.01867
-22.2333 -11.4012 -1.49307
-15.9149 -8.69924 -0.480922
-15.811 -10.6884 1.13871
-17.2451 -11.2143 0.851087
-17.3465 -9.97462 0.791612
-18.2357 -12.2467 -0.682756
-16.1316 -8.34544 2.15153
-16.4767 -9.7198 0.900302
-18.4437 -10.6106 0.362159
-16.1911 -11.9217 0.342345
-18.3228 -10.3557 0.0284907
-18.6333 -11.0952 0.735666
-18.148 -10.9767 0.356749
-18.7236 -11.851 -1.23395
-19.955 -11.3107 -1.82744
-17.9372 -14.4219 -1.2852
-18.1906 -11.2756 -2.27607
-16.3422 -12.8033 0.673585
-16.7671 -11.2704 0.376964
-16.87 -10.7755 -0.638152
-19.6683 -11.115 -0.421145
-17.395 -11.7526 1.59009
-18.0542 -11.8961 0.0217499
-16.0211 -10.8456 -0.361568
-17.2198 -10.3371 -2.03158
-14.1567 -10.5814 0.990215
-17.7265 -12.2297 1.77588
-18.5954 -10.4544 -1.38453
-17.908 -11.1109 -0.791095
-16.9403 -12.0508 -0.171268
-16.9151 -10.6916 0.417063
-17.6074 -10.769 -1.14847
-21.6305 -9.79397 -1.26931
-17.3432 -8.51447 -0.346676
-16.5701 -10.2713 -2.64475
-16.8283 -11.0662 -1.40039
-18.4195 -13.2188 -1.96468
-18.1886 -9.81959 -1.22087
-16.9386 -12.4058 -1.0798
-16.3451 -11.4337 -1.56652
-19.2506 -10.8932 -3.1055
-15.6068 -12.3009 -1.27101
-16.9348 -11.5763 -0.662593
-15.274 -11.3395 0.0570186
-19.1094 -10.995 -0.995013
-16.7243 -12.454 0.713494
-21.1999 -12.1245 -4.73021
-18.1529 -9.61007 -2.6681
-19.648 -13.1162 -2.75356
-19.5686 -10.8223 -1.47731
-18.3936 -11.1598 -1.41079
-15.2979 -10.822 1.32462
-19.7319 -12.1714 -4.19151
-15.1758 -12.435 -1.71296
-20.8867 -11.5521 -2.23516
-19.9937 -9.82498 -2.07806
-18.2221 -11.6836 -2.76374
-18.9276 -12.1849 -1.11515
-17.8273 -11.3153 -2.20987
-17.7315 -12.5164 -4.29558
-16.8966 -12.0109 -1.46594
-16.9933 -9.88241 -5.68073
-15.4688 -11.0546 -3.38673
-14.4453 -13.4687 -2.19364
-15.0707 -11.1541 -2.97283
-13.1136 -12.6914 -3.77239
-12.0883 -12.1936 -3.22117
-13.7851 -13.1806 -4.7136
-19.9116 -11.8549 0.674801
-18.7447 -11.2761 -0.158218
-18.8252 -9.33018 1.65321
-17.4241 -11.3195 2.60429
-14.4657 -10.2793 1.66778
-19.8167 -11.4896 3.0837
-15.9384 -9.0659 1.67688
-20.02 -11.664 -0.772999
-16.3801 -8.1534 2.61057
-15.7956 -8.81257 0.864587
-16.5571 -9.19458 0.817012
-16.3966 -10.3252 1.4423
-15.2198 -9.91358 2.10046
-14.079 -10.4758 0.776746
-15.3922 -10.2688 0.866736
-16.0252 -10.0727 0.0489149
-20.6909 -11.726 -1.21813
-16.2668 -10.2255 -0.119544
-18.5942 -11.66 -0.203105
-16.955 -9.71692 -0.486853
-19.4337 -11.4443 -0.44657
-16.3444 -11.5241 1.22703
-18.57 -11.2994 -1.00554
-19.7488 -11.5849 -1.13559
-15.6593 -12.7589 0.289709
-16.1775 -10.6029 -0.719566
-17.4646 -10.0099 -1.31203
-15.5942 -12.3375 -0.409366
-16.4195 -9.66582 -0.543488
-20.7134 -12.4425 -2.68236
-16.6951 -11.0126 -0.532249
-19.1396 -13.2782 -1.24642
-17.642 -11.025 -1.4901
-16.2883 -11.8519 -1.62112
-15.9876 -11.8647 0.124375
-18.9703 -10.1971 -1.77823
-17.0656 -11.0501 0.100411
-19.1154 -13.8338 -2.27967
-15.8165 -10.8606 -0.547295
-19.7147 -10.6358 -1.38168
-19.3353 -11.7988 -2.92881
-17.9515 -12.0111 -3.53991
-17.6935 -11.9551 -1.88459
-19.1758 -10.8929 -2.66834
-19.1299 -10.3596 -1.87788
-18.6555 -9.19576 -4.1032
-20.4742 -11.3813 -3.09881
-17.5948 -10.8226 -2.25708
-16.1612 -11.6211 -0.0254391
-17.9855 -12.7196 -0.895986
-16.8004 -12.5297 -3.64015
-17.3712 -10.8752 -1.94372
-16.813 -13.4228 -1.72446
-15.4129 -11.3747 -1.41079
-15.2932 -10.8634 -1.21507
-17.4143 -11.2922 -4.19842
-13.6111 -11.3734 -0.602401
-15.1519 -11.5912 -2.90388
-15.8507 -11.849 -0.340257
-18.2054 -10.2302 1.86631
-20.0605 -10.4632 1.93855
-17.2752 -7.61651 2.03354
-18.7597 -13.5032 -0.471597
-16.5794 -9.57903 -0.127871
-18.5557 -11.0127 -0.0385586
-18.6567 -10.6585 0.882701
-18.5998 -9.66692 -0.589837
-21.6032 -12.2026 0.999568
-19.2911 -11.8712 -1.82347
-15.407 -11.0842 -0.473785
-16.4994 -10.8391 0.894016
-20.1913 -12.6888 -3.87515
-16.5694 -12.1882 0.0322948
-16.681 -12.7567 -0.659536
-18.6041 -11.2751 -1.32377
-15.8461 -12.0019 -0.959377
-14.5547 -9.47822 1.20833
-18.6712 -10.3849 -0.878425
-18.6428 -11.1157 -0.605431
-17.2279 -12.6407 -0.171235
-14.9221 -11.1408 -0.606644
-18.4972 -11.5097 -1.31393
-18.1397 -12.7567 -0.955355
-14.3552 -13.0231 -1.12227
-19.9856 -10.0333 -1.71523
-16.5009 -13.2848 -0.723929
