-16.5979 -12.3927 -2.95133
-17.5699 -10.8176 -6.85903
-17.6725 -10.179 -5.63046
-14.6701 -13.1707 -1.69666
-16.8953 -12.6758 -4.88349
-16.2993 -10.5609 -2.42424
-15.0762 -12.4069 -2.34259
-15.7981 -12.3175 -3.71539
-15.0137 -12.374 -4.59291
-15.9646 -11.1461 -3.92973
-15.7311 -12.2404 -2.99842
-13.9943 -12.3314 -1.49856
-15.2314 -13.3016 -1.33519
-14.6421 -12.3439 -3.76809
-14.523 -11.1295 -3.85015
-14.2195 -11.9184 -5.20972
-14.1914 -13.5522 -3.19731
-14.1971 -12.1971 -2.07328
-15.2909 -12.086 -4.46352
-15.344 -10.7745 -2.93542
-14.2707 -11.3895 -3.46511
-12.9223 -13.2454 -2.63584
-17.4511 -9.90823 0.6354
-19.8408 -12.2964 -0.852395
-16.3435 -10.6899 0.825022
-18.8722 -10.5895 1.44343
-19.0968 -8.75203 -1.26289
-18.2689 -10.1543 -1.8274
-17.9748 -11.1201 -1.17411
-15.5311 -11.5187 0.0106253
-16.4479 -11.9168 -0.272433
-15.9576 -11.4988 0.335298
-16.082 -10.5207 -1.46012
-17.594 -12.444 -2.54585
-19.2425 -11.4627 -2.58019
-16.5674 -11.145 -0.0284103
-23.6017 -8.56557 -3.06509
-17.1312 -9.99464 -1.64876
-15.5766 -11.2399 -0.776566
-20.9177 -10.8707 -2.48938
-15.7711 -12.2314 -1.59414
-16.1804 -12.226 -0.631077
-15.3289 -11.1735 -2.27131
-16.016 -12.4313 -1.79718
-17.9563 -10.4983 -1.53574
-17.1409 -10.7088 -2.91624
-17.7664 -10.2587 -2.07915
-18.9981 -8.56736 -3.04042
-15.7107 -11.8475 -2.28979
-16.3705 -11.2358 -2.08208
-15.4039 -10.8517 -1.79567
-16.0287 -10.6968 -2.30818
-16.5214 -11.3276 -1.65604
-17.1685 -12.2105 -0.763978
-16.0473 -13.0626 -2.38904
-17.1032 -11.5916 -2.89978
-14.8495 -11.5441 -1.10203
-15.683 -11.7524 -3.3189
-17.7822 -11.1396 -2.973
-16.8478 -10.8922 -2.59742
-13.3633 -12.309 -1.46702
-18.3748 -11.2779 -4.06821
-13.2415 -11.7855 -2.5224
-17.5605 -11.2708 -3.11731
-14.0071 -12.356 -1.52969
-16.3971 -10.3467 -3.69564
-15.1445 -12.8868 -2.36036
-15.8283 -11.4755 -1.89179
-15.4634 -10.4988 -3.80939
-16.1179 -9.91367 -2.92532
-14.3673 -10.8246 -2.55883
-13.8452 -12.0149 -4.0465
-16.151 -12.7694 -3.97503
-14.1355 -12.2498 -2.81325
-16.1249 -12.7309 -2.80299
-14.5627 -12.7344 -4.01874
-13.365 -10.5322 -4.28279
-13.4407 -11.8077 -2.81409
-14.5452 -12.371 -4.95215
-18.0608 -7.6656 0.327901
-18.7315 -10.8381 0.96338
-17.7555 -9.59677 0.116041
-16.487 -9.59696 -0.82384
-16.0924 -11.4797 -0.454874
-16.3507 -11.5457 -1.00913
-15.4413 -11.9033 0.78185
-17.2618 -10.375 0.388679
-17.2225 -11.8704 -1.62747
-15.16 -12.7451 -2.42787
-16.3485 -11.3743 1.10139
-19.1272 -9.56914 -0.547591
-14.3222 -13.7716 -0.304216
-16.181 -11.007 -2.92125
-15.5175 -11.7166 -2.49868
-14.8745 -12.4919 -0.289723
-15.3642 -10.5583 -1.02703
-14.8854 -12.4792 -1.50911
-17.102 -11.6342 -3.83602
-15.1056 -10.1156 -2.88742
-18.5789 -12.0421 -3.11392
-12.3501 -13.9754 -1.89033
-16.0681 -10.0191 -4.54818
-18.4143 -11.1312 -4.59846
-15.8215 -11.7001 -1.81818
-16.3461 -11.3312 -1.09248
-15.0825 -13.775 -3.13377
-17.0947 -11.2147 -3.68935
-14.7523 -12.794 -3.95416
-16.7246 -13.5416 -3.21231
-16.9307 -11.7503 -3.73854
-16.8794 -10.4789 -1.52988
-14.4557 -13.154 -3.90384
-14.6881 -12.7408 -3.59304
-15.2202 -10.7538 -2.64388
-16.4691 -12.5438 -4.02267
-14.6073 -13.5975 -4.66581
-12.6293 -11.7899 -2.85026
-19.7336 -12.0847 -0.128711
-15.6318 -10.6783 0.330082
-16.5859 -12.03 0.379103
-15.6512 -11.4493 -1.17593
-14.1195 -10.3931 -0.709434
-15.2389 -12.2693 2.12306
-16.7616 -12.2477 -1.14228
-17.0755 -10.6435 -1.19292
-16.2568 -12.3031 -0.842544
-23.6599 -9.43762 -3.158
-18.5542 -11.2312 -3.13627
-14.275 -11.661 -2.71442
-17.6196 -11.8378 -1.14304
-15.2995 -11.8556 -0.588108
-14.6865 -12.5541 -2.45477
-19.4062 -12.6223 -3.60244
-14.933 -12.0076 0.487892
-14.6764 -12.3497 -2.58179
-15.5701 -12.6464 -3.81967
-14.2938 -10.2617 -3.22527
-16.625 -11.7736 -0.658041
-15.7204 -13.8646 -0.103929
-16.1356 -11.3308 0.774611
-14.8516 -10.8448 -2.65683
-20.9495 -8.4172 -3.82028
-16.1082 -10.6547 -1.83619
-16.999 -11.3892 -2.02022
-15.4389 -12.2819 -1.65354
-15.065 -10.9571 -1.67851
-13.9485 -12.9747 -1.72606
-14.2421 -13.2207 -2.03002
-15.779 -10.6809 -2.59847
-16.6183 -11.5613 -0.401639
-16.2047 -11.013 -2.26404
-14.6905 -10.3534 -3.35086
-15.7696 -12.0689 -2.61688
-16.7373 -12.5997 -3.385
-17.9185 -10.427 -1.38304
-15.0496 -10.8307 -0.155443
-16.9779 -11.1959 -2.22417
-16.3997 -12.0807 -0.97093
-17.6235 -10.5283 -2.22238
-15.1584 -12.4662 -1.44825
-13.7019 -12.4101 -2.81837
-15.0244 -11.8363 0.219018
-14.9429 -12.6052 -1.52762
-16.0052 -11.7975 -1.99085
-15.7313 -11.5829 -1.09439
-15.6379 -12.4618 -3.15626
-16.323 -11.8442 -0.560235
-14.368 -12.0897 -2.31575
-15.0748 -11.4908 -0.0866361
-16.0547 -10.0556 -1.26008
-16.1318 -10.3971 -0.883549
-14.3036 -12.3326 -1.11502
-15.6261 -9.92622 -2.70412
-14.9775 -11.99 -0.66405
-17.9951 -12.7436 -0.807684
-16.7074 -11.7684 -0.560103
-16.5618 -11.1679 -2.52359
-13.7317 -11.4868 -3.02002
-15.2748 -13.6353 -3.45075
-18.1686 -10.9749 -3.36737
-14.1603 -12.6484 -3.0027
-14.4938 -14.4965 -1.69507
-20.9103 -11.2674 -3.35331
-15.0539 -12.7665 -2.2269
-15.0796 -11.7437 -3.88472
-20.8382 -9.98254 -2.84179
-19.6951 -8.6056 -3.77093
-15.4768 -11.55 -2.36669
-14.8725 -12.3999 -1.88787
-15.9925 -10.8641 -4.08799
-19.6381 -11.1746 -2.1922
-16.4908 -11.9247 -1.87103
-14.0188 -13.4697 -1.35822
-19.0426 -11.2595 -2.6378
-19.6892 -11.3655 -1.61252
-20.6815 -11.7193 -2.06022
-19.5466 -11.554 -1.42717
-20.9484 -9.17006 -3.73721
-15.1635 -10.8796 -0.313834
-20.7531 -9.33447 -3.22766
-15.6981 -9.76151 -0.228329
-19.5454 -9.62539 -2.44626
-20.2008 -11.2978 -0.727661
-18.0827 -11.2653 -1.13726
-16.7255 -11.1868 0.235674
-19.5194 -11.5832 -1.92406
-14.4426 -12.1644 -1.7822
-15.6458 -11.6527 -0.747244
-15.4667 -11.0067 1.04726
-20.5758 -11.3369 -2.5236
-15.3566 -12.3857 -0.855752
-16.082 -11.2258 -0.410673
-17.5889 -13.447 -1.28133
-17.1749 -10.2576 -1.14294
-16.8458 -12.248 -0.525173
-16.8455 -11.408 -1.25797
-15.6555 -11.8896 -1.60823
-16.632 -11.3192 -0.336475
-15.6083 -10.8727 -0.801089
-17.7086 -10.4713 -0.823516
-17.3373 -10.1014 -0.159049
-18.2903 -12.018 -1.27917
-16.1095 -11.9459 -0.306461
-16.1585 -8.21796 1.55131
-14.2346 -8.86426 0.128785
-14.3085 -11.4447 -3.54624
-14.0359 -11.0961 -1.71735
-16.7971 -14.292 -2.2502
-14.8644 -13.1658 -5.00808
-15.7504 -8.98784 -2.37186
-20.3631 -11.1811 -3.74961
-17.3533 -10.2707 -2.60261
-19.7312 -10.843 -4.51063
-18.3161 -10.0275 -5.11756
-19.3577 -12.689 -4.51961
-20.8659 -9.9189 -5.93212
-19.879 -11.3037 -3.00884
-19.5615 -8.48151 -3.53617
-15.3154 -11.1966 -2.92584
-21.3558 -10.3969 -4.79182
-21.2098 -11.3838 -5.36075
-20.0214 -11.9533 -3.35855
-17.3824 -11.6116 -2.4694
-14.3094 -12.6657 -1.47001
-16.0642 -9.46637 -1.45536
-16.9852 -11.7393 -2.42365
-16.0586 -11.4018 -1.72809
-15.2316 -11.2025 -1.95042
-16.6573 -12.8618 -2.5658
-15.2217 -11.7672 0.199289
-16.0745 -11.7205 0.379379
-15.7861 -10.8119 -0.846479
-16.0265 -11.0198 -0.477741
-15.6273 -10.4314 0.761431
-16.403 -11.5911 -0.803671
-15.316 -11.5559 0.520989
-17.7661 -11.5616 -0.58826
-17.5252 -8.56499 1.63738
-19.3302 -9.47664 -0.142407
-14.4095 -11.204 -4.44919
-19.0734 -10.4763 -4.88945
-19.0286 -11.2165 -6.42706
-18.1741 -9.7728 -3.8677
-17.7678 -12.0548 -3.38616
-14.8769 -11.7384 -2.59838
-14.6865 -11.5159 -2.1722
-15.4611 -9.19773 -2.13534
-16.5806 -9.85117 -1.99782
-14.7186 -12.2321 -1.14302
-15.0908 -14.5499 -2.50958
-16.6797 -11.7562 -1.45023
-15.4277 -10.7265 -4.19796
-20.9669 -11.7244 -4.27231
-15.5628 -11.1069 0.110341
-16.715 -12.6759 -1.76967
-16.1362 -11.3745 -3.68339
-19.6186 -11.0265 -4.06254
-21.0494 -12.0761 -3.08274
-19.1548 -10.2311 -2.78509
-16.461 -12.1709 -3.30426
-15.0223 -10.6697 -1.75135
-21.3358 -11.8008 -0.628585
-15.2298 -10.93 0.371329
-17.5517 -11.6448 -0.299666
-19.3478 -9.93144 0.167342
-20.2544 -13.3762 0.667622
-21.9108 -10.473 1.88052
-18.3219 -11.8654 1.8232
-17.0928 -11.0958 0.0429731
-18.9473 -10.9508 -0.872554
-13.6817 -12.9823 -3.34757
-18.185 -10.3491 -4.91357
-14.3359 -13.2614 -2.83299
-14.6068 -12.8321 -3.32957
-15.3422 -11.6479 -2.34594
-13.8796 -13.1084 -1.97982
-16.3244 -11.8086 -1.93487
-15.3561 -12.2711 -3.96448
-15.6468 -11.3302 -0.972072
-14.7447 -9.98726 -1.43582
-15.7118 -10.9903 -1.34309
-15.3752 -12.8209 -2.89397
-16.5721 -9.52039 -2.87407
-15.2985 -12.4502 -0.231855
-13.896 -10.5984 -0.485308
-17.116 -9.64943 -1.58212
-14.6775 -12.4548 -1.52683
-16.556 -11.5954 -2.65634
-18.0684 -11.1389 0.175263
-13.8388 -12.1527 2.33079
-19.8767 -11.7035 1.83606
-16.9236 -10.1987 -0.1009
-15.3387 -12.4716 2.09511
-14.4847 -10.3526 -3.07397
-18.2563 -12.4509 -1.24363
-16.9083 -12.5976 -3.01591
-20.8683 -10.2494 -3.63314
-15.6393 -11.6705 -1.03686
-16.4288 -11.7472 1.13948
-16.2114 -12.3399 0.924333
-16.2566 -12.3895 -3.37195
-15.9699 -10.801 -3.26252
-14.2154 -13.0942 -1.06711
-16.0338 -11.8853 -1.91584
-16.7654 -10.8089 -2.851
-17.121 -10.1785 -0.938428
-14.8489 -11.43 -2.07944
-19.7218 -10.7877 0.815393
-16.222 -10.6167 1.10928
-14.4331 -13.3579 -2.85024
-16.1474 -10.9672 0.166043
-17.9711 -10.2102 -0.04442
-18.2713 -11.2128 -1.4471
-14.6424 -10.809 -2.83798
-14.815 -10.6737 -2.10692
-17.5113 -11.6511 -2.95268
-14.4029 -10.7723 -1.05495
-20.283 -11.0229 -5.84883
-19.0331 -10.0213 -4.73786
-17.4909 -11.3771 -4.99843
-16.8582 -12.3285 -4.71675
-19.9587 -10.0505 -3.91386
-17.8372 -10.4091 -5.77102
-20.7379 -10.8022 -4.4425
-19.9399 -10.6377 -2.86319
-16.9965 -11.5934 -2.92663
-19.0805 -10.7589 -3.06514
-16.8796 -11.5724 -4.77617
-16.4965 -9.46888 -4.40484
-17.8095 -11.476 -3.43269
-17.9648 -12.5877 -4.47454
-18.9507 -10.0304 -4.08574
-18.3357 -13.9321 -2.47283
-19.2856 -10.3395 -4.71691
-16.4187 -11.8301 -4.49542
-17.9 -11.8906 -3.75899
-18.0018 -10.182 -3.62626
-15.0739 -12.0734 -3.37652
-16.4814 -12.4076 -2.99998
-13.7238 -13.6145 -1.85384
-14.2446 -12.3758 -5.77659
-18.6876 -9.82518 -2.77904
-17.0393 -10.512 -2.04127
-21.1456 -10.2268 -3.70112
-13.9445 -11.6882 -3.65291
-16.4385 -12.1977 -2.39885
-14.2249 -10.9477 -4.21329
-13.8711 -8.72324 -4.14432
-15.6855 -11.2957 -1.79902
-17.9801 -11.1034 -1.61532
-16.0986 -11.7501 -2.39293
-15.6764 -12.1123 -2.02888
-14.5195 -11.6423 -3.30226
-15.2152 -11.2805 -0.819222
-14.5306 -12.09 -1.31211
-15.807 -10.6273 -2.39711
-17.1425 -10.462 -3.66779
-15.3551 -9.21774 -2.9334
-16.0478 -10.8881 -2.53029
-17.3429 -11.5014 -1.99463
-14.8154 -13.4501 -2.92843
-14.5313 -11.6421 -3.1064
-17.2822 -11.1697 -1.57169
-16.4232 -12.7291 -2.95538
-15.6259 -11.7329 -3.20293
-18.3729 -10.8619 -2.06039
-20.6093 -10.9239 -2.59384
-14.197 -10.1395 -1.44462
-17.2805 -12.326 -2.44134
-21.9031 -9.392 -2.31409
-17.3018 -11.127 -1.22012
-14.0608 -14.1899 -2.65498
-14.5337 -12.3238 -1.96836
-16.679 -12.3488 -2.13205
-13.1578 -11.6614 -2.05178
-16.9407 -13.0995 -1.67262
-15.301 -11.7605 -1.26483
-15.4163 -13.9248 -1.96856
-21.3878 -9.60056 -0.302134
-15.8346 -9.27328 0.111282
-18.3209 -9.58998 0.324087
-15.7907 -12.0456 0.935599
-15.2958 -13.2397 -3.15275
-18.6255 -12.51 -0.960114
-16.8153 -10.4162 -0.491331
-20.1668 -11.8532 2.08052
-17.0795 -10.4385 -1.12364
-16.264 -12.3719 -1.9819
-21.4534 -11.3414 0.640737
-15.7845 -10.7615 -0.18475
-15.4651 -10.2953 -0.710404
-16.9588 -9.48666 -0.223987
-20.2903 -10.8329 0.94279
-14.284 -10.8534 0.332561
-16.5484 -11.3672 -0.346425
-14.759 -10.4227 -0.231135
-16.9289 -11.5466 -0.00591674
-14.5339 -12.4102 -0.0327841
-13.4758 -10.146 -0.643877
-12.9435 -11.6943 0.842104
-17.1678 -9.96263 0.33744
-15.3944 -12.1271 0.698132
-17.3582 -10.479 0.145179
-12.948 -12.6926 2.35637
-20.0675 -12.0371 -4.76892
-19.9103 -9.99473 -4.85289
-17.4701 -11.8398 -5.02182
-19.6537 -9.29216 -2.60014
-21.017 -11.7502 -4.15574
-16.5667 -12.1318 -2.60274
-15.4875 -11.2957 -3.6675
-19.3184 -11.4136 -4.80257
-18.9829 -11.7328 -4.86854
-21.5574 -11.4296 -5.00157
-14.2284 -9.13616 -3.37373
-19.478 -11.4979 -3.47714
-14.9951 -12.444 -2.82844
-15.7565 -11.4239 -3.83322
-13.7279 -13.4696 -3.19191
-18.9939 -10.8324 -3.57446
-14.8064 -13.0752 -3.65751
-19.7908 -11.2716 -3.55607
-18.6835 -12.4423 -3.4986
-15.8355 -11.7157 -3.97135
-18.4184 -10.257 -2.00156
-15.0644 -12.0077 -3.23098
-13.2272 -11.3211 -4.68871
-15.8391 -12.1519 -3.75913
-16.0613 -10.6158 -3.23671
-19.3093 -8.70495 -2.76348
-16.0151 -13.4577 -3.53434
-19.4145 -11.7894 -2.89198
-19.8898 -10.9763 -3.22552
-19.7915 -9.69887 -3.06881
-20.214 -10.8562 -4.01056
-15.5301 -10.5225 -2.70743
-19.1312 -10.5195 -2.25631
-14.825 -11.721 -3.66933
-13.5912 -10.2895 -2.34284
-13.8416 -12.4228 -1.39949
-18.7163 -12.1052 -2.1746
-15.0509 -10.8535 -3.58831
-14.2868 -10.2333 -0.7036
-19.7423 -9.67039 -2.13788
-14.6305 -11.014 -0.805239
-12.9293 -12.1431 -2.42762
-13.5459 -12.8117 -3.11783
-19.2334 -10.8462 -1.85036
-17.5296 -10.8712 -2.48642
-15.396 -11.6883 -1.96413
-15.613 -11.4307 0.138062
-18.7737 -12.6339 0.713403
-16.5252 -10.8635 -2.45582
-16.2087 -12.972 -1.46821
-16.9352 -11.1372 1.82121
-13.7311 -12.1323 -0.361293
-17.9937 -11.5583 -2.65268
-16.0788 -13.1212 -0.137235
-15.3046 -13.4873 -2.37733
-17.5753 -13.043 1.35662
-17.3327 -11.7755 -0.411708
-15.8123 -12.2685 0.729003
-17.4545 -11.0025 1.83609
-16.674 -11.0599 2.24106
-16.5148 -12.1534 0.42573
-14.8483 -11.0829 -1.12312
-17.945 -11.3096 1.55106
-19.5182 -11.6018 -5.5709
-19.7056 -11.7206 -3.6514
-19.2231 -10.6212 -6.54117
-17.3237 -11.8772 -3.32921
-17.6634 -12.987 -4.14975
-17.1698 -12.0195 -6.10579
-17.2661 -12.2404 -3.73486
-20.98 -10.6025 -3.00844
-16.4583 -10.3653 -4.38802
-16.6074 -12.0879 -2.75146
-15.2414 -12.5326 -4.27373
-15.4993 -10.9741 -4.28444
-16.1174 -12.0367 -4.64766
-15.661 -11.9814 -3.29306
-16.3836 -11.1183 -2.88405
-19.5819 -9.97488 -7.25988
-21.1446 -11.8571 -4.7166
-20.0247 -12.1023 -3.54001
-17.2278 -9.85317 -1.62607
-16.6169 -12.0958 -3.73649
-15.724 -11.9197 -4.38741
-15.2786 -10.1836 -2.61338
-13.0644 -12.8242 -4.23241
-15.9881 -11.7396 -2.0071
-15.3975 -11.8064 -1.85182
-15.4215 -10.6222 -1.59666
-16.5663 -10.5548 -4.22953
-18.5704 -12.8557 -3.1037
-18.8742 -11.6769 -0.899286
-20.7476 -9.98053 -3.97522
-19.1898 -10.8194 -3.62237
-16.8727 -10.1263 0.264531
-16.6186 -9.65315 -1.52064
-13.042 -13.3344 -2.70515
-15.2586 -10.4079 -2.56022
-16.5734 -11.7182 -1.76016
-15.2187 -12.2511 -2.26494
-13.6863 -14.3482 -2.69555
-16.2993 -11.5881 -1.75833
-14.342 -13.7743 -0.241915
-18.0769 -11.0777 -1.21592
-16.6558 -9.93936 0.0104781
-16.7261 -11.9613 -2.03528
-17.3238 -10.3816 0.80199
-15.0091 -12.1702 -1.47508
-15.5102 -12.2771 -1.54145
-13.1854 -12.5264 -1.3133
-16.1919 -11.6658 0.098175
-15.2591 -10.7041 0.969736
-15.962 -12.7532 -1.15949
-21.7607 -10.1872 -0.368895
-17.5625 -10.9735 1.07278
-16.4011 -9.34965 -0.951423
-14.1022 -11.4396 -2.67468
-16.7509 -13.0732 -1.11451
-17.4603 -13.0543 -1.02158
-17.4422 -10.3642 -0.99408
-16.9968 -11.2854 0.860316
-15.6587 -9.94095 0.0832423
-15.669 -10.0455 -2.99544
-15.1708 -11.3158 -0.470908
-13.3574 -12.2107 -1.00271
-18.3587 -10.8244 -5.71064
-17.288 -10.2923 -5.31424
-22.0381 -9.65949 -3.0584
-17.756 -11.0084 -3.78067
-19.106 -11.8541 -4.57246
-17.595 -12.1677 -5.4009
-12.8916 -12.6057 -3.33131
-18.0776 -12.2283 -2.63587
-13.437 -12.1562 -3.08395
-15.2971 -12.6088 -1.73925
-16.2708 -11.2541 -2.73146
-14.2546 -10.7782 -0.863429
-13.7319 -9.52473 -3.03331
-20.6768 -10.4131 -3.62538
-16.3982 -10.7116 -2.6494
-15.3831 -11.8433 -2.98959
-15.2604 -11.4707 -1.41676
-14.3686 -12.1514 -3.03632
-14.4739 -12.6089 -2.62696
-16.5708 -11.9701 -0.702115
-15.6505 -11.598 -1.06715
-16.3868 -11.2853 -2.29607
-18.414 -10.4531 1.84741
-16.4524 -10.0027 -0.950644
-22.3685 -10.0277 -5.72364
-16.6317 -11.5803 -3.2019
-16.1068 -12.4718 -2.92312
-16.2538 -12.4356 -3.61749
-16.531 -10.1599 -1.50015
-15.3065 -12.4591 -2.51283
-16.9853 -11.1642 -1.89072
-14.3072 -12.1065 -3.63462
-20.1789 -12.2933 -2.14524
-17.9877 -10.1675 -2.21271
-16.5693 -11.1419 -0.639938
-15.9593 -10.5579 -0.830242
-17.1081 -11.0156 0.238179
-19.9472 -11.1121 -1.94572
-16.3188 -11.2291 -0.163744
-16.8542 -10.4461 -0.249958
-17.4755 -9.64377 1.32966
-17.1083 -13.6362 1.03404
-13.6229 -11.7071 -4.43879
-19.4742 -10.7243 -2.71778
-14.6016 -12.3438 -0.947926
-16.5694 -13.0243 -1.81444
-17.8425 -11.9892 -3.98588
-17.6176 -10.6248 -0.930632
-18.2559 -9.79844 -2.94988
-16.0519 -11.6254 -2.2457
-15.5884 -11.927 -1.4684
-16.8798 -11.4749 0.318207
-14.5027 -11.2659 -5.9351
-16.391 -11.9678 -2.59045
-17.5479 -11.1719 -2.21615
-17.2582 -11.6446 0.119288
-14.007 -13.7643 -0.611276
-16.2683 -12.4037 -2.51796
-14.9734 -11.9949 -1.65436
-15.5121 -11.3045 -1.68681
-15.3246 -12.0847 -2.04762
-17.6579 -11.6253 0.593889
-16.2449 -11.2922 -0.537803
-14.2351 -13.3585 -2.64779
-15.0612 -10.9218 -1.09415
-13.9129 -11.7631 -4.17529
-16.4786 -10.7596 0.236535
-15.4165 -11.5223 -1.40665
-16.5747 -10.4948 -4.21893
-17.6505 -10.9349 -2.66252
-17.2332 -10.9025 -3.1879
-14.6632 -11.4275 -3.11039
-16.9792 -11.1166 1.0605
-15.1362 -10.1814 2.01654
-23.6296 -9.85466 -5.22147
-21.5672 -10.3459 -5.04661
-18.8156 -11.6259 -4.89632
-19.188 -10.3788 -4.45173
-19.3323 -10.06 -4.25285
-21.0646 -10.1379 -5.08029
-18.249 -11.7589 -3.85464
-18.8208 -11.1053 -2.0251
-19.492 -11.4754 -3.51586
-20.4237 -11.9694 -4.1304
-19.3433 -10.1526 -3.43193
-20.256 -9.856 -2.20831
-17.8992 -13.6965 -5.69954
-16.0083 -10.9901 -5.27392
-18.1786 -11.6558 -4.02761
-20.7039 -9.2842 -3.84329
-18.2542 -10.1899 -5.35365
-16.6644 -10.3803 -3.70959
-21.2315 -10.0054 -2.66862
-16.4717 -10.3957 -3.163
-16.2493 -12.088 -3.40363
-16.3824 -9.91242 -1.03676
-18.2471 -11.8478 -4.232
-18.1299 -12.1792 -2.38359
-17.5976 -11.7949 -2.55572
-14.9912 -11.1053 -2.58315
-16.0912 -10.7022 -3.55555
-20.048 -12.8105 0.400705
-16.0986 -13.7429 -4.90935
-17.5041 -12.4428 -2.81786
-16.3931 -13.6069 -2.47927
-16.1096 -13.936 -4.08029
-18.8907 -11.464 -1.17039
-14.8634 -11.3137 -3.74213
-21.1769 -9.25657 -1.40285
-18.0099 -13.1122 -3.04195
-18.2478 -11.9555 -3.26164
-20.5032 -10.9542 -0.706066
-13.2747 -12.9239 -4.07704
-15.9852 -10.0141 -4.37866
-15.0906 -10.7373 -5.38405
-16.0139 -11.9955 -2.7557
-13.6807 -11.9432 -1.77327
-15.5829 -11.1668 -2.35523
-20.7925 -10.4393 1.0424
-20.7802 -11.51 1.56176
-18.184 -9.24814 1.53752
-13.9988 -12.4278 -1.38908
-13.5286 -14.4714 -4.52428
-14.0432 -12.2611 -2.38309
-15.0542 -11.7256 -3.50915
-13.6795 -11.9907 -5.01484
-18.1687 -10.0963 0.942132
-13.7697 -12.6521 -3.46544
-14.1642 -12.1642 -1.79267
-15.0734 -10.1448 -2.54148
-16.952 -10.9001 1.50529
-18.3938 -8.74801 1.80087
-16.9279 -9.94459 -0.164316
-15.0441 -13.069 -0.305866
-15.9563 -10.6251 -1.78052
-13.907 -11.6223 -3.79842
-16.4176 -12.2495 0.535336
-15.9954 -11.5153 0.961083
-17.3354 -10.6404 0.697839
-18.1334 -10.7661 0.167255
-18.2891 -10.3804 -0.609988
-16.9727 -11.046 -1.46761
-13.482 -12.0122 -2.67502
-15.7387 -10.4913 0.236032
-17.091 -11.9806 -0.0736076
-15.6036 -11.3879 1.08176
-16.9644 -12.1151 2.04839
-15.1855 -11.4746 0.00364191
-16.6096 -13.3775 -1.08055
-17.2303 -12.2409 0.793225
-15.1817 -12.6637 -0.00206497
-20.9822 -10.7797 -5.00395
-20.3485 -10.4344 -5.03862
-18.3225 -9.975 -4.9329
-18.9098 -9.30389 -2.63652
-19.2174 -10.2113 -3.82065
-19.4989 -10.6718 -3.17184
-19.6044 -11.2629 -3.75239
-16.5981 -12.2853 -4.47968
-17.9847 -11.3745 -1.73065
-17.2427 -10.5266 -5.7422
-15.4986 -11.0188 -5.13786
-16.2076 -10.9702 -3.42287
-15.3756 -11.3653 -2.67288
-13.8198 -12.3813 -3.20335
-17.5374 -12.097 -3.67772
-18.0744 -11.889 -1.95565
-17.5192 -8.55604 -0.375743
-18.8078 -10.6113 -1.19142
-17.0677 -12.087 -1.91859
-14.6707 -11.1411 -2.44368
-15.4724 -11.7219 -2.6999
-16.9762 -13.0008 -4.41508
-13.6634 -12.5564 -2.28641
-17.946 -10.5626 -3.1952
-17.4692 -12.1465 -2.47723
-16.1943 -12.3252 -1.68592
-15.2936 -12.3185 -2.32742
-15.4199 -12.315 -2.3676
-14.7167 -10.4072 -3.05821
-21.6173 -10.0782 -0.267379
-20.201 -12.536 -0.123781
-15.0039 -12.7286 -0.575405
-14.8377 -12.0081 -3.63314
-17.8043 -10.8957 -1.32737
-18.6235 -11.2889 -1.62783
-16.2911 -10.3601 -1.19997
-17.9607 -14.1004 -1.20289
-15.8186 -11.8402 -2.13339
-16.6426 -10.0818 -1.87731
-15.5038 -8.6913 1.58812
-17.0633 -11.4083 -0.00314909
-15.084 -13.8172 -2.96759
-17.6706 -11.1248 0.747041
-17.6327 -9.95248 0.710369
-14.9433 -12.8635 -1.29077
-15.4422 -11.4002 -0.202126
-15.7057 -10.3254 -0.912078
-16.3294 -11.7406 -1.52224
-17.6714 -12.6124 -1.89487
-16.6937 -10.862 -0.147907
-17.2751 -10.1492 1.02222
-16.0728 -11.1255 -1.22738
-16.2941 -10.9427 2.52518
-14.5002 -12.3756 -1.95791
-14.8038 -12.626 0.00866999
-14.6949 -12.7621 -1.06231
-16.1208 -13.9244 -1.18967
-16.2079 -11.6039 0.239111
-21.8628 -8.74386 -3.35053
-19.2653 -9.5829 -5.24095
-19.1002 -10.6634 -3.27362
-15.4502 -11.6763 -3.85368
-15.7041 -9.31064 -2.10254
-15.0073 -10.8778 -1.50799
-15.3132 -12.447 -2.98384
-13.7781 -13.6622 -5.41186
-13.8053 -12.6937 -1.34062
-19.9504 -11.6131 -1.25224
-15.093 -10.9874 -2.55095
-16.8112 -11.0911 -6.04748
-17.2956 -12.6205 -0.522566
-14.7405 -11.5951 -2.54759
-14.6294 -12.046 -4.51156
-15.2456 -12.7757 -4.54696
-14.483 -11.9665 -2.69889
-20.5466 -9.66513 0.962631
-18.8965 -11.0336 0.331612
-16.007 -11.9249 -3.63607
-18.4958 -10.8046 -2.15614
-15.1823 -9.30537 -1.6161
-17.4295 -10.2226 1.21911
-16.5318 -11.9275 -0.887923
-16.4989 -12.7704 -0.111518
-14.7147 -11.9782 -0.185789
-16.0228 -10.4776 -0.070998
-14.0473 -11.9764 -0.33028
-15.6399 -11.4613 0.290837
-16.6576 -10.8888 0.587574
-15.7628 -9.73242 -0.747963
-17.4821 -12.8496 -2.94995
-17.2068 -10.5917 -3.41161
-16.2632 -11.9015 -1.86386
-17.2316 -10.0922 -0.293478
-13.9432 -14.43 -2.35602
-18.4788 -10.4208 1.43831
-18.3494 -9.58502 1.50665
-17.4441 -9.71028 2.84355
-17.8608 -10.868 0.458862
-16.5764 -11.2771 0.151786
-16.71 -12.0444 0.175869
-14.1551 -12.128 0.470138
-16.6351 -11.3965 -0.366453
-17.3672 -12.0184 0.682168
-15.7128 -12.0703 1.79176
-14.898 -10.8808 0.749207
-15.6851 -12.2859 0.727743
-16.9501 -12.3741 -1.30379
-17.6673 -11.0299 -0.274023
-16.1723 -9.51468 0.105357
-23.2783 -9.04939 -3.80221
-15.5044 -12.323 -1.04712
-17.4528 -11.4155 -1.46275
-15.0266 -10.8265 -3.20914
-17.8383 -10.983 -1.7045
-16.2932 -13.0809 -2.5204
-15.6641 -9.83205 -0.857949
-15.383 -11.9312 -1.33266
-15.3695 -11.8151 -0.823343
-14.4935 -12.6537 0.669518
-15.89 -9.8946 -1.10758
-16.3294 -9.93835 -1.88087
-14.3958 -12.3196 -0.520137
-16.4815 -12.3607 -2.07456
-18.1619 -11.5068 -1.10336
-18.594 -11.3317 -3.0475
-17.3234 -10.2717 -1.56606
-15.5667 -11.2922 -0.193754
-16.7571 -12.5915 -0.818379
-17.7527 -10.9385 0.688522
-13.9262 -12.2192 -0.546993
-18.2714 -11.4991 -0.204116
-16.1695 -12.1586 -2.21419
-16.1502 -11.5311 0.00964618
-16.1744 -11.8259 -4.54301
-18.4844 -11.7357 -2.46322
-15.7732 -12.7983 -1.60702
-19.961 -9.69134 -3.6418
-19.2281 -10.6613 -3.03042
-21.3127 -11.1509 1.06899
-21.5706 -10.7555 1.37398
-22.3635 -10.307 0.64997
-20.8765 -12.7638 -3.7046
-19.3069 -10.815 -1.64953
-17.9308 -11.6593 -4.59467
-19.7203 -10.5341 -2.78172
-21.1812 -11.4417 0.32989
-18.6464 -11.0341 0.669512
-18.5338 -12.2531 -3.2337
-17.7243 -13.4957 0.417049
-16.5473 -11.1804 -4.07301
-15.3198 -10.3013 -6.73175
-17.9862 -9.82475 0.510572
-15.9361 -9.33769 -0.808436
-16.8725 -11.6399 -3.88031
-16.3472 -12.4004 -2.87431
-17.9787 -11.3451 -1.82133
-17.1281 -11.8993 -1.17484
-14.8799 -12.8377 -4.29034
-14.6078 -10.7736 0.64841
-16.4701 -12.3561 -1.6688
-15.3062 -10.8344 -5.27933
-17.0907 -12.5407 -0.642234
-16.1612 -10.7228 -0.929127
-16.0368 -10.0453 -1.22919
-16.1882 -11.9737 0.392066
-15.2665 -12.4249 -1.84166
-16.0115 -12.1555 -3.1807
-14.3032 -12.6531 -1.851
-16.1649 -11.4661 -1.2204
-17.1865 -9.29596 -0.255583
-17.1136 -12.6465 -2.84871
-18.2409 -11.9897 -3.4169
-17.3099 -11.502 -2.70881
-16.06 -10.9946 -3.72569
-15.3834 -10.4659 -2.28825
-15.5168 -11.0817 -5.23432
-18.1085 -12.7002 -2.1136
-16.54 -10.543 1.18947
-15.9949 -11.8841 -2.99342
-19.5854 -11.7413 -1.35239
-15.995 -10.6277 -2.22134
-16.1399 -12.1044 -2.17997
-15.2001 -12.6031 -4.7849
-16.0218 -11.2731 -0.531559
-17.5635 -11.2627 -0.365175
-16.3537 -11.1538 0.533251
-15.3495 -11.2182 -0.515604
-17.0749 -10.0262 -1.28577
-15.4934 -12.2692 0.0503923
-14.6097 -12.962 -2.54375
-15.9196 -11.8231 -1.14983
-15.9305 -11.5094 -0.93714
-14.7085 -11.376 -4.63592
-18.5111 -10.7051 -2.89333
-16.4691 -8.85848 1.75899
-16.8438 -12.9153 -1.75253
-16.6783 -12.5544 -0.979653
-19.1221 -9.17062 0.589084
-16.9389 -11.7268 -4.32136
-16.4922 -10.6015 -4.66214
-18.3996 -13.3134 -3.75487
-15.5244 -12.2338 -3.17119
-16.713 -10.8376 0.102155
-15.2081 -11.3622 -2.5214
-16.8111 -10.447 -0.319838
-17.4182 -12.3412 1.22521
-14.8921 -12.2429 -2.70563
-17.4095 -12.7171 0.319162
-13.8829 -10.7638 0.85548
-16.9151 -11.3997 0.802954
-15.33 -13.1609 -2.50641
-15.9106 -9.70483 -0.0334085
-17.3519 -11.2663 -4.51176
-16.6328 -12.8626 -1.11175
-15.1237 -10.4407 2.38161
-14.5393 -13.3691 -1.55599
-19.7116 -10.8662 -3.98274
-20.1421 -11.6092 -0.28269
-18.6491 -10.6669 1.16104
-14.8959 -12.1005 -4.10275
-15.3022 -13.6757 0.122328
-16.8519 -12.0237 -1.63789
-16.1384 -12.1556 -2.70786
-16.8381 -12.2666 -0.942014
-16.3356 -11.2628 -1.03254
-14.4192 -9.91562 -1.47179
-22.6201 -9.86323 -4.15611
-16.6958 -8.23537 1.3697
-15.7885 -13.1926 -1.58749
-17.7873 -10.2565 -3.6636
-17.9434 -11.3827 -0.610205
-15.9581 -11.2907 -1.08002
-14.2763 -12.3548 -0.778515
-17.31 -11.7453 -0.438045
-18.1551 -10.708 -1.93947
-17.5006 -11.2941 -0.702996
-18.1082 -11.3404 -3.14815
-15.7637 -13.2563 -0.654647
-15.1899 -11.0586 -1.73439
-15.4743 -11.7252 0.382145
-17.3643 -11.9827 -0.192473
-17.3452 -10.6526 -0.406502
-17.1346 -11.1813 -4.10732
-16.3076 -8.76405 -2.19978
-20.221 -8.23251 -0.412254
-20.7461 -9.76591 0.0237455
-19.9072 -8.46498 0.623105
-21.9622 -11.1754 0.131587
-21.536 -9.84961 -2.1197
-19.5193 -10.6511 -1.40654
-17.5187 -10.379 0.312058
-17.6487 -11.8697 -0.306907
-18.4213 -10.9213 0.499794
-18.5573 -12.8352 -5.63551
-15.0567 -12.6424 -1.59462
-19.2551 -12.6987 -4.5035
-18.5727 -10.9583 -2.18992
-16.6239 -11.3489 -0.972493
-16.2768 -10.9475 0.0744362
-16.8935 -11.7408 -2.44931
-18.8177 -11.317 -5.4439
-14.9504 -10.6446 0.370276
-15.2819 -12.4488 -2.38233
-15.2402 -13.5349 0.182775
-16.7529 -13.3187 1.29123
-15.3312 -11.8496 -1.50363
-17.364 -10.9008 -4.61921
-18.2912 -11.6789 -3.2859
-14.7298 -12.5541 0.144496
-16.2843 -12.3565 -1.28418
-15.5689 -12.4203 -1.6496
-16.9996 -12.2433 -2.17868
-17.3026 -13.6045 -0.125848
-15.5337 -12.2872 -1.27567
-16.9091 -11.4405 -4.63457
-15.5715 -11.2151 -3.38654
-14.8663 -11.4422 -4.00688
-18.0847 -11.9698 -2.73395
-15.1384 -12.4463 -0.68671
-15.7994 -11.1904 -1.48001
-16.7642 -11.1667 -4.53241
-16.739 -11.4935 -3.03324
-17.3294 -13.4251 -3.0482
-13.7349 -12.4228 -3.96985
-16.4259 -10.5337 -0.148404
-22.7266 -9.65536 -5.0991
-23.1317 -8.64875 -4.41214
-21.6078 -9.72892 -0.743781
-18.827 -10.2181 0.817686
-18.1336 -10.1043 0.61535
-17.0391 -11.1809 1.48372
-19.5068 -12.0892 -2.23517
-16.6894 -11.0707 -2.12489
-17.3791 -10.9673 0.253405
-16.4683 -11.2966 0.0420778
-18.5059 -11.6135 -4.0912
-16.9516 -11.5739 -1.05831
-17.611 -9.74686 -2.84207
-17.7852 -11.4907 -4.43762
-14.8674 -10.2005 -0.21802
-15.3146 -10.7845 -0.479324
-17.5578 -10.1886 -1.40716
-15.6544 -11.3234 -1.01991
-14.8772 -11.7835 -1.12993
-15.9362 -11.5043 0.700382
-17.4071 -10.8134 -4.20655
-17.2403 -12.5839 -6.13482
-16.7485 -11.187 -4.49488
-15.3993 -10.2467 -4.68202
-14.7536 -12.0599 -4.24294
-14.8775 -11.3756 -2.40504
-16.4117 -12.3036 -3.25101
-15.5748 -13.3083 -5.91843
-15.8088 -11.7516 -3.59559
-15.2829 -10.6436 -3.10339
-15.0801 -10.653 -0.822947
-21.2128 -10.0966 -4.81211
-22.9726 -8.37364 -5.24161
-16.5557 -10.593 -2.44075
-16.5613 -11.5855 -0.704898
-17.1073 -11.4632 0.628444
-17.5638 -11.4905 -0.934212
-14.7766 -10.6327 -0.126738
-16.2339 -12.9707 -0.701758
-16.3748 -13.3455 0.679056
-16.3059 -11.5353 -0.725932
-16.1309 -12.9813 -1.08364
-16.5919 -11.8027 -1.50888
-14.123 -13.3166 -0.959711
-15.5775 -12.3402 -2.881
-14.483 -10.3067 0.983656
-17.5497 -13.1176 -1.26175
-16.376 -12.2484 0.0308642
-16.124 -13.3705 0.437841
-15.7671 -13.2408 -4.6899
-21.5382 -10.4656 -4.85797
-21.6186 -11.2147 -4.39012
-20.8793 -8.42816 -5.07842
-20.0722 -10.0591 -1.57291
-21.5126 -10.3403 -2.11727
-16.0523 -12.4549 0.218335
-15.4386 -11.3017 1.03893
-14.8403 -10.5437 -3.43908
-17.6794 -9.64002 -3.22751
-15.8407 -13.1413 -2.20871
-16.6561 -11.2929 -3.048
-14.7661 -12.6662 -3.32324
-12.5278 -13.2317 -2.22322
-16.7501 -11.6686 -5.85798
-16.0982 -13.3411 -2.88436
-15.7781 -12.4165 -1.87199
-16.788 -11.4543 -1.49178
-15.4747 -12.8496 -1.76418
-17.5293 -10.8503 0.320025
-15.1752 -12.6683 0.149085
-16.5878 -9.4982 -2.41614
-16.9151 -11.3002 -0.232499
-16.6951 -12.0065 -1.77951
-14.7187 -11.3476 -1.95199
-16.0885 -12.2785 -1.31774
-14.0899 -13.8173 -2.71889
-16.799 -10.8109 -2.1228
-14.9101 -12.7164 -1.7052
-15.6567 -11.2252 -1.44665
-15.9924 -11.2593 -1.91835
-14.6788 -10.0231 1.33528
-20.1992 -10.0972 2.18555
-19.2856 -11.7855 0.399091
-21.5044 -12.1665 -0.135141
-18.5331 -8.96628 -2.18185
-18.3732 -10.1113 -1.08753
-21.912 -10.0498 -5.80172
-17.0644 -11.0736 -0.10614
-17.4361 -11.9016 -0.0895364
-15.6158 -10.7316 1.85024
-16.2343 -10.6942 0.370468
-16.3388 -11.0427 1.73929
-17.6154 -10.7889 -2.49914
-15.3842 -12.1922 0.959178
-15.1838 -11.658 -1.00601
-14.5457 -9.59049 -0.556158
-19.2392 -9.79272 -0.309489
-17.1183 -11.2309 1.09009
-20.9735 -10.5838 -4.5748
-14.4575 -12.3205 -0.72438
-16.1253 -10.5809 -0.682504
-16.6618 -11.9475 -0.16986
-15.6436 -12.2842 0.0572359
-16.5776 -11.4187 -1.42109
-16.7795 -12.8381 -2.02224
-15.0725 -12.4464 -0.604186
-16.5153 -9.37238 -2.51647
-14.7329 -11.7346 -1.06393
-14.5341 -10.9087 -1.9054
-16.571 -12.1935 -0.442231
-15.0338 -11.4374 -2.69128
-15.5741 -11.5692 -0.177622
-16.5963 -12.9454 -1.70971
-19.9235 -10.4114 -4.15494
-15.4212 -12.3843 -1.43647
-17.0104 -9.9025 -3.17003
-15.6859 -10.6218 -2.1462
-16.7976 -10.204 -2.34448
-14.2656 -11.4378 -1.0475
-19.3111 -10.469 -4.06239
-14.9069 -13.0589 -2.91481
-15.2481 -11.4567 -2.30552
-18.2642 -11.6002 -4.99579
-17.0647 -12.7346 -3.24363
-14.1135 -12.5935 -1.99589
-14.4594 -12.0299 -0.898938
-13.7937 -11.1535 -1.80015
-14.3646 -11.3458 -1.13265
-16.5665 -11.8464 -4.39392
-15.788 -10.8784 -2.77142
-17.1616 -10.6166 -3.39447
-15.6837 -11.6592 -2.18032
-15.9714 -9.73291 -2.65409
-13.8394 -12.0521 -3.21702
-16.3999 -11.2726 -3.37687
-16.2265 -13.48 -1.59444
-17.6934 -12.118 -2.20683
-16.3115 -11.3065 -3.28962
-16.554 -12.0017 -2.03805
-16.5944 -10.9164 -4.66969
-16.5576 -11.4912 -5.49885
-14.9609 -9.38375 -5.19296
-16.8348 -8.72239 -4.67718
-20.1121 -12.1393 -2.605
-14.2589 -12.5363 0.367573
-17.1779 -12.8242 -4.59519
-14.5729 -14.532 -2.10959
-15.133 -11.9177 -2.25741
-15.8791 -12.1233 -3.87885
-14.6838 -11.7148 -4.55317
-14.6251 -11.4658 -3.95143
-14.9727 -13.0189 -5.2466
-19.2681 -12.2876 0.731212
-20.2672 -11.0342 1.0709
-14.8392 -12.1774 -0.0604643
-16.6767 -9.96237 -1.59978
-16.9733 -11.3451 -1.29942
-16.1874 -9.30937 0.731506
-17.4932 -9.86066 -1.92199
-15.5795 -11.7503 0.0457917
-15.181 -11.5568 0.0140476
-18.1046 -11.0458 -0.707488
-20.9152 -12.8214 -2.92346
-20.2521 -11.5443 -0.00744972
-19.7437 -10.9443 -2.84012
-15.8948 -12.5066 -0.589902
-11.8424 -12.6632 -0.357543
-16.9046 -11.2357 -0.86765
-14.5632 -11.6857 -1.47537
-16.8174 -10.1471 -2.4772
-17.7614 -11.8109 -3.93879
-13.8083 -13.7237 -0.0062967
-15.3909 -11.5471 -2.31949
-15.7512 -9.16525 -2.22162
-13.3227 -12.1282 -1.57784
-13.4514 -9.50167 -1.92582
-14.8647 -10.3868 -2.34635
-16.3123 -10.1517 -3.18595
-15.088 -11.1476 -1.61578
-15.9056 -12.472 -1.31292
-16.0647 -11.2828 -5.12921
-18.4964 -12.0779 -3.6028
-17.0451 -10.3553 -3.90059
-18.5616 -11.9557 -2.17112
-16.3193 -12.6326 -1.43035
-15.6396 -11.4336 -2.61535
-17.5068 -12.5627 -4.6056
-16.4508 -12.6814 -4.27842
-16.701 -13.0249 -4.04764
-15.7837 -13.0173 -3.20572
-16.877 -12.8985 -3.51264
-15.7647 -12.5178 -2.23231
-15.3575 -9.20246 -0.651849
-15.8936 -11.6463 1.775
-18.6642 -11.388 0.0714362
-16.5837 -10.4336 1.15246
-19.6175 -13.342 0.666365
-19.798 -11.6209 0.203141
-17.0669 -11.8316 0.669813
-16.7466 -10.2921 -1.04902
-16.6313 -11.0984 -1.11948
-17.354 -10.9419 0.338259
-16.671 -13.8616 0.357472
-16.4719 -12.2661 0.429367
-15.8232 -12.7846 -1.72857
-16.0633 -9.95121 -2.92082
-15.8061 -10.7415 -1.40644
-15.6761 -11.0677 -2.59894
-14.6561 -11.2047 -2.04581
-15.917 -13.8065 -2.73814
-19.1133 -11.4215 -1.76787
-18.0683 -12.5575 -1.28059
-16.3243 -10.6895 -0.331578
-16.3881 -10.5733 0.202013
-16.5594 -12.8767 0.497036
-13.7888 -13.7951 -1.56391
-16.9396 -12.7499 -5.57825
-16.333 -13.4486 -2.42393
-15.6762 -11.5583 -6.29266
-13.8854 -12.7954 -1.52047
-13.4314 -12.3996 -3.77309
-17.3144 -10.1461 0.030252
-18.0555 -10.4509 -2.61108
-16.9021 -10.9571 -0.849921
-15.3998 -12.0936 -2.3796
-14.6136 -12.2201 -2.38192
-14.0027 -13.339 -1.24966
-15.146 -13.6537 -5.24885
-17.4728 -12.0831 -1.57803
-15.0853 -10.088 -3.5491
-16.918 -10.6869 -0.987204
-16.833 -9.5421 -1.60098
-16.7571 -10.2466 -2.42743
-15.1292 -10.2414 -2.35711
-15.9767 -11.6974 -0.733376
-15.74 -10.5814 -1.69865
-15.5765 -11.5215 -1.18597
-14.6506 -11.4609 -2.83679
-16.0797 -10.496 -1.99122
-15.7338 -10.2421 -0.937433
-15.7938 -11.3647 0.218101
-17.0665 -12.1465 1.60916
-18.5686 -10.8572 -4.82253
-16.046 -11.5972 -1.1476
-17.4281 -9.77981 -2.92428
-17.0134 -13.1689 -1.51524
-19.4426 -12.9832 -1.21932
-13.8222 -9.03167 4.26657
-15.039 -10.7359 2.32226
-16.2844 -10.8666 0.986468
-19.1464 -10.6492 -0.0607403
-17.6857 -10.4375 1.23304
-21.524 -8.89079 1.11381
-20.0502 -11.2525 0.15753
-14.0585 -11.2763 0.556889
-15.5508 -12.0336 -0.328396
-14.464 -11.5319 -1.97348
-16.778 -12.1303 -1.38951
-16.6011 -12.1443 0.626831
-17.6084 -10.1696 -2.01771
-15.362 -12.8417 1.30715
-18.8161 -10.057 -3.80952
-13.2792 -10.0269 -0.196928
-18.462 -12.5519 -2.24022
-20.1973 -10.3057 -1.19421
-19.0197 -12.0839 0.235434
-21.3808 -8.44265 -3.35681
-16.7613 -12.0047 -2.1544
-15.8143 -11.1894 -0.783834
-16.7124 -10.6329 -1.01604
-15.4493 -13.3636 -1.94092
-15.9234 -10.9119 -3.3995
-18.6128 -9.75757 -4.60002
-14.9962 -12.2875 -2.34081
-14.8786 -11.1091 -0.740109
-16.6081 -11.6215 -3.52247
-16.2034 -14.0049 0.317177
-16.5993 -11.4461 -2.08339
-15.123 -9.7213 -3.94864
-16.1272 -11.1176 -3.22315
-15.6263 -11.2949 -1.45856
-17.2139 -13.2795 -2.14682
-15.6987 -11.5364 -4.07101
-14.5992 -11.247 -1.97998
-15.4006 -13.3278 -4.47544
-16.1897 -12.6945 -5.08389
-14.8483 -11.2348 -4.19175
-12.8311 -11.4657 -3.25435
-17.4147 -11.1298 0.00247071
-17.0758 -12.7721 -1.31841
-15.7778 -12.7067 -0.522442
-15.0386 -12.733 -0.330123
-15.9605 -11.2402 -0.420564
-17.4731 -10.1841 1.25397
-15.0469 -9.95244 0.613811
-14.5398 -12.3273 0.780146
-21.6848 -10.7498 -0.925371
-20.8139 -11.245 -5.27313
-16.1882 -12.3913 -2.22394
-20.4972 -9.20477 -4.04965
-14.5566 -12.2415 -2.64353
-15.4161 -13.64 -2.52145
-15.794 -9.60657 -2.14302
-15.3401 -13.4604 -0.753316
-12.8528 -13.0473 -0.680888
-14.4544 -13.1332 -2.07
-16.191 -13.7818 -3.55942
-18.9502 -11.3121 -3.76813
-19.752 -11.037 -5.45899
-14.6476 -13.3794 -3.24998
-14.5437 -11.621 -1.89997
-14.8585 -11.7491 -2.07831
-15.4546 -11.6941 -0.505989
-16.0125 -12.5524 -1.97179
-17.6514 -10.873 -4.29064
-17.1437 -11.8427 -5.04232
-17.899 -10.6132 -5.15034
-17.396 -12.3866 -3.4441
-17.3022 -12.5724 -2.97852
-12.1294 -12.3319 -4.2235
-15.3563 -12.9972 -3.19595
-13.3078 -12.3455 -3.19417
-13.9824 -12.9296 -5.06814
-18.4886 -9.60436 -0.614708
-16.4262 -10.5578 0.943365
-15.2563 -12.1923 1.17769
-18.2209 -12.4988 -1.89537
-16.2127 -12.4398 0.674756
-17.7777 -12.8146 0.453457
-15.5986 -9.70794 0.00100841
-16.2838 -12.871 -2.12838
-16.4076 -13.3966 -0.931112
-16.086 -12.1068 -2.61254
-17.6056 -9.72799 -1.63804
-15.1451 -10.7029 -1.89261
-19.4537 -11.9143 -3.69621
-13.3328 -10.6485 -0.144563
-14.9667 -10.8193 -1.44239
-15.7774 -11.0728 -1.66676
-15.5087 -11.231 -2.0744
-15.5267 -11.1085 -1.5402
-15.0244 -11.1793 -4.29503
-14.5661 -12.4451 -2.70188
-15.0754 -10.8175 -2.40439
-17.4999 -10.5888 -3.57358
-17.5668 -11.1459 -3.10518
-14.3518 -12.4627 -3.0179
-14.3623 -13.1381 -1.9593
-14.8075 -11.5327 -2.31283
-14.307 -11.5222 -3.8956
-15.5373 -12.4795 -5.13155
-17.4231 -9.99302 0.0709177
-17.755 -12.6565 -0.934629
-16.1812 -9.97182 0.251342
-15.6476 -11.862 -2.50067
-18.5368 -11.9333 -0.813213
-15.204 -13.4049 -1.65616
-16.8689 -12.22 -0.87773
-16.1594 -12.4647 -1.43063
-14.8742 -12.1797 -3.01849
-16.037 -10.0019 -3.9926
-14.0099 -12.4119 -3.91966
-19.5738 -11.2548 0.663244
-17.7602 -10.5275 0.0532773
-18.0734 -10.5333 -0.810391
-16.2061 -12.5487 -0.111184
-18.6944 -12.9375 0.705177
-16.0532 -11.9248 -1.684
-22.455 -8.52689 -5.61747
-15.3332 -11.1641 -2.5965
-16.563 -10.5691 -0.930052
-15.5598 -11.4168 -2.37666
-15.73 -12.1247 -0.484489
-13.5241 -11.4016 -1.6938
-14.6188 -10.559 -1.97701
-17.1101 -11.1838 -1.80842
-14.2724 -10.9729 -3.82068
-16.6693 -10.286 -0.964954
-15.4158 -11.3946 -1.50081
-15.1205 -11.0598 -1.51918
-15.8351 -11.7076 -2.9146
-15.7125 -10.4939 0.149939
-16.2099 -11.8964 1.25155
-15.0514 -10.8639 -1.53769
-15.2965 -12.3697 -0.941964
-15.0935 -11.9463 0.276623
-15.4942 -13.1245 -0.0659695
-21.1741 -9.5378 -4.11319
-15.1052 -11.0621 -1.25167
-16.0581 -9.24416 -1.46932
-15.985 -10.9931 -1.07082
-14.9015 -11.1247 -1.18694
-15.2969 -11.4128 -1.02406
-14.0784 -12.8268 -3.37314
-14.4206 -11.0208 0.200553
-15.7023 -11.5346 -1.51535
-14.8829 -10.1249 -2.76619
-16.6442 -9.63738 3.58303
-20.5127 -9.33325 1.2969
-16.9505 -8.32118 1.51563
-15.2883 -10.7104 1.44858
-16.0167 -9.50544 2.53462
-16.7515 -9.94612 -0.187801
-17.7667 -10.125 0.182843
-16.4573 -12.3564 -0.150388
-19.0289 -10.4456 -0.278109
-19.9077 -10.9623 0.120753
-20.3189 -11.346 -0.175913
-17.6112 -10.3663 -0.992879
-20.1195 -10.2804 -0.978493
-21.2936 -12.1816 -0.990577
-16.3796 -13.389 1.15765
-14.4555 -12.7848 0.508907
-14.5237 -11.268 -1.00884
-14.2038 -11.6273 1.90146
-15.7533 -12.9433 -0.113563
-16.9119 -11.6299 -0.808548
-16.4418 -11.8063 -0.132633
-16.021 -13.0639 0.6045
-16.3056 -13.3747 0.486804
-15.5667 -9.25047 0.207449
-16.7999 -11.8119 -1.60326
-16.1623 -10.7367 -0.494578
-16.9808 -10.7471 -1.03522
-17.7428 -11.2519 -0.280582
-17.8278 -13.7009 0.194246
-18.8243 -11.8376 -1.92024
-16.4281 -10.6478 -0.111193
-18.718 -9.01345 -1.08673
-13.9148 -12.2133 -1.13624
-15.3947 -12.3346 0.197434
-17.2983 -11.7629 -2.13187
-19.3013 -11.611 0.093426
-17.1649 -10.5235 -1.2108
-16.4771 -11.935 -1.82185
-15.6466 -12.0795 -0.880022
-15.8967 -12.3167 -1.03306
-18.335 -10.7425 -1.09086
-15.2804 -11.7419 -0.94631
-20.3936 -9.02713 -1.58438
-14.5588 -11.8963 1.15915
-13.6067 -11.9089 -0.00477191
-14.9952 -10.4539 -1.80566
-14.7786 -10.63 -2.52204
-18.1819 -8.26808 -1.10227
-13.8471 -11.4543 -1.64969
-17.6065 -11.1405 -1.4276
-15.8064 -12.1733 -1.66335
-22.2307 -11.3332 -2.62698
-20.8206 -11.7251 -3.50182
-21.5467 -10.2017 -3.66053
-16.8264 -10.4157 -1.90231
-16.2927 -12.3206 -2.69492
-12.2647 -12.7697 -1.75215
-15.1177 -13.3499 -3.00876
-15.2586 -11.604 -1.6432
-16.4793 -11.3429 -2.93495
-14.8517 -9.40781 -2.76019
-18.9298 -10.767 -1.55082
-19.2469 -9.83527 -4.58329
-15.91 -11.6872 -2.11413
-15.9148 -11.8823 -1.761
-14.6404 -11.6939 -1.97288
-16.0036 -12.407 -1.2095
-15.488 -11.2395 -2.56004
-14.2124 -11.1954 -1.64807
-14.5672 -10.7576 -2.27759
-15.7477 -12.5405 -3.12272
-14.6899 -12.4874 -1.51127
-14.7614 -8.65159 -0.667049
-21.3563 -10.7453 -4.28144
-14.7607 -9.71582 -3.08382
-16.0299 -12.8892 -2.49986
-20.7058 -10.8692 -4.4474
-18.658 -11.2351 -3.42453
-19.8071 -9.96886 -5.79815
-19.7222 -8.83848 -3.3512
-22.9869 -10.5271 -5.2569
-13.7754 -12.5403 -4.1016
-19.7088 -11.3638 -5.57198
-14.9581 -11.6471 -3.92426
-15.4435 -13.8919 -1.89516
-20.9771 -10.3551 -4.48542
-20.0685 -12.3026 -2.89369
-15.7459 -11.7488 -1.94567
-15.5395 -13.6251 -2.85105
-16.9431 -13.016 -4.43613
-13.582 -12.0951 -2.59313
-15.1136 -12.3845 -3.47225
-19.3843 -12.0982 -4.10047
-19.7412 -10.2451 -5.48068
-15.8677 -13.5715 -4.04406
-16.566 -11.0767 -2.41293
-16.2579 -11.592 -3.69496
-16.03 -10.2856 -2.94062
-16.6701 -11.8305 -4.65374
-20.4326 -10.7764 -5.65791
-14.5576 -11.7797 -4.81085
-14.3819 -10.6943 -3.79447
-15.6532 -12.0279 -4.6466
-14.7577 -11.9076 -3.39225
-15.3466 -10.0591 -3.23864
-14.27 -11.1661 -3.77318
-16.8281 -10.454 -5.37593
-16.1694 -11.8664 -3.52683
-13.9792 -14.4063 -2.86438
-15.582 -11.7193 -4.89728
-16.0249 -10.8448 -5.80734
-17.513 -11.7255 -5.11052
-15.3166 -12.9657 -4.36404
-15.2369 -10.2931 -4.48133
-15.5828 -14.2294 -3.86615
-13.7565 -11.595 -2.55985
-15.7421 -12.5787 -4.86272
-20.0789 -8.45713 2.04079
-18.7441 -9.55616 2.61026
-21.0822 -8.35398 2.00472
-20.4757 -9.05653 1.88212
-20.5807 -9.60755 1.39083
-15.0203 -9.45332 1.49801
-21.7463 -8.90216 0.0214938
-18.0186 -11.2593 -1.17796
-16.4286 -10.9083 1.98991
-16.2129 -12.7242 0.755854
-17.7556 -10.6207 0.114339
-16.4915 -11.7387 -0.011708
-20.5709 -9.93762 -0.875538
-14.7708 -11.2135 0.477462
-15.5842 -12.3509 0.495818
-14.6914 -12.4558 1.39703
-15.306 -12.2155 -0.904948
-14.2434 -11.8489 -2.54587
-16.4538 -13.1085 -0.136891
-13.7473 -11.2608 -0.834388
-17.6505 -12.5862 -0.437187
-17.7957 -10.813 -0.684278
-16.0254 -11.701 0.0450162
-20.8512 -11.0301 -0.674481
-19.7325 -11.2338 -1.27284
-15.4217 -13.3608 -0.741346
-15.3806 -12.2151 -0.720882
-17.2689 -12.159 1.47872
-15.653 -10.8594 -0.777573
-17.73 -11.1233 -0.0513749
-14.3701 -13.0427 -0.479615
-16.8501 -11.332 -0.11771
-14.5874 -12.5403 -1.70167
-15.3517 -11.6076 -1.19404
-17.8894 -11.7491 -0.554488
-15.7286 -12.6071 -1.03756
-18.8463 -12.6657 -2.07006
-14.6152 -13.139 -0.976603
-20.9324 -11.7689 -2.17776
-16.3242 -10.5306 -1.72158
-15.5929 -10.9468 0.161965
-17.4845 -12.6274 -3.00768
-15.1965 -10.836 -0.674659
-17.2269 -12.2993 0.117904
-17.8794 -13.469 -2.23004
-15.7648 -13.4793 -0.236027
-15.3767 -12.6637 -2.61076
-20.1946 -11.9474 -2.51698
-15.7149 -11.209 -2.07645
-19.285 -10.3227 -2.93542
-15.6059 -10.886 -0.887185
-15.4131 -12.6928 -2.02551
-17.0331 -11.5046 -1.22739
-15.9835 -12.1768 -1.40033
-13.6611 -13.0607 -1.44644
-14.499 -11.2844 -2.32048
-17.0199 -11.9558 -3.2012
-14.137 -10.9253 -3.30272
-17.042 -11.0858 -0.157578
-15.9481 -11.2703 -2.97305
-15.1253 -10.979 -3.17379
-16.5959 -10.2644 -1.12603
-16.1594 -10.6597 -3.21272
-16.2206 -11.624 -1.951
-16.2738 -11.0538 -1.22127
-13.319 -11.6716 -2.09951
-16.8602 -13.2063 -2.93277
-14.0455 -12.2893 -1.5554
-16.7023 -12.0333 -1.56823
-15.5816 -12.792 -2.79493
-14.3328 -10.9279 -2.16405
-15.577 -9.98332 -2.4686
-16.321 -11.5629 -3.8216
-14.265 -12.1759 -2.16794
-15.082 -12.2926 -1.66322
-15.8678 -11.9594 0.143735
-13.5209 -10.8112 -2.12704
-14.6013 -12.0299 -1.08141
-17.0677 -11.4164 -1.69002
-14.1375 -13.0807 -3.36118
-15.5241 -14.0576 -3.35906
-14.4241 -12.238 -3.30676
-17.0161 -12.5368 -3.51065
-19.5002 -11.6324 -3.95709
-14.7647 -13.172 -2.5072
-16.331 -11.0839 -3.50838
-14.3302 -12.1183 -3.42053
-19.8794 -12.4387 -3.58794
-16.0935 -10.2661 -2.63552
-15.305 -9.60577 -3.83381
-13.6886 -10.5819 -1.50512
-17.661 -10.5443 -3.01856
-13.9821 -10.8761 -2.84165
-15.8078 -14.0291 -3.97848
-18.6953 -12.121 -4.73433
-19.0562 -10.5657 -3.77197
-17.1729 -13.092 -5.1665
-17.8693 -11.7994 -4.56108
-14.2725 -13.0969 -4.04972
-19.1321 -12.9337 -3.09766
-15.657 -12.2327 -2.26923
-14.8557 -11.8044 -3.72569
-15.9808 -11.7933 -3.56717
-17.6876 -11.4829 -4.1045
-18.232 -10.523 -4.1821
-16.4078 -12.4395 -2.59779
-19.0068 -12.0683 -4.55699
-18.6982 -12.3317 -4.4057
-16.5193 -12.1664 -4.54298
-17.365 -10.2043 -3.45966
-14.0295 -13.2839 -2.02039
-15.9763 -11.3541 -4.29145
-13.1984 -12.2329 -2.24847
-15.0494 -11.7351 -4.12398
-16.4483 -11.8746 -4.09994
-16.8986 -13.5472 -3.20397
-13.5165 -12.0975 -3.35292
-14.9724 -12.4922 -4.01636
-14.538 -11.8692 -4.90001
-14.0973 -12.1554 -3.01763
-18.2224 -9.84342 3.03148
-16.6249 -10.1635 -0.331374
-18.0967 -10.4573 0.745789
-16.3243 -10.2677 -0.0258453
-18.9703 -10.8357 1.66272
-16.1116 -11.8645 0.604611
-16.9164 -12.3041 0.773126
-17.2099 -12.071 1.73287
-15.4386 -11.1774 -0.961076
-14.4441 -12.3715 -0.485103
-15.2785 -10.4055 0.985159
-17.6589 -10.5595 0.797381
-20.2133 -11.3964 -0.336346
-15.0344 -11.3853 1.8557
-16.9236 -11.7335 -0.0147352
-16.7811 -10.6269 -1.52545
-16.4897 -11.2865 0.604618
-16.8424 -11.5459 -0.932635
-14.452 -12.1251 -0.67647
-15.7525 -11.1944 -0.675807
-16.1047 -10.7381 -1.35765
-16.0027 -13.2618 -1.22326
-14.7071 -11.5743 -1.28993
-15.4124 -11.921 -0.666383
-20.9829 -10.5911 -3.18668
-17.6703 -10.5046 -3.38379
-19.9973 -9.91731 -4.27303
-16.4232 -13.3104 -2.67708
-18.9972 -11.2972 -2.19783
-15.2266 -12.0558 -2.50129
-14.4635 -10.3597 -0.500868
-16.5069 -13.2097 -1.17947
-16.0182 -11.0728 -4.21721
-15.6201 -10.7008 -1.59169
-15.0251 -10.9075 -1.46635
-18.7621 -10.5914 -2.66081
-18.0151 -11.9215 -2.62763
-16.2619 -11.5449 -3.58121
-14.5109 -11.3457 -1.38772
-17.4201 -10.0624 -2.35113
-15.869 -12.6644 -2.65166
-16.2521 -13.3382 -1.82749
-14.3467 -11.9457 -3.61531
-15.3773 -11.0199 -4.2466
-16.1226 -11.2803 -2.63959
-14.4463 -12.973 -0.708574
-14.2534 -11.5967 -2.63415
-17.085 -10.5474 -3.36666
-14.9301 -14.9656 -2.96688
-13.6939 -11.7294 -4.26902
-17.7017 -10.8089 -2.60152
-17.1274 -10.9926 -4.34099
-17.4031 -11.4514 -3.10263
-17.5567 -11.2719 -2.52009
-16.8185 -9.74828 -6.04504
-14.5845 -11.1332 -4.27288
-16.9471 -12.0842 -4.04999
-16.5172 -14.2567 -4.52964
-18.3108 -11.5023 -4.12626
-16.4094 -9.8586 -6.45032
-15.7853 -12.7071 -3.1361
-14.6714 -11.4713 -4.3271
-16.157 -11.7604 -2.54446
-17.3084 -10.8752 -3.7611
-14.6607 -12.7481 -3.75483
-13.6356 -11.4428 -5.20414
-15.9177 -11.6161 -3.84056
-13.8406 -12.6687 -4.02845
-16.0487 -12.6659 -3.06046
-13.3231 -12.0852 -3.08753
-16.0288 -6.11673 2.57058
-19.8652 -7.31461 -0.178969
-15.4652 -11.5834 0.993554
-15.42 -12.9005 -0.27466
-19.3635 -10.5982 1.96719
-18.107 -11.2271 1.37878
-16.5372 -11.9294 1.32279
-15.6643 -11.7309 0.434696
-14.9683 -11.6312 -1.37151
-15.0429 -10.0365 0.248103
-17.8246 -10.6185 -2.82235
-18.7019 -11.0494 -3.22211
-17.09 -10.8492 -1.55999
-14.6114 -10.9986 -1.567
-14.0998 -10.9694 -3.15575
-15.7356 -10.9752 -1.3782
-15.5241 -13.096 -0.412388
-17.7154 -11.9441 -1.08758
-17.4035 -10.4916 -2.02863
-16.515 -11.8494 -1.18761
-15.3885 -11.0095 -2.22608
-15.4427 -12.5712 -2.60217
-16.396 -10.6805 -2.60535
-15.0471 -11.6806 -2.02793
-15.312 -11.9604 -1.92382
-13.6259 -10.839 -0.657209
-17.3334 -8.31061 -3.02911
-22.801 -9.34036 -5.58997
-15.3854 -10.4965 -2.15272
-17.324 -11.0914 -1.24554
-13.3449 -11.8912 -3.45908
-14.1153 -10.4442 -3.83142
-15.8245 -11.3948 -2.84839
-15.5678 -11.1771 -3.47025
-14.3299 -13.4746 -1.33193
-19.1968 -9.09741 -5.68007
-12.7707 -11.5509 -3.14137
-15.961 -10.5065 -4.44166
-13.9712 -13.4719 -4.33148
-15.1923 -12.1346 -1.63509
-16.1869 -10.6577 -2.8162
-14.231 -11.5349 -5.58108
-16.2021 -11.1437 -2.9075
-16.0328 -11.5256 -4.46491
-16.1128 -12.8408 -5.50099
-12.0087 -13.7965 -2.7527
-11.9962 -11.0951 -4.21406
-14.0921 -11.4538 0.593493
-16.8165 -10.6128 -0.315415
-14.962 -12.1597 -2.50295
-14.6662 -12.064 1.50864
-15.671 -10.5641 -0.104754
-15.8842 -12.4968 -0.302976
-17.6157 -12.6736 -1.29253
-17.1914 -11.1303 1.01629
-17.3374 -10.9498 -1.67878
-15.5952 -11.8798 -0.743796
-16.1514 -11.095 -1.04404
-17.2461 -9.93993 -1.06878
-15.5319 -11.4683 -3.10894
-16.6965 -12.1759 -0.33292
-15.3743 -10.2776 -0.940679
-17.1614 -11.0876 -2.72793
-16.0148 -11.5386 -1.67489
-20.628 -9.50319 -2.56011
-17.0069 -13.8057 -1.00501
-14.6867 -11.6729 -3.2718
-15.4278 -12.7805 -2.52354
-15.7624 -8.21375 -2.0747
-15.44 -12.2716 -1.3365
-14.5048 -12.2967 -1.1001
-14.628 -12.7368 -3.18979
-15.1743 -13.4545 -2.98431
-15.551 -12.164 -1.60294
-15.133 -11.4039 -1.23579
-14.4243 -11.6685 -2.12407
-15.1465 -13.5341 -2.64873
-15.6716 -12.5958 -3.71994
-13.4961 -11.5117 -2.6142
-15.5548 -10.3409 -0.623856
-15.4042 -10.8859 -2.17475
-14.8508 -11.6599 -3.00646
-17.5453 -10.7964 -3.09287
-18.3349 -11.7335 -1.45415
-15.7383 -10.1795 0.670196
-15.6766 -10.9192 -1.79529
-14.2595 -11.6543 -1.52099
-15.2294 -10.8636 -0.0617747
-16.7425 -11.8343 -1.55369
-17.3121 -10.2762 -1.69385
-15.5567 -12.9108 -1.72788
-18.3639 -10.4316 -1.78469
-14.5729 -11.0683 -3.01422
-14.7967 -10.6373 -1.44487
-15.1739 -12.6511 -1.8057
-23.0295 -12.9552 -6.03425
-15.3886 -12.6203 -3.08928
-14.9927 -13.3246 -1.53969
-14.5737 -11.8298 -1.9495
-15.8285 -11.3394 -4.53764
-14.7114 -13.0584 -4.9518
-19.0141 -10.0126 -0.42733
-16.3424 -11.9897 -0.208644
