-17.542 -12.1389 -4.16029
-18.9073 -9.75336 -3.49957
-17.9613 -9.89957 -4.88363
-17.739 -11.0065 -4.08728
-17.3076 -13.5213 -4.67063
-14.5124 -12.5964 -4.30917
-18.2013 -11.5876 -5.22352
-18.5605 -10.5132 -1.7736
-18.2316 -12.6861 -4.28569
-18.5512 -13.7525 -4.02633
-21.6649 -9.17151 -5.13924
-16.8286 -11.6488 -3.29555
-21.3662 -12.1527 -3.70255
-15.9474 -11.9257 -2.22568
-17.7311 -11.4888 -2.54908
-14.915 -12.6169 -5.00182
-15.6793 -9.60777 -1.79441
-15.4946 -11.775 -1.79073
-15.0025 -12.4064 -2.91772
-15.9164 -11.9118 -1.87607
-18.9469 -11.6432 -1.46178
-15.9776 -11.755 -2.81651
-12.8246 -13.088 -2.95628
-17.0719 -10.1354 -1.6385
-20.0888 -10.9 -0.501689
-18.2804 -12.1297 -0.340021
-15.473 -11.3943 -2.5861
-20.2155 -9.71775 -0.502357
-15.4057 -12.3802 -1.95582
-18.0034 -10.9311 -1.3391
-18.2082 -11.6664 -0.57929
-17.8214 -10.7414 -2.1522
-18.8311 -12.2401 -0.541368
-15.444 -12.9468 -1.54163
-17.7514 -11.9615 0.49443
-16.3452 -9.72234 -0.372366
-19.3066 -12.4325 -3.27342
-18.6456 -9.6458 -3.40127
-17.8166 -12.5723 -3.97766
-17.4849 -11.8323 -6.08019
-20.9972 -11.1225 -2.42524
-15.4691 -10.5797 -2.87172
-16.5025 -12.1807 -3.66511
-15.748 -11.7184 -3.99941
-17.7165 -10.9073 -2.28687
-16.9814 -10.7567 -2.60439
-17.786 -11.6073 -4.03818
-16.7596 -8.97165 -1.71733
-17.3857 -11.0112 -2.38457
-13.2314 -12.5582 -1.0877
-15.6273 -12.2345 -0.702184
-20.6285 -9.77052 0.659732
-17.6007 -10.7535 -0.526654
-14.7411 -10.3 -0.553528
-17.8272 -12.3521 0.542254
-17.4429 -11.8114 -3.15831
-17.5144 -11.119 2.87612
-15.7518 -11.7231 -0.245077
-15.4091 -10.818 -2.89716
-14.2886 -10.4147 -3.17711
-13.8018 -11.2282 -1.23732
-14.9058 -13.1218 -5.00261
-17.7322 -10.4747 -0.273993
-15.8491 -12.3661 -3.0388
-15.3076 -10.9057 -2.90622
-14.4489 -11.9784 -0.383041
-15.8531 -11.5077 -2.58342
-18.8046 -10.1554 -2.0572
-15.6941 -10.2897 -2.49734
-18.4105 -10.1235 0.598114
-14.713 -11.0543 -0.685532
-16.6008 -10.522 -1.18549
-14.9759 -11.7082 -1.04515
-17.9564 -9.2942 0.001422
-18.1546 -12.8303 0.638976
-15.7707 -11.6001 -4.30428
-18.5803 -11.3761 -4.01317
-15.9104 -13.6657 -4.65875
-19.2734 -8.85215 -0.244046
-16.0128 -13.9634 -2.18104
-15.668 -10.3219 -0.997201
-18.1008 -9.10279 -0.219549
-15.6626 -12.1548 -3.60611
-15.7065 -12.2504 -3.45441
-17.813 -9.7937 -1.03156
-16.8491 -9.80022 -0.8383
-14.0628 -11.5997 -6.0868
-16.1178 -10.4688 -3.42328
-16.277 -9.98859 -1.23071
-17.2407 -10.6419 -2.17421
-15.2917 -11.1286 -0.316191
-18.6616 -10.9087 1.02963
-17.1368 -10.748 -4.12369
-17.4466 -11.8429 -2.7933
-17.2315 -12.5135 -1.17064
-17.2812 -12.0019 -4.39829
-16.5183 -10.2266 -2.99066
-17.2165 -11.51 -2.75716
-16.9689 -10.0227 -2.1306
-17.0269 -11.2129 -1.44307
-16.3783 -10.301 -2.60558
-20.6148 -12.0519 -3.89612
-20.6142 -11.6053 -3.28606
-20.8067 -11.1789 -3.9551
-17.0387 -12.6328 -4.65775
-18.4654 -10.8311 -2.24073
-17.7449 -12.0208 -4.29866
-17.5073 -11.11 -6.0513
-20.9515 -9.60655 -0.118634
-14.0538 -10.9095 -3.12283
-16.1182 -9.78398 -2.50358
-16.9432 -10.362 -2.84542
-16.5332 -11.4591 -2.2099
-17.228 -11.626 -3.04849
-17.5406 -12.2975 -2.25158
-20.8165 -11.4514 -1.66376
-20.2951 -10.4652 -1.58618
-16.1811 -10.8417 -0.221741
-18.3966 -10.8958 -1.30619
-15.6569 -12.1147 -1.84806
-17.6356 -12.3787 -3.24345
-15.8991 -12.1555 -5.04683
-17.4732 -10.2272 -0.752061
-15.1348 -12.5985 -0.387621
-13.8495 -12.8476 -3.73191
-16.6083 -10.2166 -0.810583
-16.8241 -9.59159 0.56144
-14.6709 -13.3893 -3.68316
-14.259 -11.6444 -4.40187
-14.8913 -10.6462 -5.15339
-18.3009 -12.4098 0.213194
-17.4536 -12.4126 -0.405594
-16.5623 -10.6607 0.536956
-17.9442 -12.0099 -1.79457
-15.1334 -11.3773 -0.659341
-16.2738 -11.2452 0.0652048
-15.5511 -9.4824 -1.2284
-14.5204 -11.8195 -0.771465
-15.8894 -10.9034 0.0335943
-14.0781 -11.721 0.593933
-19.4603 -11.4534 -4.8818
-18.5274 -10.8181 -4.51168
-16.4529 -11.4736 -5.06923
-18.0351 -13.5399 -2.52604
-16.0156 -11.2769 -3.36725
-16.3356 -13.4484 -5.46639
-16.7909 -9.58211 -5.59389
-19.6202 -9.27904 -1.33836
-16.6798 -7.66301 -3.08718
-16.2071 -9.55655 -0.572937
-16.4438 -11.9464 -1.71685
-15.9495 -10.9282 -2.70858
-15.9512 -9.34138 -2.68911
-16.2566 -11.291 -2.35567
-20.5027 -11.4187 -0.0236563
-14.5134 -12.7198 -3.59388
-15.2609 -11.0316 -2.62028
-16.1618 -12.6259 -2.89969
-18.0757 -8.90528 0.0380878
-15.6104 -11.854 -3.49641
-13.3662 -11.3466 -4.01165
-15.9765 -10.9217 -0.919653
-17.7278 -11.8784 0.0588841
-14.9828 -11.6837 -1.69277
-17.7529 -10.3289 -0.8502
-16.4725 -11.4054 1.18152
-20.1244 -10.1972 -0.136975
-16.512 -9.74398 -1.30531
-15.0144 -13.4758 0.571208
-17.8853 -11.7816 1.74453
-15.1485 -12.1855 -1.90397
-15.0784 -11.5816 -0.768781
-15.0583 -11.7107 0.237473
-16.2348 -10.6152 -0.0617009
-15.4042 -11.7747 -0.13527
-15.5878 -11.3115 0.797828
-15.1172 -10.9233 -1.40296
-14.5996 -12.2874 -2.51428
-15.9092 -11.8548 0.124109
-20.2242 -9.01093 -2.17255
-18.1983 -13.2296 -4.67715
-17.8199 -11.0293 -3.12995
-18.1069 -10.1855 -4.83784
-20.4251 -10.9395 -1.37912
-17.0227 -11.7398 -2.86959
-15.6434 -11.045 -1.73679
-21.9538 -9.55101 2.28982
-17.9186 -12.2882 -1.05236
-20.4822 -11.2555 -1.51019
-14.581 -11.4456 -2.56199
-18.6672 -11.2007 -0.431466
-16.0604 -10.4858 1.21577
-12.6273 -13.4801 -1.43589
-17.4017 -11.3691 -1.67197
-14.7562 -12.4167 -3.7362
-18.1645 -11.6053 0.547084
-16.9416 -11.1473 -0.514441
-17.5845 -10.4085 -0.762989
-17.5558 -11.508 -1.57515
-18.7999 -11.1916 -0.296686
-16.3686 -12.637 -0.626906
-16.0874 -11.8431 -1.02108
-16.9588 -13.0518 0.151181
-15.4228 -11.597 -0.758398
-17.5005 -11.1601 -2.85409
-18.6859 -10.3253 -3.02512
-15.4269 -13.4895 -3.86903
-19.2993 -9.50199 1.58141
-14.6217 -11.5883 -4.59833
-16.666 -10.3452 -2.13003
-18.9085 -10.2923 1.1921
-18.4324 -10.9453 -1.46296
-19.6262 -10.7108 1.16374
-19.1707 -10.8577 -0.473456
-14.209 -13.2948 -2.71621
-15.9133 -11.5093 -0.609128
-17.739 -11.9485 0.378607
-19.144 -12.6052 -4.56383
-17.4448 -10.5436 -2.51697
-16.5723 -10.884 -0.889045
-18.6887 -11.6745 -0.883
-18.5699 -10.923 -0.999368
-13.5684 -13.6823 -1.58014
-14.0221 -10.5557 -1.11384
-14.1671 -10.4618 -2.34929
-21.1094 -9.80059 1.50127
-22.1449 -9.29532 0.496973
-13.2988 -11.6756 -2.98422
-16.9507 -10.2475 -0.65409
-18.5607 -10.4743 -0.0341783
-16.0821 -13.104 -1.02795
-15.0724 -11.4076 -1.02515
-15.4385 -11.4339 -2.50413
-13.9248 -11.4687 0.148246
-16.27 -12.1687 -1.73419
-13.9408 -10.7434 -1.27708
-17.5586 -11.9774 0.00944189
-17.5639 -10.5075 -0.7049
-15.099 -12.4456 -3.27433
-15.1266 -11.097 -0.861749
-15.3723 -10.7846 0.0949494
-14.861 -12.0351 -0.933505
-16.5883 -10.7276 -1.65987
-17.5075 -12.1665 -2.96386
-20.5646 -9.90722 1.27284
-22.6591 -10.924 -1.61446
-21.2518 -9.803 -2.85495
-21.6892 -9.33024 0.582666
-17.9341 -9.89359 -3.95568
-19.8465 -10.9013 -1.90469
-18.8757 -10.2662 1.03214
-19.8131 -10.3877 0.499444
-18.7211 -11.6003 -0.0380666
-17.3489 -12.2178 -4.81288
-17.0647 -10.4498 -0.707771
-17.5879 -10.3177 -1.40047
-15.2855 -10.3162 -3.50649
-16.9477 -11.4204 -1.81711
-16.51 -12.7581 -3.83056
-15.4675 -11.2353 -1.75306
-16.5691 -10.9003 -1.7124
-17.4127 -11.6963 -0.174725
-17.8124 -13.5069 -1.90316
-17.4238 -11.2771 0.0673601
-14.9613 -11.6572 -3.20264
-14.7074 -14.2518 -3.41793
-22.5254 -9.58584 0.735682
-19.9622 -12.368 -3.02003
-20.3414 -10.6993 0.111921
-19.3514 -11.015 -0.557149
-19.7444 -9.92522 -0.471992
-17.3193 -12.1374 -1.90719
-17.1376 -10.4207 -3.55978
-17.2735 -10.4263 -1.25895
-16.9633 -10.5013 0.0522356
-14.9831 -9.14836 -1.49562
-17.5771 -9.31909 -1.29321
-15.2449 -11.2948 -2.49492
-15.3936 -10.2896 -0.773656
-16.1315 -10.9659 -1.47245
-16.0749 -10.5775 -2.32582
-16.6346 -10.826 -1.26106
-16.0509 -10.3156 -0.942407
-15.7778 -11.2396 1.21929
-15.0228 -12.4929 1.16355
-15.5377 -12.1074 1.72469
-15.2876 -11.2725 1.30571
-15.7483 -11.7731 -0.584784
-16.5833 -11.496 -1.70414
-16.1925 -11.4065 -1.35974
-15.9751 -11.4803 -1.08483
-14.7657 -12.8744 -2.6928
-14.4424 -10.9703 0.193974
-15.769 -10.8822 -3.27209
-20.009 -10.4041 -2.90926
-18.1869 -9.37679 0.0730013
-17.8702 -9.77046 -4.65799
-18.8139 -11.0343 -1.57397
-18.4416 -10.0312 -0.117762
-18.004 -10.2903 0.309255
-18.9521 -10.9934 0.635949
-15.8389 -12.6874 -2.11248
-16.6741 -13.4397 1.10432
-16.1906 -12.1681 -1.75657
-12.069 -13.2281 -3.84619
-22.1276 -9.96717 1.72889
-15.8142 -11.2984 1.33625
-17.6737 -12.8482 -1.03712
-15.7784 -9.6479 -0.828273
-14.415 -12.6394 1.18021
-14.3196 -10.0217 -1.22969
-19.2274 -10.4027 -1.57109
-16.6384 -12.6744 -3.00243
-15.091 -9.16555 -1.74888
-13.6408 -11.8331 -4.10352
-18.5333 -10.7944 -0.980478
-16.5733 -10.9964 -0.714666
-15.4244 -10.0316 -2.13457
-15.8829 -10.2295 -1.0782
-16.4648 -11.8284 -2.63596
-15.5561 -12.9412 -0.288687
-16.8345 -12.8992 -0.894265
-16.6648 -11.3462 -1.35898
-17.6431 -10.3174 -3.1676
-15.2829 -11.9451 -1.13649
-14.8274 -9.67228 -0.822157
-15.8317 -12.7886 -2.47136
-21.5028 -9.3039 -0.0354925
-15.8403 -11.1842 -1.29559
-17.5289 -10.7193 1.03809
-16.5697 -12.4025 -1.44798
-15.297 -11.2943 -2.10138
-20.5952 -10.6875 0.776724
-21.3595 -10.1342 0.667928
-15.0851 -9.61174 -0.0631258
-21.2995 -10.6396 -2.6806
-21.1612 -9.93392 -5.10309
-18.0383 -10.191 -0.747377
-21.2702 -9.30429 -2.30873
-20.3133 -11.835 -4.78348
-17.2148 -12.399 -0.332314
-16.5184 -11.6716 -1.51256
-16.188 -11.6259 -1.89977
-17.3568 -12.2682 -4.08751
-16.0078 -11.8501 -0.45871
-18.1284 -12.7185 -4.36581
-19.0491 -11.9495 -1.75957
-17.7357 -11.8052 -4.31217
-14.3274 -13.3187 -1.58921
-17.5434 -10.6747 -0.282194
-16.496 -10.5301 -3.74829
-16.6881 -11.9861 -1.40158
-15.8195 -12.1136 -2.17195
-17.0601 -12.2374 -3.44968
-14.7995 -11.554 -1.69082
-16.0408 -10.5335 -0.694482
-15.6186 -10.6491 -4.02364
-15.9202 -12.0683 -4.79852
-17.3175 -12.1538 -3.19904
-21.2639 -10.3299 0.42786
-23.0775 -12.2998 0.0781406
-20.9405 -9.5874 -1.8655
-21.2841 -10.0853 -0.845208
-21.7716 -10.1774 1.68693
-21.4109 -8.98385 1.41927
-21.4614 -11.388 -0.577918
-19.0581 -9.69093 0.453171
-18.9659 -9.03943 0.465489
-17.0183 -9.83533 -2.52987
-16.919 -11.8259 -2.0481
-17.8673 -11.5899 -1.43634
-17.0454 -12.0692 0.75541
-15.2665 -11.2239 0.0881232
-17.8312 -9.54306 -2.32252
-15.5421 -12.2736 -1.89767
-15.8836 -13.2024 0.875536
-19.769 -9.6348 -3.20031
-17.27 -12.3256 -3.66143
-15.096 -11.2235 -0.525476
-17.3809 -11.7619 -2.024
-15.8891 -11.3429 -0.0813143
-17.5288 -10.6589 -2.31012
-17.5976 -10.6172 -2.19078
-14.257 -12.1526 0.257153
-22.0556 -12.4009 1.78658
-21.0958 -10.1407 2.13624
-20.9313 -9.63646 -2.05929
-18.8812 -9.68418 1.08547
-17.4389 -11.0594 -1.40999
-17.1603 -11.5948 0.169627
-17.2223 -10.6573 -3.43904
-18.8475 -11.8388 -0.921398
-16.4794 -11.3872 -0.429819
-17.7894 -12.7819 -1.26617
-16.8279 -11.1287 -1.00151
-14.9369 -11.1439 -0.487569
-15.2907 -11.8577 -2.42465
-16.519 -10.3832 2.39065
-15.5563 -12.3192 -1.32565
-14.7526 -12.4831 -3.40434
-15.9654 -12.4476 -2.04633
-21.3813 -12.6373 1.23213
-17.5365 -10.6851 -0.320704
-16.2371 -11.471 -1.1237
-17.7446 -11.8458 0.216659
-17.4353 -10.978 -0.866756
-17.9786 -10.497 -3.54725
-17.2274 -11.1982 -3.4739
-14.5128 -9.90135 0.716388
-15.8171 -11.3032 0.542262
-16.1918 -9.53648 -0.618781
-15.2005 -13.8267 -0.387257
-15.8897 -11.622 -2.56126
-15.8647 -10.3569 0.0509627
-15.1396 -11.3193 -2.41853
-19.5168 -10.8452 -2.11271
-18.7874 -9.24878 0.689469
-17.9021 -10.4925 -4.22258
-17.0964 -11.757 -1.26233
-16.4202 -10.1453 -3.16479
-14.2229 -11.2821 -2.4436
-15.7845 -10.5466 -1.17914
-15.0438 -12.2269 -2.30832
-13.3907 -12.5121 -4.71515
-18.7776 -10.421 0.494404
-17.4815 -10.3544 -3.5266
-15.7886 -11.5432 -3.72233
-16.2334 -11.1394 -1.39493
-16.4441 -11.8158 -3.95709
-16.326 -10.6835 -1.07415
-18.5687 -12.5569 -0.835471
-16.8267 -11.1953 0.135025
-16.3124 -10.1692 -2.91652
-16.0904 -11.5027 -1.43507
-18.4967 -8.40974 -1.61646
-15.4969 -8.79577 0.180138
-21.0181 -10.4817 2.25323
-19.4856 -11.061 -1.57299
-19.8826 -10.8839 -1.27769
-17.6318 -9.35791 -0.275428
-16.9993 -10.3806 1.14798
-18.8213 -11.0125 -0.37236
-16.9643 -13.3495 0.83748
-17.2125 -10.6108 0.791024
-16.2383 -9.41003 1.09659
-22.1537 -10.1683 -3.30585
-16.0083 -11.5991 -1.73482
-17.1464 -11.6283 -2.383
-16.9241 -9.476 0.5752
-16.982 -10.7151 -1.80891
-17.8128 -12.767 -1.08611
-16.9436 -10.7877 -1.5562
-18.2117 -9.34366 -2.9468
-17.252 -9.26218 -1.90444
-16.7558 -10.9367 0.294823
-18.1996 -12.2235 -4.21765
-16.4278 -12.7213 0.328857
-19.5991 -11.0371 -3.70934
-17.0253 -12.0594 -0.857247
-18.6255 -11.8672 -3.92464
-21.2409 -8.76171 -2.95773
-15.2027 -11.4232 -0.0877018
-14.6841 -12.2783 -0.898021
-14.3527 -11.078 -1.30179
-15.4424 -12.3137 0.839152
-16.3483 -9.92381 -2.28333
-16.1025 -10.6735 -0.779007
-15.6717 -12.3147 1.70476
-17.9576 -10.7087 -3.05151
-18.3728 -10.4642 -2.52039
-16.1151 -12.517 0.201797
-16.0799 -11.0224 -1.5543
-17.862 -12.4211 -1.74356
-20.248 -10.5948 -5.82872
-17.4743 -10.6499 -3.63062
-15.3227 -11.562 -3.56607
-16.4253 -11.4789 -2.32841
-18.4663 -11.6057 -3.04993
-16.7023 -11.0196 -3.78871
-14.8151 -8.53754 -3.05083
-16.1506 -10.8856 -3.37974
-15.1004 -12.7547 -3.08126
-13.2777 -11.1072 -3.66592
-11.7131 -13.3083 -3.77897
-20.051 -8.84661 -0.0484759
-18.7114 -11.7512 1.51017
-19.2827 -11.7993 -0.886778
-19.9042 -10.3761 0.173541
-17.4331 -11.3211 0.862972
-19.0233 -10.7962 -1.16953
-19.0771 -12.9337 0.18369
-20.4319 -11.6653 -0.404312
-17.4731 -10.1124 0.925978
-17.4376 -11.131 -1.03524
-17.6796 -10.4668 1.24778
-18.1761 -11.7007 0.422231
-16.2675 -9.72272 1.4651
-17.4172 -9.49983 -0.50864
-16.2872 -11.7944 0.641387
-15.58 -11.3039 -1.38272
-16.7878 -11.8112 1.43664
-17.9035 -11.5752 -3.3595
-16.0376 -11.7109 -0.462042
-16.922 -10.3145 -1.55938
-17.3551 -11.804 -1.39703
-15.6305 -12.341 -1.50227
-16.7655 -10.8867 -2.45981
-15.298 -11.8678 -2.84011
-15.4508 -12.0619 -1.22544
-18.9448 -11.112 -2.60068
-15.6493 -11.5551 -3.75558
-16.8323 -13.8549 -2.8699
-15.0655 -12.9047 -3.05378
-16.5223 -11.9308 -3.12984
-14.651 -11.7111 -2.87121
-13.7098 -12.758 -2.93618
-13.3213 -11.008 -1.66633
-15.6093 -13.2067 -2.56204
-18.3176 -8.37439 0.117066
-19.3628 -10.2122 0.710316
-17.5792 -13.7162 1.14954
-20.4716 -10.6214 -1.52508
-17.2358 -11.5399 0.248455
-19.7262 -10.6959 -2.60843
-17.4724 -10.014 -0.118211
-16.7405 -9.00057 -0.111834
-19.4227 -11.0958 -0.862711
-16.71 -11.9807 -0.50809
-15.0195 -10.334 1.05317
-16.508 -11.469 1.0146
-15.1421 -10.7391 -0.05019
-16.6482 -13.3429 -0.677251
-17.6291 -12.1036 -0.252791
-18.3827 -10.6751 -3.34193
-17.5656 -10.1365 -2.06168
-16.2881 -10.0747 -1.27211
-16.963 -12.6837 -4.16126
-18.6091 -11.2724 -4.35906
-14.0861 -11.7421 -3.52634
-16.6349 -13.8903 -3.1314
-14.9703 -11.1338 -4.83178
-16.0124 -12.7385 -4.09322
-14.6775 -11.9227 -3.74285
-20.7123 -12.392 -0.210737
-20.903 -11.6929 -0.586976
-18.8161 -11.4636 0.187734
-19.4714 -11.4748 1.56596
-17.3131 -8.95962 -1.15309
-17.2994 -12.6211 0.137221
-15.5255 -11.5896 0.121376
-14.8163 -12.2437 -0.0101824
-17.0399 -11.0697 -1.68308
-17.2328 -9.89342 -4.18264
-18.1509 -11.8656 -0.448631
-16.5482 -11.8136 -0.833849
-17.2621 -12.2825 -0.147202
-16.2058 -11.6624 -1.64358
-15.2015 -12.2897 0.598607
-17.0019 -13.9341 -1.98667
-15.0499 -12.1121 -4.33569
-17.3761 -11.8655 -0.379444
-15.2297 -11.3877 -1.00886
-15.9022 -11.5035 -2.3512
-13.9096 -13.0478 -1.2712
-17.6151 -10.9922 1.38088
-16.0956 -11.3675 -0.921099
-19.3205 -12.2574 0.551193
-16.5698 -10.3177 -2.06936
-19.3065 -10.9755 -1.10153
-15.5884 -11.9778 -2.01037
-16.1251 -8.72059 -0.579867
-16.4541 -12.3247 -2.80958
-15.4663 -11.7036 -1.32099
-15.7815 -11.1445 -0.838402
-16.2157 -8.94035 0.0797854
-19.2386 -9.59342 1.09244
-19.4884 -10.5048 -0.556824
-15.3737 -9.72918 -1.38232
-15.5931 -10.148 -0.99407
-20.7383 -10.654 -0.278736
-19.0876 -10.9817 -0.366542
-20.5201 -10.2205 -1.05136
-16.0299 -11.743 -0.556567
-16.5739 -10.8412 0.864491
-19.1554 -10.4958 -2.05325
-15.3065 -10.1967 0.883698
-20.8311 -10.9954 -2.06991
-19.3429 -12.626 -3.11837
-16.8562 -11.5272 -1.6663
-15.4136 -12.774 0.866178
-16.6939 -12.0488 0.469163
-15.9607 -11.4492 0.305918
-17.3342 -10.6672 -0.768747
-20.4301 -8.90712 -2.36444
-19.7615 -11.1776 -4.15503
-14.6195 -11.0623 -0.26349
-15.7923 -11.8383 -1.13792
-15.0291 -10.7998 -2.61957
-16.4388 -10.2772 -1.90267
-17.3589 -10.1839 -2.99386
-19.3532 -8.36991 -5.14159
-21.6462 -10.0239 -6.42547
-19.5785 -11.9886 -2.81361
-21.7132 -10.738 -5.88223
-14.3766 -12.5239 -1.54758
-19.3396 -12.4005 -5.38678
-13.7 -12.4511 -3.52803
-17.6811 -11.8805 -2.78258
-13.7128 -13.7942 -3.87417
-12.7372 -11.9297 -4.66317
-14.5591 -12.9188 -1.4861
-16.3414 -11.2728 -3.46151
-14.7913 -12.2399 -2.84468
-14.8592 -12.5424 -2.84774
-14.6208 -13.156 -3.39011
-15.195 -13.4239 -3.24792
-20.9317 -10.1791 2.51664
-15.3189 -10.7858 0.167373
-20.1578 -10.1921 -0.669068
-15.9784 -11.6071 -0.342418
-19.0825 -10.0691 -3.53772
-16.57 -10.3829 2.08527
-16.0756 -11.2317 1.23754
-14.9147 -11.3257 -0.998072
-17.482 -10.6085 -0.424625
-16.2365 -11.0382 -1.74116
-16.51 -11.1258 -0.0671683
-18.812 -11.6533 -0.560921
-19.9317 -11.3487 -2.71188
-15.6008 -13.0358 -0.226941
-16.0732 -11.4188 -1.6435
-17.6556 -10.3831 -0.409444
-16.6497 -10.4228 -1.66097
-16.562 -10.2316 -3.12652
-15.8035 -10.8783 -1.83501
-16.5269 -10.6404 -0.744114
-20.5015 -10.5885 -5.97137
-15.4853 -8.32906 -1.79417
-18.181 -11.0907 -3.81497
-14.7834 -12.7788 -3.2701
-15.8103 -10.4216 -2.49082
-17.5575 -11.9863 -3.61096
-15.3739 -12.7702 -2.14015
-15.5674 -11.0489 -4.18337
-13.1277 -10.4398 -4.03308
-14.1232 -11.6683 -3.61558
-15.6186 -13.9278 -4.56105
-18.8606 -10.3287 -0.397572
-15.934 -11.2157 0.746348
-16.4432 -10.6235 -0.618994
-15.6874 -11.8909 0.125266
-17.9555 -11.9856 -2.54181
-16.4876 -10.4732 -0.997659
-14.6176 -10.9407 -1.62225
-17.0755 -12.1708 -1.79591
-16.383 -11.1285 -0.76667
-16.6137 -11.6963 -2.08136
-15.4466 -10.4475 -2.61475
-15.7771 -13.1898 -1.35192
-12.9294 -13.0823 -2.85219
-18.2624 -9.57853 0.180388
-19.4728 -10.8247 0.542986
-17.0697 -11.7915 -0.0195992
-17.5527 -10.792 0.313814
-16.1811 -10.4856 -1.20049
-15.804 -10.7139 -2.10856
-14.8016 -13.1326 -2.77985
-20.0973 -10.5751 -0.816883
-18.8003 -10.3469 -0.55626
-16.9296 -10.66 -1.33858
-17.0819 -11.3163 -1.78471
-17.0153 -9.89688 -1.48688
-18.2885 -12.3452 -1.26535
-14.7223 -11.6145 0.659168
-14.9709 -11.2206 -0.411245
-17.0984 -9.94585 -3.34401
-18.6014 -9.28576 -1.18363
-15.748 -11.0577 -4.59175
-17.5342 -12.6168 0.264691
-17.2656 -11.3367 -0.858227
-16.0879 -11.4784 0.159347
-13.1716 -11.4062 -0.739672
-17.3007 -11.1447 -1.67336
-17.2382 -9.74163 0.031134
-17.6212 -10.2114 -2.44969
-16.4381 -11.7841 -0.606697
-14.8319 -11.6758 0.170844
-15.7661 -11.6521 0.495566
-16.3946 -13.0925 -2.63022
-13.9272 -11.7641 -1.35623
-17.2968 -11.3594 0.871361
-16.6172 -11.8997 -2.46514
-13.9325 -12.0397 -2.52732
-17.596 -9.15859 -0.799808
-16.6154 -10.8069 -1.526
-15.8666 -11.6662 -3.17476
-15.3415 -9.93872 -1.97213
-14.5007 -11.8139 -2.02629
-20.0851 -9.35937 2.81536
-19.4749 -9.30667 1.45707
-19.3245 -10.6624 0.147554
-17.1519 -8.20417 0.970191
-17.2244 -10.7671 1.23798
-17.7183 -9.60286 0.798775
-18.1322 -9.96827 1.26078
-17.2826 -11.9779 0.00728394
-18.1883 -10.7801 2.00224
-20.7946 -11.6804 0.228072
-16.7556 -11.0074 -0.357705
-16.876 -10.2391 0.354814
-16.2732 -11.2192 -1.38785
-15.7615 -12.0583 -1.91929
-17.6095 -9.89544 0.400504
-19.4153 -10.5444 -0.0653419
-21.4538 -10.7659 0.968963
-20.3211 -11.3811 -0.0227943
-19.9152 -10.6906 0.615637
-15.528 -11.4108 1.85093
-13.8357 -11.8805 0.671137
-15.9754 -12.2462 -1.8669
-18.368 -12.0258 -0.338882
-18.6709 -11.5638 -1.2333
-16.9519 -11.1682 0.509912
-16.2377 -12.0253 -0.583449
-21.064 -9.15192 -0.400619
-16.186 -9.15247 -2.13074
-17.8528 -11.1825 -1.18252
-19.0162 -9.83133 -0.539358
-16.0545 -12.1963 -1.279
-20.9344 -10.8595 -0.624333
-15.1697 -13.0892 -1.10242
-16.3816 -11.287 -1.01083
-19.725 -11.2427 -2.13608
-20.4361 -10.6495 0.249813
-14.8879 -13.4284 1.76798
-17.4438 -11.7301 0.392725
-18.2264 -10.7834 -0.540015
-20.6889 -10.265 -0.176691
-17.9875 -10.8957 0.1632
-16.4969 -10.6198 -1.96949
-17.4489 -12.6164 0.35402
-15.7805 -9.47306 -0.291704
-19.8095 -9.99644 -1.64818
-20.4368 -10.469 -0.866633
-18.6295 -12.3608 -1.79122
-17.4205 -12.1973 -0.547836
-21.8568 -11.3136 -0.484722
-20.9631 -10.0184 -2.08637
-17.3149 -11.0638 -1.16216
-16.778 -10.6985 -0.652014
-18.5701 -11.3014 -1.18211
-18.4704 -9.74979 -3.82976
-20.3675 -8.97379 -0.664516
-16.1742 -12.9643 -2.41171
-18.6301 -11.4794 -3.01194
-20.5325 -9.26055 -2.01937
-16.3275 -12.0848 -3.11063
-20.2702 -10.6309 -2.22526
-17.2691 -11.5444 -2.07532
-21.6768 -12.6644 -1.98176
-17.9629 -11.7418 -3.08779
-20.1594 -11.7439 -4.59945
-16.2948 -10.7624 -2.4783
-20.3475 -11.2263 -3.86417
-15.3349 -9.25327 -1.55817
-19.5449 -12.8732 -2.10081
-19.883 -10.471 -2.6982
-20.5675 -10.3163 -2.55449
-19.3085 -10.833 -2.75815
-17.4213 -12.5756 -3.60712
-19.1655 -9.06264 -2.59695
-16.6499 -11.5981 -0.510511
-18.7759 -9.96508 -3.47526
-18.4079 -11.9923 -4.15444
-19.1045 -8.97459 -4.32057
-17.8497 -10.9524 -2.50557
-15.5832 -11.6929 -2.45311
-13.7422 -13.2597 -1.20282
-14.8868 -12.5724 -2.33536
-17.5749 -11.0338 -2.05843
-16.8911 -9.44075 -0.578594
-20.5858 -9.03585 -3.45655
-15.2233 -11.9037 -5.52422
-18.7597 -10.7424 -4.90248
-19.8467 -11.7295 -3.44701
-16.1392 -11.943 -1.95427
-16.6516 -11.448 -2.06633
-15.6769 -14.2368 -1.21245
-20.2406 -10.2815 -3.22097
-16.4125 -13.6171 -1.19105
-14.7529 -11.5936 -2.55186
-21.1136 -11.5893 -3.84982
-20.1056 -11.1721 -2.6018
-15.3355 -13.5994 -3.83551
-13.4633 -10.3516 -3.45252
-19.7255 -11.7712 -4.28619
-17.0944 -10.5762 -3.02502
-17.6815 -12.0025 -2.87758
-20.448 -10.3106 -4.4572
-17.8889 -11.2644 -5.83716
-18.0674 -12.6038 -3.84676
-20.7753 -9.90119 -5.20086
-21.0572 -11.018 -5.50438
-16.542 -11.2091 -3.02834
-16.5111 -11.4996 -3.61476
-15.2562 -10.484 -3.45096
-17.9357 -11.3873 -4.23646
-15.5128 -13.2994 -3.92271
-18.4052 -12.1765 -4.38338
-19.2951 -11.0165 -4.61994
-16.8064 -11.9775 -4.44028
-15.9369 -11.5341 -2.77831
-16.7291 -12.7514 -3.50906
-16.3629 -12.868 -5.34206
-19.8009 -13.4312 -5.73066
-16.4039 -11.7047 -3.94875
-16.6977 -12.3777 -4.53873
-18.0219 -12.6521 -3.86249
-13.0545 -13.4612 -4.01201
-15.1605 -11.3881 -2.57456
-15.2472 -11.6292 -3.64068
-16.6971 -10.674 -5.13282
-16.8287 -11.2654 -4.33381
-16.7866 -11.1279 -4.02545
-16.0546 -11.9583 -2.54477
-15.1665 -13.4802 -2.65603
-15.0811 -11.9337 -3.89543
-15.112 -8.22493 1.7342
-19.9711 -10.3279 0.362887
-20.0534 -10.0718 1.72629
-20.4621 -9.68285 2.98559
-16.1926 -8.83675 0.219118
-21.628 -11.698 3.44986
-16.6301 -11.0578 0.333761
-15.9518 -10.8201 1.16419
-17.2639 -9.89242 1.76348
-18.878 -12.4871 0.747102
-17.6227 -10.61 1.20508
-17.1964 -9.20619 -0.834649
-18.1764 -10.0208 -0.678517
-15.2355 -12.2715 0.684358
-21.4994 -11.8684 -1.81632
-21.7426 -11.1426 -0.431023
-20.1739 -11.6273 -0.881727
-16.5328 -9.48622 0.489978
-17.1506 -8.79541 -0.159657
-15.2892 -13.7078 -1.96307
-17.7578 -9.64908 0.933346
-16.5716 -11.2008 -0.342669
-16.2807 -12.1531 -0.283555
-21.7464 -10.7315 -0.122838
-19.7994 -11.4927 -1.31136
-15.1403 -13.1892 0.616717
-16.3896 -11.5992 -0.958135
-17.3563 -9.98099 0.549019
-19.3698 -11.1986 1.05779
-15.331 -8.59434 -1.54931
-15.5712 -10.9284 -1.19061
-16.4413 -10.5716 -1.5964
-15.6046 -10.8638 -0.391173
-18.7468 -8.81256 -1.72621
-18.0226 -11.6967 -1.90381
-21.0656 -8.00217 -2.7182
-19.1066 -10.7074 -2.08756
-17.107 -10.5874 -2.58914
-14.9001 -12.7485 -2.49424
-19.6936 -10.7615 -0.896674
-19.3603 -10.8409 -0.402522
-19.2584 -9.67591 -3.35874
-16.7283 -10.266 -1.47357
-17.113 -12.278 -2.6763
-15.4357 -11.2574 -2.39357
-15.8484 -12.0794 -4.62731
-15.9011 -12.0935 -0.321859
-16.7809 -9.72291 -2.5079
-14.9636 -10.8071 -2.19331
-15.8495 -11.0351 -0.834249
-19.1769 -10.0255 -4.02082
-15.5859 -9.96839 -3.15913
-16.1852 -11.2636 -3.1346
-15.9261 -9.43997 -1.71716
-20.3603 -9.97268 -2.59569
-16.7364 -10.1578 -2.82375
-18.3942 -12.4366 -3.12323
-19.3206 -10.8455 -3.87834
-17.1903 -9.34059 -5.20568
-14.5725 -12.0919 -2.12049
-18.9214 -10.4956 -3.35534
-18.8762 -10.7536 -3.70027
-19.1698 -10.8672 -3.81725
-17.3271 -11.4405 -2.59586
-16.5526 -12.6066 -4.21104
-16.2188 -12.7901 -2.96235
-18.8098 -10.8105 -3.46771
-15.7953 -11.1596 -2.96025
-18.4669 -11.1418 -5.47932
-18.2792 -10.3923 -5.55037
-17.1174 -10.047 -3.50264
-14.5272 -14.3023 -2.1371
-18.2908 -12.3187 -3.20233
-17.5121 -9.53798 -4.35549
-16.1688 -12.2008 -4.57855
-15.7961 -10.274 -2.85946
-15.3962 -13.7829 -1.54224
-15.0998 -12.2368 -4.65942
-17.0988 -10.6199 -4.81376
-14.9167 -12.483 -5.40055
-14.0368 -11.7858 -3.17495
-18.1145 -10.0336 2.51441
-16.5073 -9.45213 2.26001
-15.8013 -9.87483 0.588322
-21.9899 -8.97616 3.0253
-17.9122 -9.95954 -0.132577
-16.6692 -10.3895 0.75275
-16.3084 -10.8741 0.317018
-16.1489 -10.7891 -0.837456
-15.1378 -13.4163 -0.762352
-16.41 -11.2636 -1.45268
-15.7362 -12.3429 -0.493044
-16.6704 -11.2817 -0.275611
-15.122 -10.3878 -1.34087
-15.5487 -10.5005 0.646297
-19.4568 -10.5072 -0.530066
-16.4633 -9.34421 0.488241
-15.2046 -11.5338 0.41912
-18.1484 -10.6045 -1.13274
-15.5065 -12.9558 -1.81344
-14.2876 -9.9981 -1.60263
-17.7159 -11.6459 -0.22094
-16.7411 -11.0604 -2.75328
-20.3325 -11.7243 -1.50522
-17.5194 -8.77917 -1.59378
-16.1117 -11.1722 -1.32163
-15.7619 -13.8791 -1.61785
-14.1642 -12.202 0.909454
-15.1603 -11.3059 -2.23155
-17.8528 -10.8068 -1.47895
-17.2713 -10.3162 -4.14463
-15.9189 -14.147 -1.577
-19.7908 -10.6898 -3.70388
-17.1143 -10.0602 -3.16925
-20.4978 -9.90418 -2.94179
-15.5721 -10.2832 -3.24264
-17.835 -10.3112 -4.72464
-18.5726 -12.0174 -5.49236
-15.6438 -11.8328 -3.13095
-14.929 -12.7284 -2.67573
-13.904 -11.3281 -2.91197
-15.9329 -12.8829 -3.35614
-14.0707 -13.2269 -3.4062
-16.2602 -9.28775 2.62428
-19.3906 -10.5016 -0.722697
-17.977 -10.9886 1.24386
-19.2527 -10.0816 0.230598
-15.4527 -11.7412 -1.8839
-18.4275 -10.782 -0.679435
-14.337 -11.9246 -0.952078
-18.3172 -11.3915 1.63342
-20.2002 -12.9933 -1.28021
-16.0187 -10.7498 -1.0752
-15.8047 -11.1109 -2.95492
-16.8646 -11.4377 1.29903
-16.6015 -11.7787 -3.42145
-16.1396 -10.5398 -1.37087
-16.4318 -10.1969 -2.62746
-19.5444 -12.6377 -3.4829
-14.6347 -12.0407 -2.51783
-15.9082 -10.287 -1.94174
-14.2204 -11.1045 -3.14937
-19.7297 -10.3049 -4.36218
-21.2032 -12.192 -2.75595
-16.8609 -10.5228 -1.75911
-16.4742 -10.8769 -2.63876
-15.3387 -10.7105 -2.73824
-16.3839 -11.5817 -3.01107
-15.9507 -9.97413 -4.6841
-16.1776 -10.8941 -2.9521
-18.6518 -10.0425 -3.70862
-18.3062 -11.4395 -2.68531
-18.7125 -10.4912 -4.73235
-17.3672 -11.1565 -4.49198
-16.1948 -11.2483 -4.67062
-15.6171 -11.503 -3.36883
-16.2713 -10.3919 1.83588
-17.9097 -10.8058 0.772428
-16.9834 -9.67873 0.149956
-19.7649 -10.5533 -0.663583
-18.7457 -9.86312 0.0469902
-15.0565 -11.9018 -0.297849
-15.9182 -10.6373 0.235069
-16.799 -11.1468 0.203289
-18.8277 -10.7233 -2.77056
-15.9856 -8.24651 -0.168764
-15.43 -12.0444 -0.023539
-16.5916 -11.1963 -0.712426
-16.7034 -11.0639 -1.61717
-18.0292 -10.507 -1.44539
-19.1581 -11.8346 -0.889633
-18.3084 -11.8912 -0.262114
-16.5169 -9.78056 -2.27884
-15.7098 -11.2796 -1.47762
-15.4045 -11.2766 -3.25977
-17.7224 -12.1895 -3.52522
-16.2583 -12.016 -3.67672
-17.1416 -12.714 -3.60114
-15.8291 -10.93 -1.7393
-17.8441 -11.7062 -2.61032
-17.847 -10.5237 -4.95268
-18.9035 -11.3404 -4.92097
-12.8339 -13.9931 -5.29645
-16.865 -9.30821 2.83791
-18.8018 -11.4549 -0.757294
-16.9123 -12.3627 -0.580197
-15.1655 -12.5197 0.731846
-14.8606 -12.0712 -1.79282
-14.5895 -12.7412 -2.03045
-17.9306 -9.64087 -1.03641
-15.5047 -11.0034 -0.875951
-16.6046 -10.8153 -2.19814
-16.753 -11.2582 -3.07678
-14.5069 -11.0003 -3.15198
-15.5003 -10.9659 -2.94493
-19.3427 -10.6786 0.965043
-14.2285 -12.3432 -2.02808
-16.6129 -12.2013 -0.867086
-21.5439 -7.91306 2.34693
-17.7754 -9.55813 -0.326908
-17.4799 -11.0357 -2.44622
-16.8588 -11.7545 -0.109114
-17.7017 -10.5217 0.128069
-15.7443 -10.3831 -4.15854
-16.5535 -10.638 -0.831518
-17.0595 -10.8284 -3.5582
-16.7048 -11.3532 -2.41348
-15.0742 -11.0769 -0.119515
-17.3186 -10.5933 -0.450097
-14.4499 -9.77378 -0.651252
-17.1475 -11.0002 0.458904
-18.5455 -10.0729 -2.62949
-15.1738 -11.8724 -0.971095
-17.712 -11.186 -1.91819
-15.2898 -12.9093 -0.922068
-17.1471 -9.21709 -2.80045
-13.8646 -12.1685 -5.46174
-19.3393 -12.6854 -4.66103
-14.4988 -11.2977 -2.0258
-19.6371 -11.5865 -2.07511
-16.0678 -12.0592 -1.56127
-14.5617 -10.9813 -3.54179
-14.9063 -12.1413 -4.02163
-14.4751 -12.1363 -2.61349
-16.2567 -12.3132 -2.41532
-15.5214 -11.6763 -3.43496
-16.4937 -12.0685 -2.85539
-19.1866 -11.6222 -3.07705
-19.2056 -9.92592 -2.52054
-18.1277 -10.6792 -1.6169
-15.9081 -9.80699 -0.258281
-18.7479 -9.38858 -1.73382
-19.7566 -10.9349 -2.02228
-17.7241 -10.5239 -2.05334
-14.1147 -11.6919 -0.639187
-19.1779 -11.1896 -2.51585
-16.2607 -12.0079 -2.0149
-15.028 -10.3296 -2.10168
-15.9961 -13.6252 -0.229633
-19.1967 -10.787 -0.267081
-17.616 -11.4647 -1.62617
-18.7708 -10.8075 -3.25075
-20.5595 -11.1921 0.734403
-16.0822 -9.61043 -0.544407
-19.9932 -11.8909 0.677664
-19.5776 -11.2728 0.2757
-19.9959 -12.5227 0.951677
-20.6544 -10.1805 -0.114476
-19.7776 -9.35188 -0.206841
-16.7766 -12.3477 1.37063
-13.3977 -12.8342 -3.61696
-18.6894 -10.8832 -4.02916
-16.0539 -12.0837 -3.77968
-12.7726 -11.5437 -2.38736
-14.1755 -10.0245 -2.49057
-16.6298 -11.6178 -1.13225
-14.5695 -10.4874 -2.46085
-19.4444 -11.1853 -0.824282
-17.7974 -10.7645 -3.88035
-18.7253 -11.8948 -2.97023
-14.6807 -12.0955 -0.795643
-21.0206 -8.61317 -2.13623
-16.7194 -10.6154 1.3479
-16.6454 -11.9002 -0.437241
-15.0461 -11.555 1.26114
-16.6846 -12.5299 1.18681
-21.2066 -11.4896 0.621519
-14.09 -14.6993 -2.37875
-18.3956 -12.2772 -3.97054
-13.4881 -12.889 -2.81896
-15.7387 -11.1947 -0.0529847
-17.8247 -11.4538 -0.757109
-20.6789 -11.8319 -1.48437
-19.5651 -11.374 -3.06037
-15.87 -12.8948 -1.70041
-18.4051 -9.16423 -0.546678
-14.7597 -10.2289 -1.18751
-16.797 -10.2615 -1.30011
-15.7295 -11.2867 0.496168
-16.744 -10.4592 -0.135248
-16.8324 -11.2511 -1.33484
-16.1367 -12.8025 -1.03161
-16.7974 -10.1851 -4.07693
-16.2801 -9.71242 0.675731
-14.803 -11.9235 -1.25264
-17.0621 -10.6159 0.157526
-17.4538 -10.1734 -0.108846
-13.3682 -9.99268 2.9134
-18.6002 -11.1123 1.05042
-17.5332 -10.5111 -0.0620336
-15.3306 -9.40488 1.03404
-18.4687 -12.0079 -0.0483598
-20.4075 -10.0625 1.36536
-19.6119 -11.4341 -1.95233
-15.8694 -11.8639 0.336883
-17.9716 -11.4523 -3.31922
-16.796 -9.94854 -0.747775
-14.6663 -11.8329 -2.19659
-17.9559 -11.2938 -0.504702
-16.0202 -12.5184 -1.6056
-15.6484 -10.7466 -1.66966
-16.222 -10.8867 -0.917999
-15.4272 -12.4838 0.903403
-15.5491 -10.9531 -1.66466
-16.8583 -11.9029 -1.95693
-17.4586 -9.09231 -0.701555
-17.7072 -10.064 -4.18954
-18.1225 -11.1411 -4.47958
-16.9537 -11.3935 -3.29911
-18.8792 -10.3714 -5.44667
-14.0545 -12.2073 -4.32911
-13.1331 -11.346 -4.19041
-19.6772 -11.1913 -4.30549
-16.1131 -10.0217 -1.61499
-14.221 -11.8207 -2.26963
-15.6189 -10.9072 -4.21332
-20.0621 -10.3186 -1.81503
-16.338 -10.8747 -3.51619
-13.5489 -11.6191 -2.05674
-20.3418 -10.6745 0.439035
-16.7676 -10.6718 -0.960123
-17.4412 -10.9268 -1.50977
-14.5118 -11.1457 -2.47987
-15.8625 -11.192 -1.95631
-19.5184 -9.86739 -0.900693
-17.8129 -12.2871 -2.0292
-18.1678 -10.9256 -0.991164
-18.1617 -12.9317 -0.488974
-17.935 -9.18407 -1.23802
-19.0531 -11.0705 -1.14402
-17.4246 -12.0383 -0.407911
-21.0777 -9.23729 -1.27111
-18.7633 -11.6607 -1.80785
-15.9653 -10.5738 0.643513
-17.6376 -10.9478 -1.76123
-18.1697 -12.4069 -2.13131
-15.6379 -11.0147 -0.156906
-21.1606 -12.1218 0.926284
-16.2996 -11.5581 -0.201753
-18.5121 -10.3285 -0.635258
-15.5212 -11.3449 0.628817
-16.5571 -11.7238 -1.0137
-14.4793 -12.8077 -1.085
-17.0159 -11.8683 -0.391594
-17.5012 -9.99389 -0.378203
-16.0072 -13.2118 0.207927
-19.5824 -9.81694 2.40354
-16.8172 -9.97066 -1.13087
-21.6395 -10.15 1.55217
-14.8772 -10.3708 1.41586
-19.0292 -11.0864 0.892177
-20.9534 -9.36099 1.08488
-22.3263 -8.98934 1.4431
-15.21 -10.8857 -0.197293
-16.26 -10.4398 0.443491
-14.984 -10.1171 1.97455
-18.5415 -9.92317 -3.44915
-19.1807 -10.0542 -2.85684
-16.2773 -11.6787 -6.25372
-19.0643 -10.5858 -3.09218
-19.6634 -9.45501 -3.78658
-17.8663 -10.6563 -5.81563
-18.3857 -10.5354 -4.33856
-13.7501 -12.0376 -5.52043
-15.2683 -12.8527 -3.79329
-17.6102 -10.9553 -2.17857
-21.5015 -10.3072 -3.82632
-16.8529 -10.4766 -1.64294
-20.4818 -9.61185 -4.02892
-17.9942 -11.7294 -3.1772
-19.6933 -12.0134 -2.22981
-14.2049 -11.8615 -3.08051
-18.6603 -11.904 -0.651091
-21.7265 -11.1636 -4.14396
-16.9653 -11.4525 -2.78285
-15.1021 -10.1726 -2.2932
-20.6677 -10.9669 -1.73257
-15.72 -11.2941 -0.0848276
-16.3743 -12.0926 -1.33081
-21.227 -10.0034 -1.1175
-16.6155 -11.1349 -0.0954103
-19.0598 -11.1402 -0.321587
-17.4507 -11.0249 -2.17828
-15.6548 -11.3771 -1.08412
-17.3887 -11.697 0.886266
-15.0505 -12.2301 -1.54517
-18.5784 -8.65362 -0.279335
-19.5686 -8.48591 1.02639
-20.0826 -10.7053 -3.8214
-18.541 -11.1173 -3.72402
-14.2876 -12.9293 -5.0024
-19.7803 -12.6826 -3.03241
-16.0503 -11.588 -4.36056
-13.3562 -12.4606 -4.27967
-17.6072 -9.52021 -4.44447
-16.3206 -10.5901 -2.84257
-15.6072 -12.2793 -2.42032
-21.6023 -12.2298 -3.43178
-19.0742 -10.2177 -2.91581
-19.4444 -10.9743 -1.37302
-16.8307 -11.489 -1.40685
-15.7253 -11.4083 -3.17144
-19.7441 -10.8914 -2.94622
-16.0795 -11.1269 -2.815
-16.0179 -9.50901 -1.38367
-12.8631 -10.7591 -1.39553
-17.8418 -11.7753 -0.63885
-19.4949 -10.8756 -0.207197
-16.7317 -13.7857 -0.958744
-18.108 -11.0237 1.02265
-15.6305 -8.5931 2.93791
-18.6931 -11.9939 -4.28985
-15.4487 -11.232 -4.04401
-17.0246 -12.8099 -3.95711
-15.0174 -11.7089 -2.92739
-16.2709 -11.3931 -3.60016
-17.9378 -10.2233 -2.86223
-15.7741 -12.0231 -3.19491
-17.2389 -9.57635 -0.556288
-16.235 -11.093 -1.13195
-15.6969 -14.0542 -0.549137
-17.8138 -12.6248 -1.07768
-16.3322 -12.2263 1.10519
-19.0384 -12.6094 0.77031
-18.0917 -9.34348 1.05271
-16.4513 -11.4778 -3.88541
-17.6745 -10.6332 -1.27795
-19.3846 -9.32509 -0.025334
-16.6552 -10.137 -0.77312
-17.6103 -10.1259 -0.982455
-18.2322 -11.2282 -1.2103
-16.3203 -13.146 -2.32186
-16.4567 -11.1629 -2.89312
-16.0116 -11.9206 -1.85528
-20.8534 -10.7061 0.240099
-15.5093 -10.3976 -1.29269
-16.5621 -11.0795 1.7556
-17.0707 -11.7697 -5.48582
-15.7031 -12.8047 -2.54092
-17.5793 -9.45207 1.00066
-16.6541 -10.1336 -1.10941
-17.4352 -11.3568 -2.3971
-17.2547 -12.9137 -2.35758
-20.5078 -10.7763 -3.61748
-15.1264 -11.4919 -1.48503
-19.9255 -9.71374 -3.42902
-20.6861 -12.3438 -2.61054
-19.0644 -11.0785 -2.516
-19.5252 -10.4757 -3.77486
-19.436 -10.6266 -3.37915
-22.2858 -10.1886 -0.96183
-19.7818 -11.0496 -3.78449
-20.0609 -12.2719 -2.76441
-17.6735 -10.9646 -3.59263
-17.4404 -10.3221 -2.55519
-17.2919 -11.6345 -1.81007
-17.3682 -10.2128 -2.36656
-21.5177 -9.00885 -3.74331
-16.2442 -12.4269 -2.74509
-15.7612 -10.7826 -1.62241
-15.5725 -12.4604 -3.86301
-13.2781 -12.3092 -3.71549
-14.8243 -10.1406 -4.16246
-14.7773 -12.2883 -3.56685
-15.5999 -11.1779 -4.09133
-17.4804 -10.8077 -1.54753
-17.4158 -13.8123 -1.7125
-15.1135 -13.3175 -3.41244
-17.9596 -11.3873 -2.32671
-14.023 -13.4916 -3.18329
-15.4293 -11.1409 -1.40535
-14.1151 -11.9067 -2.08739
-14.9204 -11.0781 -2.41815
-14.9032 -12.2189 -3.6648
-21.3986 -9.11643 -1.09011
-15.4211 -11.7494 0.641947
-16.1447 -11.7293 0.0500203
-16.1263 -9.68266 0.320511
-16.4648 -12.2694 -0.988745
-16.1648 -12.4445 -1.51766
-17.8105 -11.4788 -0.294511
-15.3591 -10.8925 2.60132
-16.7009 -12.1563 0.386946
-20.462 -8.26335 -2.21359
-20.9124 -10.1789 -4.55741
-20.0697 -10.9554 -5.71487
-18.2622 -10.8573 -3.56194
-17.7192 -12.1523 -2.91544
-18.7668 -11.5378 -4.39499
-18.4011 -10.1074 -3.24423
-17.8332 -12.0391 -2.06939
-16.8256 -10.6158 -5.26207
-18.8213 -11.0751 -3.12559
-19.1849 -12.8592 -2.90261
-18.6693 -8.3687 -1.51763
-13.8533 -11.6061 -3.7898
-14.642 -10.4085 -2.23986
-20.2121 -11.4452 -1.52163
-15.9581 -10.7219 -2.79386
-15.4567 -11.7917 -2.25562
-17.4183 -12.0831 -0.2358
-19.918 -8.88199 -1.26701
-19.4422 -9.30721 0.185313
-20.0912 -11.2964 -0.0306875
-18.1978 -11.1506 -2.14012
-14.9867 -9.7336 -0.837214
-15.3375 -10.7373 0.592806
-17.7682 -9.86322 -0.0522013
-16.5825 -10.6762 -0.366575
-17.2522 -11.4201 -0.691852
-14.9686 -11.6646 -2.07288
-14.1108 -11.152 0.36475
-17.0275 -12.2794 -0.613817
-14.7144 -10.7592 0.990743
-21.0924 -10.6197 -4.25669
-19.2473 -10.0023 -5.1266
-18.4148 -11.4932 -4.29211
-17.0839 -11.3717 -2.72377
-17.4676 -11.6424 -4.74958
-16.9652 -11.5683 -4.14901
-15.3691 -10.0548 -2.51914
-16.9376 -11.2801 1.01033
-19.8152 -11.3939 -0.404789
-19.5683 -10.7016 -0.923275
-15.8566 -10.8064 0.293752
-15.2859 -11.8096 -1.58925
-15.2413 -10.9809 -1.48772
-16.3766 -10.6374 0.840558
-16.6638 -9.98518 -2.11352
-16.385 -9.97839 -4.11393
-16.0447 -10.1506 -2.83935
-18.0236 -10.0502 -2.529
-17.5679 -12.2406 -2.99287
-16.9686 -12.1989 -1.95354
-14.994 -11.9577 -2.82045
-18.1953 -9.85401 0.638707
-13.5287 -10.7689 -1.10156
-16.0164 -10.5055 1.20347
-16.476 -12.0088 1.94837
-16.0876 -10.6026 -2.38088
-16.6843 -9.79765 1.59352
-19.9726 -10.6088 -4.78821
-15.9862 -10.0695 -4.25269
-16.5004 -10.7737 -3.17137
-14.9935 -10.9856 -0.529823
-14.0835 -11.9999 -3.3357
-14.6051 -12.0506 -1.82198
-14.9832 -9.77492 -1.43504
-19.8741 -9.82527 -0.674712
-14.8359 -10.6365 -2.11459
-14.1324 -10.962 -3.56915
-16.0938 -11.7032 -0.725251
-17.7164 -12.0154 -0.600181
-16.9181 -10.2484 -1.16489
-14.3368 -13.4201 -0.63932
-18.6448 -10.6972 -0.486474
-16.1562 -12.2785 -2.60475
-19.443 -10.163 -0.484912
-18.071 -11.3382 0.457492
-16.1628 -13.6052 -3.47748
-16.7607 -12.2569 -1.56024
-19.7096 -9.24984 -3.26509
-17.7395 -11.4023 -5.71881
-15.6184 -11.9576 -1.38753
-16.5614 -9.92525 -3.77666
-16.8815 -10.7158 -2.0893
-14.185 -8.614 0.415385
-15.0689 -10.9885 -4.40515
-16.1525 -11.3263 -2.11296
-14.0687 -9.86813 -0.249539
-14.0096 -12.9444 -2.8372
-15.4111 -12.6722 0.0276979
-17.2652 -13.0777 0.752547
-16.7359 -11.8898 0.458502
-16.1862 -10.3396 -0.922143
-15.6643 -10.1728 0.288875
-19.0024 -10.444 -5.14653
-19.191 -11.8154 -4.90242
-17.9477 -9.97841 -1.30036
-19.1002 -10.8424 0.36295
-21.8143 -11.0402 -1.21556
-17.0512 -10.5904 -1.3005
-15.8822 -10.3404 1.84883
-16.093 -7.95096 0.225085
-17.9829 -9.40269 -0.501186
-16.387 -11.9632 0.0042313
-17.2355 -11.0913 -0.129555
-15.0689 -11.2594 -2.6677
-17.3078 -10.2032 -0.0150637
-15.2138 -11.7889 -2.84618
-15.7008 -13.0691 -3.50896
-17.8169 -10.1615 0.667737
-15.0611 -12.0943 -0.519431
-16.4598 -10.3807 0.116502
-15.6337 -12.8454 -1.00725
-16.8871 -12.4212 -0.951189
-14.1729 -11.3967 -2.42868
-16.0194 -12.4843 0.195691
-16.1541 -11.9038 0.853344
-19.8901 -11.0713 -2.13848
-15.358 -11.9942 -3.0009
-17.105 -12.279 -1.02696
-17.4979 -10.833 1.25585
-17.1814 -10.2573 -1.63043
-19.3863 -10.7053 -2.09813
-16.5576 -11.9678 -4.95648
-16.8026 -13.696 1.42686
-15.0942 -11.502 -0.0773508
-14.3913 -10.1681 -1.00941
-15.6572 -11.2836 -3.18073
-16.6526 -11.0146 -0.985147
-16.5768 -12.5079 4.42742
-19.6015 -9.00881 -4.81528
-14.6726 -11.4448 -0.805971
-15.0312 -10.1945 -2.18428
-16.2834 -11.6245 -0.56506
-15.5114 -11.6123 -0.847655
-15.806 -8.99903 0.643603
-16.2901 -11.6705 -0.552868
-19.4527 -11.3626 -1.78795
-19.2018 -8.5684 0.155987
-16.5084 -10.7594 0.070822
-14.8877 -10.445 1.51887
-15.8251 -14.019 -1.96784
-15.958 -12.0985 -1.01525
-15.9607 -9.82597 -0.208015
-15.3807 -11.9599 -2.10642
-21.3025 -10.3123 1.63262
-20.8666 -9.22998 0.577713
-20.2709 -12.3694 -4.86274
-16.8142 -11.0645 1.95821
-19.5238 -11.2406 -1.13949
-16.5291 -9.1858 2.984
-16.9639 -11.1772 -3.49478
-16.84 -10.5932 -3.83824
-18.3427 -11.2221 0.788769
-16.2302 -10.5429 -3.73819
-17.6662 -11.5513 -0.360707
-15.617 -11.4573 -2.2191
-18.5501 -12.4147 0.998202
-17.4211 -10.3576 -0.301581
-17.1878 -11.1017 -0.260398
-18.2867 -11.4726 1.42043
-15.4984 -11.7961 -1.75327
-15.8465 -10.537 -1.96492
-15.6848 -9.72298 0.782466
-15.4051 -12.4631 -2.70658
-13.7036 -12.1567 -2.35851
-22.02 -9.00707 0.799929
-17.6076 -10.7473 1.68632
-15.4466 -9.11931 2.28899
-17.6473 -9.36109 0.609253
-16.4784 -10.7879 -1.34885
-16.9398 -9.8895 -2.63502
-17.78 -11.3221 -0.893238
-16.5093 -11.4185 -2.58821
-16.1873 -11.7779 -1.85898
-15.7555 -10.5713 -0.247894
-17.4872 -10.7587 0.388809
-16.0644 -11.1062 -1.70135
-15.9008 -11.4944 -0.88313
-14.6519 -11.2664 -0.0229749
-16.2753 -11.3224 -0.632862
-15.6426 -9.81755 0.68484
-15.0733 -11.7234 -0.732486
-15.7227 -12.4366 -1.67156
-14.1108 -12.3004 -0.968707
-16.0563 -13.4901 -1.60997
-17.6511 -12.6041 -3.8071
-15.7452 -10.9494 -3.07439
-17.2772 -12.1257 -2.46274
-15.5885 -11.8528 -0.421444
-16.248 -11.6779 -0.33424
-16.7744 -10.9326 -1.16522
-14.9056 -9.12773 -0.390147
-19.5867 -11.2304 -0.987863
-19.569 -10.0946 -0.717521
-16.0868 -10.7761 -2.18748
-16.2088 -10.4197 -0.977495
-19.4894 -11.9102 -2.69496
-15.335 -12.4719 -0.804013
-15.6001 -12.2651 -0.646949
-14.6167 -11.1669 -1.37157
-15.6783 -10.8688 -1.56951
-15.6476 -10.0589 -2.9025
-16.1761 -11.5827 -3.7859
-16.8266 -11.6479 -1.07152
-15.3582 -12.4509 -1.91879
-17.7313 -11.1921 -1.90615
-16.3405 -11.2579 0.808888
-15.018 -10.3259 -3.50965
-17.117 -10.2406 -0.600705
-15.6092 -13.0581 -0.471216
-15.9907 -11.3791 -0.935124
-14.86 -9.38286 -2.12941
-21.0087 -10.2394 1.14901
-21.642 -9.26014 0.419422
-23.1071 -10.3788 -1.63582
-21.7399 -12.2024 -2.41234
-22.4925 -11.3192 -1.31226
-21.5153 -10.1345 -4.72434
-21.4998 -9.57864 -1.73116
-18.6562 -11.0364 0.0668585
-21.2283 -9.79309 -1.89778
-18.2547 -10.9873 1.91404
-16.9036 -10.9488 0.510131
-16.4533 -12.0679 0.411713
-15.8804 -10.8212 -1.18691
-15.0643 -11.5283 0.418349
-15.5104 -11.4423 -0.13751
-16.6894 -11.7162 1.28912
-16.4578 -10.9149 -1.1034
-16.3285 -12.4756 -3.26582
-16.1978 -11.0751 -1.43481
-14.7672 -10.7284 -3.50302
-15.3973 -12.0674 -3.01706
-17.202 -11.0057 -0.292864
-16.6938 -12.0993 0.682506
-13.7183 -12.9796 -2.8303
-15.4723 -13.4972 -3.13282
-19.3131 -10.0476 -1.97971
-19.6943 -9.21781 -0.136548
-14.8639 -11.2285 -1.08228
-15.5458 -11.5966 -2.45947
-18.3985 -11.1773 0.694463
-15.9825 -12.4286 -0.197968
-16.4825 -12.2307 -2.47429
-16.5219 -10.3216 -0.470499
-16.0559 -11.4226 0.652169
-15.4784 -11.0205 -1.48482
-20.5854 -10.39 1.13335
-19.8303 -9.52151 1.36872
-18.5966 -11.8463 -5.8766
-17.8703 -11.1176 -4.99999
-16.914 -12.0112 -1.28679
-16.0363 -9.70553 -2.07284
-16.7439 -10.4581 -1.1649
-17.1578 -11.2805 1.24063
-15.3557 -12.0256 1.36929
-15.8487 -11.9586 0.563331
-15.6884 -11.2225 0.690793
-20.9007 -9.43399 -0.114909
-15.7946 -11.9694 -1.1819
-14.1534 -10.615 -0.504656
-14.9724 -13.4626 -3.86057
-20.0215 -11.411 -2.70907
-17.3683 -9.86074 -0.935063
-16.8703 -11.2362 -0.672785
-15.5166 -12.3426 -1.67564
-15.6412 -10.2325 -1.65595
-16.4191 -8.47983 -2.58777
-16.2831 -10.6135 -2.40404
-16.3477 -12.0542 -2.24736
-16.684 -12.5265 -0.676875
-21.395 -10.3793 -0.0747882
-20.3039 -10.8689 -0.525408
-21.7075 -11.3225 0.173462
-19.5501 -11.4366 1.20713
-19.9159 -11.3243 -1.17959
-19.4573 -9.91567 0.388077
-23.16 -9.75206 -3.71356
-15.2729 -10.8215 -1.3104
-16.195 -11.0547 -0.544523
-15.342 -11.0775 -1.30987
-16.8608 -13.9307 -3.83821
-16.4836 -9.88328 -0.172786
-16.7414 -10.7661 -2.29252
-17.0702 -10.5373 -4.79643
-16.0063 -10.6356 -3.35114
-20.9765 -9.7344 -0.0953588
-18.7559 -10.9567 -1.4826
-16.7381 -11.8909 1.03476
-15.5815 -13.3537 -0.0165341
-17.267 -12.1015 -1.06855
-17.9305 -7.91305 -1.2953
-15.6266 -10.4556 -0.698099
-16.3452 -11.4715 0.443993
-13.5522 -10.9232 2.31938
-15.5235 -11.3959 -1.61713
-15.7629 -12.8993 0.141164
-19.8427 -9.36719 1.0304
-16.2313 -10.2187 0.735982
-14.3616 -11.6797 -2.78723
-21.1103 -9.21873 -3.89864
-16.8188 -11.7501 -2.67528
-15.4622 -11.3633 -0.364998
-15.3234 -12.0829 -2.5706
-14.4471 -11.3867 -1.19986
-15.4069 -13.6428 -3.68083
-14.6098 -11.8583 -4.36441
-16.8212 -11.1438 -0.445088
-16.4119 -12.0408 0.744715
-17.4973 -10.6588 -2.74348
-16.5224 -11.8142 -1.30329
-17.6382 -10.0983 -2.67232
-16.1948 -10.5214 -0.320168
-16.7169 -11.8573 -4.47448
-15.6711 -10.4735 -0.407494
-14.0007 -11.8092 -2.73125
-14.7321 -11.3963 -2.0753
-16.7606 -12.043 -1.65845
-19.074 -9.44187 -2.24379
-17.0009 -11.0883 1.54337
-16.2957 -10.7286 1.83293
-16.8298 -10.7701 -1.66653
-16.3716 -11.2035 0.00433055
-17.0721 -11.4571 -0.489731
-17.0529 -12.3901 1.63714
-18.3652 -9.60674 -5.1163
-19.2101 -11.5441 -3.72006
-17.3177 -13.287 -4.41032
-16.4746 -11.7767 -3.15044
-14.9336 -10.1958 -4.07366
-20.4622 -10.6731 -1.87505
-19.9416 -10.8043 -1.9616
-16.7076 -14.2183 0.178459
-17.2679 -9.74461 0.210605
-19.0282 -11.694 -1.42165
-15.173 -11.6164 -0.727989
-19.5949 -9.99082 -3.8546
-16.0949 -11.3833 -0.45006
-20.679 -11.5065 1.69722
-17.3662 -10.7821 -0.0478501
-14.8765 -12.0534 -2.84495
-18.3133 -12.9074 -0.719818
-16.8758 -10.4472 -1.7431
-16.7087 -11.2042 -1.85588
-16.8634 -10.3202 -0.491082
-16.8927 -10.2118 -2.84212
-14.4533 -10.6203 -0.713188
-22.4635 -10.1214 1.91327
-17.2035 -14.7615 -1.12819
-16.5025 -12.182 0.137106
-19.985 -10.325 1.39941
-16.2778 -10.3175 -1.02148
-20.6397 -12.2052 -1.82136
-19.4045 -12.5665 -1.59287
-15.8545 -9.51178 0.695055
-18.0318 -10.3935 -0.128309
-19.8225 -10.4739 -3.39255
-16.9051 -11.1446 0.381694
-15.4423 -11.8834 -1.37531
-16.7305 -10.5328 -1.38929
-18.1511 -9.77339 -5.24382
-18.3059 -12.0786 -5.21357
-14.5269 -10.3481 -1.94094
-18.4696 -10.0163 -4.92208
-18.5145 -9.95885 -1.50181
-17.9336 -11.234 -6.21271
-14.7636 -10.9907 -2.93701
-17.7038 -11.9726 -4.99726
-15.6397 -9.06709 -2.60028
-14.9364 -12.496 -3.00442
-13.3063 -9.7778 -3.80904
-13.5027 -11.8877 -2.72151
-18.4132 -10.4482 0.899171
-17.7027 -10.9031 -1.38415
-15.0369 -9.71866 0.0472719
-18.1827 -10.5522 -1.32818
-20.4895 -11.5303 -0.941171
-18.0921 -10.4242 -1.13157
-17.0978 -11.3063 -1.35246
-16.9939 -11.6238 -1.4064
-16.6449 -11.4612 -0.237326
-15.8722 -13.3449 0.342535
-16.7712 -10.1046 -0.566359
-17.2071 -10.3635 -2.60861
-14.66 -11.7501 -0.81593
-14.3795 -12.7418 -0.473802
-17.3361 -12.0323 -1.12012
-19.1268 -11.6825 -4.49266
-18.1835 -10.7413 -1.8363
-16.5827 -10.4408 0.104886
-16.4923 -12.258 1.04855
-17.211 -9.80199 -0.100855
-16.2033 -12.1355 1.12079
-18.7946 -13.3244 -1.8199
-17.8514 -9.44859 -1.31523
-16.5064 -10.8536 -0.299255
-14.195 -11.1788 -3.25555
-16.2566 -12.1406 -1.54452
-15.9799 -15.2027 -2.34582
-18.6712 -11.0294 0.276243
-19.1513 -10.4169 -1.84685
-17.8195 -11.1245 0.23849
-15.3543 -10.4897 -0.483825
-15.5771 -12.1427 0.766364
-17.4042 -12.7748 0.354661
-14.3901 -11.3922 -1.673
-18.0885 -10.935 1.00296
-15.0282 -10.9862 -1.80225
-14.6378 -12.3725 -2.30167
-17.8204 -12.2509 -4.03289
-14.9499 -11.087 -1.02073
-15.2759 -11.9895 -0.551529
-15.5087 -9.30938 -0.0165341
-20.8214 -8.92279 0.87562
-18.2453 -10.9572 1.78564
-16.9308 -12.9344 -1.88696
-17.8535 -10.1328 -0.708622
-16.4555 -10.2632 0.973715
-17.1234 -10.9787 0.646561
-15.945 -9.52726 0.193689
-15.0618 -11.2152 1.30061
-20.2362 -11.1516 0.27618
-18.6532 -11.7546 -1.32172
-18.3444 -9.78917 0.0331492
-21.42 -12.92 -1.65388
-20.1584 -9.62529 -2.71128
-20.7313 -10.3523 -1.6925
-16.4024 -9.72083 -3.34132
-15.8184 -8.96056 -2.28441
-13.7972 -10.8648 -2.28695
-15.276 -10.4458 -4.61558
-20.6167 -11.0664 -3.16761
-14.5727 -12.0081 -1.32912
-16.541 -10.8724 -1.13144
-15.5781 -11.9794 -3.60055
-17.5812 -10.9261 -5.26113
-16.8883 -13.0639 -3.82588
-15.0074 -11.485 -3.00722
-15.2086 -10.334 -0.54692
-16.4639 -11.0226 2.07393
-16.5071 -10.0559 -0.691532
-16.2241 -10.5628 0.498414
-15.2159 -11.85 1.06798
-15.997 -11.2633 -0.108865
-16.7492 -9.93423 -1.34137
-18.6206 -9.81197 -1.22839
-14.6392 -12.3596 -1.95486
-17.0346 -13.3631 -0.0605112
-15.9989 -10.3546 -1.50138
-16.9709 -10.8072 -0.658404
-15.6773 -12.6312 -0.519464
-15.1285 -12.8646 -2.65861
-15.5087 -11.0331 -1.37454
-14.6561 -11.4163 -2.39347
-15.3363 -13.1277 -2.94152
-17.9243 -9.0024 -4.64585
-14.6309 -12.5951 -4.40669
-17.2775 -10.2404 0.964207
-19.8725 -9.67065 -2.58821
-16.848 -11.2471 0.863274
-20.542 -9.52037 -0.264814
-16.2044 -9.62688 0.680999
-16.1982 -10.5462 -0.931393
-15.8862 -11.3662 0.15628
-16.197 -10.3682 -1.53157
-16.4943 -10.2737 0.471903
-15.7219 -11.4725 -1.90757
-20.1451 -11.2618 -1.08649
-14.8393 -11.3786 -1.94148
-18.6515 -11.3039 -2.1176
-15.6694 -11.305 -3.03988
-15.8156 -12.2823 -3.57437
-14.0853 -13.5026 -3.20795
-15.676 -8.6131 1.28336
-18.3481 -9.84753 -1.94913
-16.9945 -9.54099 -0.0097506
-17.4545 -13.0506 -1.69907
-17.6213 -11.3063 1.19017
