-17.0578 -11.052 -2.23707
-17.0279 -11.1601 -2.07447
-16.2961 -11.4575 -3.31065
-16.4627 -11.6508 -4.03102
-16.5153 -11.6734 -4.18406
-17.0057 -11.3441 -2.01015
-18.1841 -10.8107 0.506962
-16.4244 -11.3853 -2.43188
-16.3249 -11.7859 -4.12682
-16.8891 -11.4495 -1.91379
-16.3446 -11.9958 -4.04877
-17.2151 -11.3596 -1.11837
-17.1658 -11.4403 -1.19305
-17.3573 -11.4952 -0.786085
-17.7537 -11.1841 0.157849
-17.2122 -11.4951 -0.974516
-17.2373 -11.437 -0.875568
-17.5901 -11.1207 0.493872
-15.9434 -11.6772 -2.45334
-17.353 -11.434 -0.610442
-17.2379 -11.4196 -0.746247
-17.5259 -11.324 -0.479015
-17.4824 -11.496 -0.474719
-16.0995 -11.5488 -2.02475
-17.2787 -11.4228 -0.521456
-17.1991 -11.408 -0.735442
-15.9924 -11.6139 -2.0571
-17.4824 -11.4955 -0.287933
-15.8122 -11.6248 -2.11116
-15.9316 -11.6184 -2.0633
-17.4168 -11.3979 -0.314916
-17.4042 -11.4379 -0.0935187
-15.9463 -11.7478 -2.20842
-16.7389 -11.471 -0.279495
-16.6291 -11.5246 -0.280744
-16.4048 -11.7155 -1.41771
-17.0798 -11.3029 0.404295
-16.6273 -11.6057 -0.378402
-15.8202 -12.259 -3.2364
-16.0334 -11.7605 -1.24108
-16.3019 -11.8066 -0.595152
-16.2459 -11.8098 -0.636489
-16.1263 -11.7864 -0.899691
-16.1837 -11.8211 -0.91545
-15.6137 -12.3148 -3.08581
-16.3973 -11.771 -0.446502
-16.35 -11.8634 -0.572663
-16.2767 -11.8953 -0.607845
-16.3343 -11.8417 -0.500406
-16.1905 -11.8956 -0.453106
-16.3217 -11.5903 0.561956
-16.3443 -11.7998 0.316394
-15.5328 -12.391 -2.84478
-16.0526 -11.6515 0.341992
-16.2885 -11.9477 -0.0519249
-16.2178 -11.8856 -0.12986
-15.0882 -12.4675 -3.33934
-15.3616 -12.4846 -2.66261
-15.6682 -12.169 -1.03302
-14.7603 -12.6294 -3.51612
-15.7538 -12.229 -0.75454
-15.7531 -12.2003 -0.985783
-16.0431 -12.3256 -0.169282
-22.3784 -8.98935 -5.01174
-18.6282 -10.9611 -4.17421
-16.4929 -11.0112 -3.17068
-16.5248 -11.203 -3.02473
-17.1767 -11.0694 -2.20256
-17.1881 -11.054 -2.05179
-16.4356 -11.3045 -2.99598
-18.4506 -10.7765 0.324881
-18.1105 -10.8208 0.294034
-16.3879 -11.4897 -3.28452
-16.5935 -11.7205 -4.06069
-16.4463 -11.6008 -4.116
-17.9677 -11.2024 -0.986611
-17.3146 -11.3677 -1.00943
-17.06 -11.4255 -1.50048
-15.6137 -11.5654 -2.75843
-16.0924 -12.0852 -3.89031
-16.5858 -11.4612 -0.156827
-16.672 -11.4321 0.333816
-16.2852 -11.8677 -0.935961
-15.2431 -11.9464 -2.07588
-16.2102 -11.9288 -0.754411
-16.3432 -11.9241 -0.416782
-16.2075 -11.888 -0.669565
-15.6053 -12.2927 -2.80681
-16.4083 -11.7032 0.487767
-16.2997 -11.8691 -0.28286
-15.9478 -12.0756 -1.48219
-16.3136 -11.9663 -0.0290499
-15.0289 -12.5604 -3.38565
-15.2323 -12.4666 -2.8225
-15.2597 -12.4646 -2.78661
-14.9082 -12.5443 -3.56752
-16.1145 -12.2112 -0.413736
-15.5786 -12.2942 -0.951648
-14.3967 -12.7597 -3.33385
-18.5139 -11.0541 -4.3696
-17.9357 -10.9188 -2.30713
-18.7972 -10.9502 -0.199845
-18.5762 -10.9355 -0.0901277
-18.1542 -10.9341 0.232587
-16.2135 -11.4512 -3.47246
-16.6093 -11.6558 -4.09878
-18.3034 -11.3037 -0.27873
-17.7764 -11.0004 0.479369
-15.6665 -11.6126 -3.09572
-16.7471 -11.4751 0.339688
-16.2066 -11.7774 -0.56999
-16.3291 -11.6926 0.30134
-15.0997 -12.4612 -3.46228
-14.988 -12.5093 -3.48231
-14.9158 -12.6552 -3.49145
-20.2763 -10.6965 -0.374676
-17.8917 -10.9901 -2.08427
-16.4682 -11.156 -3.17255
-16.6207 -11.2903 -3.6166
-17.2853 -11.4177 -0.937046
-16.8136 -11.5496 -1.15345
-16.7737 -11.5217 -0.786518
-16.463 -11.7013 -0.774204
-16.2018 -11.7559 -0.951516
-16.275 -11.8637 -0.908901
-15.214 -11.9895 -2.06076
-15.7615 -12.3278 -0.885531
-14.543 -12.7048 -3.27502
-22.3422 -8.80419 -4.7325
-22.3296 -8.99462 -4.88066
-17.1532 -11.2661 -1.8553
-16.7657 -11.458 -0.912807
-16.7312 -11.4067 -0.398951
-15.4853 -12.0898 -1.83716
-16.8243 -11.5633 -1.02869
-15.8025 -11.7777 -2.29368
-16.0006 -12.0674 -1.37308
-14.3584 -12.8298 -3.57351
-15.9493 -11.6859 -1.90297
-17.04 -10.8537 -3.29131
-17.1153 -11.1218 -1.99967
-17.1479 -11.1851 -1.96958
-16.7283 -11.7078 -1.22445
-16.2959 -11.7827 -1.23329
-16.001 -11.7557 -1.44372
-16.0403 -12.0916 -1.15811
-16.0655 -11.9867 -0.962885
-16.9482 -11.26 -2.20905
-15.6716 -12.4404 -2.82819
-18.856 -10.965 -0.673862
-18.2558 -10.9247 -1.12578
-21.8667 -10.1355 0.01302
-20.3923 -10.7054 -0.200631
-18.4942 -10.7741 0.25122
-20.6129 -10.4875 -1.54061
-20.6163 -10.5034 -1.60878
-20.809 -10.3198 -2.35096
-20.115 -10.3401 -4.30453
-19.706 -10.5923 -3.29714
-20.1738 -10.3876 -4.52457
-17.9497 -11.2894 -1.27784
-20.1202 -10.2065 -5.47034
-16.4503 -11.6361 0.540065
-17.3596 -11.3533 -0.783253
-19.617 -10.4383 -4.57836
-16.6812 -11.3618 -0.360608
-16.6843 -11.4175 -0.451202
-16.6062 -11.6127 -0.290221
-17.2054 -11.0841 -2.16595
-16.4946 -11.707 -0.302506
-16.6803 -11.589 -0.366039
-16.4748 -11.7539 -0.213598
-16.4792 -11.7525 -0.140442
-16.7431 -11.8053 -0.515435
-16.9555 -11.0882 -2.20662
-16.7771 -11.7635 -0.646699
-16.7109 -11.7605 -0.740971
-16.7493 -11.5465 -1.22046
-16.392 -11.9327 -0.116911
-16.6155 -11.7709 -0.894002
-16.3885 -11.8722 -0.167584
-16.6084 -11.6079 -1.6072
-17.8431 -11.3108 -4.20695
-16.0841 -11.546 -2.1534
-17.6399 -11.351 -4.19563
-15.9504 -11.7829 -1.78714
-17.6297 -11.4247 -4.37826
-15.8996 -11.5072 -2.17509
-15.8063 -12.279 -0.500875
-16.278 -11.3414 -3.55131
-16.759 -11.5968 -4.07425
-16.6175 -11.6112 -4.16734
-15.9906 -12.0702 -4.12806
-15.095 -12.5757 -3.59924
-15.1882 -12.4854 -3.68484
-14.7619 -12.6231 -3.57155
-21.8411 -10.1547 -0.013397
-21.729 -10.0253 -0.283712
-22.3159 -8.88387 -4.68557
-22.3229 -8.93481 -4.82914
-20.5154 -10.4974 -1.68015
-17.3135 -11.1817 0.694032
-19.0414 -11.0128 -2.09799
-17.3952 -11.3733 -0.326085
-17.2847 -11.2649 -1.0934
-17.2886 -11.3225 -0.85742
-16.7185 -11.37 -0.225029
-17.4024 -11.2657 -1.56213
-16.6503 -11.5056 -0.341875
-16.6946 -11.5606 -0.310874
-16.7899 -11.5662 -0.475686
-16.6593 -11.4767 -0.269931
-19.0065 -10.8447 -4.59637
-17.0239 -11.1318 -2.08421
-17.0025 -11.1315 -2.20385
-19.0488 -10.6589 -5.05073
-16.9663 -11.0953 -2.27796
-16.4279 -11.8464 -0.361545
-16.1431 -11.8385 -0.222289
-16.2217 -11.8954 -0.222301
-16.3022 -11.7645 -0.613386
-16.2606 -11.9355 -0.531227
-16.1526 -11.9812 -0.640407
-16.1537 -11.5539 -2.11397
-16.038 -11.5003 -1.9988
-17.6191 -11.4244 -4.34798
-15.896 -11.6294 -2.1497
-15.7398 -12.345 -0.894194
-16.0501 -11.6321 -3.22683
-16.0344 -11.5941 -3.16758
-16.7817 -11.6661 -4.19835
-15.3466 -12.4897 -2.16912
-15.3779 -12.5627 -2.24018
-14.8179 -12.6895 -3.46169
-14.4252 -12.6953 -3.49741
-20.8117 -10.5467 -0.15547
-22.2741 -8.82282 -4.84501
-18.4075 -10.8172 0.404356
-17.475 -11.2068 0.466325
-18.0151 -11.3827 -0.867137
-17.9491 -10.9077 -2.16739
-17.3829 -11.4603 -0.491878
-17.853 -10.8743 -2.10137
-17.3606 -11.3329 -1.07248
-16.6034 -11.4269 -0.403478
-16.6936 -11.4895 -0.215605
-16.6923 -11.587 -0.225288
-19.2002 -10.5577 -5.07797
-16.8122 -11.6171 -0.889584
-18.7585 -10.8847 -4.40711
-16.1525 -11.904 -0.258306
-16.1463 -12.0161 -0.345893
-16.423 -11.1016 -3.10795
-16.3566 -11.2387 -3.055
-16.0173 -11.6116 -1.92006
-15.9644 -12.11 -1.29411
-15.8525 -12.2083 -0.739073
-16.2853 -11.4726 -3.30519
-15.9705 -11.5751 -3.06411
-15.8439 -11.5942 -2.98891
-16.596 -11.7294 -4.08701
-16.2502 -11.8597 -4.04096
-16.2548 -12.013 -4.07661
-15.6553 -12.2597 -3.0288
-14.9817 -12.6278 -2.99569
-15.0191 -12.5086 -3.42712
-18.4765 -10.8633 0.158292
-18.5494 -10.7427 -1.00641
-17.0435 -11.4214 0.413665
-16.9033 -11.3826 0.348836
-16.6449 -11.4993 0.341055
-16.3266 -11.5987 0.514764
-17.0675 -11.1754 -1.87303
-17.0533 -11.1463 -2.17033
-16.5527 -11.0959 -3.00502
-16.4186 -11.2631 -3.0356
-16.6183 -11.1827 -3.48889
-16.488 -11.7183 -4.13776
-15.6544 -12.358 -2.74282
-15.6557 -12.3867 -2.82289
-15.3621 -12.4426 -3.45239
-15.0283 -12.5656 -3.55656
-18.291 -10.7997 0.505325
-18.2309 -10.8684 0.293086
-17.7956 -10.9487 0.320761
-18.6618 -10.6702 -0.780035
-16.769 -11.4209 0.452503
-16.513 -11.1437 -2.99792
-16.161 -11.5069 -2.22402
-16.046 -11.606 -1.87505
-15.95 -11.5076 -2.1208
-15.4212 -12.0664 -1.84343
-14.9052 -12.5779 -2.57266
-16.8679 -11.4534 0.40364
-17.8707 -11.1751 -1.2791
-16.4362 -11.7285 -0.594295
-16.0587 -12.1694 -0.140565
-15.9204 -11.5192 -2.06141
-15.7001 -12.2223 -0.968444
-15.3172 -11.9245 -2.01468
-15.3128 -12.4635 -2.93764
-17.9169 -11.0133 -1.63022
-16.7672 -11.7822 -0.520085
-16.5264 -11.5104 -2.03735
-16.099 -11.8589 -1.58231
-14.6049 -12.7052 -3.28311
-16.9427 -11.1685 -2.2548
-16.9818 -11.4747 -1.69738
-16.6154 -11.6022 -1.03717
-16.625 -11.6239 -1.34403
-16.2873 -11.372 -2.10661
-15.8427 -11.9104 -2.17318
-16.1018 -11.7494 -1.40245
-16.0822 -11.7694 -1.73982
-15.7885 -11.935 -1.97338
-16.7104 -11.7163 -1.15063
-18.0183 -11.116 -1.41784
-16.4348 -11.8476 -0.197662
-15.6175 -12.408 -2.79382
-18.8196 -10.9044 -0.842585
-18.3149 -11.1364 -0.970101
-16.9962 -9.63081 1.52391
-16.5776 -9.77455 1.35933
-21.7655 -10.0938 -0.26748
-21.8426 -10.0555 -0.311243
-18.6651 -10.7485 0.328424
-17.8858 -11.015 0.363589
-17.109 -11.3476 0.486751
-18.7217 -10.9601 -0.135377
-16.933 -11.3096 0.488543
-16.8607 -11.4517 0.540719
-16.7493 -11.4205 0.400214
-20.307 -10.7227 -1.13078
-18.1935 -11.1921 -0.424921
-17.4558 -11.5214 0.110109
-17.3764 -11.416 -0.268458
-17.88 -11.3884 -0.622927
-17.4489 -11.4073 -0.489359
-16.6261 -11.3774 -0.346748
-17.42 -11.4041 -0.583297
-16.3585 -11.9123 -0.0219007
-19.269 -11.1037 -1.48535
-16.5246 -11.7533 -0.177845
-16.5364 -11.5875 -0.288063
-16.5989 -11.5511 -0.317491
-16.5736 -11.5754 -0.38064
-18.0518 -11.3024 -0.905212
-16.4736 -11.6732 -0.177663
-16.4424 -11.665 -0.221028
-17.5022 -11.321 -0.768312
-16.673 -11.4929 -0.3171
-16.4634 -11.7582 -0.258277
-16.5802 -11.5886 -0.378412
-16.3666 -11.8237 -0.244706
-17.2586 -11.3834 -0.805452
-16.249 -11.8675 -0.274978
-17.9629 -11.2276 -1.32635
-20.3496 -10.4411 -2.70463
-16.7424 -11.5547 -0.749796
-16.7396 -11.6976 -0.650076
-16.2944 -11.8027 -0.379122
-16.2534 -11.9613 -0.521992
-16.8304 -11.6056 -0.983573
-19.0505 -11.0606 -2.12467
-16.3054 -11.8946 -0.619763
-16.3361 -11.83 -0.687751
-16.8027 -11.6452 -1.05037
-19.4505 -10.8919 -2.67923
-16.2819 -11.9052 -0.826588
-19.4317 -10.8576 -2.71086
-17.1006 -11.3997 -1.76229
-15.7192 -12.2419 -0.717932
-15.6761 -12.2466 -0.716135
-17.1801 -10.9957 -2.06642
-16.6783 -11.455 -1.76633
-16.9772 -11.3928 -2.0493
-16.9831 -11.1467 -2.19303
-16.9619 -11.0653 -2.22759
-20.3975 -10.1887 -4.51533
-20.0106 -10.3473 -4.18306
-19.7358 -10.5758 -4.27798
-16.0996 -11.532 -1.9585
-16.0009 -11.5442 -2.03096
-19.6198 -10.4974 -4.5675
-16.4968 -11.2905 -2.61051
-15.9653 -11.6056 -2.09059
-15.8673 -11.5411 -2.17793
-15.9356 -11.7244 -2.1578
-15.8871 -11.6542 -2.15303
-15.8902 -11.7367 -2.15544
-19.3575 -10.5244 -4.75972
-19.3642 -10.521 -4.73343
-16.0937 -11.4356 -2.57949
-16.4376 -11.2593 -2.9457
-15.3045 -11.8339 -2.06309
-17.9047 -11.233 -4.46744
-17.7426 -11.3768 -4.05675
-17.9744 -11.223 -4.39438
-15.4252 -12.6379 -2.16172
-15.3343 -12.5275 -2.17921
-16.0216 -11.5037 -3.07904
-17.5973 -11.2274 -4.43731
-17.5908 -11.3381 -4.29837
-15.9877 -12.1275 -3.32019
-15.8954 -12.2501 -3.2245
-16.6975 -11.6665 -3.97835
-15.7708 -12.202 -3.22912
-15.3697 -12.4584 -2.79552
-15.3073 -12.4583 -2.80671
-16.4328 -11.5701 -4.24661
-16.0024 -12.1035 -4.09721
-15.5623 -12.3037 -3.72683
-14.626 -12.7363 -3.40213
-14.3996 -12.8419 -3.34124
-20.3638 -10.827 -0.111897
-16.8954 -11.4065 0.459486
-16.9253 -11.3644 0.357523
-17.4116 -11.4775 -0.144012
-20.662 -10.4646 -1.50932
-16.7987 -11.4281 -0.262925
-17.4391 -11.375 -0.514242
-16.6522 -11.5526 -0.2514
-16.6105 -11.5147 -0.327228
-16.7056 -11.4186 -0.394177
-17.4077 -11.5016 -0.640474
-16.5182 -11.8976 -0.19172
-16.6441 -11.4951 -0.422352
-16.2929 -11.9568 0.065783
-20.2841 -10.4544 -2.42355
-15.9841 -12.0424 -0.0434163
-16.134 -11.8825 -0.577529
-22.4569 -8.54142 -5.10682
-22.3953 -8.52978 -5.04979
-16.3168 -11.8851 -0.779707
-16.263 -11.786 -0.967092
-16.1666 -11.8598 -0.96061
-17.1791 -11.0956 -2.04956
-16.4592 -11.6126 -1.404
-17.056 -11.1462 -2.00761
-17.0803 -11.1857 -2.04136
-17.1411 -11.0476 -2.24117
-16.9367 -11.0903 -2.38655
-17.2793 -11.0309 -2.46321
-16.078 -11.4954 -2.03498
-16.0172 -11.5489 -2.17219
-19.4799 -10.6021 -4.62659
-15.905 -11.5365 -2.07988
-19.9694 -10.3329 -5.42513
-18.2471 -11.1149 -4.27307
-18.1659 -11.1796 -4.40808
-15.3661 -12.6846 -1.7915
-15.7011 -11.9365 -2.5714
-15.43 -12.5145 -2.17289
-16.0958 -11.4798 -3.14514
-16.0825 -11.4698 -3.20622
-16.0125 -11.6314 -3.25882
-16.326 -11.3985 -3.4673
-17.5642 -11.3236 -4.48351
-17.5913 -11.282 -4.51026
-15.3672 -12.5257 -2.73327
-16.7258 -11.6944 -4.20662
-16.6872 -11.5668 -4.11357
-15.4289 -12.4302 -2.90513
-16.4993 -11.7356 -4.08832
-16.4782 -11.7065 -4.17033
-16.3851 -11.8232 -4.01711
-16.1362 -12.0542 -3.75441
-15.014 -12.6259 -2.63659
-15.0422 -12.6806 -2.62085
-16.0358 -12.0495 -4.00681
-14.8551 -12.6223 -2.88323
-15.4953 -12.292 -3.77142
-14.9078 -12.673 -3.13182
-14.9959 -12.5454 -3.32737
-15.1194 -12.4818 -3.54574
-15.0444 -12.4582 -3.43602
-14.8852 -12.5341 -3.44902
-14.5284 -12.7651 -3.32531
-18.3945 -10.7441 0.412094
-18.3611 -10.9195 0.344448
-18.1932 -10.8331 0.306847
-18.0891 -10.9194 0.405005
-18.3568 -11.0867 -0.410452
-16.901 -11.2922 -0.355824
-16.7787 -11.3875 -0.293819
-16.6186 -11.5019 -0.266292
-16.5274 -11.7415 -0.181232
-16.2668 -11.9333 0.0082624
-16.3934 -11.7754 -0.472549
-17.3615 -11.3856 -1.14055
-19.8285 -10.6982 -2.44073
-16.2496 -11.8636 -0.494356
-22.3886 -8.82759 -4.64864
-17.0478 -11.2453 -1.30509
-16.9384 -11.3537 -1.25949
-19.5368 -10.7802 -2.66786
-16.1782 -11.8713 -0.951797
-15.8269 -12.246 -0.780279
-16.9869 -11.1955 -2.00513
-16.8849 -11.4628 -1.8922
-17.1619 -11.0684 -2.13828
-17.0703 -11.1627 -2.14167
-17.101 -11.1191 -2.12829
-17.7149 -10.6388 -2.89289
-16.0044 -12.065 -1.40938
-16.0173 -11.6506 -1.79705
-15.9757 -11.6683 -1.78724
-16.1207 -11.4636 -2.12667
-16.2486 -11.4128 -2.19583
-16.2314 -11.4944 -2.10679
-16.0546 -11.6242 -2.09538
-16.0477 -11.6698 -2.05194
-15.9944 -11.5253 -2.0676
-15.9606 -11.6541 -2.0857
-18.3549 -11.0708 -4.11644
-16.5047 -11.1695 -3.01331
-15.2199 -11.9901 -2.03305
-17.5445 -11.4147 -4.16765
-15.2821 -12.5247 -2.23223
-17.5578 -11.3878 -4.28751
-15.2042 -12.6027 -2.17495
-17.5136 -11.3228 -4.36505
-15.2219 -12.633 -2.22574
-15.7562 -11.7154 -3.00706
-16.7333 -11.565 -4.11825
-15.6742 -12.2103 -2.97726
-15.2854 -12.418 -2.73506
-16.1106 -12.0141 -3.82023
-16.3975 -11.8785 -4.15327
-15.1939 -12.5069 -2.95315
-15.7368 -12.253 -3.70799
-15.1379 -12.4973 -3.50365
-14.4143 -12.6676 -3.44864
-14.3536 -12.7732 -3.38963
-14.2988 -12.7871 -3.73612
-18.7591 -10.4746 0.351152
-18.3338 -10.8348 0.473794
-18.1949 -10.8041 0.29831
-16.7606 -11.371 0.292559
-16.362 -11.7531 0.255793
-17.8541 -11.405 -0.532497
-16.5947 -11.5331 -0.17734
-16.6674 -11.5002 -0.171021
-18.077 -11.3176 -0.926632
-16.648 -11.5229 -0.470528
-17.288 -11.436 -0.643693
-17.8879 -10.8821 -2.21205
-15.7702 -12.3292 -0.742221
-16.7914 -11.4801 -1.7279
-16.9276 -11.1592 -2.23182
-15.6369 -12.2567 -1.09542
-16.1296 -11.4293 -2.07156
-15.9543 -11.6909 -1.94658
-16.0703 -11.5498 -2.18259
-15.8817 -11.5142 -2.12938
-18.6755 -10.9867 -4.17439
-15.3059 -12.6995 -1.55972
-16.46 -11.1054 -3.06637
-18.2897 -11.0954 -4.20645
-16.375 -11.2799 -2.94585
-15.7259 -11.5731 -2.6613
-15.4593 -12.571 -2.41649
-17.4692 -11.4116 -4.31041
-15.4795 -12.4337 -2.9214
-16.7437 -11.7262 -4.08504
-16.6938 -11.6631 -4.09936
-15.7181 -12.2131 -3.0884
-15.3559 -12.4893 -2.96823
-15.8904 -12.1557 -3.79937
-15.7354 -12.1401 -3.70885
-15.4343 -12.3804 -3.47478
-14.9724 -12.6236 -3.5179
-14.3719 -12.7375 -3.41375
-18.3049 -10.9249 0.327866
-17.7662 -11.0293 0.277751
-16.6451 -11.6336 -0.128517
-16.5324 -11.6776 -0.189214
-16.4777 -11.5659 -0.240203
-16.3449 -11.9476 0.100327
-16.6815 -11.6308 -0.400854
-17.3564 -11.3309 -1.02743
-16.2358 -11.9074 -0.668491
-22.3292 -8.85828 -4.78378
-19.4719 -10.7807 -2.79051
-15.973 -12.0609 -1.32715
-16.0716 -12.0678 -1.43275
-15.7519 -12.18 -1.27127
-15.9364 -11.7673 -1.7737
-19.2871 -10.6948 -4.86826
-15.6374 -11.8468 -2.22126
-15.2269 -12.0622 -2.10627
-16.7306 -11.6824 -4.24032
-15.2005 -12.3768 -3.21666
-17.8941 -11.0479 0.221871
-16.6952 -11.8758 -0.439976
-16.351 -11.8404 -0.295547
-16.6936 -11.6163 -1.08651
-22.2608 -8.61761 -4.87775
-16.699 -11.5098 -1.37517
-16.9247 -11.4598 -1.76041
-15.704 -12.2227 -1.10279
-16.3209 -11.3671 -2.44667
-15.8709 -11.8245 -2.16164
-15.4369 -12.6164 -1.625
-15.6493 -11.4838 -2.74252
-15.4248 -12.519 -2.10468
-16.0617 -11.5001 -3.18792
-15.8714 -11.5329 -3.17362
-15.3686 -12.4611 -2.80198
-16.5098 -11.7815 -4.11525
-18.1077 -11.3161 -0.512112
-16.7438 -11.6977 -0.506917
-17.7116 -11.2319 -1.42653
-16.788 -11.6005 -1.22647
-17.1437 -11.2046 -1.8105
-15.983 -11.7306 -1.69929
-15.5224 -12.411 -2.76548
-16.7373 -11.5268 -0.847543
-15.8575 -12.2102 -0.503123
-16.5313 -11.623 -1.76263
-16.9331 -11.1598 -2.24361
-15.7995 -12.2137 -2.68387
-16.6301 -11.6215 -0.171297
-16.3187 -11.6832 -1.60268
-16.0038 -11.8125 -1.30169
-16.9193 -11.2006 -2.18606
-16.0646 -11.5934 -1.61304
-15.8925 -11.691 -1.76159
-15.3876 -11.8979 -2.02992
-15.9496 -12.1625 -1.08715
-16.3939 -11.4955 -2.05931
-16.123 -11.5316 -1.97381
-17.233 -11.0909 -2.52673
-15.3693 -12.3165 -2.67883
-15.1361 -12.5374 -3.66357
-19.1788 -10.6344 -4.98648
-14.9735 -12.5997 -3.16545
-15.2737 -12.5933 -2.9763
-19.9952 -10.3915 -4.54815
-15.3825 -12.499 -2.80753
-15.27 -12.4726 -2.82833
-20.0079 -10.3676 -4.17051
-20.4115 -10.1278 -3.99702
-15.1229 -12.5964 -2.36305
-15.2067 -12.1659 -2.09128
-15.9305 -11.5352 -2.22016
-20.3916 -10.3009 -3.38723
-16.0774 -11.5413 -2.07981
-15.2973 -12.6655 -1.78866
-20.4225 -10.3713 -3.04266
-20.0767 -10.5279 -2.88699
-20.5451 -10.3861 -3.00985
-20.2821 -10.4801 -2.69194
-20.448 -10.3181 -2.81588
-15.9371 -12.0498 -1.30978
-19.9884 -10.6003 -2.13565
-16.4092 -11.5069 -1.18203
-19.719 -10.7248 -1.88695
-19.7804 -10.8085 -1.75568
-18.0002 -11.2831 -1.32677
-16.1027 -12.0785 -0.863329
-19.8901 -10.7937 -1.56956
-16.1893 -11.8637 -0.77612
-17.9021 -11.3579 -0.916793
-15.8089 -12.2018 -0.504571
-20.4676 -10.5964 -1.31012
-16.7796 -11.7691 -0.593066
-16.6763 -11.4907 -0.419485
-16.1715 -12.2353 -0.439805
-16.7227 -11.403 -0.432775
-16.7936 -11.4598 -0.407187
-16.7338 -11.4406 -0.433623
-16.6756 -11.468 -0.434833
-16.7356 -11.3752 -0.309102
-16.7029 -11.3885 -0.292514
-16.7549 -11.4042 -0.245104
-18.3213 -11.2306 -0.192846
-18.7554 -10.6766 0.150481
-16.6211 -11.5896 0.564821
-16.2526 -9.73543 1.91435
-16.0655 -9.53691 1.87855
-14.6536 -12.6202 -3.52583
-14.915 -12.5258 -3.35204
-16.7513 -11.7965 -3.97255
-15.7615 -12.2721 -3.58841
-16.0365 -11.3402 -3.36765
-19.5123 -10.5839 -4.73407
-16.5768 -11.0713 -3.43585
-18.6674 -10.9167 -4.3446
-18.2574 -11.0551 -4.21592
-19.6757 -10.573 -4.61928
-20.0625 -10.2636 -4.66965
-20.3748 -10.2222 -4.55567
-20.3616 -10.0968 -4.4435
-14.9925 -12.5959 -2.67673
-19.8586 -10.4494 -4.26799
-20.1298 -10.3899 -4.32349
-19.7493 -10.6255 -3.74814
-17.1867 -10.8658 -2.75768
-15.2678 -12.604 -2.1603
-16.1523 -11.3701 -2.14563
-16.2132 -11.4861 -2.14283
-17.1029 -11.0978 -2.19222
-15.3704 -12.5498 -1.84342
-16.9803 -11.5002 -1.86629
-15.7799 -12.2428 -0.746563
-15.9488 -12.1848 -0.71403
-16.6323 -11.467 -0.317988
-16.6659 -11.4255 -0.295993
-16.4876 -11.6533 -0.11273
-16.3768 -11.759 0.248419
-16.3309 -11.7601 0.335026
-18.6227 -10.7129 0.216084
-20.6777 -8.93483 1.49489
-20.2325 -8.97516 1.45388
-16.4368 -11.6974 -4.0705
-17.7997 -11.2721 -4.47305
-19.4624 -10.544 -4.89305
-18.6299 -10.8405 -4.43177
-18.4025 -11.0974 -4.12905
-14.8564 -12.6459 -2.6313
-16.0396 -11.3065 -2.67959
-16.3434 -11.0684 -2.68946
-16.4794 -11.0616 -2.69159
-15.3305 -12.5399 -2.34172
-15.4219 -12.63 -2.43458
-16.0439 -11.5535 -2.10495
-15.9525 -11.6896 -2.1781
-19.5863 -10.775 -3.16014
-15.9896 -11.6184 -1.89262
-16.0193 -11.7305 -1.98803
-16.9853 -11.1445 -2.27164
-20.0862 -10.5034 -3.0318
-20.3026 -10.4903 -3.00296
-20.3606 -10.354 -2.98951
-16.0139 -11.7293 -1.32818
-16.2085 -11.775 -0.975706
-20.6673 -10.609 -0.891374
-16.6074 -11.5108 -0.306991
-16.5838 -11.7369 -0.19688
-18.6482 -10.8721 0.0545754
-20.4103 -10.9 -0.0750668
-20.4976 -10.6842 0.0159981
-18.5034 -10.794 0.333995
-16.7405 -11.4772 0.379503
-18.7114 -10.6747 0.254379
-14.3893 -12.82 -3.4155
-16.7825 -11.5969 -4.20497
-15.5652 -12.3156 -3.64151
-15.7782 -11.6843 -3.16691
-15.6154 -11.5652 -2.72602
-15.0016 -12.6569 -2.63828
-15.2102 -12.5515 -2.65759
-15.9363 -11.8012 -2.24951
-15.9758 -11.6022 -1.90348
-15.9353 -11.6082 -1.92848
-15.9922 -11.6481 -1.86836
-16.6165 -11.5273 -2.09149
-16.931 -11.3561 -1.72391
-15.9775 -12.1362 -1.34463
-15.8608 -11.7139 -1.20514
-16.0103 -11.7343 -1.25323
-16.2357 -11.9051 -0.573722
-16.6651 -11.5065 -0.438111
-16.5969 -11.7545 -0.129224
-16.2559 -11.9622 0.113927
-18.7398 -11.0241 0.0460684
-17.7009 -11.047 0.288899
-16.4832 -11.6521 0.463345
-15.9129 -11.5021 -2.41449
-15.9282 -12.0186 -2.35447
-17.0818 -11.3275 -2.16664
-20.178 -10.4756 -2.83555
-16.7061 -11.614 -0.787435
-16.424 -11.8373 -0.397942
-16.7992 -11.8112 -0.407785
-15.8334 -12.2221 -3.49999
-15.3271 -12.4139 -2.87201
-15.0051 -12.6936 -2.35846
-16.3587 -11.5052 -1.93041
-16.7552 -11.4213 -1.77386
-17.0079 -11.374 -1.60124
-16.2206 -11.771 -1.0961
-20.3269 -10.6825 -0.0615957
-16.9452 -11.3586 0.362452
-15.8691 -11.7618 -2.48399
-17.257 -11.3776 -0.945335
-17.0992 -11.2023 -1.78625
-18.0361 -11.3574 -0.518637
-15.9676 -11.4813 -2.21799
-16.6773 -11.5236 -0.815043
-16.5275 -11.1646 -3.09253
-15.6475 -12.0431 -2.44058
-19.7422 -10.4117 -5.17632
-19.2274 -10.58 -5.06448
-17.9798 -11.1665 -4.77685
-18.0127 -11.1883 -4.75639
-19.8368 -10.3617 -4.81572
-17.9809 -11.1397 -4.57889
-20.1057 -10.2853 -4.62231
-19.9348 -10.3505 -4.53524
-17.3931 -11.449 -4.36527
-19.9039 -10.3828 -4.5329
-17.201 -11.5245 -4.43496
-17.2644 -11.3883 -4.33005
-18.5017 -10.9989 -4.32182
-17.6035 -11.4202 -4.32049
-18.5042 -10.9454 -4.33456
-17.9619 -11.3525 -4.22438
-19.7318 -10.4632 -4.24712
-16.1046 -12.0131 -4.07022
-18.0398 -11.2468 -4.11278
-16.4178 -11.8459 -3.97174
-16.0412 -12.0698 -3.74338
-15.1981 -12.4715 -3.64733
-14.739 -12.6863 -3.50163
-14.6487 -12.6553 -3.64331
-20.3401 -10.2276 -3.43188
-15.8707 -12.1301 -3.41099
-20.6209 -10.1926 -3.49449
-14.5321 -12.6939 -3.40923
-15.9656 -12.1977 -3.19103
-15.7533 -12.1832 -3.24336
-14.6807 -12.4986 -3.23006
-14.9821 -12.5462 -3.10312
-18.9666 -10.9597 -2.96891
-16.6758 -11.2955 -2.53176
-16.4407 -11.3983 -2.49254
-14.9117 -12.5848 -3.02639
-15.9761 -11.547 -2.39432
-15.3008 -12.4877 -2.74087
-15.4028 -12.391 -2.78616
-17.2097 -11.0187 -2.29262
-17.0275 -10.981 -2.23004
-16.1584 -11.4332 -2.17923
-17.3881 -11.1052 -2.13869
-15.4406 -12.5017 -2.68737
-15.9537 -11.5372 -2.16971
-17.1121 -11.1564 -2.07662
-16.1811 -11.5338 -2.16719
-15.7117 -11.8491 -2.31348
-16.1624 -11.4796 -2.09169
-20.8277 -10.2967 -2.18627
-15.8702 -11.675 -2.09784
-16.1332 -11.5829 -2.05084
-20.6809 -10.3283 -2.14703
-17.8071 -11.0288 -1.94286
-15.1008 -12.7049 -2.50928
-14.9034 -12.7091 -2.45242
-15.3234 -12.5697 -2.40091
-15.2687 -12.5246 -2.20172
-15.3048 -12.6362 -2.19528
-15.9947 -11.7393 -1.73016
-16.9913 -11.5247 -1.71075
-20.6745 -10.3964 -1.50763
-17.309 -11.2513 -0.972456
-19.8984 -10.783 -0.675455
-16.1981 -11.8302 -0.905055
-16.2007 -11.8604 -1.08892
-20.0941 -10.8797 -0.572009
-17.2772 -11.4029 -0.713069
-20.1114 -10.883 -0.424706
-18.2703 -11.207 -0.560114
-16.2826 -11.8613 -0.796475
-20.7491 -10.6374 -0.0954099
-16.668 -11.4331 -0.370185
-16.6243 -11.4288 -0.391329
-16.7018 -11.3468 -0.246254
-20.8268 -10.5871 0.20812
-16.0223 -12.1098 -0.552258
-17.3887 -11.4493 -0.222034
-15.7654 -12.1661 -0.558832
-16.5558 -11.6709 -0.202045
-16.4579 -11.7094 -0.149417
-16.3721 -11.6706 -0.170651
-16.3772 -11.763 -0.0885971
-18.2922 -10.7895 0.41709
-16.7692 -11.5169 0.45982
-17.2396 -11.2702 0.548366
-16.4774 -11.6504 0.703968
-19.26 -10.6718 -5.10168
-19.4727 -10.5086 -4.77191
-17.6786 -11.3442 -4.5055
-18.6406 -10.8488 -4.32516
-20.2015 -10.3428 -4.33462
-16.6509 -11.6641 -3.96601
-16.5565 -11.6729 -3.993
-19.4473 -10.6613 -4.25485
-20.0376 -10.4355 -4.27786
-20.0128 -10.4468 -4.25975
-15.9467 -11.348 -3.40201
-18.9133 -10.899 -3.91377
-16.1498 -12.0505 -3.77317
-16.4537 -11.1058 -3.17264
-15.4451 -12.3767 -3.62203
-20.4743 -10.2494 -3.61821
-14.9215 -12.6103 -3.47039
-20.0668 -10.4754 -3.46691
-20.1161 -10.5003 -3.45919
-15.0611 -12.4969 -3.47755
-20.1715 -10.3446 -3.34691
-14.4941 -12.7368 -3.40006
-14.5731 -12.6431 -3.46315
-14.6613 -12.697 -3.39793
-16.0089 -11.2954 -2.71961
-19.7539 -10.5257 -3.11486
-15.305 -12.535 -3.19727
-20.0593 -10.5424 -3.02447
-20.2045 -10.4582 -2.99028
-20.3684 -10.3458 -2.79097
-20.1341 -10.5139 -2.84464
-15.2692 -12.4252 -2.87411
-19.4856 -10.7719 -2.61432
-16.9935 -11.1345 -2.22572
-16.0198 -11.4251 -2.17867
-15.5987 -11.8759 -2.25812
-19.37 -10.93 -2.39557
-15.8831 -11.6206 -2.24334
-15.925 -11.5205 -1.94071
-20.4241 -10.3659 -2.12823
-15.9324 -11.6276 -1.80796
-14.9363 -12.6611 -2.35593
-15.2671 -12.5819 -2.23499
-19.1907 -11.0245 -1.80642
-17.0512 -11.3241 -1.35536
-15.9328 -12.1091 -1.38302
-15.7865 -12.1581 -1.21804
-18.2097 -11.3366 -0.840101
-16.2714 -11.77 -1.0306
-16.6683 -11.6873 -0.784145
-17.4348 -11.4128 -0.395044
-15.6351 -12.2844 -0.872296
-18.6587 -10.9415 -0.340756
-16.6892 -11.5587 -0.35659
-16.6206 -11.5717 -0.425908
-18.7194 -10.7425 0.276616
-16.417 -11.8775 -0.205751
-16.5052 -11.8616 -0.0889027
-18.4214 -10.7948 0.587739
-16.9002 -9.73371 1.38277
-17.1357 -11.375 0.504521
-16.2985 -11.7442 0.237681
-16.6421 -11.5771 0.592255
-19.3556 -10.6071 -5.15527
-18.53 -10.9794 -4.73669
-19.5198 -10.504 -4.90988
-18.4872 -11.0328 -4.35945
-17.9077 -11.3009 -4.34208
-16.7668 -11.6161 -4.26156
-16.4276 -11.7788 -4.12025
-18.8222 -10.8826 -4.31244
-16.6995 -11.5787 -4.15779
-16.4687 -11.7824 -4.03987
-16.6967 -11.646 -4.09746
-16.5138 -11.6421 -4.06362
-16.4666 -11.7476 -4.0959
-16.5625 -11.6993 -3.99557
-19.6597 -10.4688 -4.12641
-20.3035 -10.2167 -4.21565
-20.4572 -10.2866 -4.0564
-20.4516 -10.2991 -3.97284
-16.5103 -11.0118 -3.09891
-16.2965 -11.4733 -3.33734
-15.8143 -11.65 -3.19265
-17.0364 -10.8012 -2.8946
-14.3675 -12.7929 -3.47194
-16.1007 -11.3182 -2.68692
-15.9474 -11.3379 -2.65217
-15.7923 -11.3737 -2.64449
-15.7624 -11.3983 -2.77906
-20.5998 -10.3886 -3.06536
-19.4614 -10.8055 -2.98028
-20.2771 -10.3518 -3.0587
-20.2133 -10.3722 -2.98221
-17.0777 -11.1408 -2.02787
-17.7732 -10.8884 -2.11815
-15.8428 -11.6396 -2.12301
-15.4378 -11.8836 -2.22377
-17.0467 -11.2207 -2.01662
-15.9444 -11.6808 -1.9693
-14.9378 -12.788 -2.37666
-15.3535 -12.5376 -2.17967
-15.3182 -12.6422 -2.0764
-17.2405 -11.2687 -1.31611
-17.0392 -11.2481 -1.2216
-15.4114 -12.576 -1.85184
-16.0663 -11.6514 -1.12032
-15.9364 -11.7884 -1.23598
-17.1798 -11.4406 -1.0837
-15.9845 -11.8877 -1.01852
-16.7004 -11.5862 -0.68199
-16.639 -11.6223 -0.652361
-17.3133 -11.4957 -0.620497
-20.4694 -10.6908 -0.232338
-16.3636 -11.8329 -0.446872
-16.6399 -11.5003 -0.372071
-16.1947 -11.846 -0.575693
-16.4106 -11.9327 -0.484845
-16.3608 -11.9448 -0.387345
-17.3447 -11.4438 -0.147406
-18.0937 -10.925 0.347325
-16.4964 -11.6851 -0.120533
-16.4362 -11.7616 -0.255271
-16.4686 -11.8048 -0.106261
-16.1979 -11.9571 -0.04883
-18.8335 -10.7945 -4.88257
-17.9073 -11.1552 -4.4828
-19.6404 -10.5799 -4.37596
-18.5455 -10.9957 -4.17793
-18.4313 -11.0647 -4.17866
-18.2448 -11.1598 -4.23071
-15.8786 -12.1919 -3.5207
-17.3502 -10.8232 -2.88717
-14.8115 -12.5978 -3.4141
-15.7802 -12.2818 -3.22653
-15.6927 -11.5685 -2.76894
-15.6095 -11.5461 -2.63424
-15.5292 -11.5235 -2.73077
-20.4564 -10.3664 -2.83457
-17.1386 -11.0979 -2.14128
-15.9082 -11.7367 -2.20998
-16.1123 -11.5737 -1.94804
-15.2999 -12.529 -2.43467
-15.0136 -12.6814 -2.33681
-16.9351 -11.5866 -1.13302
-15.8405 -12.116 -1.33818
-16.7715 -11.6332 -1.098
-18.0369 -11.2928 -0.745921
-16.786 -11.5692 -0.833427
-22.2828 -8.87443 -4.96166
-16.5339 -11.7707 -4.0183
-15.6124 -12.2899 -3.699
-16.4879 -11.1554 -3.15006
-17.1044 -11.055 -2.24554
-15.9008 -11.763 -2.40471
-15.7575 -11.833 -2.42029
-15.0938 -12.5764 -2.73564
-20.2545 -10.6128 -2.18952
-18.5987 -10.7343 -1.18929
-18.5359 -10.7946 -1.02442
-15.4942 -12.4707 -1.5472
-16.8324 -11.6159 -0.940287
-18.7673 -11.0021 -0.652219
-16.7357 -11.7304 -0.607962
-16.5215 -11.6732 -0.189242
-17.4693 -11.1191 0.421136
-16.879 -11.5416 0.346012
-15.5462 -11.4516 -2.83571
-20.3285 -10.3843 -2.8454
-15.9897 -11.5887 -2.33877
-17.0873 -11.3521 -1.99011
-16.9956 -11.3953 -1.96319
-18.0822 -11.0432 -1.50876
-16.809 -11.5271 -1.48813
-16.7088 -11.5774 -1.36438
-16.7205 -11.56 -1.27157
-16.7714 -11.6421 -1.00942
-16.8506 -11.6393 -4.25233
-16.9043 -11.4331 -1.95346
-17.1 -11.3363 -0.986067
-17.4513 -11.4775 -0.131696
-16.2949 -12.036 -0.114653
-17.023 -11.3043 -1.95495
-16.0151 -12.0289 -1.22606
-16.6094 -11.7868 -0.81532
-16.0346 -11.5454 -2.47744
-17.1629 -11.1533 -1.99516
-16.4079 -11.5486 -1.7447
-15.5106 -12.4831 -1.80438
-16.4216 -11.6555 -1.2994
-15.4234 -12.3832 -2.90212
-17.6873 -11.1243 -1.51352
-15.5454 -12.6133 -1.90759
-16.6467 -11.036 -3.12714
-17.0859 -10.9573 -2.89687
-17.2066 -11.0164 -2.80659
-15.2804 -12.144 -2.87211
-16.782 -11.5346 -0.341944
-16.0569 -9.89686 1.85178
-22.4856 -8.58733 -5.0467
-19.9054 -10.3768 -4.94229
-20.372 -10.2169 -4.63939
-19.8921 -10.3426 -4.61911
-19.9102 -10.3456 -4.59532
-20.1823 -10.2987 -4.30542
-19.8716 -10.4578 -4.22605
-19.7968 -10.4824 -4.15838
-20.2156 -10.3457 -4.0696
-20.2771 -10.3576 -4.0192
-20.3708 -10.2775 -3.46367
-19.2913 -10.6813 -3.87322
-17.7988 -11.3886 -4.561
-17.799 -11.2251 -4.44465
-17.6119 -11.3571 -4.43891
-20.8188 -10.1224 -3.07679
-18.4193 -11.0026 -4.13998
-16.7628 -11.5044 -4.24428
-20.2128 -10.4271 -2.9256
-17.0085 -10.8253 -2.95404
-16.5278 -11.7494 -4.02944
-16.8692 -11.0463 -2.90802
-18.6199 -11.1451 -3.11036
-17.9205 -10.9024 -2.26661
-17.9107 -10.926 -2.34079
-16.0983 -11.9728 -3.9467
-16.8647 -11.1583 -2.59847
-20.5768 -10.5839 -1.46207
-15.8396 -12.2362 -4.0415
-17.0106 -11.208 -2.26113
-16.4768 -11.4725 -2.5284
-16.1038 -12.1672 -3.68325
-19.4879 -10.9213 -1.79955
-16.3156 -11.3885 -2.55442
-21.8115 -9.95803 -0.34853
-16.2731 -11.5553 -2.52888
-15.9757 -12.1779 -3.47246
-20.3762 -10.6535 -0.968186
-15.3784 -12.3866 -3.53808
-15.1731 -12.3299 -3.70953
-15.3217 -12.3245 -3.58012
-15.921 -11.5835 -2.17342
-14.7274 -12.6002 -3.48664
-15.934 -11.7148 -2.15253
-20.858 -10.5646 0.20295
-20.3519 -10.7943 -0.0390184
-17.0158 -9.61768 1.38735
-14.6613 -12.6824 -3.29501
-14.5522 -12.8166 -3.46232
-14.5586 -12.7254 -3.34907
-14.4872 -12.7325 -3.42362
-14.3629 -12.7605 -3.50966
-18.7594 -10.6026 0.313786
-15.192 -12.5341 -2.91152
-15.112 -12.5599 -2.78674
-17.2101 -11.3552 -0.828696
-18.1813 -10.8717 0.345955
-18.2066 -10.7967 0.507895
-16.7364 -11.4879 -0.690409
-15.2531 -12.62 -2.30311
-16.6859 -11.4002 -0.454561
-15.3006 -12.5112 -2.29199
-16.6846 -11.5251 -0.342739
-16.2211 -11.8315 -0.842897
-17.5878 -11.1189 0.370383
-16.2478 -11.8167 -0.874205
-17.4569 -11.4203 -0.105457
-17.359 -11.2244 0.272552
-15.0829 -12.643 -2.08902
-17.1626 -11.2818 0.55459
-16.5735 -11.7708 -0.142333
-16.4586 -11.8209 -0.0991476
-16.5625 -11.8535 -0.0316479
-16.4088 -11.8404 -0.162875
-16.3523 -11.9576 -0.272484
-16.362 -11.9343 -0.124294
-16.0665 -12.2541 -0.107647
-20.037 -10.335 -4.63254
-20.0393 -10.3394 -4.28339
-18.2312 -10.9947 -4.70586
-19.6946 -10.4496 -3.90985
-20.4883 -10.2131 -3.62505
-19.5373 -10.6039 -3.95894
-19.1759 -10.7739 -3.93859
-17.3253 -11.5214 -4.33225
-17.3629 -10.776 -2.87082
-17.3919 -11.4198 -4.18411
-16.5559 -11.6397 -4.08884
-16.6019 -11.1289 -3.03353
-15.9285 -11.4677 -3.37142
-15.8599 -11.5217 -3.36668
-16.4244 -11.9078 -4.04166
-16.8776 -11.2263 -2.46536
-17.0243 -10.9949 -2.14147
-19.0006 -11.0293 -2.11099
-17.0862 -11.2271 -2.14226
-16.9724 -11.1603 -2.11022
-16.1795 -11.4951 -2.47473
-15.9718 -12.2109 -3.56154
-15.7748 -12.2267 -3.43022
-16.1726 -11.4185 -2.20497
-15.869 -12.2319 -3.2677
-15.9196 -11.6048 -2.1414
-15.9904 -11.5946 -2.1243
-16.8804 -11.4745 -1.87272
-15.9313 -11.5131 -2.05781
-20.227 -10.7388 -0.535605
-20.2805 -10.8552 -0.17917
-15.4562 -12.466 -2.75448
-14.6061 -12.6945 -3.38352
-17.9537 -11.3231 -0.915292
-18.3623 -11.233 -0.717014
-17.8813 -11.3256 -0.89122
-18.3179 -11.384 -0.57737
-16.7442 -11.6597 -1.08674
-17.3819 -11.3601 -0.611408
-16.1168 -9.92342 1.45389
-18.2617 -10.8741 0.433051
-15.0066 -12.7138 -2.69174
-18.2537 -10.9011 0.465865
-16.7266 -11.6108 -0.689928
-15.3548 -12.5817 -2.14964
-17.3603 -11.4674 -0.0738893
-16.6079 -11.5063 -0.273725
-16.2007 -11.8857 -0.707842
-16.3531 -11.9049 -0.607222
-16.3965 -11.8192 -0.422784
-16.9039 -11.385 0.42327
-16.4831 -11.77 -0.231959
-16.5167 -11.7907 0.0422108
-15.7154 -12.2711 -0.835755
-16.221 -11.9747 -0.140697
-16.1685 -11.9917 -0.194393
-15.7789 -12.3702 -0.780738
-16.15 -12.1825 -0.087091
-22.2719 -8.83433 -4.84433
-20.2081 -10.1838 -4.44594
-20.1197 -10.3165 -4.295
-16.5568 -11.6958 -4.02299
-16.6143 -11.1828 -2.4705
-15.6364 -11.5583 -2.69944
-15.5846 -12.3372 -3.48599
-15.0125 -12.5451 -3.83848
-15.9456 -11.6268 -2.04087
-19.9752 -10.8661 -0.778841
-15.0576 -12.4549 -3.43224
-15.1715 -12.4277 -3.57518
-16.0785 -11.6696 -1.90792
-15.0174 -12.5067 -3.40853
-15.0557 -12.5171 -3.48316
-15.0301 -12.577 -3.50305
-15.0118 -12.5381 -3.372
-20.3357 -10.6906 -0.1098
-18.8132 -10.6457 0.358969
-15.3159 -12.4864 -2.87737
-17.3914 -11.3434 -0.924279
-17.1998 -11.3246 -0.921294
-18.173 -10.8442 0.361217
-17.905 -11.0318 0.269797
-16.6828 -11.5335 -0.311589
-16.2774 -11.8968 -0.461394
-16.4313 -11.8105 -0.153478
-15.8436 -12.2225 -0.719345
-15.9715 -12.1651 -0.640845
-16.385 -11.8592 0.0191171
-16.1216 -12.0632 -0.119452
-19.1197 -10.8726 -3.73727
-17.0262 -10.8646 -2.96281
-15.974 -11.5966 -2.05373
-18.7064 -10.8426 -0.172702
-15.3731 -12.5601 -2.82371
-18.6622 -10.9128 -0.173296
-18.1874 -10.8301 0.3211
-18.3286 -10.7746 0.576505
-16.7748 -11.4755 -0.370409
-17.5629 -11.1402 0.326797
-16.7397 -11.524 0.329704
-16.6629 -11.5322 0.421707
-16.4262 -11.619 0.373931
-16.6446 -11.6104 0.563497
-16.34 -11.787 0.361428
-16.3433 -11.6211 0.538126
-16.2244 -11.7448 0.483984
-17.0831 -11.4001 -1.85369
-16.8075 -11.6593 -0.885111
-16.3703 -11.6262 0.34576
-22.3443 -8.84761 -4.76171
-17.0869 -11.3536 -1.76308
-18.0369 -11.1287 -1.4965
-15.4869 -11.9685 -1.94867
-15.5939 -11.9781 -1.85162
-16.8057 -11.6451 -1.03268
-16.7679 -11.5361 -0.901239
-15.7098 -12.2583 -1.01533
-16.2708 -11.8931 -0.274909
-15.658 -12.3236 -0.855412
-16.9262 -11.1576 -2.17265
-16.6418 -11.3582 -2.00535
-16.4946 -11.8738 -0.42204
-15.7971 -12.2855 -1.05272
-17.2573 -11.1218 -1.90202
-18.725 -10.7398 -1.08402
-18.083 -10.9954 -1.49734
-16.7388 -11.5272 -1.31431
-16.1222 -12.0672 -1.19164
-18.2323 -10.8965 -1.2341
-16.6127 -11.7462 -0.803366
-17.4246 -11.4471 -0.881943
-16.0426 -11.7806 -1.44789
-16.7664 -11.5834 -0.870603
-16.6095 -11.5246 -3.75454
-18.4276 -11.019 -1.19893
-15.5383 -12.4595 -1.90871
-20.1284 -10.2293 -4.54928
-20.0839 -10.3037 -4.52007
-21.7948 -10.1001 -0.225292
-21.8284 -10.0873 -0.0315323
-21.8711 -10.0676 -0.00767612
-19.5143 -10.6731 -4.58193
-19.4579 -10.6476 -3.87716
-18.9752 -10.7791 -4.62247
-19.6106 -10.7233 -2.82552
-20.4629 -10.7417 -0.245216
-18.6719 -10.6618 -0.867431
-18.4579 -11.1128 -4.04562
-20.1847 -10.8909 -0.230875
-17.2394 -11.003 -2.52103
-17.4271 -11.3237 -4.47715
-18.2357 -10.8073 0.303182
-16.9222 -11.0675 -2.13494
-16.4883 -11.245 -3.01316
-16.6108 -11.7561 -3.97184
-17.2612 -11.4165 -1.03832
-16.8057 -11.5352 -1.66616
-15.7402 -11.6727 -3.21765
-17.3501 -11.4285 -0.0412867
-16.1464 -11.5862 -1.99032
-16.2354 -11.9012 -4.03174
-16.7203 -11.4987 -0.340036
-16.652 -11.4323 -0.366668
-16.6483 -11.4101 -0.419828
-16.6567 -11.5396 -0.326849
-16.6083 -11.5781 -0.437054
-15.9495 -11.754 -2.19568
-15.4895 -12.0541 -1.82969
-15.9153 -12.1691 -0.801824
-17.3477 -10.6584 -2.7144
-17.6432 -10.8677 -2.89615
-18.4246 -11.1028 -4.08852
-17.0162 -11.0489 -3.35549
-16.8787 -11.0294 -3.51254
-17.5211 -11.0158 -2.49217
-17.4532 -11.3746 -4.31532
-17.9676 -11.1304 -1.63734
-18.2221 -10.8391 0.493143
-16.372 -11.2814 -2.98965
-17.5689 -11.2684 -1.46526
-16.6116 -11.2525 -2.47875
-16.434 -11.4089 -2.47441
-16.5135 -11.729 -4.12097
-17.536 -11.1663 0.423414
-17.4748 -11.3753 -0.595058
-17.3133 -11.4238 -0.54036
-17.1853 -11.4465 -0.721026
-17.333 -11.4062 -0.259424
-16.1225 -11.6089 -1.94386
-15.6946 -11.7739 -3.03318
-16.0445 -11.6186 -1.96697
-16.9517 -11.4154 0.437812
-15.8106 -12.0915 -4.03304
-19.1122 -10.6529 -4.89415
-16.6131 -9.73421 1.34027
-18.5227 -10.8919 -0.902646
-17.8039 -10.9992 -2.19629
-18.5611 -10.6558 0.331403
-17.0711 -11.1723 -2.21592
-16.6109 -11.6307 -4.00882
-16.6355 -11.7924 -4.07809
-16.4503 -11.7566 -4.0774
-17.1411 -11.3643 -1.04593
-15.9586 -11.5836 -3.10223
-17.4118 -11.4131 -0.0731416
-16.7871 -11.5289 0.376683
-15.6625 -12.2594 -3.48646
-16.5023 -11.9097 -0.138587
-16.2483 -11.8712 0.0484595
-16.355 -11.9044 0.0241907
-15.3797 -12.5142 -2.71609
-17.9459 -10.897 0.345064
-16.2817 -11.4478 -3.41086
-16.7573 -11.6528 -1.24121
-16.748 -11.452 0.538034
-15.1476 -12.6798 -2.18331
-19.1901 -10.7661 -3.83538
-18.4498 -11.2307 -0.333923
-18.358 -11.2649 -0.174377
-15.992 -11.551 -2.19139
-16.7744 -11.6743 -1.08528
-16.7878 -11.5954 -1.20884
-16.0908 -12.0771 -3.64533
-16.4768 -11.8132 -0.671125
-15.7846 -11.858 -2.1192
-15.3931 -11.9645 -1.83799
-22.4466 -8.57825 -5.0279
-16.9448 -9.57037 1.41297
-16.2575 -11.901 -0.875655
-17.8602 -10.9194 -2.22332
-17.1609 -11.3805 -1.43418
-16.7399 -11.619 -1.06746
-15.9572 -12.1088 -1.31758
-18.6218 -10.7287 0.292417
-18.2361 -10.9839 -1.45096
-17.9006 -11.082 -1.66643
-17.0631 -11.1159 -2.18762
-16.949 -11.5538 -0.920787
-16.6645 -11.6898 -0.91481
-15.9772 -11.7931 -1.81983
-15.9902 -11.878 -2.08209
-17.2897 -11.3999 -1.33535
-15.8734 -11.8672 -2.09813
-15.7868 -11.7304 -2.32054
-21.7762 -9.9465 -0.0580926
-21.7959 -10.0428 -0.0341613
-21.7384 -9.94772 -0.235473
-21.8322 -10.0851 -0.322795
-20.2992 -10.5973 -1.29472
-20.2762 -10.4511 -2.64302
-17.513 -11.3622 -0.223389
-17.466 -11.4599 -0.2479
-17.4941 -11.3685 -0.561778
-19.0038 -10.8319 -4.67985
-16.8421 -11.5462 -0.243109
-18.917 -10.8819 -4.60503
-17.3335 -11.0664 -2.13573
-16.6513 -11.4822 -0.307652
-16.656 -11.4881 -0.345232
-16.9734 -11.1759 -2.22561
-18.4476 -11.0575 -4.14253
-16.9528 -11.415 -1.40889
-16.717 -11.567 -1.7177
-16.3283 -11.9803 -0.160244
-16.3204 -12.0085 -0.111693
-16.2681 -11.8382 -0.730333
-17.6386 -11.3144 -4.35877
-17.5672 -11.4192 -4.29836
-16.0738 -12.2083 -0.339104
-15.9082 -11.6135 -2.15817
-15.8794 -11.6348 -2.14939
-15.9587 -11.6322 -2.15541
-16.1655 -12.2535 -0.390567
-16.0915 -12.1618 -0.63566
-15.99 -11.6903 -2.25962
-16.0417 -11.5154 -3.20998
-15.9013 -11.4659 -3.44169
-16.1381 -11.5819 -3.16095
-15.8732 -12.1501 -1.3177
-16.516 -11.6676 -4.00997
-16.5459 -11.6671 -4.13861
-15.6244 -12.2591 -3.66533
-15.259 -12.5274 -3.52075
-14.3812 -12.7795 -3.48297
-16.1924 -9.65617 1.8407
-22.3464 -8.92007 -4.78976
-22.3428 -8.84877 -4.80418
-20.5511 -10.3851 -2.01948
-18.233 -10.8616 0.455981
-18.209 -10.83 0.321464
-17.691 -11.2168 0.271494
-19.0493 -11.098 -2.16768
-17.3165 -10.7442 -2.80216
-17.4259 -11.395 -0.557553
-17.2775 -11.4422 -0.562134
-18.749 -10.9035 -4.40746
-16.7053 -11.4933 -0.397623
-17.0239 -11.0334 -2.26113
-18.6105 -10.8901 -4.82684
-16.3222 -11.8205 -0.0280056
-16.3358 -11.8309 -0.176143
-16.4131 -11.756 -0.586484
-16.2826 -11.8367 -0.545699
-16.2463 -11.7905 -0.976306
-16.2754 -11.8464 -0.618392
-17.5587 -11.343 -4.38774
-17.5374 -11.4464 -4.4431
-16.303 -11.3505 -3.50962
-15.9291 -11.3931 -3.43362
-15.9463 -11.6056 -3.23967
-16.6679 -11.6199 -4.09711
-16.7108 -11.668 -4.08612
-16.5699 -11.7627 -4.12012
-16.5429 -11.6888 -4.07417
-15.6528 -12.245 -2.79255
-15.126 -12.5315 -2.32389
-22.2337 -8.86491 -4.9152
-22.3293 -8.84868 -4.98158
-17.7851 -10.872 -2.27318
-17.7925 -10.9493 -2.18868
-16.7661 -11.482 0.349575
-17.3178 -11.3954 -0.96488
-16.3196 -11.6206 0.529181
-16.3015 -11.963 -0.248006
-16.4131 -11.9014 -0.616506
-16.2649 -11.8598 -0.593236
-16.2379 -11.9478 -0.558011
-15.8395 -12.2208 -0.820443
-15.4191 -12.1371 -1.77957
-17.0501 -11.1194 -2.27839
-16.3215 -11.5814 0.4525
-16.8617 -11.6256 -1.17624
-16.5252 -11.8468 -0.0852463
-16.3326 -11.9717 -0.145002
-16.0811 -12.1223 -3.75122
-22.2887 -8.95765 -4.69134
-22.2755 -8.955 -4.78164
-22.2507 -8.89532 -4.83026
-20.3021 -10.4287 -2.65446
-19.2812 -10.7325 -3.76037
-16.8218 -11.5869 -0.372797
-16.1921 -11.7033 0.511755
-15.9767 -11.4655 -2.23305
-16.3109 -11.3563 -3.42085
-15.6639 -12.3014 -1.13966
-15.6788 -12.3256 -2.87413
-14.6426 -12.7242 -3.27104
-14.503 -12.7842 -3.23791
-16.9711 -11.0593 -3.60092
-15.1036 -12.5864 -3.4491
-16.9856 -11.5275 -0.911734
-17.1146 -11.2811 -1.75197
-16.7119 -11.6486 -1.23914
-16.8043 -11.6096 -0.973283
-16.0781 -11.9437 -0.960654
-18.0124 -10.7605 -2.27504
-16.7208 -11.6419 -1.12521
-15.9904 -11.8024 -2.25378
-15.6732 -12.1662 -1.21172
-15.6037 -12.1474 -1.34937
-15.5214 -12.4504 -2.97832
-16.9474 -11.4639 -1.3069
-16.5473 -11.78 -0.419517
-15.5056 -11.9589 -1.81556
-18.5611 -10.9266 -1.24306
-16.1583 -9.63079 1.91351
-21.9486 -9.33244 1.32661
-20.2393 -10.8216 -0.0681741
-20.0906 -10.9186 -0.536222
-20.5087 -10.3843 -1.57164
-18.6846 -10.5946 -1.00301
-22.2952 -8.90702 -4.78325
-16.4502 -11.6236 0.533956
-17.4042 -11.5019 -0.0841913
-17.387 -11.4129 -0.120583
-17.3094 -11.4338 -0.189328
-16.2575 -11.6851 0.508991
-17.4686 -11.369 -0.593889
-17.3245 -11.4447 -0.522862
-16.6109 -11.4764 -0.349767
-16.5202 -11.4611 -0.225291
-17.5027 -11.2887 -0.736944
-16.6879 -11.5277 -0.219307
-19.528 -10.7474 -2.82659
-16.3377 -11.893 -0.210023
-16.6631 -11.7508 -0.428329
-16.3334 -11.9066 -0.277919
-16.3635 -11.8884 -0.399711
-17.8024 -10.9135 -2.20469
-16.3765 -11.8896 -0.62102
-16.281 -11.865 -0.68126
-17.0012 -11.3308 -1.54479
-16.2423 -11.8348 -0.708468
-16.9435 -11.3747 -1.70014
-17.2222 -11.1142 -2.11915
-17.1386 -11.0706 -2.25175
-16.28 -11.7603 -0.956446
-16.7891 -11.5861 -1.68998
-19.6769 -10.4546 -4.59103
-16.6266 -11.6044 -1.67031
-18.9811 -10.7552 -3.89641
-16.5331 -11.5559 -1.66558
-16.5604 -11.5395 -1.67234
-16.4031 -11.6401 -1.56086
-19.0364 -10.7146 -4.59602
-16.1793 -11.524 -2.23368
-15.9809 -11.5508 -2.15804
-18.2422 -11.1137 -4.36475
-15.9583 -11.6508 -2.20466
-15.8139 -11.6143 -2.18163
-15.8943 -11.7524 -2.03576
-15.8474 -11.7013 -2.10895
-15.8719 -11.6939 -2.09932
-17.5366 -11.3977 -4.28237
-15.347 -11.8331 -2.1
-17.5098 -11.3721 -4.29796
-15.5545 -11.9212 -2.24029
-16.0431 -11.4877 -3.10718
-15.9491 -11.5905 -3.16247
-16.0857 -11.5186 -3.21492
-16.0541 -11.6632 -3.09447
-16.1006 -11.5965 -3.14336
-15.8623 -11.6051 -3.11253
-15.8885 -11.6154 -3.10548
-16.7978 -11.5681 -4.17629
-16.6997 -11.6238 -4.13907
-16.6532 -11.5066 -4.169
-16.6365 -11.5237 -4.02917
-16.8853 -11.6445 -4.05208
-15.3365 -12.5753 -2.04116
-16.6057 -11.7258 -4.18677
-15.2453 -12.6272 -2.85051
-14.8944 -12.6608 -2.80877
-15.1741 -12.4658 -3.546
-15.0382 -12.4994 -3.47723
-14.7671 -12.5635 -3.59356
-14.6148 -12.7338 -3.45934
-20.4103 -10.7637 -0.176431
-20.2751 -10.7978 -0.129565
-16.5614 -11.5625 0.393959
-17.4542 -11.3123 -0.546746
-18.0147 -11.3123 -0.901027
-16.6593 -11.3766 -0.181533
-17.3059 -11.3586 -0.653776
-16.6381 -11.5116 -0.336787
-16.6037 -11.5333 -0.374382
-16.6126 -11.6916 -0.206922
-20.0953 -10.6032 -3.18127
-19.5682 -10.8169 -2.52476
-19.4797 -10.7844 -2.68029
-16.2927 -11.9613 -0.0549791
-16.0616 -11.9894 -0.177658
-17.0851 -11.1541 -2.0485
-16.1984 -11.7874 -1.01198
-16.8832 -11.3527 -1.98962
-19.3185 -10.6395 -4.56195
-15.7222 -12.3349 -0.744838
-16.1413 -11.4694 -2.14078
-16.1109 -11.39 -2.12201
-15.5356 -12.2165 -1.11502
-15.8852 -11.4621 -2.09566
-15.9435 -11.4621 -2.17687
-15.9812 -11.9384 -1.86725
-15.5022 -11.9486 -1.80507
-15.5028 -12.0863 -1.80408
-17.5036 -11.3462 -4.34741
-17.6136 -11.4098 -4.25149
-17.5004 -11.3562 -4.26802
-17.6331 -11.3948 -4.30154
-15.3681 -11.9887 -2.06553
-15.9362 -11.4655 -3.3643
-16.8146 -11.6294 -4.20183
-16.7334 -11.6655 -4.19594
-16.641 -11.7457 -4.03761
-15.4371 -12.5466 -2.32011
-16.3639 -11.9691 -3.99359
-15.2541 -12.4725 -3.25934
-16.5228 -9.75385 1.26867
-18.3348 -10.8402 0.470927
-18.5043 -10.7695 0.290492
-18.1432 -10.8449 0.358011
-18.2313 -10.9933 0.276452
-19.8022 -10.9705 -0.478712
-16.6867 -11.5442 -0.149626
-16.6384 -11.4947 -0.238229
-16.5915 -11.5866 -0.262299
-16.7097 -11.5585 -0.332625
-16.2904 -11.9966 -0.414768
-17.7668 -11.0309 -2.14402
-16.0332 -12.1299 -1.32065
-16.1466 -11.3906 -2.22198
-15.9997 -11.6629 -1.93953
-15.3384 -11.8708 -2.06648
-16.0903 -11.4915 -3.16643
-14.9321 -12.7651 -2.66093
-18.3161 -10.8517 0.336274
-17.4457 -11.5224 -0.222003
-16.6245 -11.4681 -0.226373
-16.9915 -11.4326 -1.45984
-15.8799 -12.2773 -0.709013
-15.4741 -12.1885 -1.42344
-17.544 -11.4319 -4.40251
-16.0317 -11.6554 -3.17185
-16.643 -11.6462 -4.26605
-15.2957 -12.5158 -2.74352
-14.5275 -12.7572 -3.22036
-17.8756 -10.9636 0.26769
-16.8421 -11.4181 -1.93822
-16.7606 -11.4652 -1.88124
-16.2025 -11.476 -3.36114
-15.8456 -11.6634 -3.06267
-15.3076 -12.604 -2.15516
-15.0455 -12.592 -3.56498
-17.0853 -11.505 -1.46033
-15.8996 -11.5505 -3.23534
-16.8516 -11.4681 -0.816645
-17.0357 -11.0415 -1.84537
-17.232 -11.0069 -1.7935
-17.0682 -11.1326 -1.65762
-16.5899 -11.6918 -1.01317
-17.0563 -11.2385 -1.89348
-16.8403 -11.4324 -1.7634
-16.4668 -11.6022 -1.61436
-16.2735 -11.6508 -1.43036
-16.4207 -11.6085 -1.53195
-16.6342 -11.4873 -0.291194
-16.8606 -11.6588 -0.76887
-18.1737 -10.7742 -2.54337
-15.6032 -12.0438 -1.80794
-17.996 -10.8048 -1.96832
-15.6487 -12.4142 -2.63406
-18.8212 -11.0333 -0.74901
-16.0933 -9.56962 2.07904
-16.0718 -9.83647 1.95984
-16.4479 -9.87045 1.12999
-20.7454 -10.579 0.162695
-18.7363 -10.606 0.308047
-20.3806 -10.6592 -0.0220957
-20.009 -10.8814 -0.50982
-16.5253 -11.535 -0.197292
-16.6209 -11.5235 -0.283885
-16.5678 -11.4712 -0.374538
-16.5866 -11.6639 -0.307592
-16.6728 -11.649 -0.257596
-16.7265 -11.4067 -0.463412
-16.2415 -11.9396 -0.443728
-20.2505 -10.3989 -2.80559
-16.1687 -11.6894 -0.941149
-19.1224 -11.0495 -2.36361
-19.5904 -10.704 -2.65714
-17.9589 -10.929 -2.0816
-22.3944 -8.52232 -4.95484
-17.0171 -11.1711 -2.17131
-16.1601 -11.4525 -2.03665
-16.0925 -11.4809 -2.04868
-15.9153 -11.6766 -2.0775
-15.9138 -11.5188 -2.23001
-19.6141 -10.428 -4.60475
-15.8792 -11.6469 -2.31424
-15.3648 -12.5467 -1.7825
-16.9054 -11.0596 -3.50799
-15.4154 -12.649 -2.08618
-17.9187 -11.2441 -4.03446
-16.0019 -11.4675 -3.19021
-16.0762 -11.5177 -3.20127
-16.2754 -11.3527 -3.38525
-17.5836 -11.4581 -4.25974
-15.366 -12.4475 -2.86255
-15.8042 -12.2052 -3.14786
-16.6224 -11.7165 -4.24158
-16.1075 -12.0614 -4.10119
-15.5465 -12.2418 -3.72349
-14.9424 -12.4854 -3.47758
-18.2692 -10.8583 0.427447
-18.0578 -11.0063 0.235631
-16.6157 -11.5905 -0.201891
-16.735 -11.4584 -0.289954
-16.6195 -11.483 -0.255394
-16.6602 -11.4781 -0.1442
-16.6024 -11.396 -0.262936
-16.4331 -11.7339 -0.140022
-20.3557 -10.4218 -2.89319
-20.3296 -10.4107 -3.15509
-16.0483 -12.1318 -0.971402
-22.2495 -8.86142 -4.69322
-15.9111 -11.6832 -2.04968
-15.955 -11.7807 -2.05456
-16.0543 -11.4243 -2.12484
-15.5846 -12.6063 -1.51768
-15.3748 -12.642 -1.50127
-15.2592 -12.6714 -1.84983
-15.4274 -12.6031 -2.30116
-18.2745 -11.0981 -4.30559
-19.2549 -10.5946 -5.12037
-15.2309 -12.6544 -2.22836
-15.2051 -12.5827 -2.16517
-15.8229 -11.6715 -3.00323
-15.834 -11.6498 -3.00476
-16.7177 -11.6892 -3.97703
-16.8311 -11.57 -4.14836
-16.7828 -11.5967 -4.21236
-16.8103 -11.5431 -4.23462
-16.746 -11.6852 -4.13209
-16.2579 -12.0364 -3.78597
-14.7388 -12.6903 -2.89681
-14.956 -12.6037 -3.4508
-14.5449 -12.7166 -3.35571
-14.4123 -12.8009 -3.50084
-18.4491 -10.6781 0.228772
-17.5841 -11.1032 0.517977
-16.3964 -11.6716 0.596246
-16.7613 -11.5045 -0.326999
-16.6972 -11.4854 -0.228216
-16.7452 -11.5649 -0.286477
-16.6611 -11.3773 -0.33726
-16.6679 -11.631 -0.492234
-16.3298 -11.9427 -0.500879
-16.3802 -11.781 -1.06048
-19.4086 -10.7288 -2.57836
-15.8317 -12.1468 -0.803645
-19.4709 -10.8391 -2.73341
-15.8533 -11.7447 -1.16251
-16.994 -11.1358 -2.0655
-17.0274 -11.2293 -2.05153
-16.0019 -12.0578 -1.39758
