-15.9916 -11.974 -2.71986
-19.8879 -11.041 0.0613669
-19.8997 -11.1005 0.00883826
-18.1919 -11.2646 -0.31926
-16.0296 -12.3026 -4.08336
-16.2694 -12.2349 -3.5968
-15.885 -12.1293 -2.45952
-19.5994 -11.2893 0.173142
-15.9993 -11.9893 -2.27481
-16.9757 -11.9445 -1.58761
-15.9409 -12.1423 -2.35261
-20.1499 -11.2527 1.015
-15.5499 -12.5987 -4.13061
-19.6058 -11.4026 0.337547
-16.0552 -12.179 -2.37582
-16.6686 -12.0254 -1.73187
-15.4819 -12.662 -4.10566
-17.637 -11.8204 -1.00466
-16.0288 -12.5078 -3.49694
-16.0117 -12.5216 -3.5047
-16.5875 -12.0995 -1.76239
-16.0509 -12.5016 -3.39972
-16.4897 -12.0399 -1.80214
-15.831 -12.3332 -2.62531
-20.0376 -11.2627 1.18121
-15.8407 -11.0792 1.59322
-19.645 -11.4245 0.822044
-15.9299 -12.2802 -2.08492
-16.4472 -12.1826 -1.70359
-15.9619 -11.0473 1.84099
-17.0709 -12.0476 -1.01661
-15.1243 -12.8924 -4.20367
-14.972 -12.9599 -4.30723
-15.0993 -12.9098 -4.1
-14.9048 -12.9679 -4.3294
-17.7006 -12.0134 -0.702498
-14.9247 -12.9116 -4.27916
-15.7479 -12.7447 -3.38348
-17.5502 -12.0225 -0.649115
-17.9728 -11.8469 -0.266672
-17.5135 -12.0095 -0.667661
-17.9446 -11.5899 0.730798
-15.7323 -12.7436 -3.35894
-17.8733 -11.7 0.78554
-15.6077 -12.8448 -3.25998
-15.538 -12.8716 -3.50423
-17.8003 -11.829 0.825094
-17.0793 -12.1785 -0.663865
-17.064 -12.1998 -0.523749
-15.025 -11.313 2.03411
-16.9237 -12.1259 -0.513114
-15.4178 -12.915 -3.38608
-15.3326 -12.7847 -2.50275
-16.9409 -12.2672 -0.575817
-16.5963 -12.4307 -1.17691
-15.4874 -12.9892 -3.01332
-16.0399 -12.5093 -1.25061
-16.3719 -12.4072 -0.925405
-16.3032 -12.4455 -0.895449
-15.6406 -12.9918 -2.88913
-16.3786 -12.4762 -0.566206
-17.0156 -12.338 -0.169032
-15.9473 -12.7283 -1.76857
-16.2881 -12.3895 -0.458134
-16.303 -12.3968 -0.505742
-15.9597 -12.713 -1.78106
-16.2013 -12.4382 -0.573946
-15.5414 -13.1395 -2.96598
-17.0156 -12.1271 0.578723
-15.9745 -12.8481 -1.65967
-15.4305 -13.0939 -2.94842
-16.1738 -12.4364 -0.585483
-16.9926 -12.4324 0.0649278
-15.955 -12.6448 -1.22428
-16.2679 -12.4101 -0.493305
-16.9057 -12.4355 -0.028785
-16.2082 -12.5265 -0.362405
-16.0825 -12.6129 -1.01356
-15.9833 -12.7707 -0.973258
-16.1688 -12.7375 -0.707115
-15.8781 -12.8872 -1.40282
-16.5551 -12.4493 0.756457
-16.2905 -12.5372 0.236741
-16.2884 -12.4477 0.242344
-16.1011 -12.7395 -0.405025
-15.9695 -12.9225 -0.744061
-16.1499 -12.7572 -0.518154
-16.163 -12.8987 -0.540038
-15.9878 -12.7841 -0.444914
-16.0473 -12.858 -0.579919
-15.7213 -13.0008 -1.32979
-15.6358 -13.0825 -1.4456
-16.0457 -12.8531 -0.403467
-15.9234 -12.9286 -0.996978
-15.8768 -13.015 -1.04849
-16.1102 -12.8306 0.181051
-15.9374 -12.9136 -0.445169
-16.0605 -12.9198 -0.433291
-15.771 -13.2206 -0.635213
-22.2442 -8.01173 -2.63974
-20.5001 -9.79278 -2.59166
-18.7556 -10.6034 -4.07796
-18.3682 -10.6897 -4.15833
-18.8092 -10.6259 -3.70738
-18.3313 -10.9175 -4.02064
-18.1304 -10.9266 -3.95302
-18.7073 -10.8047 -3.44992
-19.5654 -10.4255 -2.7031
-17.1748 -11.0478 -3.28648
-17.1139 -11.0942 -3.31891
-17.3242 -10.9113 -2.52437
-20.0638 -10.4072 -1.53872
-17.155 -11.3857 -4.12076
-16.925 -11.5569 -4.13116
-17.0208 -11.623 -4.04378
-16.8763 -11.594 -4.12465
-16.2658 -11.5153 -3.49901
-16.2767 -11.581 -3.6058
-16.4892 -11.5842 -3.42703
-16.4258 -11.5645 -3.48089
-20.2243 -10.5331 -0.913168
-16.4658 -11.6068 -3.28297
-16.8635 -11.7462 -4.06536
-16.5605 -11.4914 -3.28298
-16.8015 -11.8299 -4.08267
-16.5824 -11.9631 -3.99604
-16.3289 -12.1239 -4.29896
-16.4063 -12.0467 -4.12756
-16.502 -11.6468 -2.46386
-20.1574 -10.8351 -0.124158
-15.9262 -11.912 -3.00495
-18.2175 -11.2984 -0.408574
-17.026 -11.7265 -1.89276
-15.8597 -12.4083 -4.25159
-16.1812 -11.8658 -2.44175
-16.1031 -12.0523 -2.3735
-16.8375 -11.7914 -1.86543
-16.8942 -11.8013 -1.9455
-16.1223 -11.8829 -2.32319
-16.1891 -12.4145 -3.71123
-16.0911 -12.0037 -2.38583
-16.0297 -12.0047 -2.4345
-16.1258 -12.0971 -2.18252
-15.9808 -12.1238 -2.38734
-15.3686 -12.7204 -4.33115
-15.5566 -12.678 -4.12878
-15.5552 -12.6364 -4.0476
-15.4494 -12.733 -4.08894
-15.4937 -12.6371 -4.06101
-19.6444 -11.4156 0.661506
-15.4682 -12.6864 -3.94108
-15.3944 -12.7134 -4.09907
-19.622 -11.4635 0.651849
-17.6532 -11.9788 -0.978986
-16.8741 -11.9483 -1.29496
-17.7439 -11.8544 -0.691417
-16.7797 -11.9966 -1.21888
-16.6734 -12.1162 -1.79284
-15.9459 -12.2557 -2.0512
-15.7647 -12.6423 -3.46005
-16.053 -12.2905 -2.02287
-15.4381 -12.4658 -2.57504
-17.1043 -12.0757 -0.889081
-15.8297 -12.7148 -3.37867
-16.9163 -12.1981 -1.13636
-18.0696 -11.6181 0.817221
-17.9857 -11.8942 -0.246004
-18.0408 -11.51 0.995874
-15.6793 -12.6862 -3.23886
-17.9498 -11.6595 1.01439
-16.9813 -12.2183 -0.624652
-17.4085 -11.7012 0.587736
-17.6435 -11.909 0.730729
-15.8828 -12.4131 -1.54211
-17.052 -12.3117 -0.449621
-17.0362 -12.1884 -0.402407
-15.7716 -12.4416 -1.59893
-17.4565 -11.8934 0.816672
-16.4945 -12.3243 -0.795723
-17.287 -12.0266 0.558321
-16.43 -12.4435 -0.910998
-16.0879 -12.4962 -1.22774
-15.6427 -13.0323 -2.85016
-17.0216 -12.0534 0.35287
-17.1494 -12.2007 0.727058
-17.0295 -12.1189 0.429538
-15.5077 -13.2259 -2.88059
-16.7447 -12.4968 -0.195706
-16.2167 -12.5017 -0.48659
-16.2322 -12.6036 -0.479484
-16.0951 -12.729 -0.839223
-15.5301 -13.1656 -2.47546
-15.6541 -12.8737 -1.61027
-15.9927 -12.7526 -0.85145
-16.1444 -12.7432 -0.673957
-16.0998 -12.8264 -0.711545
-16.319 -12.5005 0.356935
-16.0823 -12.756 -0.365937
-16.175 -12.7953 -0.432103
-15.6777 -13.0909 -1.44248
-15.6855 -13.0696 -1.27468
-16.0932 -12.8942 -0.326929
-15.8661 -12.9734 -0.578722
-15.952 -12.9772 -0.4228
-15.7901 -12.8241 0.239426
-15.9045 -13.2149 -0.663609
-19.6726 -9.95753 -3.86643
-18.9494 -10.5875 -3.4727
-20.3851 -10.1205 -1.81346
-17.223 -10.9566 -2.51877
-17.3178 -11.3982 -4.10895
-17.1789 -10.979 -2.56733
-17.1246 -11.0786 -2.64391
-16.5862 -11.1453 -3.02527
-17.0375 -11.5798 -4.11318
-16.6198 -11.2374 -2.90186
-16.5683 -11.4804 -3.37146
-16.7868 -11.8648 -4.09369
-19.5413 -10.865 -1.1288
-16.1353 -11.7993 -3.32022
-15.7583 -11.6758 -2.99845
-16.0666 -11.7908 -3.3593
-16.0252 -11.9328 -3.28929
-15.9417 -11.903 -3.09323
-16.0223 -12.3379 -4.17015
-16.3 -11.891 -2.36813
-16.0775 -12.122 -2.75997
-15.9219 -12.5053 -3.91141
-16.004 -12.015 -2.30296
-16.7916 -12.0061 -1.79252
-15.912 -12.0664 -2.41247
-15.602 -12.6227 -4.04377
-15.4447 -12.6212 -4.10743
-16.052 -12.0704 -2.33609
-19.7574 -11.4063 0.852207
-16.9544 -11.9303 -1.46047
-15.9702 -12.6931 -3.28329
-16.0748 -12.2463 -2.01814
-15.9541 -12.624 -3.2207
-16.4113 -12.1963 -1.68364
-15.5763 -11.2775 1.38635
-15.0634 -13.0025 -4.2941
-18.1523 -11.7406 0.335583
-15.1921 -12.9682 -4.1916
-15.4883 -11.1487 1.43667
-16.7907 -12.1277 -1.23672
-15.6535 -12.662 -3.53238
-18.1038 -11.5775 0.924775
-17.6292 -11.7571 0.797409
-17.5121 -11.8784 0.600946
-15.6958 -12.9243 -2.92168
-16.6817 -12.4202 -0.967396
-16.118 -12.5785 -1.24147
-15.9733 -12.7764 -1.75798
-16.3076 -12.3872 -0.514079
-17.0907 -12.2101 0.688308
-15.328 -13.155 -2.94572
-15.9858 -12.8315 -1.69134
-16.0086 -12.6324 -1.24718
-16.0352 -12.6846 -1.04456
-16.3996 -12.5291 0.242983
-16.0547 -12.7397 -0.773603
-16.0087 -12.7434 -0.859188
-15.9942 -12.8717 -0.608016
-16.0477 -12.8552 -0.534168
-16.0062 -12.8258 0.0383878
-15.7661 -12.8594 0.0507085
-15.8336 -12.8713 0.0102858
-15.9205 -12.9382 -0.388462
-15.8545 -12.9011 0.0942389
-22.3003 -8.06024 -2.70804
-19.1931 -10.1658 -3.91887
-18.8674 -10.6842 -3.47446
-16.8436 -11.653 -3.95705
-16.0912 -11.7591 -3.37796
-16.0921 -11.9159 -3.2678
-15.8993 -11.8637 -3.08296
-18.291 -11.2411 -0.587571
-18.1171 -11.367 -0.348552
-19.6052 -11.3974 0.6526
-16.8519 -12.0844 -1.40639
-18.2637 -11.6707 -0.136617
-16.854 -12.0349 -1.49028
-18.2608 -11.6341 -0.0998029
-16.9756 -12.0411 -0.888759
-14.9967 -12.989 -4.24445
-18.0646 -11.5828 0.995468
-18.0453 -11.8737 -0.22955
-17.6758 -11.6337 0.678664
-17.4098 -11.8732 0.721774
-17.3425 -11.9027 0.698192
-15.6029 -12.8665 -2.74106
-15.582 -12.8166 -1.99171
-16.2652 -12.5027 -0.534927
-16.5439 -12.4725 0.454759
-15.5776 -13.3303 -2.24066
-15.7662 -13.0275 -1.53644
-16.1241 -12.7639 -0.728487
-15.8775 -12.8685 -0.0711478
-15.9061 -12.8819 0.222103
-16.5653 -11.5729 -3.45656
-16.5899 -11.3516 -3.01411
-16.5178 -11.6149 -3.33483
-17.7123 -11.2275 -1.6205
-16.0134 -12.1641 -2.44663
-19.4356 -11.4694 0.52507
-15.3839 -12.5021 -2.60383
-15.1512 -12.9406 -4.04029
-16.6828 -12.0989 -1.39316
-15.6863 -12.7474 -3.41181
-16.5388 -12.2333 -1.13477
-16.5396 -12.4192 -1.1843
-16.6389 -12.4171 -1.04882
-17.3313 -11.9832 0.530743
-15.9847 -12.6692 -1.83075
-16.0265 -12.5539 -1.08341
-15.6171 -13.0597 -1.49389
-22.2014 -8.12712 -2.53306
-16.4703 -11.3681 -2.94882
-16.791 -11.7636 -4.22811
-17.7113 -11.2986 -1.60856
-16.9521 -11.707 -1.63253
-17.0735 -11.7897 -1.76605
-16.688 -12.0301 -1.90947
-15.994 -12.222 -2.49427
-15.954 -12.2823 -2.44478
-15.8244 -12.4095 -2.53408
-16.5479 -12.1661 -1.29845
-17.9019 -11.6207 0.859027
-16.6347 -12.2494 -1.22829
-15.4359 -12.5834 -2.5328
-16.5775 -12.2111 -1.02422
-16.5467 -12.283 -0.947861
-15.9414 -11.9697 -2.37693
-15.5972 -12.5845 -2.28934
-15.4885 -12.6064 -2.44192
-16.5158 -12.4326 -1.1414
-16.4726 -12.2214 -0.845054
-18.4957 -10.9918 -2.42219
-18.118 -11.4165 -0.559936
-16.0259 -12.2053 -2.78952
-16.3078 -12.1498 -1.84553
-16.1762 -12.4435 -1.36174
-16.1994 -12.6951 -0.509934
-17.5567 -11.2983 -1.86373
-16.6105 -11.8196 -1.93046
-16.0458 -12.0266 -2.70083
-16.7686 -12.1494 -1.56408
-15.8307 -12.3684 -2.27439
-16.7392 -12.1503 -1.26285
-16.5395 -12.2949 -1.55609
-16.0765 -12.1377 -2.27137
-17.8921 -11.0387 -2.07444
-16.5743 -12.3035 -0.980222
-15.5591 -12.9057 -2.76025
-15.6429 -12.9955 -2.49386
-16.4549 -12.0029 -3.89934
-15.0191 -11.313 2.0167
-15.9177 -11.0705 1.82496
-16.0052 -11.0861 1.66485
-15.8733 -11.0826 1.62441
-21.0165 -10.6281 1.41117
-22.3883 -7.65671 -2.63105
-21.0135 -10.5299 1.15229
-20.9391 -10.6704 1.22232
-21.0705 -10.363 0.583315
-17.9595 -11.6654 0.917659
-19.6077 -11.4871 0.88628
-20.2728 -10.7029 -0.285162
-19.5481 -11.4128 0.763174
-19.5763 -11.4312 0.913823
-20.1794 -10.782 -0.128847
-19.6156 -11.4301 0.695025
-21.3723 -9.02446 -2.74435
-17.8143 -11.7068 0.823391
-20.2743 -10.4771 -0.937623
-17.5182 -11.7945 0.768102
-17.3996 -12.0402 0.590828
-17.0513 -12.1058 0.679845
-19.4793 -11.0205 -0.978425
-19.9999 -10.2494 -2.08192
-20.2821 -10.0163 -2.63196
-16.8561 -12.2329 0.653061
-20.116 -10.2229 -2.55504
-20.2916 -9.65689 -3.31768
-19.74 -10.4414 -2.1553
-20.0295 -9.80568 -3.36935
-19.733 -10.1148 -3.15043
-19.8555 -9.94007 -3.46533
-19.3758 -10.6612 -2.36144
-19.5786 -10.3625 -2.9637
-19.562 -10.2915 -2.90901
-19.9358 -9.77594 -3.97616
-17.696 -11.9016 -0.710238
-19.015 -10.9168 -2.24571
-16.3725 -12.4506 0.169436
-17.5398 -12.0418 -0.620684
-16.9735 -12.3056 -0.235984
-17.1004 -12.1288 -0.694782
-19.1754 -10.4577 -3.30168
-16.0666 -12.6499 0.326376
-19.5727 -9.99575 -3.99686
-16.5095 -12.4163 -0.316872
-16.378 -12.3226 -0.438916
-15.8248 -12.7995 0.22198
-16.362 -12.2211 -0.479927
-18.6074 -11.0801 -2.43729
-16.3298 -12.2646 -0.524955
-16.3016 -12.3258 -0.411135
-19.0924 -10.3745 -3.68661
-19.1284 -10.2131 -4.02541
-18.8052 -10.769 -3.28672
-16.9545 -11.5584 -1.71247
-16.4499 -12.2719 -0.807581
-16.3243 -12.5731 -0.399731
-16.2748 -12.5196 -0.554525
-16.4586 -12.2637 -0.873878
-16.1255 -12.5537 -0.425467
-15.7059 -12.8723 -0.042529
-16.5566 -12.4532 -0.766617
-16.5379 -12.5079 -0.835132
-16.5751 -12.4336 -0.959289
-16.4463 -12.4182 -0.730229
-16.528 -12.5091 -0.647302
-16.135 -12.7209 -0.45393
-16.4863 -12.4651 -0.741477
-16.5871 -12.1158 -1.27717
-16.1487 -12.6715 -0.482202
-16.4871 -12.5253 -0.76541
-16.1179 -12.7975 -0.490888
-16.4097 -12.5033 -0.850507
-16.4042 -12.4225 -1.00583
-16.5019 -12.5575 -0.762308
-16.4276 -12.5202 -1.03251
-18.5838 -10.6225 -4.21284
-16.5134 -12.3612 -1.0996
-18.2683 -10.8737 -3.80056
-15.9291 -12.881 -0.513945
-18.0902 -11.1113 -3.67999
-16.3616 -12.1527 -1.73888
-16.0493 -12.7055 -0.980971
-16.0492 -12.788 -0.960687
-16.1096 -11.9781 -2.25723
-16.164 -11.7901 -2.27115
-17.9842 -11.1035 -3.94974
-15.9674 -12.5024 -1.28377
-16.0093 -12.0708 -2.45293
-15.8166 -13.0523 -0.830675
-17.6837 -11.1877 -4.11515
-17.4294 -11.3587 -4.04287
-17.152 -11.3699 -4.29099
-17.3069 -11.2538 -4.16504
-17.2617 -11.3562 -4.10929
-17.1529 -11.4959 -4.07268
-17.2356 -11.3637 -4.14671
-17.0852 -11.5395 -4.13543
-17.0313 -11.4337 -4.02652
-15.6961 -12.8593 -1.7471
-16.8892 -11.5349 -4.19739
-16.887 -11.5909 -4.18111
-16.8821 -11.7233 -4.19525
-16.5842 -11.9608 -3.87046
-16.6345 -12.0442 -4.3288
-15.8405 -12.5622 -3.67924
-15.8205 -12.4672 -3.79463
-15.6387 -12.7065 -3.37334
-15.4867 -12.9091 -3.09773
-15.6705 -12.6967 -3.61293
-15.4915 -13.1378 -2.83968
-15.8796 -12.4869 -3.99707
-15.5827 -12.8257 -3.58031
-15.5467 -12.8298 -3.4612
-15.6495 -12.703 -3.77437
-15.4153 -13.048 -3.21643
-15.3347 -12.9745 -3.10241
-15.4541 -13.0826 -3.21041
-15.692 -12.551 -4.14182
-15.4606 -12.736 -3.74829
-15.6758 -12.4854 -4.22128
-15.6686 -12.5111 -4.28596
-15.4251 -12.9472 -3.67574
-15.5824 -12.5284 -4.22016
-15.3391 -12.9086 -3.66858
-15.435 -12.6632 -4.23085
-15.4607 -12.6379 -4.19114
-15.3237 -12.7014 -4.26362
-15.3424 -12.7541 -4.30878
-15.0924 -13.0294 -3.97755
-15.0937 -12.9552 -4.15868
-15.2921 -12.7857 -4.16756
-15.1113 -12.8885 -4.28648
-15.0754 -12.9145 -4.21503
-14.9521 -13.066 -4.21606
-20.7642 -10.1924 2.9121
-15.7404 -11.2018 1.55088
-20.9655 -10.6382 1.55549
-20.8928 -10.7371 1.58563
-21.0536 -10.4803 1.26465
-22.3142 -8.13882 -2.5841
-20.2532 -11.2315 1.50368
-20.0587 -11.2039 1.23932
-19.7133 -11.3864 0.688348
-19.6609 -11.3884 0.742429
-20.5132 -10.3587 -0.760909
-20.1598 -10.6357 -0.332979
-20.1077 -10.7261 -0.374749
-20.4009 -10.4676 -0.929734
-19.7176 -10.9769 -0.148296
-19.5185 -11.342 0.110768
-17.4478 -11.8789 0.696917
-19.712 -11.0668 -0.541659
-20.5358 -9.95869 -2.10657
-18.1786 -11.2554 -0.370024
-19.6117 -10.86 -1.06418
-20.0003 -10.4133 -1.86071
-19.866 -10.2604 -1.90912
-20.3834 -9.7913 -2.81204
-16.8944 -12.182 0.582942
-18.1542 -11.8077 0.0140574
-20.3041 -9.76057 -3.02315
-20.2364 -9.89829 -2.95541
-20.2943 -9.66646 -3.26933
-20.1956 -9.89468 -2.93007
-20.2805 -9.72138 -3.25453
-20.265 -9.7122 -3.34281
-19.4429 -10.7188 -1.74885
-19.4702 -10.8229 -1.65716
-17.8453 -12.0352 0.174774
-20.1974 -9.79048 -3.29913
-20.3773 -9.35416 -3.94285
-19.0105 -11.1537 -1.62787
-20.0491 -9.69551 -3.71133
-19.2809 -10.5446 -2.42901
-17.8415 -11.8973 -0.535487
-17.8293 -11.8496 -0.532008
-16.3747 -12.6276 0.314002
-17.7513 -11.4849 -1.28123
-17.4511 -12.1883 -0.404377
-17.7358 -11.1728 -1.75286
-17.0505 -12.2281 -0.156308
-17.7678 -12.0052 -0.640684
-19.6813 -9.97756 -3.61837
-19.4493 -10.2914 -2.91935
-16.3987 -12.515 0.256774
-17.6669 -11.7704 -1.069
-18.9793 -10.9093 -2.30157
-17.6191 -11.8743 -0.801358
-19.5156 -10.0582 -3.54764
-19.5917 -10.1356 -3.56979
-16.2154 -12.658 0.249628
-17.1414 -12.1703 -0.586819
-18.682 -11.1559 -2.35912
-17.1779 -11.9726 -0.928646
-17.301 -10.8755 -2.46534
-16.9815 -12.12 -0.60633
-19.3777 -10.245 -3.73963
-18.6477 -11.1216 -2.38749
-17.0175 -12.095 -0.885045
-18.5986 -11.0957 -2.4423
-18.9651 -10.5507 -3.37867
-16.2456 -12.4323 -0.426172
-16.3047 -12.3309 -0.435822
-16.3303 -12.4184 -0.519917
-16.2046 -12.5209 -0.414844
-19.0936 -10.3569 -4.08385
-16.9288 -11.4854 -2.03974
-16.9431 -11.527 -2.04961
-15.7888 -12.9063 0.112472
-16.8558 -11.5797 -2.04769
-16.8713 -11.472 -2.1205
-16.0906 -12.6299 -0.452996
-16.4399 -12.4042 -0.760699
-16.0957 -12.6899 -0.488885
-16.3957 -12.6401 -0.649309
-17.0422 -11.7028 -1.98552
-18.501 -10.7276 -3.7508
-16.1372 -12.7396 -0.459566
-18.5478 -10.8276 -3.83117
-16.1489 -12.7113 -0.464724
-16.4798 -12.6411 -0.710448
-16.8441 -11.9514 -1.76054
-16.6135 -12.4434 -1.10231
-16.7851 -11.8493 -1.9915
-16.1686 -12.7937 -0.498356
-16.6521 -12.0318 -1.754
-16.6118 -11.9493 -1.77523
-16.0171 -12.7707 -0.599961
-16.1124 -12.8832 -0.541426
-16.01 -12.7264 -0.850052
-15.9762 -12.9437 -0.505743
-16.6607 -12.0892 -1.6818
-16.5428 -12.1222 -1.77576
-18.2658 -10.8503 -3.88394
-18.2092 -10.9414 -3.9111
-16.1943 -12.5443 -0.976463
-15.8827 -12.8774 -0.593858
-16.0115 -12.9713 -0.555306
-16.5714 -11.3772 -2.84739
-15.872 -12.8881 -0.561703
-16.067 -12.7422 -1.06467
-16.8541 -11.2523 -3.43921
-16.153 -12.6911 -1.07752
-15.9963 -12.7028 -1.02507
-17.9686 -11.0728 -3.80472
-17.9774 -11.192 -3.93007
-15.8474 -12.7089 -1.10606
-18.0072 -10.9155 -4.05552
-17.9009 -11.0685 -3.94888
-16.0592 -11.9176 -2.31788
-16.0569 -12.079 -2.21021
-15.9449 -11.9697 -2.35754
-15.8965 -12.0367 -2.33914
-15.9065 -12.0809 -2.43332
-15.9476 -13.1533 -0.805103
-15.9205 -12.079 -2.50789
-15.9769 -12.2027 -2.27152
-16.2915 -11.7307 -3.29338
-15.722 -13.0173 -1.29251
-17.0954 -11.4275 -4.12123
-16.9571 -11.4442 -4.11099
-17.0796 -11.5613 -3.97131
-15.5316 -13.1587 -1.34021
-16.8803 -11.6848 -4.10416
-15.8854 -12.364 -2.7584
-16.4732 -12.088 -3.77802
-16.3362 -12.2037 -3.78208
-16.6066 -11.8281 -4.16184
-16.4968 -11.8953 -4.28081
-16.2827 -12.3666 -3.6162
-16.4318 -11.9734 -4.33686
-15.5794 -13.1006 -2.13725
-16.3949 -12.0725 -4.25744
-15.9204 -12.5811 -3.34783
-15.5917 -12.9135 -2.79246
-16.2055 -12.2309 -4.15719
-15.9982 -12.3971 -3.708
-15.9584 -12.4054 -3.59003
-15.5452 -12.9488 -2.82457
-15.5577 -13.0544 -2.86196
-15.7792 -12.767 -3.33944
-15.5637 -13.0218 -2.87883
-16.0136 -12.2862 -4.18181
-15.6058 -13.0133 -2.93202
-15.9921 -12.3355 -4.09218
-15.7787 -12.7937 -3.37358
-15.5123 -12.9514 -3.00754
-15.6588 -12.8185 -3.64775
-15.6365 -12.6759 -3.94603
-15.5924 -12.5429 -4.06469
-15.4197 -12.9691 -3.33391
-15.6253 -12.609 -4.107
-15.5932 -12.4639 -4.28857
-15.6196 -12.6421 -4.17233
-15.3022 -12.8861 -3.98454
-15.366 -12.7684 -4.21771
-14.8614 -12.9727 -4.32028
-14.9904 -12.9551 -4.34897
-14.97 -12.914 -4.49954
-15.8547 -11.1682 1.58459
-22.3369 -7.9178 -2.61918
-19.7664 -11.2498 0.790921
-19.9731 -11.016 0.190901
-19.7045 -11.5201 0.848192
-20.0588 -10.6482 -0.303413
-19.4992 -11.3963 0.182557
-19.5425 -11.3701 0.137837
-19.3244 -11.5234 0.342072
-19.4618 -11.4458 0.0821758
-19.5997 -10.8931 -1.08311
-20.0341 -10.3947 -1.88762
-19.5344 -10.9244 -1.22197
-20.7059 -9.5053 -3.1979
-16.6724 -12.2874 0.682235
-20.4603 -9.84184 -3.15998
-16.5651 -12.4833 0.692291
-18.9409 -11.2326 -1.50566
-19.6381 -10.0421 -3.60774
-17.6322 -12.08 -0.446701
-17.0151 -12.2508 -0.059319
-17.6474 -11.8986 -0.983116
-16.9803 -12.4087 0.015699
-16.9143 -12.43 -0.0591986
-16.9408 -12.2855 -0.23516
-17.723 -10.9686 -2.4302
-19.6179 -9.96225 -3.96176
-16.6969 -12.4527 0.0382123
-19.2819 -10.3021 -3.64168
-16.0611 -12.6797 0.201986
-17.1381 -12.0098 -0.990734
-17.0985 -11.39 -1.93317
-16.279 -12.4495 -0.356484
-19.0869 -10.4376 -3.69767
-16.2445 -12.4491 -0.345694
-17.0325 -11.4429 -2.03223
-16.3011 -12.3447 -0.527067
-17.1389 -11.5426 -1.89801
-16.2548 -12.4805 -0.464282
-16.9219 -11.6518 -1.72848
-16.3131 -12.4212 -0.535679
-16.3745 -12.506 -0.523775
-16.9847 -11.6642 -1.78338
-16.9933 -11.5554 -1.97886
-15.6911 -12.8175 0.0817304
-16.8584 -11.416 -2.06056
-18.8619 -10.6167 -3.64437
-16.9105 -11.5358 -2.06086
-18.632 -10.8172 -3.37642
-17.0038 -11.5664 -1.9288
-18.6983 -10.7762 -3.44437
-16.2511 -12.5193 -0.547748
-16.3348 -12.5383 -0.53489
-16.4404 -12.3444 -0.86025
-16.996 -11.8697 -1.52421
-16.1707 -12.7363 -0.422274
-16.2735 -12.7376 -0.498263
-17.2511 -11.0346 -3.2122
-16.0217 -12.8867 -0.437533
-15.8293 -12.8326 -0.519015
-16.1342 -12.4836 -1.21007
-16.0647 -12.6675 -1.02472
-15.8496 -12.787 -0.805946
-15.8347 -12.8048 -0.810851
-16.9374 -11.2522 -3.46258
-17.9368 -11.1398 -3.86364
-16.1732 -12.0362 -2.10871
-17.9988 -11.0892 -3.99472
-17.9618 -11.1549 -4.00347
-16.1155 -11.9182 -2.15508
-15.9229 -12.0084 -2.42818
-15.975 -12.029 -2.442
-17.8021 -11.1529 -4.16801
-15.7144 -13.1359 -0.611489
-16.0344 -12.0471 -2.76025
-16.0253 -12.2227 -2.33936
-16.1005 -12.1918 -2.42893
-15.9518 -12.2164 -2.41664
-17.3026 -11.3998 -4.02938
-17.2099 -11.454 -4.05504
-15.7625 -13.1707 -1.29688
-15.8304 -12.736 -1.84692
-16.849 -11.5571 -4.09895
-16.8774 -11.4807 -4.08608
-15.4253 -12.4454 -2.53704
-15.4915 -12.5231 -2.58152
-16.9722 -11.7356 -4.26227
-15.3344 -12.4904 -2.60903
-16.7097 -11.9868 -3.9838
-15.9635 -12.5284 -3.53409
-15.5559 -13.0583 -2.91002
-15.5167 -13.1283 -2.83264
-15.4215 -13.0501 -3.16325
-15.2989 -13.1346 -3.10111
-15.5612 -12.6099 -3.92677
-15.3051 -13.1377 -3.04686
-15.5001 -12.7282 -4.12587
-15.3756 -12.8624 -3.76244
-15.4172 -12.7425 -3.89312
-15.3419 -12.9579 -3.47703
-15.2096 -12.7579 -4.12666
-15.1987 -12.8308 -4.25395
-15.1462 -13.0113 -4.12443
-15.0416 -12.8759 -4.20495
-15.0404 -12.8878 -4.33222
-15.038 -12.9179 -4.40437
-20.0856 -11.1548 0.990424
-18.1766 -11.6241 0.904996
-17.8932 -11.6369 0.761585
-20.1317 -10.4228 -1.20147
-16.9306 -12.265 0.483299
-19.3803 -10.7822 -1.79531
-19.4224 -10.8567 -1.7941
-16.3535 -12.5444 0.3952
-17.0686 -12.1544 -0.32442
-17.0733 -12.0819 -0.532648
-17.0179 -12.0946 -0.421232
-17.0336 -12.1513 -0.474524
-17.0443 -12.0367 -1.01562
-17.004 -12.0978 -0.856111
-16.1642 -12.3307 -0.405076
-16.2716 -12.3544 -0.573209
-17.0365 -12.0454 -0.983151
-15.84 -12.7961 0.280943
-16.3455 -12.4718 -0.504511
-16.18 -12.583 -0.342655
-17.0211 -11.4972 -1.94487
-17.0141 -11.4178 -2.11514
-18.4779 -10.7217 -4.19198
-16.1339 -12.6398 -0.979455
-18.2595 -10.8914 -4.04204
-16.1175 -12.6216 -1.17659
-16.5411 -11.4318 -3.00821
-15.909 -12.7105 -0.918581
-16.3066 -12.2057 -1.58173
-16.5948 -11.4241 -2.93079
-16.1386 -12.6136 -1.19509
-17.9825 -11.0467 -4.0551
-16.1989 -11.9718 -2.37248
-15.825 -12.5372 -1.45481
-16.0337 -11.6345 -2.85964
-15.9335 -12.1564 -2.07798
-16.0516 -12.1727 -2.41231
-16.074 -12.1501 -2.66192
-16.2738 -11.602 -3.49757
-16.1766 -11.7677 -3.27792
-15.7756 -11.8832 -3.02241
-17.2033 -11.4038 -4.06293
-15.6967 -13.0745 -1.29716
-16.1714 -11.694 -3.4193
-15.6706 -13.0821 -1.40294
-16.0402 -11.9184 -3.33711
-16.9979 -11.5516 -4.1393
-16.9471 -11.5065 -4.13228
-16.9203 -11.6148 -4.02777
-16.883 -11.4759 -4.1498
-15.672 -12.6318 -2.3755
-15.4983 -12.6792 -2.38625
-15.9967 -12.5349 -3.54302
-15.7446 -12.9286 -2.92904
-16.0585 -12.2747 -4.15996
-15.6355 -12.6873 -3.48588
-15.7554 -12.6745 -3.86431
-15.5723 -12.5603 -4.05983
-15.1866 -13.027 -3.38471
-15.3316 -12.7568 -4.0626
-18.1135 -11.5509 0.831752
-17.4582 -11.9816 0.712755
-17.4797 -11.8419 0.650691
-18.2198 -11.6728 0.365265
-20.1287 -10.4067 -1.4346
-19.7117 -10.7738 -1.11228
-16.9793 -12.1531 0.620207
-17.7399 -11.2379 -1.77852
-17.0848 -12.1512 -0.407739
-16.0244 -12.6445 0.132855
-18.9814 -10.5383 -3.46206
-16.3237 -12.5087 -0.458164
-15.8899 -12.8786 0.099738
-15.8496 -12.7676 -0.0560496
-16.3904 -12.3994 -0.89851
-16.1425 -12.8148 -0.381748
-16.0372 -12.9118 -0.286249
-15.9715 -12.8535 -0.551067
-16.6061 -11.3939 -2.90036
-16.0647 -12.6152 -0.883422
-16.9065 -11.1316 -3.4234
-16.0645 -12.708 -0.931674
-15.9474 -12.878 -0.937882
-16.1281 -12.5813 -1.11916
-16.2142 -11.8994 -2.36765
-16.2571 -11.4741 -2.86158
-16.0675 -12.6257 -1.11003
-16.1615 -11.8096 -2.18833
-15.968 -12.2408 -2.23759
-15.939 -12.0558 -2.34902
-16.5201 -11.5875 -3.36091
-16.0297 -12.191 -2.33987
-16.4091 -11.6133 -3.30344
-15.9878 -12.7107 -1.62419
-15.8083 -11.8372 -3.04042
-17.0648 -11.5153 -3.9941
-15.3942 -12.5223 -2.54986
-16.4052 -12.1266 -4.10831
-15.5642 -13.3625 -2.24584
-15.9184 -12.5256 -3.9396
-15.6062 -12.778 -3.43392
-15.5606 -12.6321 -4.16418
-15.1069 -12.8811 -3.96136
-18.0445 -11.5771 0.785645
-17.6615 -11.8092 0.840233
-17.6189 -11.7988 0.604941
-18.1833 -11.4027 -0.433022
-17.0992 -12.0806 0.520078
-17.9511 -12.0436 -0.00894289
-16.2149 -12.5582 0.27975
-16.3709 -12.4208 -0.530589
-16.9355 -12.1055 -1.4194
-16.4191 -12.0487 -4.26527
-16.0481 -12.308 -4.08835
-15.5683 -12.5456 -4.05791
-18.1111 -11.8219 0.23284
-16.6016 -11.4534 -3.40737
-15.9797 -12.7757 -1.87239
-16.1222 -11.9108 -3.29342
-15.4463 -12.4932 -2.4693
-15.0174 -12.9638 -4.23162
-17.7114 -11.3667 -1.60966
-16.992 -11.8053 -1.69196
-16.9329 -11.4352 -2.00527
-16.6404 -12.2343 -1.30564
-16.6138 -12.2766 -1.18896
-16.3653 -12.0224 -1.79482
-16.0466 -12.2186 -2.52519
-15.7618 -12.3261 -2.60778
-15.1729 -12.9413 -4.04383
-22.2254 -8.18753 -2.48698
-16.5325 -12.3952 -0.908356
-16.4279 -12.2598 -1.13996
-16.4773 -12.3938 -1.02793
-16.632 -11.296 -3.11398
-16.2514 -12.4372 -1.68493
-15.9793 -12.2961 -2.1093
-15.9453 -12.3898 -2.03765
-15.9877 -11.9766 -2.76714
-14.9777 -13.0432 -4.39963
-16.6662 -12.3918 -0.734273
-16.2115 -12.5587 -0.539235
-16.4222 -12.5027 -0.88014
-16.0059 -12.0543 -2.12211
-15.7923 -12.9405 -1.66389
-15.5177 -12.5046 -2.55185
-16.1615 -12.7115 -0.420221
-16.4433 -12.4682 -1.35966
-16.0622 -12.0115 -2.2553
-15.9246 -12.5602 -3.4453
-15.9792 -12.6648 -3.31955
-17.371 -11.1386 -2.16944
-18.3721 -11.5183 -0.224477
-18.0033 -11.5861 -0.605031
-16.3017 -11.7751 -3.51202
-20.7337 -10.3151 2.99288
-15.878 -11.0452 1.60875
-15.5256 -11.3468 1.51483
-15.2234 -11.4879 1.32236
-20.9813 -10.5576 1.37498
-20.1711 -11.1823 1.34726
-20.968 -10.5318 1.23349
-21.0064 -10.5141 1.26734
-20.9535 -10.5834 1.13831
-17.611 -11.8666 0.833074
-17.567 -11.868 0.794478
-17.8681 -11.7945 0.671147
-17.854 -11.6065 0.762778
-17.491 -11.7999 0.713897
-17.3422 -12.0492 0.698855
-17.0118 -12.2336 0.625051
-17.302 -11.9761 0.591175
-19.685 -11.379 0.699203
-16.6197 -12.4439 0.552389
-16.5643 -12.5789 0.413216
-16.3971 -12.5379 0.26042
-15.9594 -12.8314 0.243401
-15.9967 -12.7916 0.273804
-19.8581 -11.0479 -0.119824
-20.2192 -10.7085 -0.242288
-17.0518 -12.261 -0.286231
-16.9234 -12.313 -0.246128
-20.2671 -10.5087 -0.283129
-20.1692 -10.636 -0.450706
-21.2049 -9.87118 -0.366787
-16.3463 -12.5784 -0.357561
-16.3444 -12.3152 -0.308975
-16.2477 -12.3346 -0.465307
-16.3394 -12.3464 -0.505368
-16.0789 -12.672 -0.4915
-16.0974 -12.7259 -0.454588
-16.0644 -12.6418 -0.348378
-16.1094 -12.843 -0.477923
-20.0102 -10.7168 -0.711048
-15.9668 -12.8882 -0.570857
-15.9717 -12.79 -0.499804
-17.0271 -12.0477 -0.719664
-20.2803 -10.4883 -0.902711
-17.0397 -12.1626 -0.704536
-16.5087 -12.6315 -0.737178
-16.4961 -12.5566 -0.8024
-16.5344 -12.4893 -0.732869
-16.4422 -12.5826 -0.728978
-16.5485 -12.4963 -0.833421
-16.4704 -12.5715 -0.873965
-16.4859 -12.2998 -0.789775
-19.1982 -11.0612 -1.14134
-16.4174 -12.5332 -0.843333
-16.5624 -12.5203 -0.935714
-16.4742 -12.4752 -0.939513
-16.5305 -12.3743 -0.954853
-16.3562 -12.4995 -0.938264
-16.5488 -12.2731 -1.01686
-15.8477 -13.1172 -0.931473
-16.4261 -12.4018 -0.995919
-16.545 -12.2776 -1.06248
-16.5408 -12.3844 -1.02092
-16.4146 -12.497 -1.0252
-16.7988 -12.1193 -1.12165
-16.1579 -12.6441 -0.925572
-16.0727 -12.6847 -0.978215
-20.3366 -10.2685 -1.42728
-16.6422 -12.1121 -1.18958
-20.0631 -10.3831 -1.44575
-15.9547 -12.6934 -1.03639
-16.8458 -12.214 -1.26026
-19.0959 -10.9189 -1.62342
-19.7068 -10.6373 -1.7021
-19.3721 -10.7778 -1.86576
-20.2527 -10.1134 -2.22516
-22.366 -7.71792 -2.64383
-16.9015 -11.6398 -1.80429
-16.5386 -12.165 -1.69459
-16.6488 -11.8496 -1.86188
-16.752 -11.8677 -1.95611
-16.8942 -11.8828 -1.92225
-18.9818 -10.97 -2.28095
-20.2191 -10.0216 -2.49417
-16.9329 -11.4315 -2.04525
-16.8612 -11.508 -1.99832
-16.8843 -11.5465 -2.01838
-18.65 -11.1016 -2.49848
-19.313 -10.6337 -2.52879
-19.7537 -10.2647 -2.77126
-15.8423 -12.2677 -2.05735
-20.252 -9.7912 -2.9615
-16.9747 -11.4355 -2.29839
-16.2017 -12.0049 -2.27968
-19.9283 -10.1123 -3.07085
-19.9309 -10.1326 -3.07855
-16.0311 -11.9502 -2.3466
-16.0592 -11.8597 -2.34048
-15.9781 -12.0773 -2.44541
-20.3334 -9.68779 -3.33311
-15.9772 -12.0948 -2.39
-15.9404 -12.0245 -2.32276
-15.977 -12.0618 -2.44633
-15.8387 -12.1337 -2.50578
-20.1816 -9.739 -3.40936
-19.6485 -10.2293 -3.57197
-15.3854 -13.24 -2.55629
-19.7641 -9.99593 -3.71569
-18.3717 -10.9804 -3.42609
-15.4718 -13.1348 -2.77057
-18.5799 -10.7222 -3.70237
-19.5769 -10.007 -3.94261
-18.1046 -11.0198 -3.65013
-18.3241 -10.8644 -3.79416
-15.6038 -12.9844 -3.07676
-18.3276 -10.8533 -3.88398
-18.2148 -10.9578 -4.00768
-15.4756 -13.0627 -3.13359
-15.5187 -12.8915 -3.12266
-18.53 -10.7018 -4.17089
-17.769 -11.1759 -4.16683
-15.6924 -12.7421 -3.40169
-15.6633 -12.7174 -3.40488
-15.6597 -12.7442 -3.38804
-15.6331 -12.8218 -3.44018
-15.9704 -12.4538 -3.58868
-16.4638 -12.0405 -3.76968
-15.6517 -12.7561 -3.42106
-16.4774 -12.1583 -3.76754
-17.038 -11.4149 -4.05738
-17.0856 -11.4578 -4.07257
-17.1113 -11.4866 -4.09079
-15.6742 -12.6417 -3.66651
-16.258 -12.2664 -3.78921
-16.3231 -12.3524 -3.82198
-17.0103 -11.5217 -4.11502
-15.7711 -12.6597 -3.727
-16.2858 -12.2019 -3.87399
-16.8046 -11.5117 -4.17103
-15.9241 -12.5131 -3.83563
-15.878 -12.4755 -3.96525
-15.7598 -12.468 -3.94339
-16.1946 -12.1163 -4.27569
-15.0324 -12.9985 -3.96066
-15.6033 -12.5105 -4.25513
-15.3964 -12.7085 -4.30013
-15.0932 -12.9347 -4.20386
-15.0942 -12.8939 -4.24324
-15.0758 -12.8941 -4.13802
-15.1213 -12.8713 -4.18999
-15.1108 -12.9179 -4.21466
-15.2929 -12.7147 -4.38876
-14.9224 -12.9088 -4.22048
-14.996 -12.8789 -4.38936
-19.606 -10.3184 2.80248
-20.7152 -10.2446 2.83823
-15.2711 -11.532 1.547
-15.9872 -11.0608 1.61651
-15.3225 -11.3928 1.52264
-21.0854 -10.6229 1.46245
-19.9836 -11.2953 1.22376
-17.7253 -11.8423 0.860055
-16.595 -12.5355 0.523124
-16.4018 -12.5218 0.447139
-16.8349 -12.3682 0.433163
-15.9216 -12.8362 0.232702
-15.9096 -12.8636 0.175195
-17.0131 -12.3394 -0.0529333
-19.8484 -11.0057 -0.21405
-20.1322 -10.8592 -0.147452
-20.2124 -10.8105 -0.175289
-19.7116 -10.9532 -0.178834
-19.7825 -10.9326 -0.174932
-19.7711 -11.0671 -0.262868
-18.005 -11.902 -0.327008
-20.0929 -10.8024 -0.410328
-17.4426 -12.0537 -0.373365
-17.0074 -12.1989 -0.458426
-16.3067 -12.4408 -0.406591
-16.0588 -12.7816 -0.392727
-16.0745 -12.7774 -0.373937
-16.1328 -12.7807 -0.357793
-16.2033 -12.4473 -0.42491
-16.1419 -12.7967 -0.42915
-16.1757 -12.7204 -0.451041
-16.3264 -12.5401 -0.504239
-17.9147 -11.8867 -0.594086
-16.1306 -12.8117 -0.434525
-16.1348 -12.7057 -0.47464
-17.0426 -12.2422 -0.47203
-16.1078 -12.8747 -0.590799
-17.7258 -11.8577 -0.535794
-16.2377 -12.3395 -0.52248
-16.3578 -12.3372 -0.589725
-16.3497 -12.4236 -0.584755
-15.9639 -12.8482 -0.60934
-20.483 -10.3188 -0.833894
-15.9244 -12.8801 -0.547936
-19.2061 -11.3319 -0.757962
-20.2724 -10.4056 -0.868977
-15.7155 -13.2716 -0.7072
-16.546 -12.618 -0.765062
-16.409 -12.5196 -0.78951
-16.554 -12.5587 -0.781107
-16.5018 -12.5256 -0.709688
-16.9909 -12.0611 -0.775678
-16.4799 -12.4044 -0.973069
-16.1029 -12.5364 -0.916905
-16.1643 -12.6309 -0.934883
-16.6074 -12.3077 -1.0657
-15.9699 -12.7934 -0.975956
-16.0178 -12.6548 -1.02716
-20.3707 -10.1934 -1.52399
-20.1642 -10.5644 -1.4766
-15.9109 -12.9322 -1.14711
-20.0132 -10.4151 -1.59665
-16.1484 -12.6192 -1.22587
-16.1953 -12.63 -1.32029
-19.8078 -10.5783 -1.70235
-19.018 -11.1301 -1.68666
-15.6766 -13.1145 -1.38441
-19.6833 -10.4754 -2.14312
-20.1776 -10.1292 -2.17015
-19.6488 -10.3859 -2.17051
-16.6474 -12.1062 -1.6131
-17.1212 -11.471 -1.87525
-16.6689 -12.0162 -1.85813
-16.5607 -12.0444 -1.71859
-16.4977 -12.2447 -1.74908
-18.8707 -10.8478 -2.22029
-19.0196 -10.8543 -2.37141
-15.762 -12.9089 -1.82531
-20.5803 -9.72739 -2.67908
-16.8402 -11.5334 -2.05279
-20.3657 -9.85384 -2.84626
-20.5709 -9.53707 -3.10091
-16.0897 -12.0183 -2.17754
-15.9996 -12.0332 -2.26277
-19.9486 -9.95084 -3.0663
-20.0475 -9.93157 -3.09651
-16.0697 -12.2146 -2.32062
-19.3055 -10.3542 -2.95314
-15.5591 -13.2224 -2.22377
-15.9764 -12.0338 -2.45045
-19.9445 -9.9585 -3.48086
-19.3244 -10.3594 -3.2771
-20.0666 -9.66621 -3.70213
-15.7286 -12.2462 -2.69606
-16.0853 -12.0505 -2.6992
-20.0527 -9.66498 -3.71129
-16.7008 -11.3715 -2.91616
-16.0191 -12.1192 -2.7633
-20.5359 -9.29364 -4.0479
-20.4013 -9.36177 -3.95816
-20.3367 -9.37607 -4.08995
-15.9606 -12.3451 -2.95802
-15.6036 -13.117 -2.90101
-15.5849 -13.0192 -2.81811
-18.3572 -10.8881 -3.60343
-18.6461 -10.8078 -3.7118
-19.5903 -9.98543 -4.05279
-18.4712 -10.6762 -3.73043
-19.6559 -9.94537 -4.03666
-15.6285 -12.9106 -3.0586
-16.2875 -11.7639 -3.31386
-16.3528 -11.7237 -3.44331
-18.2806 -10.8213 -3.95396
-15.7149 -12.8468 -3.12058
-15.4592 -12.9646 -3.01543
-18.464 -10.8344 -3.95343
-18.6824 -10.5484 -4.13538
-15.7647 -12.7072 -3.27999
-17.9572 -11.1123 -3.94287
-17.9462 -11.0964 -4.01551
-18.0071 -11.0494 -3.99128
-18.0669 -10.9311 -4.07923
-16.2792 -12.3148 -3.49004
-15.7789 -12.7105 -3.4007
-15.7957 -12.7803 -3.3677
-15.8222 -12.7875 -3.30342
-15.6137 -12.7755 -3.38533
-16.2228 -12.314 -3.68059
-16.0205 -12.523 -3.57881
-16.531 -12.1283 -3.79889
-16.1723 -12.2922 -3.72198
-17.097 -11.4711 -3.94162
-16.1787 -12.362 -3.66853
-15.777 -12.5117 -3.6175
-15.6068 -12.8989 -3.43193
-16.888 -11.5535 -4.01861
-16.5276 -12.0368 -3.93796
-16.907 -11.5857 -4.15357
-16.9388 -11.669 -4.10548
-15.5557 -12.7208 -3.60081
-16.8565 -11.5781 -4.10907
-16.9155 -11.5481 -4.09012
-15.9327 -12.3857 -4.02414
-16.5932 -11.8223 -4.36196
-16.1447 -12.2438 -4.12775
-16.2953 -12.1226 -4.25164
-15.4658 -12.7014 -3.96268
-15.5915 -12.5931 -4.13935
-15.0817 -12.9646 -4.04764
-15.6502 -12.5629 -4.22941
-15.3982 -12.8157 -4.05528
-15.3714 -12.7648 -4.17219
-15.1436 -12.8244 -4.25369
-15.1053 -12.7381 -4.36758
-20.2551 -11.2445 1.54715
-21.0537 -10.5703 1.28565
-17.6597 -11.7993 0.82607
-17.6682 -11.7725 0.830535
-16.7348 -12.3917 0.626903
-17.4167 -12.0536 0.695197
-19.561 -11.4144 0.713784
-16.5667 -12.3281 0.313574
-16.4822 -12.5079 0.24066
-16.1138 -12.6287 0.0875232
-19.648 -11.2463 0.0601628
-17.8775 -11.9053 -0.200945
-17.5132 -12.2213 -0.320297
-20.1089 -10.8542 -0.347434
-16.2762 -12.5272 -0.448519
-16.2055 -12.5976 -0.383301
-16.2984 -12.4549 -0.424413
-16.3858 -12.4175 -0.452671
-16.1944 -12.4942 -0.358932
-16.1551 -12.7767 -0.433592
-16.1186 -12.5363 -0.436174
-16.189 -12.6595 -0.455254
-16.2805 -12.4115 -0.515879
-16.8562 -12.2903 -0.589153
-17.8689 -11.8304 -0.670107
-16.1166 -12.7694 -0.757803
-17.7127 -11.7953 -0.957593
-16.0355 -12.801 -0.876337
-19.5555 -11.0068 -1.13988
-16.5082 -12.2439 -0.901129
-16.0529 -12.6798 -1.05956
-15.9093 -13.0274 -1.107
-19.9249 -10.3749 -1.84773
-16.8213 -12.1329 -1.48498
-15.6014 -13.0968 -1.28557
-15.6709 -13.0501 -1.33752
-16.7918 -11.8976 -1.61627
-15.6686 -13.1028 -1.56698
-16.7279 -11.97 -1.637
-17.1085 -11.4981 -1.91677
-16.9922 -11.6272 -1.9054
-16.9523 -11.5631 -1.86756
-16.9713 -11.5847 -1.91977
-17.1264 -11.4615 -2.01482
-17.1122 -11.4139 -1.95573
-15.8626 -12.7379 -1.88354
-20.2164 -9.89474 -2.89767
-20.3039 -9.78364 -3.04506
-20.1576 -9.89815 -3.04197
-20.2991 -9.73307 -2.90835
-20.1569 -9.77924 -3.00755
-20.0536 -9.95147 -2.98056
-15.9276 -12.2128 -2.20073
-16.1195 -12.0839 -2.27852
-17.4115 -10.8428 -2.46559
-16.0246 -11.9405 -2.35799
-16.0397 -12.1397 -2.25163
-15.6465 -13.1766 -2.13525
-15.725 -13.2373 -2.06106
-20.2494 -9.77355 -3.2863
-15.992 -12.0043 -2.40208
-16.0123 -12.2365 -2.35347
-19.831 -9.96434 -3.3112
-15.9578 -11.9905 -2.346
-19.0554 -10.5456 -3.3785
-19.6771 -10.0371 -3.57537
-18.7223 -10.7543 -3.36694
-16.363 -11.5013 -2.98919
-17.1591 -11.0234 -3.24421
-18.9007 -10.4814 -3.71086
-15.545 -13.0025 -2.84698
-15.6012 -13.0443 -2.8851
-15.3811 -13.1008 -2.83756
-15.5854 -12.987 -2.80599
-18.5654 -10.7189 -3.67215
-18.2858 -10.941 -3.74884
-19.5055 -9.96328 -4.06006
-16.2308 -11.6927 -3.34998
-16.3282 -11.6341 -3.31372
-18.1381 -10.9249 -3.92094
-16.2925 -11.7771 -3.20416
-17.7214 -11.2504 -3.84366
-16.0517 -11.803 -3.37145
-17.878 -11.0598 -3.92532
-16.1514 -11.8004 -3.3974
-15.7252 -12.646 -3.40922
-15.6099 -12.7989 -3.23522
-17.8048 -11.1495 -4.10771
-15.3953 -13.0004 -3.35837
-17.2773 -11.4125 -3.94191
-17.1129 -11.491 -3.97716
-17.0399 -11.5329 -3.97416
-17.239 -11.3745 -4.14269
-17.2103 -11.3887 -4.08846
-17.1273 -11.4649 -4.09485
-17.0735 -11.5228 -3.99241
-16.6191 -11.9144 -3.91993
-17.0687 -11.3813 -4.13997
-16.5951 -11.9668 -4.03892
-16.8806 -11.6285 -4.15089
-16.7278 -11.7285 -4.12856
-16.0809 -12.3303 -3.9447
-16.5882 -11.9106 -4.16764
-15.5105 -12.8879 -3.81638
-16.034 -12.4205 -4.13453
-16.4557 -12.076 -4.3158
-16.2948 -12.1272 -4.30554
-15.4755 -12.6967 -4.04464
-15.5786 -12.6809 -4.08205
-15.5043 -12.7161 -4.14617
-15.4705 -12.71 -4.13263
-15.168 -12.9111 -4.17598
-15.192 -12.9046 -4.22326
-21.0365 -10.1123 3.13933
-18.1024 -11.535 0.961099
-18.021 -11.6776 0.961354
-17.6874 -11.8709 0.784553
-17.5861 -11.8837 0.717496
-17.7543 -11.7415 0.656628
-17.2921 -12.0229 0.528851
-17.0887 -12.0405 0.471168
-15.908 -12.9607 0.135117
-16.2962 -12.5107 0.238061
-16.7802 -12.4797 -0.194815
-16.3199 -12.4041 -0.392369
-16.2464 -12.626 -0.428985
-17.0279 -12.17 -0.488427
-17.6035 -11.7791 -0.933817
-16.5309 -12.3854 -0.762239
-19.5515 -10.8138 -1.13939
-15.963 -12.8491 -0.838789
-20.1311 -10.2725 -1.61024
-16.9061 -11.9721 -1.13797
-16.7778 -11.8755 -1.33249
-16.113 -12.5094 -1.31925
-15.9235 -12.5976 -1.22994
-15.6723 -13.0498 -1.29324
-19.3665 -10.8431 -1.81843
-22.1789 -8.21028 -2.39718
-22.122 -8.05459 -2.49248
-22.2768 -8.0348 -2.51725
-15.7931 -12.388 -1.52507
-19.5021 -10.5803 -2.10865
-17.0102 -11.9165 -1.81194
-16.9932 -11.6227 -1.82332
-17.0779 -11.6603 -1.92768
-15.6247 -12.9641 -1.63472
-17.0143 -11.6766 -1.9074
-16.9415 -11.427 -1.96145
-16.9648 -11.4535 -1.98843
-19.8534 -10.1644 -2.68592
-17.7204 -10.9553 -2.42253
-16.116 -12.28 -2.09393
-16.0007 -12.1955 -2.40865
-15.9963 -12.1259 -2.27702
-16.1454 -11.8795 -2.34294
-16.0929 -11.9946 -2.30364
-16.0433 -12.1847 -2.44439
-15.5024 -13.0898 -2.50315
-18.7451 -10.7546 -3.5622
-18.6957 -10.6965 -3.55957
-15.6123 -13.0626 -2.70072
-15.5456 -13.0758 -2.85757
-15.5816 -13.0274 -2.79895
-15.531 -13.0284 -2.7843
-15.5308 -13.0679 -2.95422
-15.6279 -12.9512 -2.96146
-15.4948 -12.9755 -3.03869
-18.1339 -10.8725 -4.1225
-15.3468 -13.0902 -3.08443
-17.9628 -11.0317 -4.02342
-15.9464 -12.6039 -3.39745
-16.2078 -11.5951 -3.53215
-15.9094 -12.6618 -3.39575
-15.6007 -12.7236 -3.32987
-17.3977 -11.4727 -4.05882
-17.202 -11.4239 -3.95126
-16.1818 -12.2847 -3.65919
-15.5984 -12.7032 -3.63343
-16.8829 -11.5244 -4.16685
-16.8136 -11.762 -4.13081
-16.0333 -12.2368 -4.12818
-15.4816 -12.6616 -4.03329
-15.1091 -12.9461 -4.04128
-15.2056 -12.7607 -4.33038
-15.1184 -12.8333 -4.18465
-15.0049 -12.9666 -4.29454
-18.1151 -11.6422 0.922006
-17.5041 -11.8894 0.674751
-17.4481 -11.984 0.633501
-16.669 -12.2865 0.397669
-18.2874 -11.6553 0.350161
-15.8835 -12.8002 0.0557606
-17.8896 -12.0031 -0.0296893
-18.3181 -11.6094 -0.0703377
-17.9647 -11.8651 -0.170357
-18.2089 -11.2749 -0.590255
-16.3187 -12.3494 -0.486496
-16.0936 -12.5373 -0.355959
-16.2539 -12.5176 -0.314491
-16.2524 -12.5318 -0.444496
-16.2553 -12.3781 -0.540292
-17.0002 -12.0896 -0.771278
-16.8709 -12.1776 -0.696308
-15.841 -13.2778 -0.499411
-15.9588 -12.7045 -0.765728
-17.0051 -12.0224 -0.917552
-20.0685 -10.5827 -1.24302
-17.6704 -11.4655 -1.31088
-16.5455 -12.3339 -1.23571
-17.813 -11.1887 -1.82032
-15.8834 -12.4498 -1.54104
-17.688 -11.2885 -1.95659
-15.6113 -12.9308 -1.70401
-16.0512 -12.6617 -1.72269
-16.9861 -11.4687 -2.03993
-17.5484 -11.2214 -2.25837
-17.3663 -10.8915 -2.44788
-16.0334 -12.0801 -2.29444
-16.0041 -12.2422 -2.23184
-16.8166 -11.5973 -2.429
-15.9738 -11.9926 -2.28548
-16.0536 -12.1297 -2.34444
-15.9121 -12.0659 -2.30591
-15.4822 -13.2017 -2.23159
-16.2319 -11.9685 -2.69085
-15.9706 -11.9219 -2.65756
-16.1275 -12.145 -2.72563
-15.9777 -12.0647 -2.53009
-16.6631 -11.2046 -2.93622
-15.7645 -12.2815 -2.63701
-16.6256 -11.4552 -2.98387
-19.6412 -9.95536 -3.87542
-15.8827 -11.8623 -3.02431
-19.198 -10.2005 -3.99574
-15.3825 -13.1141 -2.97003
-18.9091 -10.3247 -4.02565
-15.6939 -12.9381 -3.00319
-16.2408 -11.8059 -3.33763
-16.524 -11.4083 -3.49234
-18.0425 -11.0227 -3.91867
-15.9984 -11.9009 -3.44233
-16.2767 -11.5728 -3.40962
-16.1927 -12.4009 -3.69458
-17.022 -11.497 -3.98246
-16.0329 -12.4492 -3.54981
-17.0551 -11.4598 -3.91726
-17.2543 -11.4378 -4.04187
-15.156 -13.0551 -3.38165
-15.1736 -13.0296 -3.39992
-15.8969 -12.3623 -4.09614
-16.5124 -11.996 -4.30306
-16.5158 -12.0021 -4.15003
-15.0451 -12.8796 -4.26081
-14.9874 -12.9432 -4.55645
-17.5171 -11.9006 0.784263
-17.2889 -11.9556 0.689391
-19.6945 -11.3547 0.748331
-17.228 -12.0883 0.47973
-16.1538 -12.6625 0.183224
-16.4035 -12.3976 -0.457432
-16.2433 -12.3956 -0.47715
-16.0673 -12.8767 -0.527063
-17.0446 -12.3072 -0.571841
-15.8648 -12.9423 -0.499019
-16.4422 -12.4567 -0.830625
-16.0511 -12.6309 -0.9607
-16.6546 -12.3685 -1.12657
-16.0783 -12.5756 -1.32222
-16.805 -11.9968 -1.52075
-16.8909 -11.9902 -1.67192
-22.2375 -8.05748 -2.60694
-15.6312 -13.059 -1.53755
-17.0677 -11.527 -1.85376
-16.9041 -11.6336 -1.94296
-15.6444 -13.1304 -2.37374
-15.6514 -12.6383 -2.3433
-18.706 -10.6137 -3.68942
-15.6741 -13.0231 -2.79139
-15.5965 -12.8556 -2.78826
-15.9553 -11.7587 -2.98127
-16.2459 -12.3048 -3.78017
-15.0498 -12.983 -4.17087
-15.1906 -12.8285 -4.45448
-17.3946 -11.9624 0.551705
-17.9598 -11.7578 0.569257
-18.3489 -11.5297 -0.13057
-16.9272 -12.2519 -0.185301
-17.7496 -12.0299 -0.165919
-15.9956 -12.9908 -0.307272
-15.9885 -12.7174 -0.68774
-16.1275 -12.6962 -0.682786
-19.9316 -10.4656 -1.45207
-16.5184 -12.2938 -1.23282
-17.6821 -11.426 -1.65845
-15.7666 -12.8793 -1.78152
-16.6058 -11.9026 -2.02815
-15.5181 -12.8566 -2.01495
-16.0538 -12.2757 -2.49401
-15.7375 -11.9006 -2.97412
-16.1639 -11.6913 -3.31844
-15.6542 -12.819 -3.31912
-17.085 -11.5415 -4.04354
-15.733 -12.5683 -3.87986
-16.0164 -11.0893 1.88043
-17.6316 -12.0256 -0.370524
-15.9551 -12.9372 -0.460281
-16.4878 -12.6632 -0.562765
-16.5232 -12.3833 -1.06212
-16.6038 -12.141 -1.38048
-16.7992 -11.8424 -1.68437
-16.8861 -11.4323 -2.10903
-15.9662 -12.3199 -2.57297
-16.668 -11.3676 -3.01059
-15.8743 -12.7427 -3.30841
-14.9938 -12.9185 -4.06311
-16.3294 -12.4501 -0.53173
-16.4195 -12.53 -1.06309
-16.6535 -12.2893 -1.05003
-16.8693 -12.1945 -1.27269
-16.4797 -12.1473 -1.90242
-16.8481 -11.3224 -3.41543
-16.2118 -12.6123 -0.578636
-16.0514 -12.7973 -0.59773
-17.0015 -11.7053 -1.52396
-16.8593 -11.5873 -2.12168
-15.9147 -12.0481 -2.06934
-15.4724 -12.6007 -2.51603
-15.0546 -12.9442 -4.39772
-16.5471 -12.3727 -0.358786
-16.6121 -12.1421 -1.7553
-17.3519 -11.045 -2.44854
-15.7605 -12.9493 -2.39087
-16.0605 -12.0571 -2.6534
-16.3967 -12.4429 -0.271684
-16.0739 -12.0035 -2.34523
-18.034 -11.1208 -2.26286
-15.5635 -12.5785 -4.26288
-16.5791 -11.8772 -4.23811
-17.0412 -11.4907 -4.05049
-17.8995 -11.1239 -4.11783
-15.6436 -12.5919 -3.96982
-15.5729 -12.734 -4.0714
-15.2148 -12.8662 -3.92496
-16.0989 -12.4296 -4.02161
-16.282 -12.1537 -3.81285
-18.5588 -10.7043 -3.73592
-18.3395 -10.9623 -3.76149
-15.5241 -12.7911 -3.76087
-15.6885 -12.7257 -3.5951
-19.9419 -9.88428 -3.35957
-16.3716 -12.2651 -3.53092
-19.2345 -10.3713 -3.43226
-20.238 -9.7057 -3.33015
-20.2612 -9.66347 -3.31749
-15.5337 -12.9692 -3.53466
-15.6787 -12.7213 -3.36849
-15.6653 -12.7213 -3.38323
-20.5594 -9.62673 -3.14259
-15.6983 -12.7122 -3.29667
-15.4657 -12.9359 -3.33865
-15.4838 -12.9403 -3.15371
-15.4672 -13.0117 -3.09142
-15.637 -12.8769 -3.08604
-16.2239 -11.9483 -2.69287
-19.5203 -10.4513 -2.46048
-19.294 -10.6712 -2.50898
-15.9979 -12.0276 -2.37525
-16.0074 -11.9832 -2.44124
-16.0516 -12.0595 -2.35053
-18.8794 -10.9292 -2.3227
-15.4558 -13.2675 -2.55147
-16.7077 -12.0007 -1.90598
-19.0862 -11 -1.67075
-15.5039 -13.2352 -2.16152
-16.6401 -12.0429 -1.75378
-19.3038 -11.0052 -1.17114
-19.4272 -10.9257 -1.14648
-20.5556 -10.3401 -0.73056
-20.2129 -10.5555 -0.881698
-20.551 -10.3069 -0.795562
-19.26 -11.1609 -0.995992
-16.7128 -12.1227 -1.2514
-19.1191 -11.3061 -0.766084
-19.1111 -11.3164 -0.705491
-19.3585 -11.2029 -0.655578
-15.649 -13.0549 -1.38555
-20.1972 -10.7174 -0.463203
-16.4233 -12.4458 -0.991963
-16.4059 -12.4919 -0.875808
-16.0905 -12.6347 -0.938432
-16.0093 -12.6913 -1.07117
-16.4419 -12.3393 -0.848865
-19.9693 -10.991 -0.139989
-17.8881 -11.891 -0.575537
-16.9716 -12.2068 -0.448523
-16.2927 -12.3146 -0.404654
-16.2673 -12.4202 -0.483142
-16.2702 -12.394 -0.529834
-16.2426 -12.406 -0.442031
-16.1971 -12.3962 -0.359353
-16.2291 -12.4824 -0.473347
-16.2631 -12.3834 -0.365018
-16.1654 -12.5675 -0.515141
-16.1342 -12.7025 -0.400378
-16.9306 -12.4129 -0.0756116
-20.2508 -11.1355 1.05605
-20.0553 -11.166 0.898066
-17.9337 -11.737 0.84414
-15.7291 -13.0321 -0.0205626
-20.0414 -11.2923 1.36815
-18.181 -11.6254 0.943527
-16.382 -12.4926 0.329088
-15.8624 -12.8058 0.2196
-15.4583 -11.2158 1.27462
-15.1145 -12.9193 -4.16887
-15.173 -12.9347 -4.11079
-15.2641 -12.8202 -4.07235
-16.8823 -11.4911 -4.09054
-15.5871 -12.7363 -4.03881
-16.8874 -11.7316 -4.20311
-15.6173 -12.6057 -4.05009
-15.7274 -12.5018 -4.04022
-18.4673 -10.7569 -3.98417
-18.5745 -10.7682 -3.79619
-19.7651 -9.95555 -3.61218
-15.5866 -12.7739 -3.80424
-16.4302 -11.5606 -3.35067
-16.0468 -12.3991 -3.62269
-19.1241 -10.5139 -3.2705
-20.4453 -9.65035 -3.11314
-15.8798 -12.6255 -3.42703
-20.0763 -9.96321 -2.99856
-20.0819 -9.85861 -3.00059
-16.099 -11.6696 -2.80237
-16.2676 -11.627 -2.70485
-15.8133 -12.7343 -3.21561
-15.8498 -12.6547 -3.1924
-17.1656 -11.0079 -2.6505
-20.6062 -9.78872 -2.57291
-15.5711 -13.0421 -2.89908
-15.9631 -12.0858 -2.30723
-16.0749 -12.0614 -2.30961
-19.299 -10.8411 -1.77237
-16.8016 -12.0371 -1.69677
-16.8097 -12.0563 -1.56597
-16.8543 -11.9248 -1.51754
-19.8427 -10.6998 -1.05273
-17.6465 -11.7715 -0.993594
-19.2026 -11.2343 -0.731627
-15.7449 -13.0776 -1.23402
-19.8548 -11.0581 -0.238877
-20.0395 -10.8508 -0.155807
-17.8619 -11.9159 -0.550516
-16.5537 -12.5158 -0.741266
-16.004 -12.7263 -0.704077
-20.0765 -10.8952 0.138994
-16.3298 -12.3777 -0.514651
-16.3174 -12.3919 -0.446955
-15.7197 -13.2616 -0.48921
-19.5873 -11.4858 0.639108
-18.0377 -11.5794 0.836017
-16.9754 -12.2306 0.573804
-15.3824 -11.3756 1.42419
-19.5565 -10.1486 2.93365
-15.06 -11.3298 2.0496
-15.4987 -12.6009 -4.12493
-15.3595 -12.7278 -4.09046
-19.5155 -9.95309 -4.01992
-16.7273 -11.8464 -3.88251
-18.4044 -10.7745 -3.90112
-15.3544 -12.9396 -3.80451
-19.8699 -9.86858 -3.75921
-18.8643 -10.4397 -3.68963
-16.3782 -11.6788 -3.39055
-16.2785 -11.731 -3.31402
-15.5022 -12.8435 -3.47486
-17.2517 -10.9231 -2.62668
-16.2208 -11.9163 -2.68282
-15.4192 -13.2288 -2.92392
-15.4609 -13.0111 -2.93193
-16.1988 -11.8753 -2.36316
-16.1238 -11.9345 -2.27163
-20.2027 -10.2512 -1.89991
-20.1375 -10.3029 -1.6934
-19.3125 -10.8243 -1.88837
-20.15 -10.4097 -1.70184
-17.6777 -11.5309 -1.41396
-16.8924 -12.1593 -1.24328
-15.9451 -12.5827 -1.29299
-17.5853 -11.8914 -0.992822
-15.6787 -13.1272 -1.30337
-16.021 -12.7597 -1.0386
-16.5434 -12.5319 -0.686837
-16.336 -12.4285 -0.533632
-16.1104 -12.6907 -0.447786
-16.2544 -12.4856 -0.403821
-16.0823 -12.8133 -0.501236
-16.094 -12.5981 -0.327335
-18.0673 -11.8222 0.573213
-15.8997 -12.8604 -0.00254145
-16.33 -12.5183 0.180742
-15.6027 -11.2611 1.49069
-18.9022 -10.66 2.66012
-15.0101 -12.9871 -4.22081
-15.4928 -12.6952 -4.0252
-19.0749 -10.3694 -3.98297
-16.7283 -11.9796 -3.96543
-16.2971 -11.5058 -3.53713
-16.2648 -11.6768 -3.38803
-16.1187 -11.7843 -3.33354
-15.3076 -13.006 -3.42099
-22.1926 -8.0335 -2.46273
-22.2121 -8.16057 -2.5316
-15.6347 -13.0736 -2.87555
-15.9774 -12.0852 -2.27363
-16.099 -11.9383 -2.34413
-15.9686 -12.1692 -2.38982
-19.4227 -10.6385 -2.16503
-16.0107 -12.0683 -2.21297
-16.0112 -12.1663 -2.21709
-16.6375 -11.9523 -2.08906
-17.0691 -11.5133 -2.00844
-17.1 -11.5337 -1.8219
-17.1206 -11.7222 -1.77562
-19.42 -10.9499 -1.19729
-15.9905 -12.7481 -1.69151
-15.7923 -12.4634 -1.49501
-17.6682 -11.9204 -0.761927
-16.0265 -12.8387 -0.831759
-17.0829 -12.1901 -0.489662
-16.3171 -12.3419 -0.450651
-16.3365 -12.4811 -0.352955
-16.2431 -12.5741 -0.259184
-17.2411 -12.1008 0.378572
-17.8794 -11.7046 0.870277
-15.0977 -12.9144 -4.27491
-14.9938 -13.0027 -4.23231
-16.0517 -12.1848 -4.07644
-15.701 -12.6838 -3.94896
-16.0612 -11.7397 -3.34094
-15.8539 -11.7697 -2.98043
-15.7539 -12.1608 -3.15085
-15.7631 -11.8663 -3.01955
-16.5085 -11.379 -3.02283
-22.1789 -7.97701 -2.66725
-16.0304 -12.1366 -2.62798
-17.1084 -11.4986 -1.73552
-20.3128 -10.2688 -1.5384
-15.873 -12.5964 -1.56654
-15.7428 -12.9739 -1.52088
-16.0072 -12.6775 -0.294941
-19.4981 -11.4715 0.386474
-16.1219 -12.7014 -0.399676
-16.9379 -12.3901 -0.103354
-19.6955 -11.4212 0.775159
-19.7289 -11.3236 0.880512
-16.2734 -12.5935 0.175255
-16.8224 -12.3286 0.417639
