-17.9068 -11.819 -0.97273
-17.5406 -12.0951 0.326883
-17.2338 -12.2278 -0.242418
-17.1953 -12.2015 -0.575744
-15.2825 -12.943 -3.24604
-20.1914 -10.5273 -1.61137
-19.9254 -11.0493 -1.07153
-18.6282 -11.5883 1.46667
-18.5003 -11.6718 1.45219
-18.6739 -11.4883 0.112901
-18.8189 -11.3041 -2.04067
-18.0515 -11.5103 -2.619
-17.4414 -11.9189 -0.765556
-17.3303 -12.1703 -0.202336
-17.1609 -11.2777 -2.12419
-17.1586 -11.7896 -1.43864
-16.1589 -11.9417 -2.09462
-16.307 -12.7185 -0.415786
-16.3257 -12.604 -0.905463
-16.1533 -12.2573 -1.52872
-15.8124 -12.92 -0.792956
-15.5477 -12.4429 -2.39846
-15.0362 -13.0973 -3.06107
-20.2198 -10.6276 -1.55934
-19.8877 -10.9661 -1.61013
-18.3013 -11.5483 0.665706
-17.2686 -11.4461 -2.07409
-17.0621 -11.5231 -2.08494
-17.1101 -11.8345 -1.65343
-16.2374 -12.1751 -1.483
-16.1209 -12.546 -0.87879
-18.6361 -11.5554 -1.36783
-16.9746 -11.9231 -1.4694
-17.0931 -11.9007 -1.68145
-18.2259 -11.616 0.590286
-17.9805 -11.8639 -0.484554
-16.893 -11.4552 -2.10889
-16.195 -12.833 -0.407747
-18.635 -11.3518 0.923508
-18.7148 -11.322 0.667644
-20.0129 -11.309 0.114963
-19.246 -11.5701 -0.282574
-18.7439 -11.3641 0.805015
-18.6384 -11.3958 -0.194098
-16.3961 -12.41 -1.03588
-17.4712 -11.8112 -1.26036
-17.1929 -11.8252 -1.28247
-16.5453 -12.2591 -0.811942
-18.6084 -11.4031 0.991177
-16.9955 -12.1847 -0.686527
-16.4443 -12.4566 -0.751148
-20.1778 -11.3187 0.431216
-20.277 -11.23 0.177442
-20.4369 -10.7361 -0.739504
-20.3268 -10.5984 -1.5
-19.7342 -11.0113 -1.38884
-19.8903 -10.743 -1.79654
-19.7856 -10.9724 -1.34262
-19.6921 -10.8625 -1.83425
-19.2195 -11.13 -2.05691
-18.9678 -11.2707 -1.83296
-19.0444 -11.2652 -1.8815
-19.0039 -11.3366 -1.96312
-17.7936 -11.8001 -0.405278
-18.6504 -11.4051 -2.43614
-18.6581 -11.238 -2.63015
-18.6015 -11.2793 -2.53978
-15.7535 -11.1628 1.63578
-15.8494 -11.0857 1.53353
-16.7638 -12.1426 -0.185118
-15.568 -11.1556 1.31041
-16.7505 -12.1312 -0.521517
-15.4049 -11.2485 1.28397
-16.7289 -12.0964 -1.39595
-16.2682 -12.4581 -0.943876
-16.3747 -11.7378 -2.57796
-15.8584 -12.8802 -0.875147
-15.8439 -12.7776 -1.65283
-15.9196 -12.3219 -2.4776
-15.2727 -12.8338 -3.67044
-20.1855 -11.2715 0.297897
-20.0139 -11.3699 0.291572
-20.0942 -10.8546 -0.659354
-19.9067 -10.8483 -1.3182
-19.584 -11.3998 -0.545137
-19.6348 -10.9013 -1.73527
-18.9906 -11.2062 -1.82686
-18.6724 -11.6244 -1.26773
-16.175 -10.9642 1.6135
-17.0799 -12.2062 0.274799
-17.3207 -12.2816 -0.125206
-17.3627 -12.1931 -0.350079
-17.3446 -11.9366 -0.919
-17.1253 -12.2466 -0.29616
-16.9783 -11.4672 -2.03595
-16.3554 -12.6522 -0.137079
-16.3864 -12.4814 -0.778506
-16.3537 -12.3836 -1.14646
-16.2532 -12.186 -1.47832
-20.0507 -11.393 0.515881
-20.2744 -10.4702 -1.94718
-20.0064 -11.0427 -1.00164
-18.5624 -11.2946 0.672149
-19.2941 -11.6075 -0.2932
-19.5195 -11.3111 -1.10726
-19.1991 -11.2159 -1.93535
-18.7072 -11.5214 -1.31065
-17.296 -12.1573 -0.0732463
-17.2954 -12.1085 -0.67017
-16.3428 -12.4459 -0.789538
-16.2906 -12.57 -0.833301
-16.2624 -12.024 -2.02831
-19.8475 -11.3215 -0.313192
-18.7067 -11.441 -1.55815
-16.2947 -12.6744 -0.299736
-16.1983 -12.7598 -0.372044
-16.3104 -12.4682 -1.0711
-16.1238 -12.727 -0.621256
-15.8449 -12.8908 -1.32405
-15.0639 -13.0843 -3.11966
-14.8409 -13.0226 -3.71512
-20.3486 -10.7845 -0.808097
-18.5505 -11.5179 1.13767
-18.6063 -11.1201 -0.556966
-17.1671 -11.9444 -0.892868
-16.7525 -11.7899 -1.87051
-15.9187 -12.861 -1.29241
-19.3446 -11.1785 -1.09475
-18.4968 -11.353 -0.692056
-17.996 -11.98 -0.351417
-17.0165 -12.2126 -0.327647
-16.0865 -12.6735 0.283428
-17.3986 -11.9487 -0.957931
-16.0509 -12.6842 -1.21021
-18.1702 -11.5995 0.578084
-15.9591 -12.8604 -1.1134
-17.1967 -11.4042 -1.94846
-16.7123 -11.874 -1.95708
-16.7796 -12.1197 -1.47771
-20.1718 -11.1978 0.423811
-20.2887 -11.2399 0.268088
-20.1724 -11.0535 -0.641286
-18.0653 -11.5769 0.546323
-18.0553 -11.6499 0.525701
-19.6292 -11.0801 -1.13662
-19.8009 -10.9299 -1.34903
-19.7981 -10.9067 -1.65022
-19.7298 -10.9538 -1.48709
-18.2025 -11.889 -0.376694
-19.5237 -10.7709 -2.28609
-19.4656 -10.8577 -2.36735
-19.4716 -10.9337 -2.39593
-18.6861 -11.6014 -1.18901
-17.8267 -11.9031 -0.57763
-17.3052 -12.2402 -0.0538636
-16.7277 -12.2912 -0.251826
-16.6797 -11.5198 -2.4871
-16.3526 -11.8179 -2.64762
-18.6487 -11.3617 0.623294
-18.1746 -11.5176 0.57079
-19.4859 -11.4226 -0.531095
-18.0038 -11.7851 -0.294141
-17.7494 -12.1309 -0.12479
-18.6697 -11.6055 -1.32586
-18.584 -11.5854 -1.35976
-19.1987 -11.1944 -1.95502
-17.8368 -11.9934 -0.678455
-19.1346 -11.1235 -2.22957
-17.9339 -11.8712 -0.854768
-17.2434 -12.128 -0.284728
-17.3307 -12.0398 -0.490486
-18.9041 -11.0599 -2.43425
-16.1275 -12.8699 -0.239536
-16.2458 -12.5595 -0.629274
-16.252 -12.4672 -0.909843
-16.3184 -12.5399 -0.886873
-16.5367 -12.0108 -2.04513
-16.0575 -11.9099 -2.2053
-15.0875 -13.035 -3.06116
-19.9598 -11.3104 0.191101
-19.9813 -11.3622 0.340265
-20.1656 -10.9869 -0.668265
-20.0531 -11.0019 -0.663052
-18.6334 -11.4882 0.83686
-20.108 -10.9863 -0.707062
-19.8423 -11.0534 -0.836726
-18.037 -11.7663 0.643562
-16.2593 -10.8243 1.48338
-16.2368 -10.866 1.50881
-19.7707 -10.8485 -1.94968
-18.485 -11.2079 -0.534266
-18.7365 -11.4499 -1.44224
-15.456 -11.2352 1.3942
-17.2523 -12.2464 -0.278373
-17.2714 -12.0882 -0.598381
-16.5139 -12.5131 0.301927
-17.2173 -12.0566 -0.694005
-17.1162 -12.017 -0.710945
-16.0963 -12.6288 0.146603
-15.9949 -12.6843 0.295762
-16.3946 -12.3901 -1.1499
-16.1068 -12.6164 -0.929631
-15.5733 -12.8239 -3.14622
-15.0702 -12.9237 -3.32066
-20.2682 -11.0877 -0.474375
-18.6604 -11.4137 0.667904
-17.3129 -12.2326 -0.237933
-17.1656 -12.0534 -0.558491
-16.5342 -12.2094 -0.379
-16.56 -12.3325 -0.330924
-16.0884 -12.6765 0.274592
-16.437 -12.4294 -0.993838
-16.0868 -12.9285 -0.575674
-16.646 -11.6326 -2.44402
-20.2493 -11.2151 0.279096
-20.0262 -11.3505 0.245782
-20.2001 -11.2369 0.164346
-20.0215 -11.0545 -0.965794
-15.9688 -11.119 1.57536
-17.0761 -12.2643 -0.0256926
-17.2836 -11.9761 -0.866753
-17.0953 -11.4209 -2.05725
-15.5417 -12.3988 -2.30853
-18.3451 -11.802 1.35876
-20.1032 -11.0059 -0.704814
-17.986 -11.7616 -0.958498
-17.5669 -11.3046 -2.14534
-16.1339 -12.6072 -0.446883
-16.3609 -12.2898 -1.13279
-18.2326 -11.53 0.612558
-16.8996 -11.7634 -2.00898
-16.761 -11.9556 -1.7491
-17.8777 -11.4987 -1.48212
-16.7244 -12.2467 -0.401701
-16.8036 -12.2472 -0.740447
-16.3227 -11.8399 -2.31836
-16.1592 -12.4876 -0.644436
-16.3162 -12.2573 -1.46972
-15.809 -13.0028 -0.982091
-20.4461 -11.3824 1.07295
-20.2383 -11.4949 1.10337
-20.0536 -11.4086 0.670228
-18.5631 -11.4106 0.802541
-18.4548 -11.3539 0.734126
-16.2448 -10.8427 1.58849
-20.337 -10.778 -0.748978
-18.1406 -11.586 0.529675
-17.8363 -11.7267 0.649184
-19.8131 -11.2597 -0.42011
-20.1504 -11.0182 -0.686832
-15.7625 -11.1161 1.4115
-19.6957 -11.2908 -0.754713
-20.3017 -10.7591 -1.15609
-19.9056 -11.0289 -0.963596
-18.5199 -11.1471 -0.56806
-19.7579 -10.9936 -1.40271
-19.8277 -10.9011 -1.63356
-19.3244 -11.1937 -1.51155
-19.3775 -11.218 -1.46447
-19.3179 -11.1654 -1.51696
-18.7923 -11.7011 -1.31113
-18.765 -11.6064 -1.31405
-16.6451 -12.2954 -0.216737
-19.5217 -10.9172 -2.12656
-19.1355 -11.1612 -1.9605
-17.2626 -12.0899 -0.890656
-17.1036 -12.0245 -1.07837
-19.1213 -11.0728 -2.30414
-18.9662 -11.1305 -2.51939
-17.2086 -11.3883 -2.47342
-15.8166 -12.7403 -1.64719
-15.8329 -11.9216 -2.38968
-16.3553 -11.6567 -2.66894
-19.8507 -11.6359 0.868206
-19.3589 -11.9131 1.12466
-19.6555 -11.52 0.146226
-19.5664 -11.6506 0.340964
-20.572 -10.6817 -0.852522
-20.4557 -10.8284 -0.83156
-20.432 -10.9287 -0.681635
-20.492 -10.7927 -0.752217
-16.2732 -10.8717 1.35655
-19.7826 -10.8939 -1.60942
-19.3982 -11.1981 -1.49125
-17.1472 -12.2367 -0.125869
-19.8841 -10.6969 -2.13982
-16.8705 -12.191 -0.155198
-19.8378 -10.7226 -2.20874
-17.266 -11.795 -1.0757
-16.1143 -12.6142 -0.669666
-16.1636 -12.5117 -0.923999
-16.2313 -12.547 -0.891473
-16.1939 -12.4066 -1.17779
-16.208 -12.4867 -1.13757
-16.3566 -12.2045 -1.50776
-15.0886 -13.0742 -3.11801
-20.1722 -11.4051 0.415544
-20.045 -11.3786 0.444534
-18.4823 -11.4813 0.795639
-19.5243 -11.6112 0.161141
-19.8862 -11.3506 -0.120288
-19.9303 -11.2975 -0.125596
-19.7067 -11.345 -0.0661765
-20.1751 -11.0546 -0.591246
-17.7784 -11.7057 0.550796
-19.3718 -11.336 -0.543051
-19.8315 -10.9699 -1.34153
-16.5397 -12.513 0.428535
-17.2534 -12.3754 -0.0219393
-17.0406 -12.2812 -0.258235
-17.6997 -12.0016 -0.683656
-16.9007 -12.2401 -0.196246
-17.1192 -12.0788 -0.586709
-19.1409 -11.1446 -2.22506
-16.2002 -11.8811 -2.24954
-15.6453 -10.9241 2.08268
-16.5454 -10.7234 1.55382
-16.184 -11.0009 1.6961
-19.3828 -11.6539 0.262136
-16.3017 -10.8878 1.48419
-20.4254 -10.8079 -0.707139
-20.4488 -10.8113 -0.708774
-15.9913 -11.016 1.62054
-17.8168 -11.7201 0.588914
-15.738 -11.1482 1.35602
-15.5236 -11.1462 1.2606
-18.6201 -11.2845 -0.636358
-16.3933 -12.5803 0.472475
-16.5072 -12.5186 0.215182
-17.4176 -12.1552 -0.334277
-17.2868 -11.9953 -0.46188
-17.6256 -12.0357 -0.709455
-17.2362 -12.0328 -0.543494
-17.1277 -12.1215 -0.697609
-19.1422 -11.0274 -2.29251
-16.2776 -12.6883 -0.562189
-18.9167 -11.2643 -2.29091
-16.2992 -12.5774 -0.898813
-16.2003 -12.4151 -1.04017
-16.2908 -12.3532 -1.05488
-17.5582 -11.2217 -2.43222
-15.8105 -12.9377 -1.27962
-16.2908 -10.9252 1.50188
-15.5474 -11.2444 1.29264
-16.8449 -12.2203 0.4617
-16.6053 -12.3692 0.352889
-19.0196 -11.4595 -1.19924
-16.0938 -12.6902 0.21806
-16.2644 -12.4502 -1.01272
-16.4 -12.3111 -1.15405
-19.4416 -11.4936 -0.674851
-16.7956 -12.3949 0.596266
-18.281 -11.8846 -0.301654
-16.2552 -12.4 -1.17834
-15.7936 -12.9637 -1.2394
-15.4 -12.8271 -3.13232
-18.3973 -11.4867 0.522091
-17.7557 -11.8428 0.498941
-16.7175 -12.2074 -1.34307
-16.5794 -12.4262 -0.198314
-15.8407 -12.9169 -0.907142
-20.5701 -11.385 1.14753
-20.4475 -11.3779 1.11166
-19.8365 -11.7371 1.24181
-16.772 -10.7076 1.69985
-19.9327 -11.6068 1.03666
-19.9461 -11.556 1.05712
-16.0627 -10.9155 1.61299
-15.8025 -11.149 1.46404
-19.707 -11.5843 0.410392
-15.485 -11.2835 1.38978
-18.4647 -11.4845 0.50377
-15.4713 -11.312 1.30295
-18.2441 -11.4629 0.605703
-18.1757 -11.6259 0.515672
-17.9738 -11.6395 0.53814
-19.8401 -11.2947 -0.0798201
-19.7856 -11.3298 -0.224269
-19.6064 -11.5125 -0.180076
-19.8144 -11.1572 -0.357684
-20.643 -10.6528 -0.71515
-17.7207 -12.1891 -0.190099
-19.4441 -11.388 -0.582656
-20.1319 -10.9503 -0.810609
-19.3332 -11.4233 -0.571577
-18.1013 -11.9578 -0.419154
-19.3021 -11.4604 -0.686256
-20.4251 -10.7212 -0.896908
-20.5334 -10.8213 -0.995331
-17.8923 -11.8751 -0.496701
-16.9209 -12.3168 -0.213441
-17.8672 -11.9401 -0.514333
-20.2714 -10.7317 -1.13972
-20.2999 -10.7943 -1.14262
-17.4208 -12.0499 -0.512983
-20.3249 -10.7458 -1.32862
-20.372 -10.6692 -1.2679
-18.2243 -11.712 -0.930729
-20.3393 -10.635 -1.29491
-19.8266 -10.9118 -1.34777
-18.2518 -11.6396 -0.927939
-17.2009 -12.0004 -0.748781
-19.3318 -11.273 -1.45953
-18.8785 -11.3958 -1.47462
-19.528 -11.0999 -1.68425
-20.3682 -10.5835 -1.94481
-20.3205 -10.4943 -1.82158
-19.049 -11.2004 -1.74016
-18.7659 -11.4356 -1.70212
-20.0127 -10.5573 -1.97081
-19.7482 -10.8585 -1.90451
-19.7856 -10.7495 -1.90066
-20.3964 -10.4846 -2.08289
-18.9507 -11.2715 -1.98519
-17.5749 -11.766 -1.6969
-18.7038 -11.2802 -1.99481
-19.3072 -10.962 -2.24455
-16.923 -11.9374 -1.58318
-17.3732 -11.4458 -2.16272
-17.1601 -11.3064 -2.19683
-18.0397 -11.4287 -2.91842
-16.1888 -11.7927 -2.23498
-16.0635 -11.8853 -2.24213
-16.8584 -11.5286 -2.48763
-20.0125 -11.6959 1.37678
-16.2442 -10.9975 1.6784
-16.1518 -10.9988 1.69308
-16.6618 -10.6965 1.64635
-19.9963 -11.6116 0.876063
-19.6843 -11.7384 0.746599
-15.7253 -11.255 1.41304
-20.4208 -11.0786 0.387798
-19.7452 -11.471 0.369814
-19.4369 -11.7353 0.439145
-15.6177 -11.2092 1.22402
-18.3221 -11.5104 0.636289
-20.4767 -10.9833 0.0334713
-17.0337 -12.0352 0.23867
-20.092 -11.0243 -0.747104
-20.1164 -10.9773 -0.754886
-19.4028 -11.4231 -0.70498
-19.6031 -11.3354 -0.82924
-17.2282 -12.2144 -0.304698
-20.3318 -10.8158 -0.869167
-20.0298 -10.8884 -1.20766
-16.1118 -12.7666 -0.402369
-18.919 -11.3802 -1.26597
-17.9154 -11.7302 -0.937145
-17.1232 -12.0694 -0.77761
-17.1977 -11.8306 -1.02141
-20.2076 -10.6479 -1.85794
-16.1394 -12.5947 -1.0093
-18.6925 -11.5628 -1.72494
-16.0704 -12.5166 -1.19174
-18.9759 -11.2917 -2.08317
-18.912 -11.2377 -2.25001
-19.1252 -11.0714 -2.40988
-17.2661 -11.4253 -1.91217
-16.4873 -12.0343 -2.06681
-16.1911 -11.923 -2.09682
-16.6058 -11.7039 -2.5721
-15.4878 -12.8941 -3.26956
-15.3005 -12.9447 -3.26131
-15.1693 -12.8943 -3.44999
-15.3008 -12.814 -3.59346
-19.9973 -11.5367 0.558077
-18.5839 -11.3651 0.883032
-19.6945 -11.5372 0.397961
-19.6501 -11.6024 0.334618
-18.0215 -11.6743 0.744435
-19.4779 -11.6812 0.279055
-17.3339 -12.0009 0.327299
-19.8357 -11.3152 -0.394334
-19.8598 -11.2415 -0.356138
-16.2342 -12.6294 0.435651
-20.2047 -10.9515 -0.722913
-17.1873 -12.2774 -0.117165
-19.6917 -11.2402 -0.785497
-19.4002 -11.3726 -0.706331
-17.0566 -12.3258 -0.227613
-17.1052 -12.2218 -0.292377
-16.8044 -12.2661 -0.23053
-19.4337 -11.4548 -0.838282
-17.9077 -11.8743 -0.709415
-17.2328 -12.1453 -0.535054
-16.1969 -12.6911 -0.511063
-18.7419 -11.5134 -1.21051
-19.627 -11.0545 -1.41829
-19.3957 -11.1532 -1.4573
-19.7058 -10.93 -1.6528
-19.0185 -11.4927 -1.4571
-17.1676 -12.0333 -1.05045
-17.3729 -11.9014 -0.962494
-18.7427 -11.4949 -1.48668
-20.0199 -10.79 -1.85777
-15.8067 -12.7735 -1.20211
-18.5071 -11.7049 -1.79605
-18.5245 -11.5719 -1.80186
-18.9368 -11.2201 -1.96599
-18.5103 -11.4986 -2.04202
-16.319 -12.1171 -1.37215
-19.5036 -10.8443 -2.18299
-18.7965 -11.1905 -2.39834
-16.4139 -11.6996 -2.52561
-15.2782 -12.8614 -3.27684
-15.2651 -12.8701 -3.38312
-19.5165 -11.7623 0.765636
-18.0252 -11.6691 0.745257
-19.5404 -11.604 0.186999
-18.1528 -11.6612 0.393685
-18.6983 -11.5272 0.0595214
-17.7378 -11.9694 -0.320607
-16.9323 -12.2223 -0.180773
-16.644 -12.2596 -0.182042
-17.3935 -11.8059 -1.00067
-18.9106 -11.1972 -2.23199
-16.6346 -11.7311 -2.50653
-19.3328 -11.6001 -0.421857
-16.8395 -12.2807 -0.368739
-17.8699 -11.9643 -0.588312
-16.2345 -12.4522 -1.07311
-16.0914 -12.0122 -2.21912
-17.0783 -11.1047 -2.67005
-19.9641 -11.7223 1.34251
-16.2165 -10.84 1.47759
-19.4366 -11.6965 0.259029
-19.4017 -11.6578 -0.205876
-19.499 -11.4194 -0.483606
-14.8397 -13.0612 -3.72337
-20.5144 -11.2502 1.15661
-20.6034 -11.3423 1.09077
-15.8604 -11.1164 1.67855
-18.5539 -11.494 0.593511
-17.5705 -11.7427 -1.27597
-16.5318 -12.0151 -2.00827
-17.7933 -11.7182 0.479134
-16.7494 -12.3278 0.579658
-17.2396 -12.1135 -0.709434
-17.6311 -11.711 -1.42444
-16.5569 -11.9275 -2.03005
-15.0947 -13.0014 -3.25673
-19.6706 -10.83 -2.36826
-19.5869 -10.9324 -1.59184
-19.3585 -11.1939 -1.45193
-19.7206 -11.0039 -1.38015
-18.7999 -11.6185 -1.23797
-16.1709 -12.5376 -1.18821
-19.8749 -11.1245 -0.821354
-20.2614 -10.9643 -0.668234
-19.5127 -11.2471 -0.723518
-20.2513 -10.9353 -0.69105
-19.8657 -11.1121 -0.815776
-20.0383 -11.1228 -0.429423
-19.8138 -11.259 -0.453067
-19.9726 -11.1978 -0.431966
-17.9593 -11.953 -0.532029
-16.6725 -12.1565 -0.398423
-19.8131 -11.3931 -0.0725152
-20.1566 -11.126 -0.0271413
-19.4699 -11.6023 0.0550262
-19.827 -11.5103 0.22787
-19.9173 -11.34 0.358659
-20.3378 -11.1743 0.38553
-19.7971 -11.5277 0.480073
-19.9276 -11.5408 0.551511
-16.3465 -12.5375 0.273409
-19.9924 -11.61 0.677841
-20.004 -11.5717 0.53994
-19.8706 -11.6321 0.559603
-19.8072 -11.6647 0.608156
-16.9539 -12.2987 0.476998
-17.5704 -11.8721 0.587606
-17.536 -11.9461 0.554645
-17.852 -11.7477 0.653304
-17.9097 -11.7929 0.681812
-19.9177 -11.4658 0.816298
-19.5873 -11.8045 1.03292
-19.5994 -11.8934 1.01309
-19.8115 -11.8024 0.96746
-18.5665 -11.5439 1.32218
-18.4847 -11.5649 1.36736
-15.7102 -11.0891 1.51981
-19.8787 -11.7459 1.73778
-19.8038 -11.8209 1.78281
-15.6623 -10.8633 2.19283
-18.6933 -11.2952 -2.46801
-19.0058 -11.1496 -2.36138
-19.0792 -11.0539 -2.3091
-15.8996 -12.1061 -2.35287
-20.0071 -10.6618 -2.06828
-19.911 -10.9412 -1.25035
-17.8862 -11.724 -1.27952
-18.6404 -11.7687 -1.21587
-19.3471 -11.3305 -0.789864
-15.8314 -12.9063 -1.13677
-19.4209 -11.4439 -0.737239
-20.2456 -11.0481 -0.516552
-19.4228 -11.4447 -0.551303
-15.8047 -12.97 -0.936084
-15.888 -12.9275 -0.85204
-18.6495 -11.3867 -0.441459
-19.4075 -11.4807 -0.414603
-19.1934 -11.7501 -0.194255
-18.6351 -11.5695 0.14256
-19.4969 -11.6948 0.350866
-19.2554 -11.7962 0.21714
-19.3981 -11.7525 0.303941
-19.5357 -11.7672 0.322306
-17.6202 -12.0625 0.335007
-17.1178 -12.1687 0.225713
-18.6449 -11.4315 0.554082
-17.237 -12.0888 0.385078
-19.9182 -11.6538 0.617173
-16.8413 -12.3769 0.574583
-19.9874 -11.7846 1.29433
-19.7212 -11.9424 1.28557
-16.4362 -10.827 1.64891
-16.0679 -11.5375 -2.78782
-17.8986 -11.3238 -1.75596
-18.6201 -11.5073 -1.85445
-19.5564 -11.1665 -1.40853
-18.5959 -11.2873 -0.60575
-19.524 -11.6346 -0.0873459
-19.3648 -11.593 -0.142481
-19.3585 -11.589 -0.119298
-19.3038 -11.6393 -0.0542183
-19.437 -11.5988 0.281323
-19.5397 -11.614 0.519178
-18.6287 -11.3896 0.835662
-19.6804 -11.7961 0.739291
-19.6124 -11.8338 1.66441
-16.4885 -12.0759 -1.75775
-17.8043 -11.6694 -1.23965
-19.5223 -11.3997 -0.586154
-19.5014 -11.4033 -0.558449
-19.4802 -11.4524 -0.131544
-19.4768 -11.7519 0.393806
-19.5214 -11.6999 0.456257
-16.6326 -12.2952 0.26144
-20.1828 -11.4804 1.12687
-18.5934 -11.5741 1.67041
-18.5797 -11.5959 1.59868
-16.2166 -10.9246 1.52588
-16.1126 -10.9129 1.73614
-16.4651 -12.1778 -1.40803
-19.2469 -11.4499 -0.80593
-18.5703 -11.5214 0.0796326
-19.5993 -11.6406 0.531841
-19.5402 -11.8565 1.00044
-19.8446 -11.8136 1.47643
-15.9718 -10.9831 1.52981
-15.8972 -12.1753 -2.49531
-16.1106 -12.0326 -1.97477
-16.2105 -12.3109 -1.45116
-17.0013 -12 -1.12011
-19.2246 -11.4734 -0.698252
-17.3969 -12.107 -0.287819
-18.5961 -11.503 1.65082
-17.1904 -11.931 -1.54993
-16.7664 -12.1623 -1.38041
-16.5806 -12.4347 -0.774506
-17.2488 -12.0623 -0.430171
-16.7875 -12.1802 0.214475
-17.2033 -11.5377 -2.17512
-16.4846 -12.1009 -1.30725
-16.3818 -12.2652 -1.10217
-15.8858 -12.6116 -1.54623
-19.2047 -11.3075 -1.70756
-17.9777 -11.4047 -1.83978
-18.8245 -11.4896 -1.20128
-16.5965 -12.0015 -1.80496
-20.1896 -10.9734 -0.63748
-19.7032 -11.1736 -0.689902
-19.3562 -11.4286 -0.660725
-16.7365 -12.1142 -1.34327
-17.2655 -11.9085 -0.937319
-16.8608 -12.2079 -1.12138
-20.1626 -11.2865 0.203606
-19.8187 -11.4712 0.10922
-19.9455 -11.4774 0.32887
-19.949 -11.46 0.505531
-19.3946 -11.6695 0.305927
-17.5839 -12.2349 -0.233716
-15.7749 -12.9741 -0.878662
-18.4505 -11.4592 0.590274
-17.0562 -12.3467 -0.0862829
-19.6385 -11.7779 0.671716
-19.8917 -11.5606 0.956679
-20.5528 -11.398 1.05936
-20.5606 -11.3883 1.07581
-20.4142 -11.4805 1.19788
-20.0629 -11.5725 1.184
-17.1691 -12.1662 0.273368
-20.013 -11.5749 1.10126
-19.6916 -11.7548 1.04639
-19.5639 -11.8563 0.967709
-17.1839 -12.013 0.453981
-20.2624 -11.6287 1.43099
-18.3687 -11.5627 1.09326
-19.6613 -11.8617 1.33529
-18.5711 -11.5473 1.27506
-19.9348 -11.8628 1.63289
-19.49 -11.1468 2.05996
-16.4784 -10.7111 1.55674
-19.5481 -11.3192 -0.81922
-17.9858 -11.7288 -1.18509
-19.2122 -11.4644 -0.483754
-19.1966 -11.6389 -0.563495
-19.2478 -11.7172 -0.161199
-19.2327 -11.6283 -0.175718
-16.6848 -12.1834 -0.863997
-20.3407 -11.2923 0.175074
-19.2371 -11.8034 0.340301
-19.3717 -11.7402 0.321825
-15.8464 -12.8779 -0.91061
-19.481 -11.7348 0.282359
-19.5393 -11.7333 0.545066
-19.4848 -11.7249 0.580482
-19.6406 -11.7151 0.462032
-17.9742 -11.6584 0.36404
-17.3015 -11.9962 0.489174
-19.7378 -11.7231 1.08501
-18.5389 -11.582 1.42176
-15.5479 -10.9864 2.10953
-18.4129 -11.591 -1.85208
-19.2209 -11.446 -0.560596
-19.1528 -11.467 -0.389208
-19.9709 -11.4841 0.472486
-18.6069 -11.3606 0.589431
-17.3262 -12.1247 0.0109518
-17.6714 -11.9291 0.580751
-15.7124 -10.8672 2.1637
-16.8813 -12.1458 -1.35715
-16.0141 -12.6417 -1.67167
-18.3239 -11.3492 0.630219
-18.0393 -11.4247 -1.44858
-19.2435 -11.5308 -0.197707
-19.5308 -11.0556 2.00381
-17.8461 -11.6669 -1.44697
-17.7111 -11.9545 -0.432576
-17.294 -12.2458 -0.292732
-19.4813 -11.695 0.454827
-16.6472 -11.9994 -1.8296
-19.3778 -11.4993 -0.52209
-19.4319 -11.8587 0.970882
-16.518 -12.4133 0.319328
-16.9858 -11.8418 -1.61691
-18.8982 -11.5451 0.140688
-17.3622 -11.3333 -1.59337
-19.6134 -10.8076 -2.43089
-19.3771 -11.4116 -1.16208
-18.641 -11.6237 -1.24358
-19.2269 -11.5481 -0.520462
-19.1738 -11.707 -0.156864
-19.9972 -11.5112 0.495027
-19.4222 -11.7525 0.561737
-17.5474 -11.8987 0.570912
-18.634 -11.4287 -2.10653
-19.4264 -11.3561 -1.19069
-17.7074 -11.7093 -1.71656
-19.8965 -11.2617 -0.411621
-19.2966 -11.411 -0.601219
-20.4196 -11.2743 0.616253
-17.2056 -11.976 -1.01887
-19.3388 -11.8053 0.280673
-19.4156 -11.922 0.99164
-19.5567 -11.9534 1.40307
-17.5003 -12.0516 0.343399
-19.8903 -10.8044 2.11396
-19.1789 -11.5793 -0.565484
-16.9108 -12.0772 -1.32502
-16.7358 -12.1993 -1.44895
-20.0807 -11.3655 0.537213
-19.1559 -11.7802 0.0673766
-19.8058 -11.6281 0.517593
-18.555 -11.2772 0.55771
-15.7751 -12.6897 -1.49719
-16.8164 -12.1879 -0.252286
-16.7149 -12.1336 -0.422171
-18.8984 -11.1315 -2.31472
-15.4601 -12.8044 -3.2829
-17.565 -11.7267 -1.22421
-16.8615 -12.4331 -0.610368
-19.6312 -11.7804 1.02832
-17.5467 -11.6885 -1.29026
-18.6038 -11.6171 -0.019888
-18.7162 -11.636 1.59612
-19.9137 -11.4401 0.262334
-16.8939 -12.3222 -0.631927
-16.8699 -11.7079 -1.74533
-18.5005 -11.5628 0.00740333
-19.4344 -11.7476 0.118219
-16.9637 -12.1932 0.488906
-16.0913 -12.7164 -0.480585
-20.0165 -11.3764 0.281934
-20.094 -11.4102 0.316757
-20.1361 -11.3101 0.35834
-19.3634 -11.7184 -0.12701
-17.7431 -12.066 -0.375128
-17.2357 -12.0574 -0.3846
-16.2139 -12.7147 -0.587031
-16.2923 -12.7844 -0.315434
-19.4762 -11.3585 -0.594143
-19.1618 -11.754 0.000241891
-19.3338 -11.7481 0.371075
-15.5044 -12.7835 -3.23884
-17.7145 -11.4159 -1.99844
-17.8359 -11.4001 -1.79668
-16.8001 -12.1324 -1.31082
-19.988 -11.2966 0.340764
-20.0037 -11.5166 0.513053
-19.966 -11.6434 1.08331
-17.1083 -11.8687 -1.6322
-18.703 -11.5446 1.65185
-17.1688 -12.1568 -0.92258
-17.2213 -11.9858 -0.578971
-16.9074 -12.25 -0.681945
-16.817 -12.3685 -0.444491
-16.7253 -12.1082 -0.315675
-16.3621 -12.4653 -0.845066
-16.0798 -12.6271 -1.14583
-19.3361 -11.765 0.327841
-18.6509 -11.0719 -0.580013
-15.8236 -12.7596 -1.44332
-18.0985 -11.8022 -0.755892
-16.7187 -12.3711 -0.77251
-16.8659 -11.9767 -1.80109
-18.3302 -11.5534 1.25158
-16.8308 -12.027 -1.83037
-19.5425 -11.3377 -0.58646
-16.9086 -12.4078 -0.660571
-20.1634 -11.2501 0.468406
-20.1943 -11.2626 0.473553
-18.3623 -11.6282 1.19718
-17.2399 -12.1238 -0.432664
-16.5231 -10.7222 1.62631
-16.268 -12.4573 -0.8589
-15.9325 -12.8633 -1.09426
-19.3491 -11.2385 -1.16338
-19.9556 -11.4631 0.524764
-17.3001 -12.1732 -0.254743
-17.3481 -12.0941 -0.193847
-16.2084 -12.6455 -0.468722
-19.7017 -11.4807 0.220344
-18.5848 -11.1439 -0.693637
-16.7427 -12.111 -1.36731
-16.2557 -12.5878 -0.907049
-16.3668 -12.6037 -0.82364
-19.9834 -11.3769 0.585637
-18.322 -11.4947 0.633087
-16.2344 -12.5971 -1.00639
-18.4464 -11.6032 1.33719
-17.4033 -12.0305 0.209049
-16.5263 -12.1718 -1.39321
-17.7978 -11.3336 -2.06604
-18.7176 -11.4903 0.1914
-18.3829 -11.5021 -0.676144
-17.3689 -11.2906 -2.30859
-20.3579 -10.4857 -1.93501
-20.3422 -10.5746 -1.70934
-20.1597 -11.2938 0.356205
-20.1794 -11.3254 0.333669
-20.139 -11.2288 0.506446
-20.0113 -11.2899 0.444391
-19.2309 -11.0999 -2.00311
-19.2102 -11.687 -0.248903
-18.6857 -11.3153 -2.54902
-16.9505 -11.9043 -1.7041
-16.2199 -12.7108 -0.421683
-16.0305 -12.6208 -0.877955
-19.9155 -11.3092 -0.374831
-19.3799 -11.4692 -0.907414
-18.6815 -11.2751 -2.34387
-18.0611 -11.4857 -2.63863
-17.2792 -12.1024 -0.642658
-19.4289 -11.3909 -0.930341
-16.3353 -12.6924 -0.269255
-18.4455 -11.6478 -1.60466
-17.1624 -11.383 -2.09569
-16.2695 -12.5194 -1.02616
-16.1232 -12.8432 -0.229511
-20.3161 -11.2688 0.362398
-18.6801 -11.3658 0.891369
-18.6012 -11.3692 0.853324
-15.455 -12.4969 -2.07134
-15.9697 -12.8331 -1.10317
-20.156 -11.2748 0.294249
-20.0392 -11.2737 0.0242987
-19.2513 -11.625 -0.303956
-17.0337 -11.7349 -1.68377
-18.7136 -11.6236 0.228581
-18.8732 -11.5872 -0.434899
-20.2437 -10.6913 -1.48919
-20.2742 -11.3126 0.38656
-19.9829 -11.4441 0.284644
-18.8932 -11.2586 -1.87712
-17.3185 -12.0065 -0.362194
-16.2733 -12.432 -1.19686
-15.9613 -12.6219 -1.92839
-20.3689 -10.5809 -1.63813
-20.2842 -10.688 -1.56442
-20.0183 -11.3514 0.307865
-19.822 -10.9021 -1.45297
-17.9342 -12.1487 -0.070935
-17.1504 -12.2506 -0.635788
-16.7724 -12.1759 -1.33151
-16.1214 -12.5856 -0.655803
-15.6505 -12.4936 -2.09584
-15.0788 -13.0606 -3.02204
-20.4217 -10.813 -0.889614
-20.1238 -11.2906 0.256224
-19.4849 -11.134 -1.44366
-17.2074 -11.3464 -1.78912
-16.0327 -12.2745 -1.59786
-16.0036 -12.9387 -1.02021
-20.0722 -11.3681 0.478712
-19.8001 -10.8564 -1.54223
-19.7101 -10.9083 -1.46429
-19.2199 -11.5351 -0.309177
-17.0463 -11.8533 -1.56009
-20.3174 -11.1816 0.218156
-18.6624 -11.6359 -1.29166
-16.2594 -12.6313 -0.644072
-17.2891 -11.7388 -1.19011
-16.1847 -12.2983 -1.36103
-17.9822 -11.4479 -1.4611
-17.0877 -12.2502 -0.539905
-16.9346 -12.0855 -1.0002
-16.3451 -12.3817 -1.08628
-17.1504 -11.964 -1.38312
-15.936 -13.0845 -0.638642
-17.0317 -12.2525 -0.75552
-20.2549 -11.3588 0.425195
-20.2314 -11.3403 0.346166
-20.2019 -11.2662 0.344079
-19.9995 -11.4376 0.299656
-20.2994 -10.6248 -1.59099
-20.3216 -10.6365 -1.55893
-20.1253 -10.9737 -0.68904
-19.1828 -11.3056 -1.79819
-19.0485 -11.1525 -1.95156
-18.9523 -11.2774 -1.83615
-18.9813 -11.3069 -1.91814
-17.3869 -12.0922 -0.183924
-16.602 -12.0623 -1.75726
-16.3312 -11.7824 -2.32339
-15.2117 -12.9411 -3.36873
-15.0583 -12.9693 -3.35599
-19.8371 -10.9329 -1.65449
-19.7849 -10.8419 -2.06914
-19.6088 -10.8517 -2.3635
-17.3 -12.2215 -0.309247
-16.3325 -12.3991 -1.21576
-16.1354 -12.6991 -0.6229
-15.9057 -13.0165 -0.690312
-20.4355 -10.8879 -0.775101
-20.1748 -10.793 -1.31639
-19.8379 -11.2591 -0.24259
-19.78 -11.3863 -0.248733
-19.4049 -11.3857 -0.912057
-18.8536 -11.4102 -1.87127
-18.04 -12.0297 -0.247948
-17.4193 -12.1046 -0.420825
-16.2701 -12.435 -1.03758
-16.0957 -11.9829 -2.26275
-20.4746 -10.6696 -0.832785
-19.9139 -11.608 0.841044
-19.4051 -11.545 -0.299991
-19.3794 -11.3887 -1.15931
-17.2724 -11.3314 -2.18306
-16.2049 -11.8211 -2.25304
-16.0567 -11.9658 -2.19529
-15.8853 -12.6922 -1.45667
-15.7474 -12.8153 -1.40606
-19.4594 -11.3764 -1.02199
-15.8431 -12.8541 -1.24011
-14.8641 -13.0031 -3.85414
-17.4555 -11.8925 -1.00766
-16.6266 -12.3748 -0.974097
-16.2555 -11.903 -2.17769
-15.8601 -12.9976 -0.903039
-20.2003 -11.1857 0.29775
-20.0307 -11.3961 0.442375
-20.4802 -10.915 -0.818403
-20.0106 -11.0355 -0.706526
-20.1657 -10.9857 -0.771453
-20.2278 -10.6501 -1.54579
-20.2954 -10.6213 -1.56526
-19.7201 -11.0697 -1.37663
-19.7135 -10.9364 -1.70381
-16.202 -10.9032 1.3775
-18.7442 -11.5982 -1.23259
-18.8401 -11.3805 -1.74684
-18.923 -11.1592 -2.04456
-19.0826 -11.1424 -2.38146
-17.7959 -12.2462 -0.196867
-18.6152 -11.2706 -2.49951
-18.7206 -11.2842 -2.6293
-17.2827 -12.1737 -0.350531
-17.0207 -11.5217 -2.16144
-16.3264 -12.786 -0.479454
-16.1951 -12.544 -0.768917
-20.2266 -11.3373 0.587901
-20.146 -11.3092 0.397964
-20.5541 -10.6102 -1.18719
-19.1083 -11.2893 -1.72716
-17.6235 -11.8801 0.558477
-17.2295 -12.2513 -0.199958
-17.3872 -11.9499 -0.674618
-17.4316 -11.9711 -0.775281
-17.3324 -11.894 -1.01406
-15.5414 -11.1997 1.2839
-16.251 -12.4295 -1.17578
-15.5952 -12.3579 -2.30907
-19.8676 -11.5524 0.911679
-19.9086 -11.1111 -0.885904
-20.0591 -10.7861 -1.33765
-19.5801 -10.9042 -1.72666
-17.3338 -12.2427 -0.0771061
-17.9922 -11.4543 -1.46912
-17.3153 -12.2359 -0.0669451
-17.2216 -12.11 -0.152747
-17.3114 -12.1147 -0.582906
-17.3 -12.1291 -0.668837
-17.3486 -11.8453 -0.942811
-17.2994 -11.9263 -0.798808
-16.2473 -12.685 -0.264669
-16.3388 -12.5855 -0.788077
-16.3205 -12.3581 -1.02171
-15.874 -12.758 -1.26411
-15.8176 -12.7784 -1.33318
-20.233 -11.3958 0.457681
-20.2278 -10.5415 -1.88354
-18.4301 -11.7383 -0.110281
-17.14 -12.2337 -0.169299
-17.2588 -12.0354 -0.47724
-17.144 -11.425 -2.0983
-16.4762 -12.1318 -1.93353
-15.6196 -12.492 -2.05893
-16.7479 -11.9135 -1.84598
-19.9818 -11.3287 0.255497
-20.513 -10.7938 -0.791998
-20.5196 -10.7079 -0.960315
-18.4774 -11.4435 0.769643
-19.8348 -11.3027 -0.43472
-20.3445 -10.6448 -1.16179
-19.854 -11.0405 -0.871941
-20.3201 -10.5561 -1.80672
-19.8301 -10.8282 -1.67796
-16.0682 -11.0644 1.61869
-18.6887 -11.5445 -1.2956
-17.8473 -11.8107 -0.450333
-19.0178 -11.0999 -2.24633
-17.3828 -12.0612 -0.43025
-19.0359 -11.0576 -2.39701
-18.7718 -11.1979 -2.26268
-17.2739 -12.0937 -0.625872
-18.6754 -11.2067 -2.46279
-16.1784 -12.5851 -0.694166
-17.3128 -11.2901 -2.37603
-15.8502 -12.7288 -1.2504
-15.0032 -13.0952 -3.05753
-19.7437 -11.5175 0.228585
-18.6284 -11.3695 0.644475
-19.9155 -11.1926 -0.382766
-16.5026 -10.7092 1.5109
-18.1065 -11.7317 0.672278
-16.2081 -10.9975 1.64265
-17.3178 -12.2592 -0.0420117
-19.0002 -11.1053 -2.25348
-17.185 -12.2237 -0.2333
-17.3142 -12.1284 -0.428504
-17.3489 -12.0366 -0.673402
-17.3889 -11.969 -0.766904
-17.206 -12.068 -0.535383
-17.2827 -11.9314 -0.776554
-17.2525 -11.9835 -0.77138
-17.0473 -12.1024 -0.743972
-17.1895 -12.0462 -1.00839
-16.2363 -12.6603 -0.572336
-16.3331 -11.7911 -2.51023
-20.4597 -10.6381 -1.28788
-17.3909 -12.1653 -0.141524
-18.8855 -11.0627 -2.36407
-16.6553 -12.3183 0.242869
-17.3293 -12.0704 -0.760944
-16.3214 -12.5601 -0.981396
-16.245 -12.493 -0.824213
-16.6903 -11.5939 -2.48508
-16.1102 -11.9128 -2.15025
-20.1338 -11.4761 0.718963
-18.3604 -11.7221 1.50793
-19.5294 -11.6204 0.164542
-15.9311 -11.1488 1.58222
-18.3354 -11.629 -0.525221
-17.9359 -11.8587 -0.903479
-17.3657 -12.057 -0.300837
-17.8643 -11.4429 -1.34315
-16.3418 -12.572 -0.494588
-16.2758 -12.4972 -0.918811
-16.2633 -12.5249 -0.992541
-16.1184 -12.591 -0.782579
-20.1142 -11.0712 -0.638752
-15.5008 -11.2119 1.37195
-17.1196 -12.2467 -0.339494
-20.2491 -11.2416 0.110619
-18.064 -11.9717 -0.303772
-17.3395 -12.0767 -0.41585
-16.6292 -11.9215 -1.83424
-20.159 -11.2988 0.452745
-20.5505 -10.7893 -0.921515
-18.2042 -11.5509 0.512325
-16.2057 -10.8641 1.3903
-19.8804 -11.1565 -0.860733
-17.5208 -11.9016 0.580424
-17.5387 -11.9664 0.42753
-15.4845 -11.2531 1.28441
-17.791 -12.0944 -0.118562
-19.497 -11.0997 -1.50698
-17.1274 -12.1821 -0.198724
-18.7687 -11.5645 -1.52452
-19.0983 -11.2168 -2.00946
-17.6716 -11.706 -1.3864
-16.17 -12.5116 -1.06221
-17.0456 -11.4603 -1.99113
-15.9137 -12.7709 -1.30721
-18.244 -11.6074 0.590671
-15.9154 -11.0413 1.73649
-15.8619 -11.1097 1.59354
-18.111 -11.9335 -0.321458
-19.7187 -10.9652 -1.55037
-17.1594 -12.2459 -0.232476
-17.7218 -11.9458 -0.756791
-17.2932 -11.9941 -0.471006
-17.2479 -12.0158 -0.554995
-19.1044 -11.1708 -2.06434
-17.3632 -11.8981 -0.978279
-19.1021 -11.0469 -2.2434
-17.2359 -11.9705 -1.00817
-20.2908 -11.3178 0.490876
-19.6666 -11.591 0.419144
-15.7112 -10.9153 2.17695
-16.2513 -10.986 1.67356
-16.2064 -10.9968 1.65305
-20.4463 -10.6052 -0.82131
-18.1263 -11.6205 0.719797
-16.2446 -10.813 1.39681
-15.9947 -11.0005 1.6119
-17.4967 -11.9109 0.441444
-17.2557 -12.103 0.449285
-15.5002 -11.2487 1.37165
-15.5461 -11.2551 1.31948
-18.2099 -11.8648 -0.375009
-17.7425 -12.0287 -0.80058
-17.2057 -12.1082 -0.497418
-19.4327 -10.8379 -2.17253
-16.3465 -12.6283 -0.468216
-16.1425 -12.5257 -0.924912
-16.303 -12.4772 -1.00709
-16.5136 -11.9822 -1.8546
-16.4912 -11.7272 -2.5062
-16.0436 -11.8407 -2.70998
-19.903 -11.4003 0.270443
-20.0044 -11.3074 0.0796556
-20.4419 -10.8494 -0.642291
-16.2471 -11.0233 1.68735
-18.4064 -11.4992 0.623447
-16.2138 -10.9591 1.70564
-16.2752 -10.8592 1.45523
-17.3506 -11.9699 0.56736
-17.1047 -12.2369 -0.173732
-16.2403 -12.6487 -0.856002
-20.3975 -11.4399 1.11405
-19.9864 -11.3488 0.302976
-17.9862 -12.0576 -0.243585
-16.2206 -12.6724 0.485609
-17.8285 -11.8752 -0.985577
-16.9327 -12.0576 -1.38862
-16.1891 -12.6381 0.390625
-17.614 -12.0715 -0.600819
-15.8745 -12.8814 -1.29433
-15.3309 -12.765 -1.63283
-16.5489 -12.1964 -1.55516
-16.109 -10.9327 1.62648
-18.5067 -11.4762 0.724523
-16.2 -10.805 1.44095
-18.1787 -11.5382 0.631076
-17.939 -11.7354 0.629636
-18.0604 -11.5424 0.497317
-15.4942 -11.175 1.32149
-19.8997 -11.2042 -0.404251
-20.4099 -10.9089 -0.739098
-20.565 -10.7757 -0.795475
-20.0567 -10.9754 -0.780501
-16.6509 -12.3727 0.329494
-19.925 -11.0093 -1.32776
-16.0171 -12.605 0.234849
-19.5075 -11.0411 -1.63403
-18.6017 -11.6453 -1.3307
-20.1172 -10.621 -1.99439
-16.1905 -12.7277 -0.395856
-16.7902 -12.0725 -1.29055
-18.7069 -11.174 -2.341
-16.5488 -12.081 -1.64857
-16.7763 -11.5101 -2.46186
-16.3699 -11.7824 -2.64818
-18.5217 -11.5511 1.29876
-19.9566 -11.4417 0.274605
-15.8809 -11.1148 1.56704
-20.0492 -11.3195 0.194487
-20.5933 -10.773 -0.82863
-20.1385 -11.0022 -0.765204
-16.8268 -12.2893 0.51579
-20.4159 -10.6906 -1.18653
-17.1988 -12.2632 -0.0634089
-17.402 -12.1876 -0.224608
-20.3046 -10.5146 -1.58238
-19.7978 -11.0018 -1.40738
-17.119 -12.3019 -0.178295
-17.3196 -12.0574 -0.44416
-17.25 -11.9888 -0.58964
-16.2265 -12.6136 -0.546768
-16.3016 -12.6319 -0.622612
-19.2465 -11.1281 -1.99999
-19.0386 -11.1831 -1.96208
-17.093 -11.3551 -2.49209
-16.1951 -10.9934 1.69391
-18.6474 -11.3701 0.59792
-19.8402 -11.2785 -0.222642
-20.1471 -11.1746 -0.396146
-20.0991 -11.0213 -0.624791
-17.0166 -12.2559 -0.317521
-16.2236 -12.6272 -0.678946
-19.5309 -10.8116 -2.34674
-18.5481 -11.3785 0.825027
-15.9651 -11.0191 1.63218
-18.0247 -11.6966 0.692682
-19.2774 -11.6999 -0.197915
-18.3578 -11.8573 -0.0578856
-16.7667 -12.2961 -0.244622
-16.1821 -12.5112 -1.2033
-16.7476 -11.4937 -2.55135
-16.1787 -11.8539 -2.58313
-15.8962 -11.2017 1.68255
-20.1193 -11.3599 0.217799
-19.9556 -10.7591 -1.94962
-16.9107 -11.5862 -2.05659
-17.8266 -11.6968 -1.2356
-15.6719 -12.548 -2.20159
-17.8986 -12.0567 -0.361773
-15.8175 -12.7593 -1.32886
-20.4582 -11.4519 1.03768
-16.1476 -10.9945 1.57743
-19.5007 -11.9325 1.10875
-16.5449 -10.6796 1.49884
-19.6395 -11.7456 0.767747
-19.4114 -11.673 0.376376
-20.4771 -11.053 -0.048109
-20.4146 -11.0707 -0.0126934
-19.9448 -11.3237 -0.136469
-18.2457 -11.8219 -0.0450933
-19.2786 -11.5417 -0.238717
-18.1554 -11.9469 -0.256554
-20.2129 -10.9062 -0.631513
-20.1897 -11.0407 -0.685217
-19.955 -11.0361 -0.76173
-19.2601 -11.4375 -0.619376
-19.8423 -11.0297 -0.704882
-16.5934 -12.4726 -0.168661
-16.9125 -12.1668 -0.323631
-19.4377 -11.5024 -0.755084
-20.407 -10.7211 -1.06782
-20.0324 -10.7459 -1.37991
-19.2855 -11.2545 -1.46376
-19.2421 -11.194 -1.44069
-15.8421 -12.9932 -0.926673
-18.7774 -11.5284 -1.49711
-17.804 -11.8494 -1.34688
-19.6491 -10.9298 -1.79188
-16.1443 -12.352 -1.15256
-20.035 -10.7677 -1.86757
-19.0508 -11.0891 -1.93743
-15.6874 -12.7417 -1.53505
-19.1919 -11.0199 -2.21561
-16.7485 -12.0551 -1.70391
-18.176 -11.5552 -2.46148
-17.1039 -11.3051 -2.16593
-17.2481 -11.2699 -2.44862
-16.0454 -11.9154 -2.28547
-16.5652 -11.6619 -2.58622
-16.1892 -10.9618 1.67976
-19.8794 -11.7545 1.00083
-19.5678 -11.9487 0.90315
-19.6217 -11.6905 0.629542
-20.1517 -11.3019 0.290067
-18.0014 -11.6639 0.717186
-17.4765 -11.9106 0.641965
-19.4701 -11.6065 -0.00244332
-20.2328 -11.0534 -0.343231
-16.4094 -12.5299 0.235283
-20.1206 -11.1271 -0.686373
-19.3863 -11.2763 -0.68822
-19.3116 -11.389 -1.03803
-16.4017 -12.1294 -1.30589
-16.7074 -12.0226 -1.75629
-18.9102 -11.2898 -2.40627
-16.1493 -11.8293 -2.2211
-16.0474 -12.0128 -2.27063
-18.6014 -11.488 1.23783
-19.6711 -11.5427 0.495261
-16.8336 -12.2788 0.581165
-19.3396 -11.4616 -0.581344
-16.9953 -12.1675 -0.122732
-16.7918 -12.4021 -0.252974
-19.0722 -11.4796 -1.23258
-17.9235 -11.466 -1.51549
-18.4521 -11.4999 -1.83403
-17.2486 -11.2557 -2.28578
-19.913 -11.5233 0.49007
-17.8129 -11.8233 0.48548
-19.4437 -11.2964 -0.760015
-16.5931 -12.294 -0.341843
-16.4038 -12.6083 -0.379365
-16.1835 -12.62 -0.586227
-16.8633 -12.1196 -1.37662
-17.1177 -12.1761 0.221286
-19.5357 -11.4861 -0.132147
-19.3776 -11.372 -0.845492
-19.4744 -11.3723 -0.865415
-16.6172 -12.2284 -0.796977
-18.5732 -11.3449 -2.28007
-17.0154 -11.6445 -1.8825
-16.0433 -11.5201 -3.04975
-17.2536 -11.9616 0.37562
-16.7669 -11.8165 -1.75891
-16.8366 -10.7343 1.94313
-16.6964 -12.2395 -0.339162
-15.2903 -12.8221 -2.60578
-17.2192 -12.0997 -0.293656
-17.6568 -11.8733 0.587976
-17.0493 -12.1049 -0.892913
-16.6228 -10.7145 1.96978
-19.6027 -11.0217 2.06656
-20.1809 -11.5104 1.07519
-19.5692 -11.9206 0.969268
-19.5907 -11.8498 0.965514
-17.9524 -11.7154 0.795384
-18.0889 -11.5872 0.7062
-20.0467 -11.4508 0.662977
-17.5757 -11.9117 0.581179
-19.7823 -11.5386 0.64016
-19.9335 -11.5624 0.602025
-19.81 -11.6668 0.611922
-19.4449 -11.8074 0.453058
-19.893 -11.5324 0.560428
-19.9136 -11.507 0.602661
-17.187 -12.0406 0.433409
-19.8043 -11.4877 0.545193
-19.7727 -11.6721 0.42325
-16.5754 -12.2914 0.167706
-19.7503 -11.4745 0.236268
-17.4435 -12.2544 0.071737
-19.5245 -11.5714 0.042556
-16.9511 -12.392 -0.233953
-19.8496 -11.3595 -0.0314997
-16.8334 -12.2237 -0.196643
-19.3752 -11.5207 -0.358773
-18.6032 -11.3526 -0.404048
-20.3308 -11.0224 -0.402886
-15.8635 -12.928 -0.80442
-20.1333 -10.9924 -0.619043
-19.3507 -11.4582 -0.768867
-19.2849 -11.4164 -0.748513
-19.6426 -11.2621 -0.776719
-18.5488 -11.1561 -0.723433
-20.4939 -10.8202 -0.724915
-19.3499 -11.3251 -0.878249
-20.3724 -10.7969 -0.937547
-20.0388 -10.9487 -1.00018
-18.6853 -11.655 -1.26949
-16.9713 -12.1178 -1.2723
-16.4324 -12.0887 -1.42035
-20.2818 -10.75 -1.21644
-20.2759 -10.7188 -1.33191
-19.5114 -11.1911 -1.44401
-19.3108 -11.0512 -1.75298
-20.2203 -10.697 -1.87366
-20.1701 -10.5525 -1.87648
-19.1011 -11.2118 -2.06584
-19.6534 -10.9876 -1.9366
-20.3245 -10.3613 -1.84188
-20.1172 -10.5155 -2.01052
-17.0909 -11.4874 -1.96043
-17.1104 -11.4634 -2.17254
-20.105 -10.6245 -1.99296
-16.0671 -11.899 -2.1764
-16.1657 -11.9408 -2.22514
-19.1942 -11.0837 -2.33598
-16.0835 -11.9569 -2.34706
-15.7034 -10.8555 2.1182
-19.2332 -11.1865 2.02222
-19.6663 -11.8602 1.75119
-19.7791 -11.7742 1.21979
-18.3667 -11.6445 1.22665
-18.5237 -11.6247 1.25062
-19.5424 -12.0609 1.18228
-20.1719 -11.6221 1.07757
-19.5273 -11.8788 1.03144
-18.3833 -11.5084 0.609702
-18.6669 -11.278 0.562242
-16.0526 -12.6083 0.176596
-17.1995 -12.2951 0.272051
-19.5323 -11.6895 0.363388
-19.3824 -11.7495 0.329978
-19.2637 -11.7904 0.18679
-19.3034 -11.7112 0.193031
-18.5803 -11.5004 0.13295
-19.8489 -11.4051 0.0768641
-19.2162 -11.7466 -0.24999
-19.2294 -11.4991 -0.191741
-19.2822 -11.5823 -0.466627
-19.3796 -11.3785 -0.596238
-19.3988 -11.312 -0.72029
-18.662 -11.637 -1.11055
-19.0988 -11.5058 -1.27111
-18.4984 -11.6973 -1.49394
-18.4424 -11.7204 -1.62085
-18.891 -11.2576 -2.03148
-18.9588 -11.1798 -1.99804
-20.0328 -10.6394 -2.29838
-19.0597 -11.1059 -2.51713
-18.9436 -11.0336 -2.35005
-16.1456 -11.7838 -2.64028
-19.5918 -11.7726 0.77208
-19.5983 -11.7489 0.744994
-19.3214 -11.8514 0.521171
-19.5232 -11.8705 0.597078
-19.4463 -11.6426 0.339823
-19.3904 -11.7115 0.180287
-19.2345 -11.6747 -0.0296929
-19.3622 -11.6335 -0.12902
-15.7791 -12.8777 -1.30517
-16.5034 -12.0738 -1.73065
-16.4592 -12.1683 -1.86503
-17.905 -11.2739 -1.88909
-19.4838 -10.9849 -1.98747
-17.1011 -11.4702 -1.90359
-20.2418 -10.4668 -2.08344
-17.6632 -11.317 -2.20055
-19.4561 -11.0437 -2.29274
-16.284 -11.5608 -2.63908
-16.125 -11.5916 -2.8382
-15.9415 -11.7248 -2.95844
-14.9338 -12.9758 -3.60994
-20.2765 -11.4393 1.12561
-19.6125 -11.6825 0.598728
-19.3518 -11.6056 -0.204717
-19.5268 -11.3758 -0.874901
-19.4594 -11.3364 -0.915112
-18.4445 -11.195 -0.826987
-15.7425 -12.8673 -1.37163
-17.6067 -11.7021 -1.34632
-17.6569 -11.2965 -2.25618
-17.3398 -11.3144 -2.26525
-15.4383 -12.8728 -3.27634
-15.9967 -11.6032 -2.88562
-19.6095 -11.8378 1.01817
-20.1274 -11.534 1.08125
-19.427 -11.4868 -0.553976
-16.3804 -12.1524 -1.33444
-16.6742 -11.9977 -1.8008
-19.8906 -10.6445 -2.10768
-16.3083 -11.671 -2.25895
-15.7323 -11.7959 -2.85971
-18.6802 -11.5309 1.74414
-18.2776 -11.7768 0.249237
-19.4588 -11.5267 -0.430739
-19.1876 -11.4106 -0.633152
-19.2896 -11.3387 -0.792779
-18.6179 -11.3742 -2.33221
-16.9562 -11.4534 -2.34054
-15.8167 -12.1372 -2.5109
-17.9138 -11.9272 0.294337
-19.195 -11.39 -1.14227
-15.8951 -12.1198 -2.49046
-16.6274 -12.423 0.368194
-16.5043 -12.4137 -0.306119
-18.0372 -11.4648 -2.91519
-18.1295 -11.4238 -2.7881
-18.2799 -11.354 -2.69573
-18.5732 -11.3467 -2.45668
-18.3849 -11.3752 -2.50145
-18.3457 -11.4439 -2.47589
-18.3654 -11.5398 -2.26299
-18.3917 -11.4833 -2.4103
-16.218 -11.7852 -2.31687
-20.176 -10.7372 -1.8838
-20.0845 -10.672 -1.94592
-19.2615 -11.058 -2.06053
-19.1455 -11.0161 -2.08282
-18.7908 -11.1764 -2.0008
-19.0893 -11.1237 -1.95214
-18.8656 -11.247 -2.1434
-18.9317 -11.2483 -1.97186
-20.1044 -10.7012 -1.82858
-18.7707 -11.344 -1.98489
-18.7462 -11.395 -2.01223
-19.4778 -10.9489 -1.74258
-19.4812 -11.0523 -1.84698
-19.4843 -10.9638 -1.78615
-19.4367 -11.1632 -1.78707
-19.6196 -10.908 -1.76613
-19.0746 -11.1849 -1.68829
-18.8799 -11.2465 -1.72779
-19.6433 -11.0274 -1.63639
-19.5396 -11.0478 -1.62055
-19.4851 -11.0275 -1.72544
-18.9462 -11.4081 -1.74439
-18.5488 -11.5235 -1.66872
-18.9029 -11.4183 -1.69359
-20.0232 -10.7861 -1.31214
-20.3947 -10.7256 -1.26874
-15.7781 -12.5575 -2.06797
-19.1123 -11.3571 -1.47148
-18.3367 -11.6004 -1.60799
-18.7184 -11.5839 -1.48906
-20.2312 -10.7473 -1.1075
-15.7727 -12.6552 -1.86541
-17.5401 -11.6117 -1.47244
-15.8037 -12.6717 -1.93184
-19.4399 -11.1369 -1.30941
-20.2714 -10.7566 -1.11424
-17.6765 -11.7807 -1.44789
-15.8311 -12.5553 -1.79763
-15.7895 -12.6926 -1.76706
-20.2918 -10.7554 -1.0665
-20.0716 -10.8374 -0.979347
-20.1425 -11.0473 -0.919156
-20.2483 -10.8778 -0.983899
-18.9171 -11.5216 -1.06861
-19.9678 -10.9633 -0.774049
-19.676 -11.1856 -0.910622
-19.6033 -11.1979 -0.845012
-19.5666 -11.2891 -0.90565
-19.2229 -11.5304 -0.766308
-19.1685 -11.5541 -0.730929
-19.22 -11.661 -0.694972
-16.7378 -12.1496 -0.78483
-19.0704 -11.5761 -0.766356
-19.2572 -11.5494 -0.698586
-20.2851 -10.9661 -0.538398
-19.6321 -11.3623 -0.531942
-19.2169 -11.5579 -0.586608
-19.8192 -11.3 -0.407642
-20.3509 -10.9655 -0.356688
-16.7312 -12.0826 -0.532243
-17.8895 -11.8637 -0.456486
-19.6278 -11.3117 -0.265973
-17.8679 -11.8894 -0.422037
-19.7773 -11.3379 -0.2068
-16.4028 -12.6462 -0.532814
-16.2416 -12.676 -0.554787
-19.3357 -11.5358 -0.120177
-20.195 -11.1553 -0.0178469
-19.7779 -11.3609 0.00285613
-19.8886 -11.4461 0.138413
-19.7798 -11.4509 0.198189
-20.2537 -11.1529 0.298334
-20.2075 -11.2014 0.297386
-19.4225 -11.6809 0.326904
-19.9197 -11.4438 0.252437
-19.9595 -11.4129 0.323807
-20.3804 -11.2818 0.530769
-20.5322 -11.2014 0.530414
-19.248 -11.87 0.516986
-17.073 -12.2527 0.456421
-16.988 -12.1012 0.331538
-18.575 -11.4368 0.70841
-17.634 -11.9118 0.520429
-18.1758 -11.5878 0.586487
-19.899 -11.607 0.582061
-15.9968 -12.6946 0.35086
-18.3332 -11.48 0.709993
-18.6946 -11.4834 0.798909
-19.5964 -11.8272 0.751769
-19.9023 -11.5557 0.900815
-19.9386 -11.5271 0.792699
-20.3707 -11.2934 0.971184
-19.5923 -11.8314 0.820961
-19.9067 -11.7066 1.03402
-19.8355 -11.6527 0.984647
-19.965 -11.6637 1.10415
-19.8608 -11.6759 1.11996
-19.7414 -11.8609 1.23066
-19.5111 -11.9011 1.3313
-19.8219 -11.8597 1.28032
-16.2456 -11.711 -2.58573
-19.3039 -11.0066 -2.39384
-18.6052 -11.3251 -2.53383
-18.2595 -11.4719 -2.47594
-18.7953 -11.3621 -2.28398
-18.5194 -11.3992 -2.342
-18.4152 -11.4522 -2.33237
-18.4246 -11.5616 -2.27156
-17.2478 -11.3952 -2.06835
-18.959 -11.2711 -2.20169
-19.8279 -10.8495 -2.03804
-16.1251 -11.9245 -2.07219
-19.8467 -10.8433 -1.91129
-18.6404 -11.498 -2.15523
-16.7869 -11.8002 -2.25958
-19.1775 -11.1675 -1.94468
-18.6081 -11.3521 -2.09208
-18.4889 -11.5031 -2.13446
-19.0578 -11.3052 -1.94958
-18.4684 -11.4778 -2.10972
-18.4262 -11.4618 -2.1418
-19.1021 -11.2899 -1.88125
-18.7335 -11.4317 -2.02626
-19.2172 -11.1981 -1.79311
-17.7172 -11.4565 -1.86638
-19.9988 -10.7365 -1.65589
-19.1878 -11.2462 -1.67813
-19.0647 -11.2572 -1.85398
-19.1114 -11.2973 -1.74294
-19.7599 -10.9241 -1.69093
-19.4041 -11.1532 -1.55825
-17.7988 -11.5902 -1.74682
-18.4981 -11.6277 -1.83813
-16.6976 -12.0229 -1.91813
-16.8354 -11.9545 -1.97496
-18.8828 -11.4483 -1.67802
-19.5796 -11.0449 -1.53011
-19.0169 -11.4381 -1.41299
-19.294 -11.109 -1.39931
-18.9854 -11.4309 -1.52165
-15.8236 -12.6291 -1.87227
-19.1542 -11.3775 -1.46635
-20.4092 -10.7571 -1.1683
-15.7426 -12.6991 -1.77348
-17.9459 -11.593 -1.34411
-17.9839 -11.6772 -1.23384
-19.2083 -11.3001 -1.15724
-19.0987 -11.4239 -1.22294
-18.049 -11.6275 -1.25588
-19.1708 -11.337 -1.22137
-19.9662 -11.0009 -0.997554
-18.6637 -11.674 -1.27703
-19.1156 -11.3438 -1.23263
-18.844 -11.5072 -1.24043
-18.9267 -11.6675 -1.29161
-18.9403 -11.647 -1.1756
-20.0907 -11.0309 -0.889292
-15.5086 -12.8587 -1.6747
-20.2286 -10.8276 -0.846672
-20.096 -11.0166 -0.894628
-20.5276 -10.686 -0.735049
-16.8726 -12.0197 -1.18126
-16.9707 -12.1375 -1.09071
-19.9205 -11.1197 -0.885101
-19.4047 -11.3135 -0.878631
-19.1187 -11.5457 -0.830476
-20.0842 -10.9328 -0.745508
-19.1251 -11.5054 -0.981558
-19.6673 -11.2432 -0.731917
-19.7253 -11.2062 -0.702386
-20.0452 -11.0221 -0.616515
-19.5842 -11.2227 -0.795713
-19.9211 -11.0717 -0.698027
-15.775 -12.8597 -1.25325
-19.4524 -11.3196 -0.662917
-16.1214 -12.5167 -0.985713
-16.3433 -12.4518 -0.839545
-16.7615 -12.0606 -0.810411
-16.2393 -12.5242 -0.94046
-16.2434 -12.5688 -0.957745
-16.0911 -12.6326 -0.884813
-19.8361 -11.2465 -0.517915
-19.0901 -11.7273 -0.506621
-19.0355 -11.6137 -0.428266
-16.8679 -12.3219 -0.693763
-17.1192 -12.1494 -0.50154
-16.7379 -12.2031 -0.462282
-18.6112 -11.6187 -0.215586
-19.8134 -11.2844 -0.107183
-19.2079 -11.7497 -0.152489
-20.0233 -11.255 -0.0521417
-16.8659 -12.1951 -0.27935
-17.0216 -12.343 -0.356798
-16.8919 -12.2586 -0.348377
-16.7275 -12.2839 -0.236192
-18.3817 -11.9101 -0.0399783
-20.0778 -11.3123 0.231692
-20.161 -11.3525 0.222674
-19.4151 -11.6527 0.166077
-19.7914 -11.617 0.219746
-20.131 -11.2945 0.360056
-19.7632 -11.579 0.278999
-20.2132 -11.3155 0.434337
-19.7169 -11.6645 0.413586
-20.0037 -11.446 0.448574
-19.9136 -11.4399 0.389395
-19.8593 -11.5384 0.592155
-20.3701 -11.2466 0.537987
-17.2755 -12.0319 0.394353
-17.151 -12.0906 0.326935
-18.2056 -11.6539 0.586345
-19.2394 -11.8884 0.457836
-16.9962 -12.2123 0.465377
-19.4567 -11.8899 0.616076
-16.2113 -12.5892 0.353077
-18.0404 -11.6475 0.605439
-20.0898 -11.4837 0.684588
-18.5705 -11.4097 0.787389
-16.7561 -12.3103 0.587514
-20.1253 -11.4774 0.802116
-20.3527 -11.3282 0.759059
-20.3302 -11.4224 1.09938
-20.0745 -11.5317 1.11556
-20.4669 -11.4212 1.19231
-20.246 -11.4795 1.10868
-19.6092 -11.8088 1.26812
-18.3352 -11.6297 1.25158
-20.2928 -11.511 1.36741
-16.2425 -10.8666 1.51401
-15.9493 -10.9866 1.38551
-19.8471 -11.7852 1.50156
-16.5066 -10.7435 1.55312
-15.7753 -11.1189 1.54705
-16.2133 -10.9321 1.6463
-19.3668 -12.0609 1.59908
-19.3869 -12.0449 1.61779
-15.0621 -13.1101 -3.31102
-18.7556 -11.325 -2.38693
-19.0903 -11.072 -2.26665
-19.9652 -10.5422 -2.01949
-18.8784 -11.3029 -2.20041
-20.0533 -10.51 -1.9782
-20.1726 -10.5293 -1.9028
-18.378 -11.3937 -2.30688
-16.0581 -11.8502 -2.35565
-20.2486 -10.6779 -1.9435
-19.1849 -11.0782 -2.00552
-18.4011 -11.5353 -2.09629
-19.9691 -10.8088 -1.76215
-18.9327 -11.2053 -1.90731
-19.63 -10.9413 -1.79634
-19.1299 -11.1682 -1.83786
-19.1479 -11.2977 -1.77999
-19.1889 -11.1632 -1.74476
-19.1392 -11.267 -1.79856
-19.7734 -10.9712 -1.59531
-19.729 -10.9446 -1.33224
-19.0949 -11.4236 -1.23643
-18.82 -11.5895 -1.21806
-20.2251 -10.8179 -0.986293
-19.2652 -11.4395 -0.755313
-17.2476 -11.9186 -0.867626
-19.1572 -11.5288 -0.674601
-16.3282 -12.5259 -0.886237
-19.1045 -11.5905 -0.62302
-19.8359 -11.2561 -0.358349
-19.8764 -11.2223 -0.351372
-19.959 -11.1807 -0.331278
-15.7032 -12.9208 -0.872882
-17.8934 -11.8867 -0.401425
-19.6396 -11.4542 -0.305938
-19.4995 -11.6279 -0.183265
-19.0419 -11.7191 -0.251285
-16.2165 -12.7088 -0.409233
-20.3386 -11.2024 0.00498062
-17.9617 -11.9774 -0.20593
-17.3033 -12.2437 -0.290182
-17.2179 -12.2885 -0.215129
-16.9571 -12.2598 -0.298917
-16.7964 -12.3361 -0.28415
-18.3491 -11.979 -0.0853529
-19.2999 -11.648 -0.0186907
-18.3126 -11.9648 -0.0606682
-19.6671 -11.5583 0.151634
-19.7009 -11.6435 0.273255
-19.5752 -11.6789 0.197443
-19.8217 -11.554 0.389558
-19.8133 -11.5086 0.331907
