-19.4177 -10.8303 -1.68231
-19.3816 -10.8536 -1.66572
-20.0113 -10.4243 -1.42131
-20.3225 -10.3651 -1.28979
-16.8746 -11.8362 -2.02072
-16.4015 -12.1882 -2.07528
-16.511 -12.1092 -2.00899
-16.8235 -11.9018 -1.94822
-19.8296 -10.639 -1.19949
-18.9448 -11.2412 -1.56093
-15.6248 -13.219 -2.50826
-18.5454 -11.4549 -1.71124
-16.4816 -12.0765 -1.86349
-19.9848 -10.6023 -1.03891
-18.4042 -11.5585 -1.40375
-18.2439 -11.5851 -1.48274
-19.6667 -10.8386 -0.962924
-20.1343 -10.6213 -0.798683
-18.6799 -11.5486 -1.07084
-18.3612 -11.694 -1.15574
-17.8163 -11.7176 -0.989118
-18.4783 -11.6346 -0.747603
-18.6805 -11.5413 -0.714534
-19.1467 -11.3553 -0.63088
-20.1245 -10.7392 -0.141546
-17.5736 -12.0421 -0.691817
-19.5574 -11.2721 -0.0968187
-15.8992 -12.7777 -1.09101
-19.228 -11.3386 -0.124355
-17.0635 -12.1151 -0.710051
-17.866 -11.946 -0.538068
-16.8698 -12.1504 -0.65928
-17.5504 -12.0821 -0.347866
-16.2248 -12.4262 -0.51106
-16.1468 -12.3366 -0.389508
-17.3793 -12.2879 -0.0539779
-16.2397 -12.4548 -0.278501
-15.9548 -12.6847 -0.446486
-18.9244 -11.7691 0.420976
-18.0021 -11.7818 0.443619
-16.1059 -12.7567 -0.372224
-19.201 -11.6223 0.703228
-19.2962 -11.6883 0.730397
-18.7857 -11.9242 0.704016
-19.2692 -11.5693 0.978502
-19.5875 -11.4556 1.07974
-17.9279 -11.4965 0.85644
-17.7421 -11.7787 0.865218
-17.1588 -12.0222 0.705133
-19.2396 -11.7736 1.1921
-16.6031 -12.2836 0.46318
-19.5223 -11.6064 1.39781
-18.0114 -11.6591 1.01521
-16.0051 -12.6231 0.363668
-17.5565 -11.9165 1.02028
-19.1812 -11.8761 1.42623
-16.3967 -12.4275 0.574064
-19.6665 -11.5823 1.82395
-19.3003 -11.835 1.63483
-19.791 -11.4892 1.94122
-19.7822 -11.4676 1.91492
-19.302 -11.8984 1.67066
-19.1645 -12.0509 1.85411
-18.9411 -12.0549 1.86603
-14.7503 -11.5636 1.02488
-15.2085 -11.4242 1.39769
-15.7886 -12.6423 -3.90091
-16.7968 -11.3289 -2.88025
-16.9097 -11.3339 -2.85185
-16.8959 -11.3166 -2.90233
-16.2291 -11.742 -2.84594
-15.5932 -12.8604 -3.57932
-18.6371 -11.0328 -2.66678
-19.993 -10.3217 -2.05718
-20.444 -10.0393 -1.9217
-18.4764 -11.3 -2.43487
-18.3644 -11.3138 -2.41749
-18.7373 -11.0794 -2.26977
-16.1205 -12.0716 -2.3099
-20.0375 -10.4483 -1.69221
-18.7137 -11.2001 -1.86704
-19.954 -10.4625 -1.43429
-20.3266 -10.3096 -1.32887
-16.6215 -11.9753 -1.82575
-19.3264 -11.0353 -0.895258
-18.8116 -11.3949 -1.02265
-18.6301 -11.5844 -1.05524
-18.6426 -11.6216 -0.797478
-18.6368 -11.6521 -0.800692
-19.5601 -11.0896 -0.421884
-16.0079 -12.5381 -1.30541
-16.9767 -12.0736 -0.991531
-20.1322 -10.8358 0.0406474
-19.9256 -10.9272 0.0413232
-15.902 -12.7812 -0.942736
-15.9679 -12.7543 -0.479358
-16.7382 -12.3864 -0.18205
-15.7741 -12.98 -0.463448
-15.8899 -12.9832 -0.437657
-19.4177 -11.4023 0.871451
-19.7835 -11.3731 0.966903
-18.9508 -11.8256 0.702014
-16.5953 -12.4793 0.291462
-16.1762 -12.588 0.232827
-17.4956 -11.8542 0.670797
-17.9275 -11.5748 1.07252
-16.882 -12.2352 0.637594
-17.6669 -11.8875 1.06782
-19.2854 -11.8013 1.71086
-19.4972 -11.5976 1.88761
-15.5071 -11.1162 1.41748
-15.4312 -11.3755 1.6854
-15.6893 -11.1467 1.77483
-16.6164 -11.4025 -2.88081
-15.6636 -12.7874 -3.5084
-18.55 -11.11 -2.74302
-18.3764 -11.3742 -2.42572
-15.3585 -13.079 -3.20152
-16.0504 -12.0758 -2.3699
-15.93 -12.0312 -2.46742
-16.1167 -12.0796 -2.35364
-16.0826 -12.0594 -2.3201
-20.0407 -10.589 -1.38667
-17.7592 -11.2537 -1.75663
-19.1316 -11.0216 -1.44898
-19.0528 -11.4271 -0.552047
-16.6519 -12.2549 -1.22939
-15.9675 -12.6481 -1.31037
-17.5817 -11.9874 -0.657853
-16.8367 -12.271 -0.467751
-16.1577 -12.4984 -0.468621
-16.6964 -12.5194 -0.119065
-17.2834 -12.3365 0.00301247
-19.2327 -11.57 0.613351
-19.9585 -11.276 1.11092
-19.5134 -11.5584 1.05987
-15.7921 -12.8311 0.00583474
-15.8966 -12.7293 0.121688
-19.1891 -11.8602 1.17195
-15.696 -12.887 0.176966
-19.5133 -11.6562 1.58269
-17.1697 -11.1266 -2.68636
-20.0058 -10.2161 -2.17048
-16.1549 -11.9537 -2.43092
-17.0819 -11.4163 -2.04573
-20.1214 -10.4879 -1.3301
-16.4508 -12.0523 -2.00024
-16.8718 -11.8934 -1.86841
-16.7931 -11.9517 -1.87331
-16.4488 -12.2588 -1.2223
-15.6054 -13.1107 -1.44599
-17.5355 -11.7873 0.781762
-19.6202 -11.6753 1.83602
-19.5563 -11.7491 2.05803
-16.3045 -11.942 -2.3824
-16.6484 -12.0522 -1.85923
-15.4423 -12.8019 -2.06829
-17.6456 -11.5167 -1.206
-15.6702 -12.9187 -1.86033
-16.5659 -12.2732 -1.28561
-16.957 -12.2439 0.42714
-17.601 -11.7475 0.748149
-16.0546 -12.5751 0.104103
-17.7811 -11.7521 0.857099
-17.9614 -11.6926 0.992693
-16.016 -11.9843 -2.74194
-18.8542 -11.0584 -2.28062
-15.3627 -12.6295 -2.86298
-16.8967 -11.6265 -1.98253
-16.4075 -12.4802 -0.919556
-19.0873 -11.6064 0.0942675
-18.9622 -11.7 0.294585
-17.4524 -11.8521 0.839244
-15.4142 -11.2587 1.5443
-16.486 -12.2534 -1.45648
-16.0248 -12.7694 -0.355772
-17.393 -11.5965 -1.84249
-17.4478 -11.9072 -1.05788
-15.4814 -13.2403 -1.12148
-18.2676 -11.4624 -0.0966161
-15.9962 -12.6709 -0.257851
-16.9497 -11.4734 -1.9598
-16.1815 -12.2628 -1.75637
-16.5513 -12.0902 -1.71563
-15.727 -12.9688 -1.80904
-16.1082 -12.4519 -1.46668
-16.8777 -12.3688 -0.914854
-16.2653 -11.9126 -2.24248
-16.2924 -12.2913 -0.365103
-15.5728 -12.8812 -2.20048
-20.1718 -10.3331 -1.54619
-19.938 -10.3814 -1.51558
-19.9351 -10.7014 -1.14682
-19.353 -10.7378 -2.24953
-19.4574 -10.6804 -2.01436
-19.1728 -10.8062 -2.03461
-19.0286 -10.8871 -2.49945
-19.191 -10.794 -2.15586
-19.723 -10.9459 -0.83083
-18.9828 -10.9047 -2.18663
-19.8908 -10.9643 0.0279116
-18.8074 -11.1505 -2.31159
-18.5312 -11.1585 -2.6437
-18.5826 -11.1738 -2.35288
-19.5659 -11.1539 -0.0610429
-18.6303 -11.3361 -1.99351
-18.985 -11.241 -1.19953
-18.5945 -11.3522 -1.96485
-18.5311 -11.3541 -2.06527
-19.772 -11.124 0.309622
-18.8318 -11.3571 -1.49227
-18.5506 -11.4036 -2.08205
-17.2111 -11.0827 -2.57261
-18.7853 -11.3063 -1.30407
-19.8993 -11.1974 0.953258
-19.6828 -11.3256 0.885633
-16.8119 -11.2999 -2.87459
-19.2952 -11.5144 0.344662
-19.5376 -11.4777 1.06596
-19.3771 -11.6069 1.02618
-19.0005 -11.6913 0.368451
-19.409 -11.6131 1.08139
-17.5979 -11.6489 -1.4908
-18.9278 -11.7257 0.438731
-17.692 -11.7093 -1.3251
-19.7606 -11.6619 2.10155
-17.7583 -11.7375 -0.990142
-17.7424 -11.759 -0.95657
-15.9984 -11.6293 -3.06167
-17.5266 -11.8127 -1.19429
-18.0139 -11.873 -0.16444
-19.2174 -11.9401 1.80323
-17.8311 -11.9111 -0.289352
-17.8283 -11.6533 0.870868
-17.8386 -11.7166 0.989982
-16.1958 -12.2957 -3.79467
-17.6694 -11.8115 0.813098
-16.0922 -11.9032 -2.38799
-17.3708 -12.1517 -0.257101
-17.4942 -11.8694 0.913675
-17.4808 -11.8999 0.995249
-16.5623 -12.1756 -1.41429
-16.4564 -12.2177 -1.4334
-15.826 -12.6589 -3.8492
-17.2766 -11.978 0.803946
-16.7419 -12.2064 -1.10569
-17.2435 -12.3023 -0.370763
-17.1489 -12.0792 0.583369
-16.5304 -12.2899 -1.09401
-15.7273 -11.1202 1.6589
-16.4092 -12.4319 -1.14594
-15.3792 -11.2168 1.34262
-16.8931 -12.1595 0.42079
-16.3293 -12.2725 -0.793107
-16.2622 -12.4604 -0.797238
-15.5885 -12.8352 -3.63129
-16.7183 -12.4618 -0.179219
-15.5597 -12.8291 -3.64922
-15.6305 -12.901 -3.34901
-16.8307 -12.2211 0.508537
-16.6696 -12.385 0.447513
-16.5771 -12.4349 0.371097
-15.4168 -12.9043 -3.76124
-15.8084 -12.6585 -1.89572
-15.3328 -13.0216 -3.6498
-15.2155 -12.9925 -3.88225
-16.0807 -12.4912 -0.434003
-15.31 -13.0374 -3.64271
-15.7592 -12.8108 -2.0265
-16.4849 -12.5182 0.436444
-15.4783 -13.0689 -3.16377
-15.514 -12.9905 -3.19819
-15.345 -11.4635 1.99317
-15.6626 -12.806 -1.96568
-15.8109 -12.7709 -1.08207
-15.5677 -13.0619 -1.48101
-15.7376 -12.9851 -0.564571
-15.4764 -13.1777 -1.07232
-15.6145 -12.8475 0.169011
-20.2355 -10.3381 -1.60136
-20.411 -10.2947 -0.986342
-19.9661 -10.4191 -1.76547
-19.7586 -10.5564 -2.14832
-20.1825 -10.6136 -1.2114
-19.9697 -10.6198 -0.74927
-19.4025 -10.8454 -2.18628
-19.536 -10.7892 -1.75341
-20.0114 -10.8091 -0.500357
-19.4184 -10.8073 -1.61281
-19.9689 -10.8547 -0.0676539
-19.9524 -10.9215 -0.048754
-19.5386 -10.934 -1.00526
-19.1433 -11.1903 -1.6056
-18.526 -11.1204 -2.67399
-18.573 -11.0989 -2.41757
-18.4893 -11.2192 -2.35532
-18.596 -11.2405 -2.23638
-18.4 -11.1944 -2.52032
-18.9227 -11.3055 -1.42285
-19.0766 -11.2758 -1.42148
-18.2499 -11.3511 -2.48466
-18.2576 -11.3964 -2.58976
-19.1847 -11.2863 -0.943403
-16.7839 -11.2888 -2.78086
-19.8374 -11.3877 1.41017
-19.528 -11.5274 0.839808
-19.0906 -11.6702 -0.00745857
-19.5298 -11.4671 1.10225
-19.56 -11.5108 0.793211
-19.4608 -11.5249 1.00748
-19.8614 -11.5884 1.84235
-19.8618 -11.5167 1.78469
-19.4013 -11.5381 1.04523
-17.0758 -11.4423 -1.90746
-17.0579 -11.4896 -2.01771
-16.4995 -11.5648 -2.96044
-16.4864 -11.5101 -2.95097
-19.7685 -11.6018 1.88064
-19.6689 -11.6097 1.8477
-19.2593 -11.6407 1.07075
-19.6734 -11.6694 1.83027
-19.1153 -11.8522 1.17216
-19.1992 -11.8186 1.67583
-19.0762 -11.8624 1.36396
-19.2474 -11.8302 1.61462
-19.1177 -11.8899 1.28013
-19.1337 -11.9177 1.57414
-17.3794 -12.1309 -0.637028
-17.806 -12.0203 0.210809
-16.0148 -12.0184 -2.43489
-17.7008 -12.1912 0.131251
-16.8067 -12.1789 -0.950147
-16.9243 -12.1564 -0.709916
-17.1979 -11.9699 0.642297
-16.8911 -12.1655 -0.745031
-16.6538 -12.2096 -1.03671
-15.7583 -11.1384 1.64684
-16.4559 -12.2963 -1.09915
-16.8455 -12.3328 -0.324903
-15.711 -11.2128 1.63559
-15.5616 -11.1927 1.57351
-15.5277 -11.1228 1.19172
-15.638 -12.6914 -3.72394
-15.662 -12.6958 -3.72955
-15.7125 -12.7013 -3.53424
-15.651 -12.8898 -3.40169
-15.4408 -11.3394 1.43882
-16.4612 -12.5354 -0.682046
-15.5594 -12.9014 -3.63747
-15.4132 -11.2644 1.58256
-16.5085 -12.5931 -0.709822
-16.4152 -12.5491 -0.79856
-15.7388 -12.6669 -2.33698
-16.2956 -12.4707 -0.314424
-16.3372 -12.4835 -0.258938
-15.4853 -13.0724 -3.32967
-15.9575 -12.7107 -1.25064
-16.5311 -12.4777 0.37589
-15.8989 -12.6932 -1.09484
-15.2816 -13.0108 -3.21585
-15.0659 -11.42 1.32172
-16.0303 -12.708 -0.965682
-16.342 -12.5034 0.492372
-15.9399 -12.7714 -0.852971
-14.9348 -11.5787 1.3646
-15.6678 -13.0732 -2.59842
-15.8887 -12.7305 -1.13346
-14.9736 -11.5445 1.34189
-16.1001 -12.689 0.176647
-14.9019 -11.5585 1.31434
-15.4786 -13.0056 -1.73189
-15.2968 -13.2323 -2.75211
-15.8504 -12.8647 -0.685899
-15.4484 -13.1436 -2.62094
-14.9032 -11.5193 1.26854
-15.3982 -13.1777 -2.64852
-15.9261 -12.8482 -0.570661
-15.9412 -12.9727 -0.557798
-15.7009 -12.9265 -0.622585
-15.8576 -13.1274 -0.949031
-15.5095 -12.8676 -0.0173703
-20.1743 -10.5652 -0.752434
-19.3614 -10.7644 -2.00016
-19.4743 -10.8187 -1.76628
-19.6668 -10.8985 -0.915295
-20.0554 -10.7739 -0.249693
-18.9876 -11.261 -1.41981
-18.9867 -11.3728 -0.618461
-17.3001 -11.3916 -2.13472
-18.1069 -11.2482 -0.315553
-17.2458 -11.4116 -1.92854
-17.2277 -11.3997 -1.99689
-18.1819 -11.3173 -0.218502
-19.5496 -11.5132 1.18611
-17.1252 -11.397 -1.95954
-19.7411 -11.4919 1.94317
-19.6425 -11.5512 1.70247
-19.1046 -11.7498 0.662888
-18.9016 -11.7522 0.229539
-17.5659 -11.6181 -1.1723
-18.9309 -11.6505 0.331401
-18.8225 -11.8908 0.336893
-17.7773 -11.7592 -0.975421
-19.562 -11.7383 1.77161
-17.58 -11.8215 -1.23053
-18.7599 -11.7775 0.696455
-19.1334 -11.8808 1.62081
-17.9904 -11.6141 1.09513
-17.7052 -11.9315 -0.426653
-16.8085 -11.9256 -1.53457
-17.5564 -11.9958 -0.435143
-16.2786 -12.374 -3.69496
-16.2866 -12.336 -3.74205
-16.0043 -12 -2.32661
-15.9621 -11.9969 -2.48993
-17.559 -12.2059 -0.0320203
-16.9551 -12.1744 -0.517501
-16.9696 -12.3157 -0.290943
-15.9058 -12.7021 -3.18391
-15.6603 -12.8374 -3.46505
-16.1813 -12.3632 -0.604438
-15.325 -12.8895 -3.94299
-16.0217 -12.6821 -1.35784
-16.3453 -12.4054 0.697616
-15.9546 -12.6565 -0.444524
-16.0765 -12.5992 0.154789
-15.3575 -13.2247 -2.5062
-15.0529 -11.4815 1.87345
-15.8169 -13.0685 -1.20334
-15.8147 -13.074 -1.06108
-15.8654 -12.9951 -0.422306
-15.863 -12.8149 0.251305
-15.7204 -12.9024 -0.113765
-15.6498 -13.2436 -1.05126
-20.5269 -9.95296 -1.91519
-19.9409 -10.402 -1.62599
-19.8798 -10.3789 -1.72592
-19.7619 -10.6713 -1.63757
-19.3909 -10.7494 -2.01719
-18.9824 -11.0206 -2.11867
-18.3952 -11.2257 -2.37317
-18.4468 -11.267 -2.44193
-18.3862 -11.2936 -2.46073
-18.7619 -11.342 -1.62941
-17.0077 -11.2175 -2.77648
-17.7175 -11.2968 -1.52898
-17.0942 -11.3531 -1.96791
-17.0022 -11.4086 -1.9692
-19.554 -11.4818 1.05571
-18.4958 -11.6238 -0.728298
-17.0498 -11.4646 -1.9664
-17.0721 -11.5232 -2.00976
-17.0817 -11.4966 -1.97298
-16.8946 -11.5838 -2.04675
-18.8141 -11.6587 0.165078
-18.7744 -11.8539 0.250874
-19.3641 -11.747 1.72594
-19.1628 -11.8157 1.22786
-18.8363 -11.8104 0.674161
-19.1788 -11.8308 1.36497
-19.2105 -11.9142 1.34222
-19.111 -11.8874 1.55036
-18.1062 -11.5898 0.620874
-19.0129 -12.1856 1.9018
-17.5091 -12.0989 -0.419298
-16.7451 -12.0097 -1.24778
-16.6925 -12.1346 -1.63496
-16.6481 -12.0864 -1.77395
-16.0087 -11.9195 -2.46383
-16.0801 -12.0114 -2.32193
-15.899 -12.0713 -2.40783
-16.9939 -12.1496 -0.434518
-16.7087 -12.4155 -0.119641
-15.4909 -11.2166 1.48122
-16.1051 -12.4803 -1.27278
-16.1414 -12.5184 -0.54398
-15.9697 -12.6614 -0.884036
-15.965 -12.6265 -0.380099
-16.0449 -12.603 0.181599
-15.4771 -13.2524 -2.65746
-15.7378 -12.7895 -0.828595
-15.989 -12.6592 0.568505
-15.5202 -13.1653 -1.03449
-15.5911 -13.0986 -0.961086
-15.5248 -12.9144 0.0524598
-19.3373 -10.8842 -1.71306
-19.6905 -10.9066 -0.952338
-18.573 -11.1086 -2.50246
-18.6309 -11.2297 -2.34961
-19.5484 -11.0815 -0.440156
-17.1171 -11.0402 -2.6719
-19.0407 -11.4325 -0.357981
-18.2234 -11.5555 -2.06335
-19.6194 -11.3814 0.901827
-18.953 -11.5522 -0.0245263
-19.4897 -11.5155 0.838017
-19.0069 -11.5623 0.072037
-18.6253 -11.6612 -0.734246
-18.3971 -11.6569 -1.13705
-19.682 -11.6242 1.76022
-18.8725 -11.7965 0.299883
-16.9441 -12.156 -0.959857
-15.9583 -11.9933 -2.50077
-16.3878 -12.0906 -2.0224
-16.3608 -12.2487 -1.98721
-15.8585 -12.3015 -2.56269
-16.8769 -12.1914 -0.606848
-16.8721 -12.2636 -0.520112
-16.7728 -12.2407 -0.357457
-16.83 -12.3642 -0.426949
-16.8204 -12.274 0.615178
-16.386 -12.4388 -0.354527
-16.0578 -12.6297 -1.29497
-16.2087 -12.3292 -0.379737
-15.3205 -13.0231 -3.10027
-16.1183 -12.7863 -0.792319
-15.928 -12.7256 -0.847223
-15.8011 -12.9259 -0.769158
-15.6197 -12.8935 -0.0185294
-15.6782 -13.1412 -0.694243
-20.0626 -10.679 -0.705363
-18.683 -11.3955 -1.79207
-17.6864 -11.3267 -1.76209
-17.0545 -11.3665 -1.97008
-17.6451 -11.541 -1.26032
-17.5571 -11.8243 -1.18322
-17.7934 -11.6788 0.878808
-16.5592 -12.1774 -1.76547
-15.6501 -12.6979 -3.85038
-16.4378 -12.439 -1.01605
-15.4998 -12.8829 -3.49937
-16.3612 -12.7206 -0.819726
-15.9696 -12.7137 -0.524035
-17.1681 -11.3339 -1.90486
-17.6072 -11.4769 -1.72064
-17.1613 -11.4232 -2.04788
-17.6001 -11.5742 -1.17785
-17.4818 -12.0288 -0.35679
-15.8863 -12.9203 -0.456791
-16.5667 -11.4128 -2.91496
-17.589 -11.5355 -1.60609
-17.5753 -11.6303 -1.05638
-17.7213 -12.085 0.0845687
-17.2028 -12.0821 0.670459
-16.4689 -12.3006 -1.22613
-15.7187 -13.0054 -1.09038
-16.5626 -12.0993 -1.84138
-19.688 -10.8666 -0.807369
-16.763 -12.1513 -1.57612
-16.0092 -12.1188 -2.10502
-16.2807 -12.6888 -0.81359
-18.0421 -11.8425 -0.14447
-16.8719 -12.4153 -0.137908
-19.6505 -11.6773 1.69932
-19.3072 -11.628 1.02055
-19.4092 -11.5843 1.12628
-19.2906 -11.5444 1.01046
-20.3514 -10.4735 -1.21494
-19.7195 -11.111 -0.131864
-20.0447 -10.628 -0.752133
-15.332 -11.411 2.00718
-19.3291 -11.3354 0.1908
-15.2987 -11.4628 2.01846
-17.9241 -11.5222 0.85517
-17.892 -11.6715 1.02908
-17.725 -11.6318 0.90934
-19.5316 -11.0439 -0.837291
-17.4912 -11.8781 0.888769
-17.514 -11.8731 0.904973
-19.2809 -11.0317 -1.03764
-19.3092 -11.1473 -0.895248
-17.43 -11.9341 0.795627
-19.4853 -10.6969 -1.57464
-17.3161 -12.0004 0.795764
-19.3268 -10.9942 -1.70089
-18.9024 -11.38 -0.922699
-19.0491 -11.0484 -1.55531
-17.0518 -12.0348 0.691253
-19.1386 -11.0123 -1.67515
-18.0035 -11.8832 -0.170344
-18.9281 -11.2496 -1.43883
-19.2547 -10.9182 -2.18532
-16.9337 -12.0865 0.644086
-18.6926 -11.4527 -1.23825
-17.8276 -11.8711 -0.315606
-16.7662 -12.3404 0.618907
-17.7453 -11.7938 -0.958469
-18.5012 -11.3863 -2.08488
-18.4969 -11.2933 -1.96832
-18.4961 -11.3087 -2.00723
-18.4543 -11.4417 -2.02339
-16.5491 -12.3932 0.371321
-17.5677 -11.7131 -1.11932
-17.7215 -11.7367 -1.36556
-17.629 -11.7162 -1.39349
-17.6091 -11.6857 -1.51386
-16.7816 -12.5493 -0.0765547
-16.7442 -12.27 -0.995076
-16.6413 -12.3572 -1.08115
-16.2355 -12.4525 -0.590303
-16.3033 -12.2804 -0.779986
-16.3297 -12.3739 -0.909365
-16.4566 -12.6483 -0.763877
-15.6837 -12.8222 0.175274
-16.6107 -12.2674 -1.33884
-16.0757 -12.7021 -0.43112
-16.0656 -12.6126 -0.479678
-16.4981 -12.4225 -1.01374
-16.8975 -11.3706 -2.81046
-15.4817 -12.9522 0.0465288
-16.8149 -11.3798 -2.74734
-15.9705 -12.8435 -0.50837
-15.9571 -12.8526 -0.56717
-16.4991 -11.6699 -2.50188
-15.9107 -12.7015 -1.0304
-16.5821 -11.5234 -3.05077
-15.9596 -12.7093 -1.39681
-15.6997 -13.211 -0.855782
-15.9978 -12.5995 -2.26991
-15.668 -12.8609 -1.97391
-15.657 -12.8562 -1.91223
-15.44 -13.1906 -2.54658
-15.8708 -12.568 -3.79612
-15.9145 -12.6238 -3.87885
-15.6071 -12.7949 -3.40431
-15.6381 -12.7032 -3.63934
-15.5461 -13.031 -3.15722
-15.6037 -12.8254 -3.76425
-15.7196 -12.6901 -3.87714
-15.3902 -12.9542 -3.65647
-19.6322 -11.5856 1.77927
-19.3353 -11.9445 1.98176
-19.3793 -11.8101 1.66331
-19.7437 -11.3336 0.660172
-19.1752 -11.9788 1.62576
-19.2072 -11.8677 1.59966
-19.4153 -11.5585 0.969298
-20.0375 -10.6523 -0.431581
-20.6167 -10.0993 -1.47396
-18.9859 -11.9486 1.35621
-19.1589 -11.7333 0.779891
-19.4716 -11.2664 -0.164177
-19.9151 -10.5076 -1.47895
-18.7859 -11.9434 0.645693
-15.6063 -11.2159 1.26504
-18.7279 -11.9092 0.611942
-18.7406 -11.7417 0.668175
-15.3922 -11.3764 1.53706
-15.5539 -11.2003 1.31681
-19.2545 -11.2171 -0.620656
-18.8558 -11.6813 0.193994
-15.4099 -11.249 1.41492
-17.5321 -11.8897 0.988231
-18.1528 -11.309 -0.254996
-19.6458 -10.5519 -2.02273
-19.6276 -10.4955 -2.0715
-17.4099 -11.9998 0.82432
-19.3942 -10.8975 -1.54868
-18.1717 -11.8687 0.10227
-15.0251 -11.391 1.24171
-15.0718 -11.4165 1.35413
-14.9808 -11.4224 1.33452
-15.0631 -11.4906 1.39963
-18.898 -11.2967 -1.26616
-19.0821 -11.0283 -1.64821
-19.3275 -10.6314 -2.38379
-19.3765 -10.6924 -2.26785
-18.9188 -11.2445 -1.47838
-19.3597 -10.6818 -2.37087
-17.8772 -12.0397 0.114339
-18.6311 -11.4922 -1.14982
-18.7222 -11.3212 -1.65665
-18.733 -11.3493 -1.58712
-17.8579 -11.7633 -0.648558
-17.5278 -12.1723 -0.0709635
-18.5456 -11.2773 -2.0051
-17.5071 -12.0116 -0.597291
-18.6177 -11.2052 -2.49898
-16.6366 -12.4654 0.329667
-16.8259 -12.3475 -0.117173
-16.9493 -12.332 -0.41079
-16.9617 -12.1471 -0.640907
-16.8931 -12.2739 -0.714407
-17.0904 -11.4172 -2.11687
-16.2435 -12.3343 -0.489024
-15.6898 -12.8272 0.226104
-16.3673 -12.4789 -0.75622
-16.761 -11.4464 -2.46524
-16.3855 -12.4975 -1.0556
-16.4343 -12.403 -1.11543
-15.483 -12.9973 0.0607188
-15.5139 -12.9515 0.00538983
-15.9223 -12.7714 -0.882256
-16.331 -11.4559 -2.72034
-15.8941 -12.8968 -0.884723
-16.5249 -11.6118 -2.94767
-15.7426 -13.1817 -0.917631
-15.9066 -12.0676 -2.48401
-15.6172 -13.0397 -1.51213
-16.2897 -12.2931 -3.82326
-15.4227 -13.1946 -2.70653
-15.3115 -13.1688 -2.8284
-15.7622 -12.7303 -3.8103
-15.3908 -12.9841 -3.32515
-15.685 -12.7293 -3.94917
-15.4013 -12.963 -3.58737
-15.293 -12.9639 -3.76651
-15.3981 -13.0288 -3.72827
-15.262 -12.8874 -3.89224
-19.8893 -11.3309 1.45357
-19.7915 -11.6818 1.79014
-19.0967 -12.0896 1.97399
-20.0746 -10.9031 0.0637107
-19.3121 -11.874 1.53175
-19.1823 -11.7593 1.05257
-18.8619 -11.8473 0.619353
-15.0512 -11.5799 1.7399
-19.0142 -11.3957 -0.356989
-19.4823 -10.6315 -2.43754
-17.1796 -11.9731 0.551109
-17.1989 -11.9844 0.638228
-19.2782 -10.7497 -2.32552
-17.4802 -12.0781 -0.403804
-18.5832 -11.2565 -2.20076
-17.334 -12.2305 -0.304778
-18.6199 -11.2177 -2.51836
-17.6465 -11.766 -1.18573
-16.8935 -12.3637 -0.301818
-16.8825 -12.4213 -0.256063
-16.208 -12.6122 0.238499
-16.1376 -12.6426 0.220803
-15.8634 -12.8573 0.182649
-16.2706 -12.398 -0.872272
-15.6231 -12.8986 0.0213034
-15.8939 -12.6529 -0.944127
-15.7177 -12.9853 -0.60963
-15.8485 -12.7309 -1.11734
-16.0569 -12.071 -2.17447
-15.5968 -13.1556 -1.13706
-16.0567 -12.669 -3.22543
-15.4 -12.5815 -2.73898
-15.4535 -13.2884 -2.53271
-15.656 -12.8162 -3.52963
-15.5461 -12.8894 -3.54363
-15.5609 -12.7642 -3.88678
-19.3564 -11.8117 1.75999
-19.4114 -11.8112 1.67698
-19.4124 -11.5768 1.15903
-15.7627 -11.0151 1.54843
-19.562 -11.1758 0.0338223
-19.2655 -11.5476 0.421168
-19.0102 -11.5115 -0.00338409
-18.8889 -11.8029 0.354488
-17.5888 -11.8205 0.779201
-18.0667 -11.3139 -0.31718
-19.3448 -10.6769 -1.93207
-19.5194 -10.6574 -2.0314
-16.9103 -12.156 0.694718
-18.4684 -11.3478 -2.07653
-18.479 -11.2067 -2.44196
-18.3715 -11.3532 -2.53184
-18.1002 -11.4772 -2.20271
-16.7755 -12.4412 -0.147706
-16.7604 -12.2813 -0.48555
-17.0123 -11.9398 -0.916798
-16.6288 -12.5216 -0.252901
-16.3532 -12.4922 -0.30729
-16.9258 -11.5133 -2.05996
-16.6563 -12.2203 -0.927901
-16.0271 -12.4925 -0.365247
-16.491 -12.3804 -1.13036
-16.4864 -12.0397 -1.83214
-16.0834 -12.0657 -2.23142
-16.0278 -12.0459 -2.14414
-16.0314 -12.0527 -2.46067
-16.0053 -12.0454 -2.22134
-15.9161 -13.0147 -1.40971
-15.5486 -13.2475 -0.946862
-15.5436 -13.1753 -1.09062
-15.8548 -12.7598 -3.29838
-15.5667 -13.0278 -2.58563
-15.7681 -12.6141 -3.80796
-15.3382 -13.1793 -3.45917
-19.8209 -11.5931 1.90118
-19.4621 -11.5461 1.18586
-19.3878 -11.6503 1.26115
-19.1455 -11.7746 0.832937
-18.9356 -11.5756 -0.096024
-19.0893 -11.3345 -0.586227
-17.0443 -12.1237 0.603516
-17.7414 -11.5332 -1.12421
-16.4892 -12.4767 0.465254
-16.9483 -12.2518 -0.455825
-16.9135 -12.2379 -0.217293
-17.0159 -12.2742 -0.430835
-16.8202 -12.2071 -0.589883
-16.892 -12.3755 -0.574914
-16.3039 -12.3834 -0.504291
-15.6682 -12.9697 -0.461989
-15.7702 -13.0148 -0.597574
-16.2233 -12.2795 -1.86946
-15.9883 -12.0352 -2.40789
-15.6818 -12.8532 -3.34152
-15.6018 -12.7767 -3.543
-17.926 -11.602 1.16636
-18.0966 -11.6925 0.669441
-18.7752 -11.7648 0.241694
-16.3442 -12.3369 -0.361977
-16.8514 -11.5016 -2.10999
-15.9751 -12.7294 -0.863023
-16.4043 -12.0715 -2.10726
-15.8364 -12.8237 -0.927746
-15.4146 -13.0902 -3.19636
-19.5101 -11.642 1.76106
-19.6108 -10.9435 -0.980469
-18.9125 -11.7596 0.256907
-18.6805 -11.5886 -0.485148
-16.9838 -12.2203 0.570907
-15.9058 -12.8984 -0.466868
-15.9297 -12.9111 -0.532038
-15.9625 -12.6784 -1.33118
-19.0276 -11.6047 0.27829
-18.546 -11.2568 -2.31247
-16.2908 -11.9703 -2.33283
-19.3666 -11.829 2.02989
-19.9684 -10.7556 -0.351954
-16.0922 -11.9896 -2.75239
-17.3175 -11.4486 -1.90069
-16.4906 -12.2129 -1.0379
-17.0142 -11.8065 -1.491
-16.4514 -12.4295 -1.38359
-19.3831 -11.6447 0.901231
-16.3083 -12.4382 -0.733228
-16.0247 -12.8001 -0.758882
-15.9686 -12.3977 -1.63071
-16.011 -12.7038 -0.340301
-15.9017 -12.3741 -1.99043
-16.9514 -10.1871 2.70907
-19.7348 -11.7358 2.10692
-19.5526 -11.6582 1.70435
-15.3186 -11.197 1.32307
-19.4525 -11.6245 1.32272
-19.9681 -11.2186 1.14695
-17.904 -11.6647 1.00579
-19.3581 -11.6264 1.10229
-19.9177 -11.199 0.911849
-17.5795 -11.8112 0.933893
-17.8466 -11.6484 0.798844
-19.6576 -11.386 0.951254
-19.0004 -11.7204 0.865123
-19.1795 -11.7111 0.842721
-19.0503 -11.8185 0.808994
-17.0265 -12.2034 0.745123
-18.8536 -11.7764 0.563554
-19.1081 -11.7082 0.598533
-18.8877 -11.7287 0.398129
-18.043 -11.7556 0.450881
-18.0497 -11.6465 0.391145
-18.9946 -11.6658 0.294793
-16.3383 -12.4178 0.401511
-20.0009 -10.9228 0.0858897
-16.0671 -12.8453 0.355031
-19.9976 -10.9217 -0.00989962
-18.1787 -11.4525 -0.172056
-17.9874 -11.8978 -0.0286868
-18.0371 -11.903 -0.127778
-17.9789 -11.8604 -0.0856125
-20.0384 -10.7479 -0.50599
-15.5424 -12.9308 -0.0705592
-19.0219 -11.4395 -0.410509
-17.454 -12.1026 -0.263311
-17.4496 -12.0404 -0.234386
-15.7532 -12.9672 -0.190677
-17.8421 -11.8392 -0.464064
-17.427 -12.0582 -0.378356
-20.0856 -10.6215 -0.877079
-16.2181 -12.381 -0.467666
-18.5563 -11.609 -0.76022
-16.0658 -12.7669 -0.449336
-18.5963 -11.71 -0.790266
-15.8386 -13.0049 -0.461078
-19.6058 -11.0716 -0.924351
-16.2343 -12.2979 -0.530995
-15.9984 -12.9207 -0.502209
-19.2596 -11.0272 -1.01069
-20.0351 -10.5336 -1.16314
-16.2665 -12.5856 -0.683978
-16.1281 -12.5253 -0.664311
-16.4796 -12.5114 -0.805686
-20.1288 -10.5786 -1.30288
-17.7814 -11.7976 -1.00354
-17.8236 -11.7473 -1.00207
-17.7377 -11.7452 -1.03201
-16.7301 -12.3037 -0.870455
-16.333 -12.3411 -0.833515
-18.8765 -11.2359 -1.26815
-16.4551 -12.2519 -0.791487
-16.3212 -12.3317 -0.919995
-18.5525 -11.4156 -1.27061
-17.516 -11.7632 -1.15477
-18.6917 -11.4817 -1.21179
-16.4834 -12.2154 -0.950543
-15.8392 -12.902 -0.880385
-17.5549 -11.841 -1.00071
-17.5885 -11.7604 -1.16463
-17.7003 -11.5008 -1.15131
-15.8992 -12.8154 -0.94711
-19.9658 -10.51 -1.56623
-19.0501 -11.0599 -1.48232
-18.7493 -11.2941 -1.51144
-17.5772 -11.732 -1.3516
-19.3879 -10.9258 -1.72741
-19.4207 -10.9232 -1.76084
-17.6303 -11.6933 -1.27202
-19.4637 -10.9243 -1.6552
-20.1439 -10.3015 -1.72631
-17.5319 -11.7298 -1.38466
-15.5159 -13.026 -1.09055
-16.5699 -12.22 -1.27798
-16.6557 -12.2416 -1.33367
-17.6491 -11.699 -1.59672
-16.6359 -12.1966 -1.326
-17.5692 -11.6626 -1.61245
-19.6938 -10.6299 -1.99344
-19.5507 -10.742 -2.0246
-19.4441 -10.7817 -2.00874
-17.7766 -11.1851 -1.72638
-19.1767 -10.9637 -2.08582
-18.4962 -11.3036 -2.04056
-18.4911 -11.3016 -1.98951
-19.5099 -10.5497 -2.42078
-16.5343 -11.9944 -1.81991
-19.177 -10.701 -2.58234
-17.072 -11.4563 -1.93764
-16.9967 -11.5569 -1.96019
-18.4804 -11.1876 -2.42065
-18.4237 -11.3 -2.43151
-15.6531 -12.8495 -1.81686
-15.6993 -12.8764 -1.86726
-18.7099 -11.032 -2.61475
-18.5937 -11.0835 -2.66098
-18.4005 -11.0488 -2.67697
-17.0525 -11.3641 -2.42943
-17.2345 -11.0435 -2.51262
-15.9536 -12.6599 -2.25941
-15.8622 -12.4584 -2.37234
-16.8637 -11.2871 -2.81251
-15.4131 -13.0137 -3.15877
-15.4035 -13.0026 -3.22856
-15.7998 -12.7722 -3.35751
-15.7575 -12.8208 -3.41784
-15.6956 -12.7264 -3.50831
-15.367 -13.0614 -3.47157
-15.6006 -12.8765 -3.57458
-16.1152 -12.4337 -3.77084
-15.4179 -12.9251 -3.58478
-15.7208 -12.8083 -3.71544
-15.7748 -12.7252 -3.71965
-15.3073 -12.9471 -3.61494
-15.5668 -12.82 -3.8205
-15.5545 -12.8332 -3.8062
-15.7394 -11.1565 1.77008
-15.4645 -11.3325 1.59284
-15.6835 -11.113 1.61201
-19.4124 -11.8474 1.95416
-19.6678 -11.5181 1.87679
-19.7022 -11.631 1.82107
-19.7915 -11.5325 1.81419
-15.4482 -11.1863 1.42065
-19.411 -11.7403 1.72831
-15.1632 -11.5429 1.3626
-19.1606 -11.922 1.63042
-15.3757 -11.1726 1.38475
-19.1814 -11.8528 1.41028
-18.9428 -12.0249 1.37118
-19.1361 -11.8273 1.11106
-17.9502 -11.692 0.982804
-17.866 -11.7663 1.0418
-17.9923 -11.4812 0.920044
-17.6454 -11.7176 0.805114
-17.3288 -11.9561 0.745795
-19.1055 -11.6355 0.64451
-18.9403 -11.7972 0.771066
-19.7196 -11.2501 0.763586
-18.9057 -11.876 0.744429
-18.8062 -11.8625 0.631524
-17.1585 -12.1043 0.730068
-19.4588 -11.432 0.458838
-17.1993 -11.9853 0.700824
-19.3033 -11.5489 0.553784
-16.7692 -12.2543 0.676801
-16.2584 -12.6597 0.344592
-17.8686 -12.1645 0.190932
-17.9131 -12.0137 0.14931
-19.7738 -11.0572 -0.0287701
-16.1507 -12.5956 0.194818
-15.8087 -12.8565 0.316586
-18.0171 -11.8628 0.00223769
-15.6266 -12.8629 0.14874
-17.8532 -11.8003 -0.177702
-19.0077 -11.3608 -0.338088
-18.0848 -11.2907 -0.306649
-19.0897 -11.4413 -0.34688
-16.6068 -12.454 -0.0721161
-16.8941 -12.3423 -0.193617
-16.8058 -12.3984 -0.1672
-17.8268 -11.774 -0.415143
-19.9435 -10.7417 -0.756634
-16.2098 -12.5081 -0.391395
-16.87 -12.2593 -0.395729
-16.2099 -12.4473 -0.433262
-17.5186 -11.957 -0.685008
-19.6247 -10.8879 -0.814447
-16.1888 -12.4647 -0.60517
-17.7249 -11.7242 -0.844366
-16.8942 -12.2379 -0.700791
-17.8839 -11.7684 -0.839244
-19.9502 -10.6507 -1.15751
-15.9252 -12.8097 -0.69486
-19.3932 -10.8445 -1.23662
-18.5369 -11.6535 -1.10639
-20.6161 -10.1256 -1.39921
-18.9896 -11.2794 -1.20117
-20.5719 -10.0333 -1.40348
-16.4056 -12.6872 -0.863617
-20.5236 -10.1244 -1.41441
-15.8868 -12.7275 -0.76773
-19.9636 -10.6101 -1.3969
-17.5397 -11.8114 -1.03663
-17.5857 -11.8688 -1.10161
-19.8576 -10.5792 -1.51387
-15.6899 -12.8889 -0.765873
-19.8772 -10.56 -1.5073
-17.7379 -11.7779 -1.20505
-15.7189 -13.1902 -0.866378
-15.7968 -13.0835 -0.996527
-19.0112 -11.1179 -1.52186
-19.0443 -11.0775 -1.49462
-16.1231 -12.6883 -1.04899
-16.0079 -12.6143 -1.02985
-15.9138 -12.6652 -1.00581
-16.5042 -12.4536 -1.15417
-20.5268 -10.049 -1.90398
-15.7435 -13.0302 -1.11932
-16.6984 -12.2217 -1.28613
-16.1053 -12.5799 -1.20255
-18.6951 -11.2745 -1.8072
-16.9106 -12.074 -1.491
-18.7031 -11.2478 -1.92448
-15.7267 -13.0942 -1.27556
-19.839 -10.4041 -2.00208
-18.8763 -11.1781 -1.85675
-19.515 -10.7429 -1.99356
-19.3255 -10.8358 -2.04991
-18.5908 -11.3336 -2.20709
-19.5198 -10.5003 -2.38798
-15.5528 -13.1057 -1.51899
-18.764 -11.0876 -2.22878
-18.6309 -11.2465 -2.29283
-17.2782 -11.3751 -1.914
-15.74 -12.8451 -1.86094
-16.8583 -11.528 -1.96003
-18.4649 -11.2424 -2.42722
-16.8943 -11.5501 -2.0352
-16.8889 -11.504 -2.14205
-18.715 -11.0541 -2.69677
-15.4044 -13.0359 -1.91805
-16.0934 -12.0657 -2.37777
-16.1554 -12.0008 -2.28929
-16.9856 -11.356 -2.85916
-15.4847 -13.263 -2.60876
-16.9491 -11.4401 -2.82594
-16.964 -11.3804 -2.83733
-15.3593 -13.1681 -2.85725
-15.4341 -13.0019 -3.18524
-15.8381 -12.7056 -3.56269
-15.7642 -12.8744 -3.44802
-15.3688 -12.9313 -3.54553
-15.5702 -12.7933 -3.54674
-15.4032 -12.9862 -3.5903
-15.7864 -12.7376 -3.70075
-15.8933 -12.7218 -3.83693
-15.7883 -12.6875 -3.70871
-15.6999 -12.7808 -3.70872
-15.5782 -12.7053 -3.67604
-15.856 -12.5703 -3.9411
-15.7065 -12.8018 -3.83568
-15.5205 -12.7413 -3.89646
-15.2038 -12.9099 -4.27078
-19.1942 -11.9698 1.95572
-19.7084 -11.5306 1.93616
-19.4877 -11.7987 1.79517
-15.4174 -11.2019 1.41588
-19.1158 -11.876 1.5933
-19.9473 -11.2307 1.44977
-19.8857 -11.423 1.4958
-19.2253 -11.9751 1.2858
-19.4341 -11.5563 1.2317
-19.3612 -11.7208 1.3086
-19.3912 -11.7277 1.22489
-19.1129 -11.7953 1.17795
-17.8525 -11.7773 1.16881
-14.7701 -11.5752 1.02011
-19.3892 -11.6788 1.05237
-19.0932 -11.7708 0.945652
-18.8623 -11.7936 0.842298
-17.536 -11.8279 0.797904
-19.1686 -11.6657 0.727494
-17.205 -12.0351 0.572059
-16.4376 -12.423 0.647042
-18.7622 -11.7348 0.280495
-18.7456 -11.6933 0.304296
-19.0155 -11.4976 -0.138451
-16.9376 -12.4068 -0.112209
-15.7244 -12.8955 -0.149283
-16.7825 -12.3452 -0.249694
-17.6051 -12.0222 -0.357917
-17.5943 -11.9719 -0.42133
-16.4468 -12.4696 -0.349858
-19.4456 -11.0773 -0.762615
-16.6754 -12.3413 -0.51353
-16.045 -12.642 -0.533
-17.5516 -12.0188 -0.620663
-18.6411 -11.6651 -0.775546
-20.217 -10.4028 -0.990416
-16.2436 -12.4237 -0.461621
-16.0926 -12.6295 -0.500338
-16.9471 -12.1838 -0.604373
-16.7646 -12.287 -0.751025
-20.0735 -10.4815 -1.1761
-20.4504 -10.2468 -1.27494
-15.8031 -12.9616 -0.581955
-20.4009 -10.2854 -1.23522
-20.3736 -10.2425 -1.28282
-18.5524 -11.477 -1.13865
-18.4415 -11.5739 -1.14347
-20.2783 -10.3345 -1.50226
-15.7254 -12.9344 -0.94185
-18.9606 -11.2249 -1.54593
-18.8096 -11.2478 -1.51438
-18.3385 -11.5425 -1.49766
-19.9739 -10.4818 -1.7446
-19.4116 -10.9374 -1.65152
-18.6519 -11.2359 -1.96157
-15.4795 -13.1681 -1.36357
-15.5811 -13.1861 -1.46517
-18.0281 -11.5969 -2.05591
-16.8211 -11.8723 -1.91715
-16.9511 -11.49 -1.95017
-18.3405 -11.3723 -2.54334
-16.4741 -12.1036 -2.0145
-15.6808 -12.7983 -1.95803
-15.6438 -12.794 -2.04593
-16.1068 -12.0382 -2.28766
-15.9485 -12.1319 -2.25838
-17.0908 -11.2186 -2.84804
-15.773 -12.3197 -2.6435
-15.916 -12.2913 -2.66176
-16.0055 -11.9474 -2.7352
-15.7324 -12.8307 -3.46614
-16.1787 -12.2852 -3.73824
-15.8575 -12.571 -3.70264
-15.9149 -12.6052 -3.78703
-15.6154 -12.7369 -3.81836
-19.8164 -11.5673 1.8993
-19.3291 -11.7826 1.69929
-19.4035 -11.8761 1.60681
-19.7972 -11.424 1.5232
-19.2852 -11.6926 1.09608
-19.1986 -11.8006 1.12075
-19.1347 -11.8168 1.13785
-19.6759 -11.3763 1.08139
-19.2348 -11.6475 0.965481
-19.2849 -11.6696 0.872547
-17.5298 -11.8697 0.933126
-18.1344 -11.6764 0.625101
-18.0656 -11.7752 0.389381
-18.9164 -11.7759 0.273939
-16.0192 -12.6108 0.19627
-16.8305 -12.4375 -0.0215109
-15.8254 -12.991 -0.104739
-20.1704 -10.5869 -0.688093
-16.0165 -12.9123 -0.371515
-16.8726 -12.2794 -0.447516
-16.0709 -12.4714 -0.492291
-16.1286 -12.4099 -0.48206
-16.9682 -12.2574 -0.498632
-19.2332 -11.1367 -0.851466
-18.6356 -11.5767 -0.834108
-19.4161 -10.9812 -0.951603
-20.092 -10.5439 -1.21831
-16.9547 -12.0386 -0.991949
-20.0345 -10.4239 -1.59457
-15.9811 -12.7664 -0.819662
-18.4645 -11.664 -1.52664
-15.8589 -12.7252 -1.1579
-15.8352 -12.7339 -1.11849
-15.8811 -12.8262 -1.00446
-15.5899 -13.1274 -1.06178
-15.505 -13.082 -1.13334
-16.0209 -12.614 -1.22475
-19.3525 -10.7928 -1.82757
-18.7733 -11.3006 -1.993
-18.7321 -11.2568 -1.99179
-17.7401 -11.1838 -1.68437
-16.9185 -11.9054 -1.66604
-16.6548 -12.1535 -1.66168
-18.8902 -11.0495 -2.19969
-17.1026 -11.4707 -1.85629
-18.4915 -11.2161 -2.43623
-18.4045 -11.3372 -2.45477
-18.62 -11.0425 -2.64857
-16.8069 -11.5432 -2.40877
-16.1348 -11.8884 -2.28389
-15.3974 -13.1766 -2.56357
-16.9441 -11.2288 -2.86511
-16.5571 -11.5058 -2.97758
-15.3427 -13.1472 -2.90681
-15.9744 -12.7427 -3.2103
-20.0706 -11.287 1.58804
-17.9544 -11.6145 1.10609
-19.9433 -11.3151 1.15734
-19.5709 -11.5364 1.14732
-19.4867 -11.4821 0.841615
-17.5626 -11.8137 0.855614
-18.0042 -11.609 0.755208
-17.0136 -12.0738 0.676704
-19.3412 -11.5611 0.608351
-17.0522 -12.1522 0.637437
-19.6489 -11.2408 0.220602
-18.8124 -11.7652 0.199196
-15.742 -12.7545 0.263587
-15.7491 -12.7818 0.37641
-16.2398 -12.4964 0.238558
-17.3399 -12.0972 -0.383034
-16.0863 -12.6259 -0.385392
-20.1687 -10.434 -1.38725
-20.0301 -10.5264 -1.4263
-15.9188 -12.8357 -0.843081
-15.9347 -12.7944 -0.856219
-19.8451 -10.6793 -1.57872
-18.8452 -11.3022 -1.66108
-19.3736 -10.9041 -1.67281
-16.7438 -12.1732 -1.35047
-19.4792 -10.7581 -1.95303
-16.5872 -12.099 -1.71186
-16.9839 -11.6279 -1.87696
-18.1245 -11.4175 -2.16248
-16.8584 -11.8181 -1.91594
-18.619 -11.2128 -2.55861
-18.5656 -10.992 -2.83807
-16.0877 -12.1442 -2.34652
-15.9965 -12.0075 -2.40933
-16.0207 -12.1124 -2.4603
-15.3901 -13.0908 -2.58863
-15.6972 -12.7742 -3.55164
-15.8895 -11.0801 1.87956
-19.61 -11.7877 1.98635
-19.2343 -11.7837 1.39065
-18.0437 -11.5771 1.10191
-18.019 -11.6861 1.0822
-17.8702 -11.6143 1.02152
-17.4657 -11.8343 0.830248
-19.2121 -11.573 0.320208
-19.0188 -11.43 -0.134626
-18.0839 -11.3401 -0.241743
-16.9273 -12.3172 -0.364941
-16.9967 -12.1812 -0.450292
-18.7326 -11.5077 -0.830355
-16.117 -12.431 -0.623607
-17.6443 -11.8978 -0.753047
-15.9365 -12.7632 -0.907142
-16.0254 -12.7858 -0.866387
-18.5919 -11.2304 -2.21403
-16.4596 -12.0831 -2.0737
-16.0193 -12.1823 -2.12707
-15.5298 -12.7324 -3.53323
-17.9475 -11.5864 1.11496
-17.8896 -11.7058 0.930364
-19.0938 -11.5819 -0.00793101
-19.6675 -10.9896 -0.379295
-16.2879 -12.3873 -0.33947
-15.7278 -13.0857 -0.934582
-15.7769 -12.9098 -1.34615
-15.6376 -12.982 -1.56109
-17.1642 -11.4275 -2.03833
-17.4733 -11.8229 0.786755
-18.9081 -11.6944 0.291746
-16.0545 -12.6344 0.152172
-16.6509 -12.2077 -1.25309
-16.9063 -11.9948 -1.41015
-16.8289 -11.9955 -1.62
-17.1122 -11.5215 -1.86894
-16.8471 -11.5793 -2.01851
-16.1326 -12.1137 -2.15267
-15.9752 -12.0672 -2.76557
-16.2513 -11.6153 -2.73672
-17.9872 -11.6605 0.340434
-17.5041 -12.2541 -0.246636
-16.0445 -12.7805 -0.854456
-16.5559 -12.2327 -1.27332
-16.066 -12.7549 -0.283569
-19.6274 -10.8881 -0.786122
-16.8503 -12.1631 -1.38951
-17.9757 -11.7351 0.660943
-17.4783 -11.8076 -1.19074
-16.5332 -12.3779 -0.669587
-15.839 -12.8519 -1.66069
-17.0556 -11.5526 -1.96278
-18.1989 -11.5852 -0.606769
-16.2548 -12.5632 -1.10293
-16.3795 -12.3838 -1.32398
-15.9373 -12.3797 -2.02336
-16.1561 -11.8694 -2.21707
-15.6594 -12.8202 -2.21804
-16.4367 -11.5301 -2.97275
-15.6979 -12.7525 -3.6617
-15.522 -12.8573 -3.64665
-15.3245 -13.009 -3.70964
-15.396 -12.8939 -3.53865
-15.6349 -12.9283 -3.58562
-18.457 -11.0955 -2.77359
-15.5025 -13.0315 -3.52991
-18.7162 -11.0288 -2.65552
-15.2824 -13.0119 -3.47913
-15.8529 -12.7103 -3.37999
-15.2874 -13.1835 -3.39902
-20.1158 -10.3119 -2.1084
-15.4144 -13.1023 -3.18803
-15.4206 -12.9925 -3.29742
-15.6801 -12.8182 -3.20459
-18.6138 -11.2189 -2.29864
-18.7745 -11.0424 -2.23855
-19.9408 -10.4747 -1.88518
-15.2678 -13.1224 -3.09215
-16.0943 -11.8861 -2.38882
-20.338 -10.2958 -1.48994
-16.9517 -11.5662 -2.11795
-16.0128 -12.0712 -2.37771
-20.0044 -10.3937 -1.66982
-16.959 -11.5572 -2.01648
-19.4021 -10.9159 -1.7333
-19.9982 -10.4815 -1.45261
-19.9812 -10.611 -1.4878
-19.1124 -11.1182 -1.69238
-20.2832 -10.3722 -1.22687
-19.0996 -10.9749 -1.49351
-19.0842 -11.1058 -1.44896
-18.3146 -11.6085 -1.33359
-18.4384 -11.5913 -1.46032
-19.6725 -10.9231 -0.931542
-19.2986 -11.1537 -1.11845
-19.9572 -10.8559 -0.674032
-18.5257 -11.5976 -1.06149
-19.4212 -11.0738 -0.77977
-19.3237 -11.071 -0.648007
-17.7675 -11.6912 -1.04474
-18.8109 -11.5386 -0.788441
-18.5558 -11.6033 -0.753449
-19.0435 -11.2849 -0.594382
-16.1464 -12.6094 -1.35624
-19.8811 -10.9896 -0.210606
-20.0596 -10.8554 -0.0258723
-20.0322 -10.8058 -0.0357356
-19.158 -11.3789 -0.284862
-19.1734 -11.474 -0.287551
-18.0963 -11.455 -0.146675
-15.9196 -12.7723 -1.11431
-16.9525 -12.1627 -0.752464
-16.8104 -12.3317 -0.471992
-16.0208 -12.8487 -0.603129
-15.9269 -12.9077 -0.535514
-15.8619 -12.9594 -0.585115
-15.8868 -12.9521 -0.540981
-16.7659 -12.4029 -0.23116
-16.9266 -12.3165 -0.18609
-19.7754 -11.2171 0.619354
-19.1249 -11.7085 1.0033
-17.6041 -11.7251 0.849392
-17.8924 -11.707 0.98742
-17.2951 -12.0709 0.847864
-16.9599 -12.2613 0.711365
-15.9393 -12.747 0.197062
-19.1161 -11.8973 1.38245
-19.3366 -11.7509 1.69091
-15.4356 -11.1711 1.191
-15.4791 -11.2226 1.27952
-18.8725 -12.1055 2.17709
-15.4323 -12.831 -4.09942
-15.5638 -12.7503 -3.74693
-15.4913 -12.7393 -3.74428
-15.8156 -12.6213 -3.72148
-15.635 -12.7385 -3.702
-15.5737 -12.7974 -3.61226
-15.4514 -12.9695 -3.75062
-15.8613 -12.7425 -3.37991
-15.675 -12.8699 -3.45182
-15.5432 -12.9371 -3.50522
-15.3586 -13.0803 -3.39746
-20.1266 -10.246 -2.03594
-19.7096 -10.4312 -2.13198
-18.4947 -11.2553 -2.38484
-18.6181 -11.2436 -2.34042
-19.9895 -10.3926 -1.87199
-18.4074 -11.4244 -2.2123
-18.646 -11.2171 -2.03677
-19.0082 -11.0729 -1.91224
-16.9465 -11.524 -2.11361
-19.3245 -10.8781 -1.64634
-20.068 -10.4899 -1.48617
-19.7693 -10.5831 -1.38234
-16.7594 -11.8566 -1.9504
-18.542 -11.4456 -1.69051
-18.9897 -11.2197 -1.33149
-16.5526 -12.102 -1.85259
-18.8617 -11.4798 -0.954821
-15.7123 -12.9902 -1.794
-17.5904 -11.8129 -1.1438
-18.6259 -11.5558 -0.799434
-19.7842 -11.0041 0.0175638
-16.9404 -12.1905 -0.715774
-15.7265 -13.0587 -1.24905
-16.0485 -12.7809 -0.747056
-17.3375 -12.1509 -0.364091
-15.8439 -12.7677 -0.893558
-16.238 -12.3566 -0.530949
-18.0978 -11.7981 0.0710776
-18.8339 -11.8771 0.141925
-15.8599 -12.9935 -0.648823
-15.7871 -13.0033 -0.61298
-17.3493 -12.3023 -0.0520043
-16.6514 -12.4396 -0.175082
-18.7196 -11.7865 0.42192
-17.3786 -12.3894 0.0790211
-16.803 -12.459 -0.0645252
-19.6283 -11.4319 1.08927
-19.2479 -11.7785 1.1405
-19.5058 -11.5129 1.29792
-16.8459 -12.2484 0.601048
-19.1558 -11.7994 1.38437
-19.5125 -11.7808 1.74606
-19.5181 -11.6357 1.93456
-14.8863 -11.5749 1.08918
-15.0921 -11.4099 1.30071
-14.8921 -11.4597 1.3458
-15.3859 -11.296 1.58609
-15.4278 -12.6982 -3.93012
-15.8202 -12.6363 -3.79995
-16.1376 -11.6621 -3.05821
-16.6769 -11.3809 -2.96955
-15.534 -12.8589 -3.56478
-18.771 -11.0025 -2.59417
-15.4522 -13.0219 -3.42639
-17.1269 -11.1066 -2.40627
-15.8089 -12.6923 -3.2194
-16.1 -12.5782 -3.20871
-18.4462 -11.2873 -2.45688
-19.4641 -10.7277 -1.99666
-16.2015 -11.9298 -2.39699
-20.037 -10.3753 -1.60423
-16.8924 -11.5065 -1.91176
-16.9789 -11.6093 -1.86901
-20.0973 -10.5469 -1.35546
-18.757 -11.3848 -1.58298
-18.7686 -11.3335 -1.61385
-16.6986 -11.9386 -1.90944
-16.4045 -12.2372 -1.78132
-17.8303 -11.6892 -0.876652
-18.6227 -11.4903 -0.794793
-19.0849 -11.2592 -0.55246
-18.4455 -11.7847 -0.761061
-17.8003 -11.5752 -0.70019
-18.0281 -11.3074 -0.266343
-15.8832 -12.7426 -1.1438
-15.488 -13.0892 -1.20125
-15.7718 -12.8431 -0.894436
-16.2666 -12.4137 -0.496719
-16.0513 -12.576 -0.429043
-19.3687 -11.4605 0.425187
-16.576 -12.5764 -0.0918708
-19.6397 -11.4875 0.988016
-19.2588 -11.7494 1.29404
-19.278 -11.802 1.1496
-19.2254 -11.84 1.63511
-19.0687 -11.9801 1.80578
-15.6138 -11.1331 1.3319
-15.7601 -11.1764 1.49333
-15.7294 -11.0142 1.55411
-14.9548 -11.512 1.20669
-15.9965 -11.6295 -3.09249
-16.4831 -11.5791 -3.00109
-17.1148 -11.1026 -2.62977
-18.6152 -11.1351 -2.74426
-18.5973 -11.0956 -2.60422
-15.4092 -12.9528 -3.27429
-18.5537 -11.2235 -2.502
-15.2363 -13.1246 -3.13139
-17.3516 -11.438 -2.02833
-16.0588 -12.1398 -2.42458
-16.121 -12.0741 -2.23263
-16.0427 -12.1231 -2.2827
-18.665 -11.2376 -1.74148
-15.5351 -13.1343 -1.46786
-16.449 -12.3795 -0.619966
-15.7818 -12.8263 0.125923
-15.9502 -12.902 0.239517
-15.7737 -12.8605 0.0942494
-15.6717 -11.1685 1.49967
-15.05 -11.4874 1.53992
-15.6793 -11.1844 1.82005
-15.5685 -12.775 -3.50587
-17.1348 -11.0654 -2.42791
-19.9983 -10.2189 -2.03339
-15.3629 -13.1455 -3.2201
-16.9418 -11.4594 -2.18513
-16.9711 -11.6295 -1.8853
-16.8192 -11.8793 -1.79758
-16.0359 -12.893 -0.370572
-16.7457 -12.008 -1.98712
-15.6588 -13.1453 -0.912508
-15.8703 -12.8572 -0.615085
-19.6161 -11.419 0.913474
-15.4381 -12.9745 0.0119915
-16.0429 -12.6397 -1.1823
-19.0397 -11.6209 0.435165
-17.0228 -12.1835 0.33042
-16.7923 -12.2809 0.415074
-16.2419 -11.9578 -2.11363
-16.6159 -12.2567 -1.58716
-16.0173 -12.628 -1.04315
-16.7451 -12.427 -0.0811641
-17.1859 -11.6668 -1.651
-16.6521 -12.004 -1.77899
-17.0495 -11.9032 -1.34969
-17.8454 -12.0306 -0.243793
-16.3652 -12.4791 -0.522126
-16.2863 -12.6126 -0.967978
-20.0757 -10.2483 -2.12887
-19.4734 -10.8902 -1.6323
-19.6865 -10.7722 -1.29402
-16.9022 -11.2779 -2.78549
-18.6821 -11.3497 -1.85435
-18.9474 -11.2142 -1.22706
-20.0637 -10.8872 0.0494286
-20.0441 -10.836 0.000271741
-16.4609 -11.6015 -3.02932
-16.408 -11.5438 -2.9087
-20.0694 -10.9419 -0.0382351
-19.9726 -10.905 0.0185449
-18.1451 -11.5263 -2.07377
-18.6086 -11.5051 -1.34013
-17.0685 -11.3798 -1.85875
-17.0726 -11.4791 -2.06656
-16.9544 -11.45 -2.02612
-16.8906 -11.528 -2.11478
-16.8893 -11.4464 -2.04076
-19.1336 -11.3535 -0.555752
-17.1218 -11.516 -1.93
-19.0784 -11.4388 -0.478027
-20.0616 -10.9931 0.588882
-18.5814 -11.6934 -0.72464
-19.9861 -11.2226 1.16695
-19.2804 -11.4238 0.329433
-18.9608 -11.5247 0.155838
-17.8825 -11.7523 -0.845438
-17.5051 -11.8234 -1.09316
-15.8022 -12.666 -3.66159
-18.9931 -11.6422 0.309475
-18.9688 -11.6244 0.38461
-15.6355 -12.6689 -3.74135
-19.7221 -11.3937 1.39879
-19.566 -11.5002 1.15919
-19.3824 -11.504 1.02327
-17.8034 -11.9142 -0.371902
-19.2167 -11.6989 0.798196
-19.3358 -11.6326 1.10524
-17.5519 -11.9913 -0.626702
-18.2036 -11.8471 0.0501259
-19.7442 -11.5346 1.78027
-17.1141 -11.9865 -0.820286
-19.2375 -11.6974 1.17443
-15.3135 -13.0299 -3.63107
-16.6183 -12.3215 -1.24036
-19.6807 -11.627 1.85218
-15.8448 -12.6159 -2.38173
-17.4136 -12.0888 -0.270292
-15.4768 -12.9848 -3.21309
-19.1033 -11.898 1.27806
-16.8717 -12.2 -0.823784
-18.9988 -11.8493 1.28313
-16.757 -12.177 -0.725519
-15.3415 -13.1435 -3.17614
-16.8766 -10.2486 2.72916
-16.7532 -10.3349 2.69988
-15.8487 -12.7421 -1.83576
-17.6208 -11.9124 0.825247
-15.6081 -13.1614 -2.46777
-16.0909 -12.5379 -1.2051
-17.2234 -12.0401 0.616641
-15.8743 -12.8097 -1.10013
-15.9556 -12.7652 -1.06668
-15.8861 -12.7221 -1.084
-15.9146 -12.7899 -1.05471
-16.6754 -12.3288 0.447009
-15.9995 -12.5913 -0.577438
-16.5794 -12.4023 0.457474
-15.4418 -11.1449 1.28948
-15.5893 -13.1007 -1.32039
-15.3458 -11.2022 1.21652
-15.7357 -11.168 1.65302
-15.9235 -13.0119 -0.556218
-16.3545 -12.4514 0.493948
-15.7777 -12.945 -0.624317
-15.7364 -13.1475 -0.82579
-15.74 -12.8843 -0.706921
-15.7858 -12.9357 -0.458338
-15.4629 -11.4512 1.60604
-15.1563 -11.4208 1.35182
-14.932 -11.5725 1.31375
-20.1112 -10.2015 -1.68169
-20.0909 -10.4751 -1.57255
-20.1054 -10.4808 -1.35723
-19.496 -10.8036 -1.98668
-18.9442 -10.9928 -2.23406
-18.2206 -11.1868 -3.05097
-19.2733 -10.8578 -1.64416
-18.4905 -11.1676 -2.34506
-16.9449 -11.3284 -2.80073
-18.4469 -11.3601 -2.20193
-16.854 -11.3972 -2.93053
-18.8645 -11.2586 -1.24513
-17.2138 -11.3689 -1.88566
-19.6314 -11.1125 -0.174887
-17.024 -11.4511 -2.00496
-18.608 -11.474 -1.11478
-16.8926 -11.4791 -2.00172
-17.6306 -11.8094 -1.55042
-18.9889 -11.5513 -0.0846415
-15.8458 -12.5843 -3.94301
-15.8648 -12.5694 -3.89897
-17.7892 -11.6971 -0.954046
-19.6357 -11.2904 0.809414
-16.0247 -12.0611 -2.38763
-16.9477 -11.9639 -1.67486
-19.2857 -11.5027 0.684679
-16.3914 -12.0247 -2.04715
-16.0439 -12.0754 -2.26117
-15.6799 -12.7652 -3.61074
-19.1586 -11.6308 0.706055
-15.6559 -12.8187 -3.43631
-15.3366 -13.0192 -3.72727
-15.388 -12.3992 -2.6534
-19.8199 -11.6053 1.96064
-17.5644 -12.0593 -0.436704
-19.1225 -11.7794 1.14788
-16.8952 -12.1252 -1.02589
-19.5867 -11.6899 1.78476
-19.5993 -11.6507 1.83351
-17.0079 -12.0976 -0.681724
-19.3722 -11.8539 1.58996
-17.7958 -12.1465 0.227628
-16.9482 -12.2684 -0.392541
-15.6981 -12.7362 -2.12724
-16.8629 -12.2198 -0.493173
-16.0277 -12.4871 -1.32694
-15.8651 -12.7896 -1.86167
-16.8393 -12.3784 -0.155253
-16.0208 -12.6214 -1.35769
-17.2821 -12.0747 0.658018
-16.853 -12.3453 -0.224716
-15.701 -12.8421 -1.94833
-15.4883 -13.3034 -2.58146
-16.7886 -12.4436 -0.216643
-17.2861 -11.8981 0.876056
-16.763 -12.4053 -0.271056
-16.3248 -12.4583 -0.521496
-16.257 -12.5863 -0.32416
-15.9295 -12.704 -0.848057
-15.8176 -12.7063 -0.943575
-15.7042 -11.0756 1.62588
-16.0529 -12.7018 -0.449176
-15.8328 -12.9297 -0.771472
-15.7321 -13.1404 -0.908873
-15.9521 -12.6201 0.208114
-15.9279 -12.8982 -0.496586
-14.8641 -11.5968 0.996543
-14.7313 -11.5055 1.96558
-19.9919 -10.283 -2.18674
-20.2317 -10.3414 -1.61886
-20.062 -10.455 -1.67818
-19.3458 -10.8013 -2.4157
-19.5754 -10.7244 -1.99914
-20.0513 -10.5365 -1.16867
-19.349 -10.7745 -1.99536
-19.8717 -10.5776 -1.31236
-20.2866 -10.5764 -0.742359
-18.635 -11.1633 -2.29251
-18.3365 -11.2832 -2.52735
-16.8362 -11.3662 -2.91816
-16.8017 -11.4151 -2.88762
-17.1991 -11.4046 -1.95764
-18.6204 -11.4497 -1.3517
-17.1092 -11.4736 -2.06136
-19.0003 -11.314 -0.574386
-19.0333 -11.4568 -0.602878
-19.3593 -11.3788 0.299407
-19.1574 -11.5252 0.118908
-16.2347 -11.978 -2.43793
-15.8409 -12.5967 -3.76944
-16.0758 -12.1514 -2.23476
-18.8759 -11.6584 0.134151
-16.7747 -11.9418 -1.51116
-15.4168 -12.8127 -3.85644
-19.3944 -11.6061 1.19011
-15.7002 -12.7449 -3.43229
-17.6769 -11.9471 -0.509409
-16.4457 -12.1019 -1.62699
-19.8087 -11.5388 1.79091
-19.7546 -11.5833 1.76551
-19.7616 -11.5805 1.75795
-18.8845 -11.798 0.737351
-19.6759 -11.6355 1.84761
-17.4047 -12.105 -0.605794
-17.8348 -11.9751 -0.111591
-15.4607 -12.9849 -3.43856
-19.0583 -11.8316 1.11664
-19.5996 -11.6343 1.85004
-19.1742 -11.8088 1.34252
-16.653 -12.2241 -1.21418
-19.4154 -11.7236 1.73596
-19.3984 -11.8305 1.77261
-16.1893 -12.2363 -1.42566
-15.3663 -13.0207 -3.16924
-19.261 -11.797 1.68141
-19.1683 -11.8003 1.56199
-16.8936 -12.2346 -0.721249
-16.3401 -12.4565 -0.268296
-16.5848 -12.3886 0.456753
-15.7891 -12.8886 -0.854974
-15.5901 -13.1478 -1.1157
-15.3452 -11.2906 1.59196
-15.7339 -12.8424 -0.0827059
-15.4969 -13.0074 0.04609
-20.039 -10.1977 -2.13555
-19.6822 -10.4759 -2.27223
-19.9213 -10.856 0.0392447
-17.18 -11.425 -1.94513
-17.1931 -11.4608 -1.92325
-17.2273 -11.5257 -1.93324
-16.9464 -11.5279 -1.74673
-18.7002 -11.6017 -0.892263
-18.7443 -11.7089 -0.768833
-17.6391 -11.5894 -1.24499
-16.2124 -11.9351 -2.32505
-18.7001 -11.7651 0.246914
-16.3537 -12.2771 -1.91662
-19.5455 -11.6179 1.74398
-16.3632 -12.4233 -1.74141
-17.6203 -11.7527 0.737337
-15.4321 -13.1056 -3.01644
-17.5276 -11.8626 0.777151
-16.083 -12.539 -1.23471
-16.9502 -12.3024 0.346588
-16.6309 -12.4609 -0.183882
-18.7568 -11.29 -1.82114
-16.5562 -11.5582 -2.88679
-17.7505 -11.3725 -1.66922
-17.5269 -11.4212 -1.9546
-16.9919 -11.4561 -2.02609
-16.8876 -11.5432 -2.10747
-16.9336 -11.5859 -1.85226
-16.8925 -11.5509 -1.80051
-19.0937 -11.6074 0.252731
-16.4579 -12.1009 -2.11878
-19.402 -11.5767 0.856683
-16.1128 -12.1308 -2.15868
-18.8138 -11.7185 0.293692
-16.6041 -12.3159 -1.57826
-16.7383 -12.133 -1.32096
-17.6559 -11.775 0.744969
-15.8327 -12.6854 -1.84053
-16.8098 -12.3952 -0.0839317
-16.9926 -12.3714 0.155771
-16.6498 -12.489 -0.180316
-15.7564 -13.0079 -0.609388
-15.803 -12.99 -0.507237
-19.9221 -10.5771 -1.29284
-18.8481 -11.0808 -2.15985
-17.6767 -11.6065 -1.57363
-19.0432 -11.5677 0.0328546
-16.0879 -11.9267 -2.40153
