-20.625 -11.2702 -0.396356
-20.6011 -11.2952 -0.285625
-19.3825 -11.5277 -1.18191
-19.0556 -11.2264 0.167428
-16.4433 -12.5148 -0.0885131
-20.5891 -11.1878 -0.510817
-18.6886 -11.7356 -0.292678
-17.0252 -11.8603 -1.70958
-17.4673 -11.9517 0.056469
-16.3989 -12.3748 -0.737516
-16.3872 -12.4615 -0.334414
-16.5743 -12.4291 -0.138659
-20.4814 -11.2992 -0.342233
-20.6657 -11.2787 -0.464378
-18.5744 -11.4557 0.461032
-18.8363 -11.4409 1.01757
-16.1474 -12.7802 -0.718959
-20.6757 -11.296 -0.209649
-20.6029 -11.2431 -0.351271
-20.4336 -11.3522 -0.225906
-19.6618 -11.3613 -1.55761
-18.1425 -11.4882 -3.09473
-18.0617 -11.6556 -3.01914
-18.7469 -11.5196 0.937919
-17.0936 -11.837 -1.67354
-17.0304 -11.7682 -1.6678
-17.6098 -11.8558 -0.946502
-17.1099 -11.7866 -1.96841
-17.7928 -11.7637 -0.677878
-17.6602 -11.9255 -0.670575
-17.4175 -12.0491 -0.602372
-17.4215 -12.0095 -0.527783
-16.9437 -12.0454 -1.33469
-17.5987 -12.0584 -0.342898
-16.3703 -12.3394 -0.825027
-16.4116 -12.3733 -0.598645
-17.5685 -11.8438 -0.837479
-17.6017 -11.9691 -0.78141
-16.5672 -12.3157 -0.555053
-16.624 -12.4551 -0.230874
-16.5264 -12.5118 -0.255208
-15.9782 -12.546 -1.30486
-18.4084 -11.3587 -1.44868
-17.748 -11.4489 -2.24645
-19.4733 -11.309 1.37132
-16.056 -12.7057 -0.712981
-18.3339 -11.6895 -2.31704
-20.4652 -10.7854 -2.33682
-20.6297 -11.1938 -0.384578
-20.5662 -11.2437 -0.230921
-19.6747 -11.1736 -2.16837
-19.8107 -11.5667 -0.377412
-18.2038 -11.7348 -1.0624
-17.6114 -11.8641 -0.928505
-17.3607 -12.0761 -0.299968
-16.4342 -12.3314 -0.773882
-20.5145 -10.7809 -2.33262
-19.3476 -11.2235 -2.70541
-18.8795 -11.4205 0.765965
-17.6479 -11.9757 -0.389173
-17.4276 -12.0233 -0.6379
-17.2168 -10.3469 1.51341
-16.4242 -12.2417 -0.700426
-16.3785 -12.3849 -0.888514
-14.6801 -12.8694 -3.36549
-20.3962 -11.1353 -1.33024
-20.1479 -11.219 -1.3994
-19.6809 -11.3741 -1.43087
-19.6257 -11.3404 -1.41219
-18.9344 -11.3616 -2.41527
-17.6751 -11.8729 -0.879111
-17.4194 -11.9528 -0.861537
-17.0959 -11.7672 -1.58592
-17.5678 -12.0431 -0.451721
-16.5222 -12.2981 -0.82886
-16.5818 -12.4144 -0.187098
-19.1702 -11.2431 -2.47245
-19.0736 -11.3875 1.0786
-15.9204 -12.5128 -1.21662
-15.9519 -12.6161 -1.24645
-15.9345 -12.5596 -1.15096
-16.5726 -10.5428 2.02719
-16.9988 -11.9845 -1.00147
-20.6824 -11.2806 -0.462293
-19.8833 -10.974 -2.55695
-19.5898 -11.528 -0.788215
-19.129 -11.1941 -2.45788
-18.8343 -11.3214 -2.66407
-18.6642 -11.455 0.261057
-18.6772 -11.3318 0.11956
-18.1556 -12.0193 -0.189927
-16.4851 -12.3262 -0.874201
-16.3763 -12.3225 -0.651218
-20.4539 -10.743 -2.3259
-20.2241 -10.9753 -2.05384
-19.233 -11.1685 -2.73256
-19.0257 -11.3818 1.09403
-18.7367 -11.5945 1.02768
-17.5037 -11.8264 -0.788432
-17.5918 -11.8517 -0.810738
-17.5536 -11.9166 -0.276734
-17.5751 -11.9481 -0.401972
-17.5954 -12.0236 -0.155314
-16.4576 -12.2555 -1.00782
-16.4254 -12.2683 -1.10911
-16.3778 -12.3793 -0.86528
-16.6186 -12.3909 -0.230921
-20.1227 -11.0721 -1.70461
-19.7037 -10.9676 -2.43573
-19.5438 -11.2652 -1.37716
-19.2129 -11.4154 0.977003
-17.6323 -11.8181 -0.875002
-17.4696 -11.8311 -0.768758
-16.8022 -11.873 -2.00877
-16.5104 -10.7317 1.50557
-15.6789 -12.4061 -1.51115
-20.4585 -10.9471 -1.8239
-20.4131 -11.111 -1.38353
-20.5325 -11.2631 -0.349949
-18.9069 -11.5436 -0.389941
-18.8048 -11.384 0.317716
-17.4383 -12.091 -0.32657
-17.5212 -12.0341 -0.471189
-16.3077 -11.7453 -1.86236
-16.4174 -12.2264 -0.897167
-16.4001 -12.454 -0.799578
-17.3476 -11.8301 -1.41828
-16.4289 -12.277 -0.810477
-16.3015 -12.4893 -0.585025
-19.173 -11.2608 0.890406
-19.1836 -11.3241 0.416738
-17.6207 -11.3349 -2.30441
-17.1369 -11.9773 -1.02249
-16.4085 -12.1544 -1.46549
-15.6605 -12.4227 -1.64966
-19.2923 -11.2908 1.07591
-20.0191 -10.8939 -2.43252
-19.9279 -11.2382 -1.28205
-19.8953 -11.2854 -1.29934
-20.0938 -11.1743 -1.98423
-19.8942 -11.0473 -1.91795
-19.0105 -11.469 0.929393
-18.8537 -11.3804 -2.54823
-18.8202 -11.7025 -1.63285
-18.6274 -11.4091 -2.78929
-17.1503 -10.4879 1.69129
-16.5195 -12.5368 -0.335361
-16.3851 -12.2869 -0.781821
-16.3302 -12.4714 -0.645727
-16.3466 -12.3085 -1.05978
-16.2619 -11.7407 -2.21667
-20.7471 -10.8414 -1.78358
-20.3671 -11.143 -1.29286
-20.2331 -10.9336 -2.02734
-20.1602 -11.252 -0.973419
-20.1121 -10.9667 -1.75643
-19.7619 -11.077 -2.31636
-19.2294 -11.2092 -2.48226
-18.9697 -11.1877 -1.09769
-18.7052 -11.5727 1.00488
-18.9507 -11.396 -2.56628
-17.166 -10.3474 1.41023
-17.5792 -12.0994 -0.18809
-17.5971 -11.8109 -0.790771
-17.4777 -11.9391 -0.630592
-17.0442 -10.5904 1.40415
-17.4667 -11.9138 -0.916805
-16.5921 -10.6862 1.45352
-16.5878 -12.4207 -0.217606
-16.4208 -12.468 -0.322277
-16.5581 -11.9331 -2.1214
-16.457 -12.4186 -0.758311
-16.4399 -12.3701 -0.631226
-16.4654 -12.2192 -1.12387
-16.3472 -12.4439 -0.762052
-20.552 -11.0557 -1.20951
-20.2252 -11.3148 -0.798424
-19.8384 -10.9135 -2.61961
-19.6005 -11.3242 -1.41602
-19.3278 -11.4245 -1.85195
-18.9908 -11.3911 -2.6481
-18.1569 -11.7039 -1.28801
-17.5615 -11.2846 -2.30805
-17.6818 -11.8678 -0.783684
-17.4369 -11.9306 -0.699011
-17.4762 -12.069 -0.639067
-16.6006 -10.68 1.4588
-16.5473 -12.3568 -0.606043
-16.4663 -12.3938 -0.623984
-16.4191 -12.5315 -0.395442
-20.1057 -11.1494 -1.41792
-19.9527 -10.9965 -2.10017
-19.1937 -11.1794 0.471921
-17.6472 -11.9361 -0.567655
-17.6004 -11.8143 -1.0877
-17.5545 -11.9406 -0.763378
-17.447 -12.0157 -0.904934
-16.8295 -11.8109 -1.99974
-16.5205 -12.4265 -0.537997
-16.2952 -12.388 -0.820806
-17.5399 -11.881 -0.953652
-17.099 -11.3801 -2.21338
-16.4461 -12.5885 -0.237614
-19.1256 -11.1857 0.41508
-16.013 -12.6256 -0.996208
-20.4038 -10.8289 -2.03192
-20.2293 -11.2618 -1.1275
-20.2238 -10.9456 -1.97334
-19.943 -11.2908 -1.33138
-19.892 -11.1566 -1.90058
-19.6307 -11.2181 -2.00561
-19.3039 -11.162 -2.76638
-19.3401 -11.1887 -2.68394
-18.1597 -11.7596 -0.970238
-18.6492 -11.4126 -2.87805
-20.4848 -11.4389 -0.133421
-20.7339 -10.8664 -1.44639
-20.1029 -11.1686 -1.45627
-19.808 -11.4998 -1.144
-18.7083 -11.6488 -0.533184
-17.6011 -10.4399 1.55699
-19.037 -11.2534 -2.21158
-17.5556 -11.9247 0.413769
-17.5986 -11.996 -0.383031
-17.4708 -11.8857 -0.684921
-16.6838 -10.6159 1.60565
-17.5546 -11.8217 -0.869605
-17.3577 -12.0251 -0.661977
-16.4273 -12.5663 -0.0819741
-16.3637 -12.4078 -0.25162
-16.4645 -12.5049 -0.271742
-16.3839 -12.3057 -0.747379
-16.2627 -12.5015 -0.491077
-16.4497 -12.2443 -1.07059
-16.3476 -12.3946 -0.695395
-16.5027 -11.8266 -2.18341
-15.9341 -12.523 -1.19077
-19.5767 -11.3152 -1.66475
-19.0488 -11.2796 -0.731244
-17.6381 -11.9773 -0.290127
-17.5352 -11.7373 -0.924697
-17.3234 -11.4265 -2.0173
-16.4347 -12.4543 -0.497698
-16.4618 -12.3957 -0.613372
-16.5044 -12.2316 -0.77366
-16.5434 -12.2159 -1.01509
-15.6611 -12.7649 -1.19349
-19.0768 -11.1232 -0.974556
-18.1941 -11.6881 -1.30509
-17.6978 -11.9233 -0.671472
-17.4098 -12.106 -0.334771
-17.9109 -11.2536 -2.3905
-16.883 -11.7956 -1.92385
-16.0539 -12.7871 -1.06276
-20.5846 -11.2219 -0.446516
-17.5777 -12.0508 -0.475297
-17.5512 -11.8203 -1.06525
-16.1612 -10.8025 1.29523
-18.7779 -11.6675 -1.71294
-16.8932 -12.1362 -1.12992
-16.6383 -12.4571 -0.177889
-17.9536 -11.3618 -1.76232
-16.4297 -11.8922 -2.18331
-16.4026 -12.0063 -2.04924
-20.4246 -11.332 -0.207798
-20.3931 -11.1461 -1.36624
-20.0149 -11.4167 -0.867272
-19.1059 -11.1314 0.236591
-19.7097 -11.4094 -1.07846
-18.6602 -11.4185 0.172438
-19.5253 -11.2068 -1.97022
-19.2447 -11.1878 -2.71292
-18.0148 -11.875 -0.794583
-17.6059 -11.9882 -0.506464
-17.7105 -11.8657 -0.499389
-17.3563 -11.2338 -2.26413
-17.2378 -11.3568 -2.16974
-16.9567 -11.3231 -2.572
-20.6488 -11.1826 -0.396353
-20.6923 -11.2822 -0.482303
-19.7444 -11.444 -1.29349
-18.3022 -11.4783 0.359426
-19.8465 -11.1026 -2.26215
-18.7151 -11.7258 -0.441238
-18.6675 -11.7298 -0.302244
-18.5373 -11.5089 -1.01029
-16.8739 -10.4846 1.39651
-18.7706 -11.5953 -1.71678
-18.0387 -12.0362 -0.453958
-18.9821 -11.3366 -2.40668
-18.1908 -11.8273 -1.06152
-17.7263 -11.9428 -0.683504
-17.5444 -11.9032 -0.63401
-16.2347 -10.7341 1.34375
-16.4725 -12.2765 -0.59346
-16.4522 -12.3085 -0.718202
-20.1276 -11.0198 -1.68344
-19.7257 -11.4383 -1.10749
-18.8095 -11.6394 -0.542168
-19.9052 -10.9356 -2.66023
-16.8669 -10.6467 1.65496
-17.6442 -12.0255 -0.2413
-17.7428 -11.941 -0.408714
-19.1117 -11.1656 -2.83527
-17.6479 -11.97 -0.397095
-17.6976 -11.9691 -0.491041
-17.3879 -12.0927 -0.317126
-16.3936 -12.2137 -1.19565
-15.8865 -12.7448 -1.0637
-16.3753 -11.7419 -2.43828
-20.5693 -11.3313 -0.112425
-20.4621 -11.3126 -0.272676
-18.8815 -11.2413 0.169642
-19.652 -11.4517 -1.12132
-17.6741 -11.9055 -0.49925
-17.4834 -12.0024 -0.243817
-17.4867 -12.021 -0.405411
-17.6012 -11.8392 -0.958233
-18.9994 -11.4628 1.0306
-16.4987 -12.3471 -0.934105
-18.779 -11.7314 -0.602235
-17.034 -10.5328 1.33796
-16.4437 -12.1325 -0.985161
-15.9418 -12.7314 -0.988744
-16.9692 -10.4259 1.37029
-18.3437 -11.9171 -0.603806
-18.318 -11.9486 -0.560958
-17.5861 -11.9669 -0.477331
-19.9612 -11.4945 -0.503522
-20.1516 -11.3263 -0.864875
-20.7727 -10.7674 -1.78686
-19.9376 -11.3484 -0.860785
-20.197 -11.2788 -1.03923
-19.6976 -11.4376 -1.11967
-19.663 -11.4118 -1.1899
-19.7671 -11.4539 -1.20122
-19.4087 -11.5207 -1.12785
-19.6136 -11.253 -1.58588
-19.572 -11.2412 -2.00455
-19.4961 -11.2408 -2.01716
-19.4692 -11.3476 -1.89514
-19.4398 -11.3606 -2.06176
-19.7358 -11.2436 -2.16237
-19.4961 -11.3062 -1.89929
-19.7439 -11.0587 -2.4062
-17.4824 -12.0434 -0.243777
-18.2079 -11.7525 -1.08417
-19.2582 -11.2826 -2.34603
-19.0602 -11.4114 -2.09521
-19.1121 -11.3202 -2.3208
-17.1301 -11.9556 -0.27887
-17.0263 -11.3468 -2.54165
-16.9892 -11.3999 -2.64318
-20.7269 -11.2437 -0.213323
-20.3968 -11.3562 -0.206386
-20.446 -11.3367 -0.441078
-19.8059 -11.6486 -0.247303
-16.9679 -10.5222 1.36624
-18.6069 -11.7605 -0.432332
-19.9372 -11.0384 -1.9116
-19.5162 -11.3088 -1.60195
-19.9008 -11.0433 -2.14492
-19.7163 -10.9846 -2.43401
-17.9128 -11.9842 -0.655898
-17.4972 -12.0549 -0.143578
-17.6333 -11.9401 -0.267513
-18.8186 -11.6242 -1.72907
-17.8939 -11.8235 -0.850751
-19.6003 -10.9149 -2.59802
-17.329 -12.1188 -0.383977
-18.629 -11.5418 -2.17844
-20.6836 -11.4104 -0.138394
-20.4852 -11.0627 -1.43509
-19.9059 -11.4509 -0.672595
-18.6673 -11.4639 0.311288
-17.3236 -10.3517 1.42338
-18.5007 -11.589 0.41523
-17.0432 -10.3535 1.28991
-19.9897 -11.1451 -1.93208
-17.5551 -12.0424 -0.262346
-17.4369 -12.0927 -0.316865
-16.5011 -12.376 -0.623214
-16.532 -12.3617 -0.667891
-20.6172 -11.2458 -0.31566
-19.1719 -11.2183 0.226011
-18.4369 -11.8047 -0.574503
-19.1567 -11.5198 -1.57536
-17.6115 -11.9571 -0.286207
-17.5113 -12.0135 -0.526124
-17.5527 -11.9091 -0.975499
-16.3871 -12.3702 -0.290457
-16.468 -12.3156 -0.816182
-18.2812 -11.9495 -0.425745
-17.9329 -11.7041 -1.57094
-15.9561 -12.7682 -0.955604
-16.8608 -11.7908 -1.99824
-18.8752 -11.4872 0.80407
-20.196 -10.9254 -1.82715
-17.5237 -11.8353 0.275636
-16.7993 -11.9893 -1.35142
-16.9084 -11.7639 -1.91832
-17.9504 -11.7929 -1.06431
-18.0615 -11.8447 -0.922745
-18.9884 -11.4553 1.06873
-20.1293 -11.5276 -0.289992
-19.1695 -11.2038 0.246174
-19.7265 -11.6458 -0.256682
-20.088 -11.4756 -0.528197
-20.1591 -11.3014 -0.707934
-18.6908 -11.4161 0.344951
-18.3717 -11.537 0.375473
-19.9144 -11.3754 -0.818679
-17.9055 -11.7742 0.364632
-19.4433 -11.5664 -1.15253
-20.5661 -10.9614 -1.91567
-19.6492 -11.3709 -1.37369
-18.0104 -12.0015 -0.32872
-20.2053 -11.0423 -1.90669
-19.4418 -11.4547 -1.4348
-19.9769 -10.9694 -1.97359
-19.8387 -10.9803 -2.02865
-16.8212 -12.0506 -0.267967
-19.205 -11.293 -2.25223
-19.5692 -11.0655 -2.68128
-18.7522 -11.2489 -2.72474
-19.9879 -11.8544 0.582641
-20.2153 -11.558 -0.00940244
-18.6618 -11.2992 0.222001
-20.6943 -10.9036 -1.53211
-20.0393 -11.3557 -1.00576
-20.7799 -10.8441 -1.68351
-19.7664 -11.4127 -1.18231
-17.4516 -11.9229 0.370718
-17.5033 -11.8999 0.172646
-20.1537 -11.1437 -1.56216
-19.3678 -11.6271 -1.17058
-19.4128 -11.4854 -1.23164
-18.2591 -11.8136 -0.738536
-19.6232 -11.3315 -1.70005
-17.4487 -11.9783 -0.280477
-19.971 -11.0188 -2.18492
-17.4672 -11.9563 -0.644102
-20.0842 -10.8228 -2.38503
-19.1872 -11.3926 -1.88446
-16.9868 -11.9325 -0.308762
-18.2837 -11.5715 -1.52652
-16.2977 -12.3142 -0.771651
-15.8192 -12.7962 -1.20285
-16.8042 -11.9499 -1.76221
-16.0835 -11.8459 -2.04925
-16.5017 -11.5804 -2.49971
-20.0516 -11.7945 0.814333
-19.0781 -11.4299 0.811249
-20.7166 -11.2855 -0.218227
-20.1518 -11.4549 -0.212249
-20.0953 -11.3607 -0.388203
-19.8224 -11.6416 -0.236309
-16.9645 -10.5014 1.41041
-20.6194 -10.8966 -1.48914
-20.3594 -11.1527 -1.25716
-19.8041 -11.4243 -1.16691
-18.1334 -11.7772 -0.80204
-18.3353 -11.513 -1.35466
-17.3499 -11.8891 -0.900327
-19.7741 -10.9279 -2.49724
-18.4925 -11.4941 -2.6876
-16.6581 -11.9269 -1.71602
-17.1002 -10.3921 1.19727
-19.0358 -11.3215 -0.774793
-18.1084 -11.7633 -0.807456
-18.1324 -11.7788 -0.819454
-16.4242 -12.4891 -0.26741
-16.9262 -12.0251 -1.28688
-15.9855 -12.6167 -0.881685
-16.0782 -11.8723 -2.09532
-18.2927 -11.5816 0.320767
-18.2544 -11.9434 -0.353406
-17.5135 -11.7898 -1.20534
-17.4609 -11.7169 -1.19545
-19.0367 -11.1929 -2.84292
-16.6744 -11.5322 -2.61433
-15.9092 -11.5784 -2.83676
-20.8126 -11.2604 -0.38385
-18.8683 -11.2686 0.243069
-17.803 -11.7812 0.467556
-17.4183 -11.8371 -1.0979
-16.9076 -12.0704 -1.24978
-16.4362 -12.2396 -1.12374
-20.2755 -11.8515 0.753554
-18.9014 -11.434 0.877431
-20.4876 -11.5053 0.0259819
-20.4238 -11.449 -0.0597761
-19.8447 -11.654 -0.148125
-19.8553 -11.5861 -0.429054
-17.5974 -11.9013 0.0960104
-19.9253 -11.4302 -0.778088
-20.1317 -11.3009 -0.865086
-16.8779 -12.1685 0.273571
-20.2799 -11.0755 -1.34011
-20.7139 -10.9437 -1.4213
-19.8542 -11.3623 -1.18339
-17.146 -11.9741 -0.233078
-20.6192 -10.8275 -1.67551
-20.7014 -10.8219 -1.71628
-17.9631 -11.8434 -1.15378
-20.4749 -10.8691 -2.14244
-20.1562 -10.9876 -2.10083
-16.8309 -12.1043 -0.84937
-19.9652 -11.1088 -2.09382
-20.4722 -10.7246 -2.33829
-16.8811 -11.9959 -1.4197
-19.0019 -11.2617 -2.76409
-18.2344 -11.5969 -2.75476
-15.324 -12.827 -2.71201
-15.2102 -12.7476 -2.85826
-19.9505 -11.7272 -0.0918659
-19.6685 -11.6116 -0.48909
-18.9239 -11.515 -0.263845
-20.086 -11.2177 -1.31966
-19.4911 -11.3906 -1.23808
-19.4007 -11.5613 -1.17595
-19.4908 -11.3995 -1.21287
-20.3681 -11.0343 -1.80859
-19.8724 -11.1328 -1.96185
-17.9947 -11.7839 -1.45039
-16.2422 -12.1606 -1.17249
-18.6344 -11.5711 -2.21319
-18.9279 -11.2878 -2.3873
-19.1162 -11.1718 -2.63926
-18.958 -11.2307 -2.70682
-17.2383 -11.3893 -2.22023
-17.2038 -11.3468 -2.30632
-16.0407 -11.9479 -2.06014
-16.1402 -11.8568 -2.03096
-16.0201 -11.6073 -2.63968
-17.4451 -10.3585 1.70485
-19.9576 -11.6958 0.291954
-18.6996 -11.4502 0.31983
-19.7816 -11.6422 -0.087258
-19.1415 -11.1665 0.0535235
-18.1438 -11.657 0.320017
-19.009 -11.3529 -0.267696
-18.9799 -11.5131 -0.330703
-20.5656 -11.0796 -1.12566
-18.2212 -11.8804 -0.583538
-19.9218 -11.3705 -1.27624
-17.3748 -12.0918 -0.43473
-19.3625 -11.4346 -1.27754
-20.2008 -11.036 -1.60655
-17.4984 -11.8528 -0.587152
-18.3403 -11.7329 -0.965683
-16.4452 -12.2418 -1.10286
-19.9951 -10.9613 -2.40941
-18.6683 -11.2135 -2.8647
-18.661 -11.2574 -2.78386
-17.362 -11.4217 -2.22157
-17.0285 -11.4209 -2.21949
-16.9688 -11.5232 -2.25696
-18.7638 -11.6168 1.44536
-17.4956 -11.8166 0.242324
-17.3534 -12.16 -0.184332
-17.2888 -12.0232 -0.35355
-16.8971 -12.0317 -1.45166
-15.8555 -11.601 -2.84151
-17.1273 -10.3953 1.20578
-19.9363 -11.3766 -0.753239
-16.2922 -12.3034 -1.06593
-19.8541 -11.6312 -0.366597
-17.0713 -12.1251 0.331406
-19.9331 -11.3129 -1.29249
-16.53 -12.3728 -0.21063
-18.6935 -11.4399 -2.86184
-19.7213 -11.2587 -1.37153
-17.7587 -11.5924 -1.48945
-16.5917 -11.8232 -1.91137
-16.2752 -11.7554 -2.16933
-16.9957 -12.2575 -0.701807
-15.8553 -12.7444 -1.01954
-16.4747 -12.0701 -1.79687
-20.4173 -11.6315 1.24034
-20.8644 -11.4538 0.671802
-20.268 -11.6138 0.38962
-20.2152 -11.7001 0.523549
-19.9335 -11.8352 0.142293
-19.1077 -11.2452 0.437729
-18.3722 -11.5467 0.523726
-20.5926 -11.3187 0.0336626
-20.4421 -11.4809 0.0319254
-20.7071 -11.4209 -0.0484511
-18.5787 -11.4189 0.284232
-20.3855 -11.5003 -0.0479629
-19.9668 -11.6921 -0.0297673
-20.4661 -11.3945 -0.0303992
-20.733 -11.2279 -0.0656669
-20.3236 -11.4789 -0.18803
-20.7791 -11.1912 -0.308091
-17.5875 -11.9397 0.170061
-19.7727 -11.5676 -0.275041
-18.9647 -11.4732 -0.25535
-19.8489 -11.5357 -0.534008
-18.047 -12.0585 -0.323957
-18.9034 -11.4181 -0.432615
-20.51 -11.1885 -0.771282
-20.271 -11.2864 -0.79386
-17.1812 -12.0498 -0.376643
-20.0584 -11.3152 -0.770177
-17.014 -11.9613 -0.591427
-19.6223 -11.6471 -0.917621
-20.2919 -11.2538 -1.07428
-18.2616 -11.9459 -0.801969
-19.5758 -11.5062 -1.08848
-19.4805 -11.4928 -1.15862
-19.3698 -11.3922 -1.20775
-20.1673 -11.3016 -1.2864
-19.6843 -11.2901 -1.42727
-20.4133 -11.0035 -1.49647
-19.0093 -11.5632 -1.64416
-19.6442 -11.256 -1.63319
-19.7904 -11.3274 -1.60977
-17.6445 -11.5859 -1.41004
-18.7936 -11.6396 -1.87038
-19.1916 -11.4469 -1.91536
-19.575 -11.2763 -1.95653
-19.9397 -11.0975 -2.01032
-18.5394 -11.5532 -2.41411
-18.4687 -11.5972 -2.45383
-19.1511 -11.3272 -2.41059
-20.2753 -10.7257 -2.49961
-20.3423 -10.599 -2.53646
-19.9188 -10.8455 -2.46136
-17.2459 -11.4083 -2.22351
-18.7247 -11.3692 -2.60689
-18.1521 -11.6194 -2.73921
-18.1658 -11.5351 -2.82232
-18.5629 -11.4299 -2.77291
-18.1979 -11.4486 -3.03017
-17.0832 -11.062 -2.70442
-19.9935 -11.6972 1.09316
-20.585 -11.5607 0.71136
-20.5427 -11.6388 0.67057
-20.5136 -11.5288 0.285726
-18.9921 -11.365 0.390309
-16.6123 -12.3308 0.524453
-19.8843 -11.7719 0.126751
-16.6993 -12.3106 0.479152
-19.7054 -11.6335 -0.119425
-19.8395 -11.6906 -0.0893003
-18.625 -11.8123 -0.308326
-18.0587 -12.0002 -0.32511
-20.5953 -11.1112 -0.704569
-20.3696 -11.3227 -0.71834
-17.1246 -12.0056 -0.370003
-19.8588 -11.4045 -0.884785
-18.9549 -11.3453 -0.650021
-20.2656 -11.1491 -1.1398
-20.4017 -11.1897 -1.11851
-16.0672 -12.7449 -0.617587
-19.5152 -11.5314 -1.24395
-19.6413 -11.394 -1.1805
-19.4163 -11.6069 -1.22833
-19.3668 -11.462 -1.27266
-20.0716 -11.2583 -1.37997
-15.9888 -12.7759 -0.883084
-17.4545 -11.775 -1.02789
-19.1575 -11.4879 -1.87327
-19.2298 -11.294 -1.94047
-19.8856 -11.1664 -1.89664
-16.3035 -11.8101 -2.24309
-18.79 -11.3754 -2.72705
-18.6942 -11.2663 -2.88564
-16.2948 -11.4995 -2.7691
-20.4213 -11.5471 0.462178
-20.4549 -11.5434 0.270542
-17.7843 -11.7911 0.550356
-19.8634 -11.7438 -0.104576
-19.8133 -11.6372 -0.0962595
-17.6555 -11.9142 -0.43157
-18.1255 -11.7426 -0.702765
-19.4379 -11.5313 -1.06366
-20.2706 -11.1197 -1.19604
-19.8556 -11.2793 -1.22684
-18.9388 -11.139 -1.13463
-19.7749 -11.2532 -2.00092
-16.4176 -12.0437 -1.89035
-15.4522 -12.2401 -2.12239
-18.5808 -11.4591 -2.61593
-17.6563 -11.4122 -2.46401
-15.8906 -11.6193 -2.85566
-16.1325 -11.5089 -2.78012
-16.2525 -11.4384 -2.66511
-15.8991 -11.6267 -2.78056
-17.4414 -10.4299 2.04265
-18.7907 -11.5507 1.49396
-18.8705 -11.2981 0.630853
-19.9792 -11.8067 0.194295
-19.9016 -11.5395 -0.117271
-19.0551 -11.218 -0.038766
-19.0914 -11.2628 -0.114408
-19.519 -11.4064 -1.43649
-18.658 -11.6109 -1.86646
-19.3109 -11.3873 -1.92754
-19.6962 -11.2338 -2.2504
-18.3971 -11.664 -2.14255
-17.664 -11.3286 -2.39131
-14.8574 -12.9621 -2.79918
-19.9175 -11.8555 1.1143
-18.8306 -11.4854 0.712145
-19.0543 -11.4084 0.0615568
-20.1373 -11.4386 -0.428927
-19.976 -11.2771 -0.932693
-16.1843 -11.8537 -2.04727
-18.758 -11.259 -2.62577
-17.1282 -11.418 -2.45277
-16.124 -11.7405 -2.4031
-18.8692 -11.4562 1.25269
-17.3031 -10.2774 1.09432
-20.4071 -11.3968 -0.107854
-19.5248 -11.793 -0.44026
-15.5762 -11.6839 -2.84083
-17.5919 -11.963 -0.331105
-19.6039 -11.4476 -1.0354
-19.522 -11.4533 -1.15246
-17.1187 -11.3327 -2.5261
-15.9183 -12.6952 -0.9652
-16.6771 -12.0181 -1.30347
-19.3438 -11.1607 -2.44748
-17.1551 -11.4415 -2.21937
-19.8239 -11.5136 -0.416113
-19.4772 -11.4393 -1.32136
-17.1593 -11.533 -2.02271
-18.4807 -11.4196 -2.81718
-18.5198 -11.4977 -2.7126
-19.658 -11.0088 -2.75884
-18.9381 -11.2159 -2.66578
-16.3604 -11.727 -2.59949
-19.1231 -11.3041 -2.51524
-19.3156 -11.2079 -2.29454
-19.7228 -11.0687 -2.39306
-18.9512 -11.3292 -2.30389
-19.3093 -11.2787 -2.25589
-18.7525 -11.4305 -2.2583
-16.5075 -11.8286 -2.1215
-20.5394 -10.803 -2.17305
-16.0009 -11.9224 -2.09148
-19.8269 -11.0697 -2.12321
-19.8449 -11.2395 -2.13745
-19.5727 -11.2413 -2.10197
-20.6135 -10.7432 -1.91454
-19.0068 -11.4662 -1.98613
-20.4794 -10.8258 -1.87447
-20.5243 -10.7866 -1.74801
-19.1287 -11.429 -1.87523
-19.0101 -11.5114 -1.62502
-19.2546 -11.4401 -1.69424
-20.5617 -10.8949 -1.71967
-18.7265 -11.5675 -1.64241
-20.3117 -11.0292 -1.54755
-20.0378 -11.1721 -1.64017
-20.6208 -10.9418 -1.64403
-20.0535 -11.1405 -1.55001
-20.415 -11.0129 -1.61191
-20.2164 -11.1202 -1.52491
-20.4657 -11.069 -1.5379
-19.1713 -11.5008 -1.60836
-20.5658 -11.0171 -1.5257
-20.4166 -11.0095 -1.43001
-20.529 -11.0636 -1.4788
-19.49 -11.4036 -1.51884
-19.81 -11.3386 -1.49291
-19.8583 -11.319 -1.52142
-19.1929 -11.5082 -1.39066
-19.2676 -11.6328 -1.47403
-19.4152 -11.4838 -1.32613
-19.2211 -11.5906 -1.47228
-20.195 -11.1195 -1.4345
-19.32 -11.597 -1.43719
-19.2473 -11.5552 -1.43564
-19.2767 -11.4754 -1.39277
-19.8353 -11.3348 -1.36822
-19.5648 -11.4477 -1.35768
-19.9128 -11.2183 -1.30685
-18.8675 -11.1246 -1.04397
-19.4579 -11.4375 -1.23019
-19.5536 -11.5445 -1.22908
-19.8253 -11.3685 -1.24654
-19.4738 -11.4596 -1.20456
-20.5309 -11.0915 -1.21371
-19.7095 -11.454 -1.15095
-17.5687 -11.8709 -0.952525
-17.2793 -12.0164 -0.931586
-20.3967 -11.1103 -1.08756
-20.1862 -11.3505 -1.03202
-20.0496 -11.2298 -1.04907
-20.6338 -11.1083 -1.04816
-20.2491 -11.2437 -0.921928
-19.9942 -11.4406 -0.869839
-17.6326 -11.846 -0.562043
-19.9359 -11.4122 -0.798866
-16.0568 -12.6111 -0.578365
-20.2637 -11.2662 -0.913249
-20.0565 -11.2983 -0.902868
-18.2031 -11.7457 -0.614928
-20.1927 -11.2416 -0.775615
-20.3732 -11.275 -0.78557
-20.5036 -11.2653 -0.757102
-20.7306 -11.1834 -0.851999
-20.3369 -11.2514 -0.78727
-20.3446 -11.2892 -0.775618
-19.6799 -11.5029 -0.658238
-20.1226 -11.4531 -0.511156
-16.5113 -12.5453 -0.14886
-20.1198 -11.4256 -0.259021
-20.2113 -11.4517 -0.27931
-20.1869 -11.4552 -0.205196
-20.3881 -11.4825 -0.130425
-20.6077 -11.2759 -0.0208572
-20.3964 -11.4315 -0.170821
-20.6234 -11.339 -0.176496
-17.499 -11.9851 0.369158
-17.2435 -12.0561 0.439898
-18.2835 -11.6169 0.355613
-20.3742 -11.5002 0.167839
-20.0087 -11.6601 0.275901
-19.6199 -11.8928 0.39895
-19.7226 -11.7871 0.321791
-20.4495 -11.5233 0.332008
-16.7213 -11.4868 -2.59917
-19.6297 -10.9335 -2.59208
-20.0461 -10.8321 -2.56921
-18.7753 -11.2972 -2.57875
-19.7504 -10.9921 -2.5282
-14.9103 -12.9853 -2.74395
-19.7282 -11.089 -2.39125
-19.7528 -10.981 -2.40034
-19.622 -11.2442 -2.33232
-18.4296 -11.5193 -2.38018
-19.7311 -11.0778 -2.35165
-19.0536 -11.2713 -2.34669
-20.05 -10.8801 -2.36676
-19.0332 -11.4022 -2.26224
-19.0385 -11.3769 -2.22364
-19.6584 -11.1982 -2.19115
-19.5318 -11.2025 -2.13146
-19.4058 -11.1288 -2.2482
-19.8743 -11.0519 -2.11845
-18.7001 -11.5121 -2.18221
-18.9666 -11.4932 -2.06847
-20.2617 -10.9015 -1.99652
-15.618 -12.4324 -1.98251
-19.1335 -11.5296 -1.84481
-19.8149 -11.2323 -1.78475
-19.2914 -11.3419 -1.66112
-20.1404 -11.1321 -1.62707
-18.2326 -11.612 -1.57818
-19.0327 -11.5469 -1.65354
-20.6236 -10.955 -1.57419
-20.5309 -11.0224 -1.49346
-20.6488 -10.9145 -1.45476
-19.6498 -11.4072 -1.4221
-19.6658 -11.3583 -1.44576
-20.1652 -11.1394 -1.45568
-20.1953 -11.1603 -1.44181
-19.9093 -11.2869 -1.28382
-18.1144 -11.6482 -1.01652
-19.5457 -11.4129 -1.30388
-20.0385 -11.2377 -1.16022
-18.0991 -11.7968 -1.00667
-16.4519 -12.2798 -0.832112
-17.5251 -11.8605 -0.798328
-16.5893 -12.253 -0.829481
-17.0237 -11.9629 -0.852306
-17.41 -12.0036 -0.59211
-18.2435 -11.7389 -0.754705
-17.0637 -11.982 -0.494634
-16.965 -11.9782 -0.509511
-16.8925 -11.9742 -0.456837
-20.1137 -11.3545 -0.706435
-20.0843 -11.3648 -0.775986
-20.3442 -11.3217 -0.806438
-20.3293 -11.25 -0.73164
-19.858 -11.4756 -0.663957
-17.6806 -11.9783 -0.365011
-17.3061 -12.0463 -0.283528
-17.5807 -12.0536 -0.335271
-20.0759 -11.3842 -0.482467
-19.4509 -11.7468 -0.548801
-19.7318 -11.5855 -0.26424
-20.6926 -11.1974 -0.280812
-20.2148 -11.6204 -0.337445
-20.6993 -11.2064 -0.328139
-19.7096 -11.7161 -0.253079
-17.641 -11.7576 0.265594
-16.8674 -12.2352 0.41085
-17.4018 -11.8879 0.270712
-18.8068 -11.3001 0.185218
-18.3769 -11.4677 0.165753
-18.661 -11.3839 0.201539
-19.0676 -11.2547 0.275006
-19.9111 -11.7745 0.228695
-20.3127 -11.6064 0.232353
-20.8414 -11.2884 0.171296
-18.8852 -11.3539 0.88338
-17.6453 -10.3992 1.34322
-17.7974 -10.5317 1.33298
-18.1421 -11.4355 -3.02035
-18.7642 -11.3295 -2.593
-17.3428 -11.2908 -2.21627
-18.5573 -11.4956 -2.39663
-20.1172 -11.0267 -2.1442
-19.4516 -11.1604 -2.20081
-19.6213 -11.1619 -2.18719
-18.7431 -11.4588 -2.18561
-18.7786 -11.4435 -2.22366
-19.5707 -11.1853 -2.13967
-19.9388 -11.059 -1.98831
-19.9035 -11.1377 -1.84207
-20.271 -11.0094 -1.60683
-18.8665 -11.7231 -1.58011
-19.2653 -11.5529 -1.50394
-19.2174 -11.5294 -1.3357
-20.2494 -11.1906 -1.2518
-19.7855 -11.4158 -1.21869
-20.5288 -11.1405 -1.21521
-19.4118 -11.5261 -1.19001
-17.0938 -11.9567 -0.910787
-19.7779 -11.4592 -1.09653
-19.7461 -11.4376 -1.16403
-20.2012 -11.1998 -1.16551
-20.1794 -11.3564 -1.06522
-19.8249 -11.3614 -1.07312
-20.1227 -11.2011 -1.02751
-17.8912 -11.891 -0.775622
-16.4903 -12.3068 -0.831667
-20.1776 -11.1783 -0.8686
-19.3657 -11.633 -0.921337
-17.102 -12.1711 -0.563127
-16.3586 -12.447 -0.553489
-17.0322 -11.9977 -0.460425
-17.8957 -12.0403 -0.795055
-17.6017 -12.026 -0.38235
-17.6285 -11.951 -0.315217
-20.0408 -11.587 -0.557999
-19.8622 -11.5168 -0.580145
-19.8973 -11.4645 -0.645324
-17.1232 -12.268 -0.058122
-20.6893 -11.2509 -0.264704
-19.937 -11.6848 -0.331959
-20.4241 -11.378 -0.27964
-19.7737 -11.6708 -0.207279
-19.7118 -11.7557 -0.134505
-19.6832 -11.7616 -0.0210306
-18.8746 -11.2111 0.218424
-20.3917 -11.4642 0.00513112
-16.8985 -12.2089 0.384224
-18.3188 -11.5892 0.378047
-19.9933 -11.5435 0.230837
-20.524 -11.3658 0.158376
-19.7197 -11.7292 0.412369
-20.9159 -11.407 0.305535
-20.6864 -11.5011 0.42111
-20.9189 -11.3496 0.398156
-20.304 -11.6305 0.46068
-20.1949 -11.7422 0.672955
-20.88 -11.4888 0.660535
-17.2493 -10.3285 1.36103
-18.9423 -11.5448 1.14426
-17.8071 -10.4042 1.37683
-20.5384 -11.6577 0.978079
-16.9504 -10.4652 1.52829
-16.9112 -10.4564 1.39554
-17.6991 -10.4553 1.47615
-17.7127 -11.3106 -2.47218
-18.9253 -11.3432 -2.63872
-18.3229 -11.5122 -2.58237
-18.8846 -11.3297 -2.50099
-19.7681 -10.9852 -2.48514
-17.2231 -11.3496 -2.31057
-19.2975 -11.2242 -2.60034
-17.3543 -11.2221 -2.2957
-17.3968 -11.2648 -2.22474
-18.8197 -11.4089 -2.3908
-19.1338 -11.2399 -2.36857
-18.9605 -11.4283 -2.43521
-18.0117 -11.4077 -2.12967
-16.1568 -11.8346 -1.93993
-19.3061 -11.2603 -2.30935
-19.612 -11.2278 -2.13078
-18.9159 -11.4308 -2.1792
-20.1237 -10.9928 -2.11191
-19.1205 -11.3547 -1.91895
-15.8851 -12.5237 -1.5586
-19.6546 -11.3298 -1.63435
-19.1101 -11.5928 -1.64705
-20.3807 -11.0979 -1.528
-20.1309 -11.1454 -1.51479
-19.7376 -11.4213 -1.44056
-19.9815 -11.3194 -1.41307
-15.876 -12.6149 -1.24702
-19.2938 -11.5805 -1.31779
-19.178 -11.5865 -1.36576
-18.8315 -11.1086 -0.992201
-16.495 -12.3637 -0.891171
-19.3555 -11.545 -1.07016
-17.4169 -11.8389 -0.964398
-20.2151 -11.229 -1.03131
-19.5886 -11.476 -1.1748
-19.994 -11.3578 -1.06299
-17.118 -12.1807 -0.622136
-17.4789 -12.0466 -0.650866
-18.4369 -11.7388 -0.730324
-17.1428 -11.812 -0.473493
-17.0058 -11.9317 -0.454681
-17.0975 -12.0247 -0.482388
-19.6518 -11.6151 -0.621605
-17.417 -12.004 -0.315415
-19.6535 -11.6149 -0.575844
-20.6503 -11.1716 -0.520378
-16.376 -12.6363 -0.130549
-16.4248 -12.5763 -0.102856
-17.3688 -11.9871 -0.0399171
-20.6013 -11.221 -0.289128
-17.8529 -11.9209 0.0422164
-19.5907 -11.6667 -0.120799
-20.3718 -11.4384 -0.0692602
-16.6222 -12.2429 0.451297
-18.5538 -11.4173 0.414693
-20.1419 -11.6745 0.200526
-19.7593 -11.7805 0.209497
-20.3494 -11.5348 0.251881
-20.4418 -11.5613 0.32875
-19.7649 -11.9428 0.452285
-20.8986 -11.4048 0.343592
-20.1802 -11.6718 0.557958
-20.0848 -11.7047 0.475101
-17.0535 -10.5124 1.17503
-20.2769 -11.7532 0.749174
-20.8171 -11.5156 0.654507
-19.1329 -11.3808 1.03318
-19.7857 -11.8798 0.784129
-17.0484 -10.5305 1.47107
-17.713 -10.4355 1.39748
-20.0319 -11.7361 0.996988
-20.4864 -11.5872 1.12657
-17.8078 -10.4782 1.43627
-16.8128 -11.5208 -2.51432
-16.2167 -11.7462 -2.43393
-17.2771 -11.3478 -2.42804
-17.3266 -11.2497 -2.35167
-19.5031 -11.0557 -2.5589
-18.3133 -11.5347 -2.69741
-19.2512 -11.3044 -2.40501
-17.4602 -11.4748 -1.8714
-20.2611 -10.9683 -2.08576
-19.8877 -11.105 -2.09091
-16.9668 -11.7557 -1.71102
-20.0574 -10.9827 -1.74262
-17.529 -11.4566 -1.38991
-16.5144 -12.0478 -1.28739
-20.2762 -11.1118 -1.39017
-15.8353 -12.5394 -1.28052
-16.5623 -12.2069 -1.10142
-19.3672 -11.5806 -1.40355
-16.5504 -12.1558 -1.17866
-19.4145 -11.5229 -1.31528
-18.9356 -11.0757 -1.03583
-19.4004 -11.5119 -1.28143
-16.4129 -12.309 -0.950807
-15.9573 -12.665 -0.831555
-16.3647 -12.3251 -0.686965
-19.2335 -11.7054 -0.83392
-17.5606 -11.9363 -0.732259
-17.7082 -11.9405 -0.6802
-19.8978 -11.3219 -0.953883
-17.4454 -11.8887 -0.613306
-17.6737 -11.8745 -0.631562
-19.9665 -11.4527 -0.747005
-20.2075 -11.322 -0.714979
-20.2615 -11.2777 -0.676222
-18.6253 -11.6911 -0.488021
-17.2376 -12.0426 -0.337909
-18.0588 -12.0907 -0.374347
-18.9127 -11.4584 -0.391089
-18.0993 -12.0112 -0.43697
-19.7479 -11.5412 -0.354036
-20.6993 -11.2792 -0.388437
-19.7493 -11.6017 -0.302393
-20.8175 -11.2676 -0.0452011
-17.2623 -12.0254 0.474488
-18.4348 -11.625 0.407906
-20.8256 -11.3325 0.0875887
-20.9702 -11.3707 0.306643
-20.9428 -11.3219 0.467238
-20.065 -11.7573 0.548275
-20.5363 -11.637 0.707242
-20.8886 -11.4425 0.606909
-20.3221 -11.6805 0.676147
-20.7718 -11.5866 0.64981
-19.92 -11.8908 0.838327
-16.7388 -10.5568 1.46618
-17.7575 -10.3661 1.54751
-16.5299 -11.6012 -2.53057
-18.0956 -11.6107 -2.74046
-18.9064 -11.362 -2.58737
-19.0368 -11.2903 -2.49688
-17.1305 -11.3585 -2.11434
-16.0548 -11.7862 -2.11787
-18.8359 -11.5419 -2.10302
-20.1102 -11.0157 -1.67754
-17.5588 -11.5111 -1.44488
-18.1615 -11.8716 -1.002
-15.9671 -12.7879 -0.917048
-17.4901 -11.8967 -0.804531
-19.0459 -11.242 -0.73924
-17.262 -12.1462 -0.51695
-18.0652 -11.9827 -0.416265
-20.1155 -11.413 -0.491335
-17.6669 -12.0085 -0.208911
-19.7998 -11.6251 -0.16793
-20.1665 -11.4455 -0.140812
-19.7521 -11.8357 0.0243402
-19.6109 -11.7209 0.120128
-18.0041 -11.6695 0.312834
-20.8219 -11.2957 -0.0429694
-18.7397 -11.5724 0.728511
-20.8834 -11.3418 0.534534
-17.4323 -10.4019 1.64756
-17.6117 -11.2595 -2.45826
-18.2239 -11.5927 -2.66197
-18.8743 -11.5705 -2.17579
-20.2533 -11.0899 -1.51773
-19.3619 -11.4863 -1.33492
-16.3848 -12.2951 -0.988211
-19.4911 -11.5013 -1.22242
-20.127 -11.4367 -0.734251
-17.6046 -11.8931 -0.433341
-17.2611 -12.0172 -0.233484
-19.8861 -11.7898 -0.283167
-17.4939 -11.8803 0.192036
-19.8334 -11.6872 -0.175173
-20.7113 -11.2092 -0.16783
-19.8429 -11.7742 0.0214644
-20.2152 -11.5212 0.0365076
-20.2587 -11.6027 0.264658
-19.1276 -11.1907 0.641599
-20.7282 -11.6495 0.780682
-19.8956 -11.8727 0.910232
-17.4272 -11.557 -2.07697
-20.1316 -11.2248 -1.58028
-17.2816 -12.0391 -0.879767
-19.7051 -11.5599 -0.982617
-18.538 -11.7524 -0.402947
-20.5826 -11.3051 -0.208028
-17.9628 -10.5259 1.83025
-16.8632 -11.6913 -2.128
-17.1159 -12.0186 -0.899262
-17.5658 -11.8945 -0.750411
-17.2269 -12.0258 -0.379864
-17.2478 -12.1135 -0.440081
-19.0014 -11.5483 -0.351362
-19.5943 -11.6937 -0.167656
-17.9176 -11.6465 -1.4379
-16.9741 -11.4644 -2.15265
-19.5232 -11.6213 -0.957879
-19.1526 -11.1109 0.601849
-20.1034 -11.6887 0.275368
-17.4355 -11.715 -1.38096
-15.5576 -12.5796 -1.42206
-19.0888 -11.0791 0.234844
-19.2052 -11.2543 0.998651
-17.3574 -10.3816 1.53299
-17.58 -12.0176 -0.232489
-17.5438 -10.3278 1.70288
-19.021 -11.3522 0.538983
-20.5065 -10.9296 -1.63586
-20.0542 -10.9318 -2.19614
-20.3457 -11.0778 -1.71223
-20.2489 -10.9837 -1.60263
-19.714 -11.2493 -2.06057
-20.2218 -11.0766 -1.62056
-19.6417 -11.2873 -1.8404
-19.1164 -11.4503 -2.27816
-20.9285 -11.2632 -0.150514
-18.9675 -11.3468 -2.55078
-20.4835 -11.1819 -0.679751
-20.0598 -11.3232 -0.993318
-20.3318 -11.2911 -0.693199
-18.8959 -11.356 -2.41976
-20.739 -11.2682 -0.282392
-18.2813 -11.485 -2.90128
-20.4017 -11.2964 -0.627884
-19.8899 -11.2816 -1.12787
-19.5745 -11.4169 -1.5066
-19.7773 -11.4781 -1.19136
-21.029 -11.2798 0.260483
-20.1216 -11.3322 -0.803244
-20.0803 -11.4418 -0.875167
-18.359 -11.5259 -2.47717
-18.9063 -11.5999 -1.99492
-21.0499 -11.2229 0.479612
-19.3597 -11.504 -1.24174
-19.2274 -11.513 -1.40532
-19.2807 -11.5918 -1.31642
-20.4542 -11.5116 0.210252
-20.2418 -11.6385 0.61116
-18.3073 -11.6908 -0.664321
-16.9158 -11.9551 -1.94094
-17.4385 -11.9154 -0.849811
-17.1929 -12.0384 -1.04657
-17.7515 -11.937 -0.366903
-17.0201 -11.8188 -0.894718
-18.2134 -11.6509 0.375684
-17.9054 -11.841 -0.0428132
-18.0177 -11.5708 0.21799
-17.0179 -12.2052 -0.601205
-17.0692 -11.9486 -0.551456
-17.3036 -12.0455 -0.337205
-17.0128 -11.9574 -0.358565
-17.3707 -12.0144 0.00435321
-16.4532 -12.3163 -0.669544
-16.028 -12.6734 -0.646726
-16.8512 -12.1714 0.434888
-16.8643 -12.1114 0.340457
-20.5706 -10.8195 -1.84387
-20.2869 -10.9215 -2.24914
-20.811 -10.8803 -1.53161
-20.0217 -10.898 -2.329
-19.7786 -11.0844 -2.51724
-20.1821 -11.1975 -1.62389
-20.0999 -11.0311 -1.62659
-20.2759 -11.1111 -1.43907
-19.7697 -11.1249 -1.75343
-19.2361 -11.2337 -2.40178
-19.0956 -11.3056 -2.49059
-20.6859 -11.208 -0.346981
-20.0525 -11.3478 -1.07739
-20.8867 -11.1345 -0.0240546
-19.066 -11.2871 -2.21711
-20.8456 -11.2402 -0.15167
-20.7748 -11.2076 -0.250325
-20.684 -11.277 -0.334969
-20.4143 -11.2846 -0.425152
-19.1049 -11.5264 -1.81546
-20.8959 -11.2982 0.219301
-19.7989 -11.4228 -0.970151
-19.7078 -11.4065 -0.888383
-20.4306 -11.4251 -0.143394
-19.1581 -11.5048 -1.33911
-20.3326 -11.3693 -0.226919
-20.1774 -11.4678 -0.288108
-20.382 -11.5919 0.519431
-17.3744 -11.3108 -2.16455
-19.7453 -11.6573 -0.00553119
-19.9527 -11.793 0.245358
-18.66 -11.5397 -0.708952
-18.2062 -11.798 -1.10402
-19.7374 -11.8711 0.385199
-18.1949 -11.7908 -1.013
-19.0813 -11.2361 0.255866
-18.0034 -11.8384 -1.16514
-17.2613 -11.7067 -1.45783
-18.8372 -11.3399 0.141552
-18.1601 -11.7556 -0.726978
-18.278 -11.9024 -0.357598
-17.5784 -11.8052 -0.927026
-17.47 -11.9251 -0.873941
-18.4627 -11.459 0.245726
-17.2124 -11.8772 -0.906229
-19.3071 -11.3438 1.42894
-17.6166 -12.0627 -0.274446
-17.1032 -12.2091 -0.576578
-17.0968 -12.0142 -0.427616
-17.1451 -11.9966 -0.333104
-17.5726 -11.7704 0.325534
-16.4661 -12.3995 -0.727028
-17.4271 -11.9612 0.354639
-17.3835 -11.831 0.368394
-17.4253 -12.0003 0.263654
-16.0531 -12.7111 -0.83217
-16.0259 -12.7113 -0.698402
-15.9949 -12.76 -0.664946
-16.0202 -12.5959 -0.616694
-17.7401 -10.4633 1.36224
-16.6272 -12.1553 0.492373
-16.9324 -10.5577 1.55347
-20.7143 -10.8163 -1.77881
-20.5465 -11.0591 -1.39413
-20.3416 -11.0007 -1.56742
-20.3914 -11.1735 -1.3584
-19.7687 -11.1813 -2.00923
-19.8899 -11.1771 -1.92838
-19.6089 -11.2296 -2.03889
-19.1776 -11.2367 -2.39881
-19.2836 -11.3272 -2.22232
-18.9522 -11.3482 -2.41778
-19.917 -11.2581 -1.23574
-20.0712 -11.2851 -1.07902
-19.0899 -11.399 -2.14406
-20.6076 -11.3156 -0.461319
-20.1064 -11.2426 -0.926716
-20.633 -11.2026 -0.278606
-21.0989 -11.1982 0.33112
-19.8502 -11.3949 -0.857997
-20.0849 -11.4025 -0.562053
-20.8674 -11.3367 0.347571
-18.4344 -11.5877 -2.52266
-20.1267 -11.4884 -0.51535
-19.9551 -11.5807 -0.549158
-19.1646 -11.6012 -1.42646
-19.9483 -11.4763 -0.581596
-19.4269 -11.5575 -1.18145
-20.5059 -11.5019 -0.122122
-19.808 -11.5748 -0.286355
-19.8509 -11.7546 0.0453917
-17.2452 -11.3031 -2.11705
-19.0801 -11.3868 -0.0612995
-18.3566 -11.7367 -0.802306
-18.6499 -11.7814 -0.327111
-18.5893 -11.7803 -0.340627
-16.1019 -11.4591 -2.6842
-17.0511 -11.8515 -1.53144
-18.346 -12.0315 -0.244996
-17.5915 -11.7548 -1.03909
-17.6669 -11.8896 -0.840851
-18.5493 -11.52 0.295894
-17.7176 -11.9033 -0.427553
-17.0918 -12.0403 -0.859166
-18.9349 -11.5224 1.06797
-17.8511 -11.9237 -0.062403
-17.8901 -11.8185 0.0151448
-17.0268 -12.1871 -0.688636
-16.975 -12.162 -0.728985
-17.1864 -11.9582 -0.344528
-17.0761 -11.9651 -0.264539
-17.4941 -11.9868 0.0478429
-16.1239 -12.6689 -0.717727
-16.9691 -12.0806 0.453461
-16.647 -10.674 1.34964
-19.9685 -10.9442 -2.07151
-19.5909 -11.0366 -2.10422
-20.6488 -11.1918 -0.651707
-20.0076 -11.2431 -1.27293
-19.0045 -11.3496 -2.43078
-20.8167 -11.4009 0.106283
-19.7285 -11.488 -1.10872
-20.6213 -11.3773 -0.0854818
-20.9912 -11.2364 0.366686
-19.0863 -11.5627 -1.44732
-19.4697 -11.5267 -1.23746
-19.2912 -11.5829 -1.20505
-19.2533 -11.512 -1.28888
-18.7924 -11.709 -1.6892
-19.6708 -11.6952 -0.511974
-18.9241 -11.1053 -1.02087
-19.7189 -11.647 -0.23418
-19.7942 -11.6476 -0.26915
-19.7915 -11.6159 -0.157802
-20.6503 -11.6047 0.636998
-17.4157 -11.3151 -2.16424
-20.1789 -11.7426 0.432858
-17.0772 -11.3396 -2.33624
-17.2717 -11.4934 -2.08604
-19.1149 -11.3203 -0.151628
-18.6277 -11.6232 -0.741197
-19.8198 -11.8957 0.319187
-19.2271 -11.3892 -0.0933564
-19.738 -11.8651 0.359434
-20.2547 -11.8148 1.01411
-18.2333 -11.7579 -0.745418
-18.2949 -11.7762 -0.712348
-17.8359 -11.8451 -1.12541
-19.8976 -11.8919 0.802674
-20.0347 -11.7481 0.99305
-18.9066 -11.3781 0.301569
-17.6823 -11.7393 -0.949903
-18.0088 -11.9399 -0.688335
-17.5393 -11.9122 -0.339054
-14.8799 -12.8944 -3.0343
-17.3453 -12.1193 -0.241184
-17.1365 -12.0064 -0.412259
-17.0172 -11.885 -0.559021
-17.0505 -11.9456 -0.443871
-17.5399 -12.0405 0.00320548
-17.4492 -11.9776 0.0298528
-17.118 -12.1847 -0.064364
-16.4791 -12.2606 -0.848663
-16.4715 -12.2326 -0.466263
-16.4791 -12.3993 -0.446522
-16.3673 -12.3813 -0.534184
-16.0054 -12.7946 -0.533798
-16.4714 -12.5037 -0.0847395
-20.0553 -11.0737 -2.26665
-19.7831 -11.1034 -1.83263
-19.147 -11.4229 -2.16711
-18.874 -11.3503 -2.52156
-19.0702 -11.3496 -2.20749
-19.7198 -11.404 -1.14901
-18.1182 -11.6284 -2.74784
-19.4729 -11.4427 -1.25233
-19.2668 -11.5125 -1.39572
-19.2623 -11.5928 -1.31375
-19.3464 -11.7069 -0.919596
-20.3898 -11.5727 0.244133
-20.3941 -11.6854 0.707503
-17.4674 -11.4188 -2.0739
-17.1429 -11.4152 -2.22473
-17.1429 -11.4206 -2.24041
-17.0679 -11.4659 -2.13214
-18.1582 -11.7972 -1.12859
-19.2051 -11.0913 0.550054
-18.0947 -11.8749 -0.853418
-19.2483 -11.2377 0.543163
-16.923 -11.8467 -1.82469
-17.2249 -11.8471 -1.44994
-19.1498 -11.3517 1.0268
-19.2459 -11.3408 1.05041
-17.5137 -11.965 -0.756098
-17.552 -11.8972 -0.52696
-17.4455 -11.8928 -0.559502
-17.6829 -11.9886 -0.296109
-17.8346 -12.0289 -0.221248
-17.8652 -11.9767 -0.0745611
-16.5468 -12.1816 -1.06569
-17.4855 -12.0417 0.155209
-16.4649 -12.3811 -0.641015
-16.2558 -12.3405 -0.821781
-16.5405 -12.4039 -0.538368
-20.2878 -10.9994 -1.98118
-19.016 -11.3732 -2.26642
-20.4748 -11.3335 -0.550121
-20.1462 -11.3087 -0.786026
-20.7224 -11.3977 0.313554
-20.849 -11.4829 0.521193
-17.8478 -11.2938 -2.29097
-17.7221 -11.4214 -2.35972
-19.8519 -11.6077 -0.410839
-20.1669 -11.8104 0.669305
-18.2287 -11.7932 -0.955514
-16.5194 -11.5717 -2.51047
-18.7708 -11.3718 0.179733
-16.6967 -11.8938 -1.44264
-19.5249 -11.2076 1.34487
-17.4065 -12.0491 -0.60768
-15.4967 -12.3076 -2.21497
-16.6012 -12.3256 -0.576955
-16.3957 -12.4356 -0.560517
-16.912 -12.1398 0.406674
-17.4987 -10.3034 1.70396
-19.7524 -10.9434 -2.52082
-19.0493 -11.1501 -2.83252
-18.5757 -11.4518 -2.74705
-19.6566 -11.3406 -1.45388
-19.2925 -11.5537 -1.26131
-20.393 -11.4521 -0.0401478
-19.185 -11.5571 -1.4244
-20.1963 -11.5302 0.189386
-19.7391 -11.7555 -0.114945
-17.8128 -11.776 -1.49743
-18.1464 -11.8073 -1.14349
-17.7337 -11.8632 -1.47818
-17.5556 -11.861 -0.884879
-18.5463 -11.4219 0.430604
-19.077 -11.4464 0.972902
-16.7353 -11.8378 -1.49682
-17.5553 -11.9705 0.266722
-20.2942 -10.9102 -1.98475
-18.7243 -11.4016 -2.75258
-19.9255 -11.6334 -0.0434489
-18.5211 -11.7041 -0.573791
-19.1711 -11.4286 0.978826
-18.7383 -11.5339 1.438
-16.5797 -12.2687 -0.645069
-15.8971 -12.8016 -0.884611
-17.05 -11.9335 0.275919
-16.5894 -10.7153 1.67706
-18.7192 -11.3875 -2.96965
-19.1287 -11.5264 -1.56782
-18.264 -11.9287 -0.597844
-19.249 -11.3058 0.78939
-17.1336 -11.9626 -1.01906
-17.1262 -11.9992 -0.787348
-17.0658 -10.5681 1.55393
-17.4909 -11.4355 -2.40119
-16.8624 -11.7918 -1.90772
-18.0964 -11.9893 -0.0253008
-17.237 -12.1276 -0.262609
-17.6394 -11.7678 -1.5815
-19.1017 -11.2642 0.623721
-17.611 -11.7456 -1.55821
-17.354 -11.7134 -1.4489
-15.9479 -12.1296 -2.13939
-20.5282 -10.9123 -1.67284
-20.5064 -10.9132 -1.77465
-20.5057 -10.9545 -1.51187
-20.4176 -10.9882 -1.78232
-20.1848 -11.0501 -1.52688
-20.0693 -11.4298 -0.4467
-20.0589 -11.2329 -1.11014
-20.1127 -11.0836 -1.69684
-20.0377 -11.8835 1.10934
-20.0009 -11.6736 0.352996
-19.8744 -10.9886 -2.25602
-19.9482 -10.9676 -2.46573
-19.7942 -11.0609 -2.09724
-19.6151 -11.841 -0.05584
-19.5793 -11.1139 -2.57326
-19.5207 -11.3865 -1.47346
-19.3883 -11.493 -1.17498
-19.2741 -11.2267 -2.59573
-19.3069 -11.172 -2.71522
-19.2325 -11.2016 -2.60948
-19.2209 -11.5729 -1.41214
-19.2862 -11.2685 -2.27628
-19.0925 -11.4774 -1.85817
-19.0071 -11.3713 -2.29536
-18.8375 -11.6857 -1.64156
-18.7768 -11.3654 -2.81037
-18.278 -11.4702 -2.60578
-18.17 -11.674 -0.67962
-18.042 -11.5997 -3.03845
-17.6942 -11.9123 -0.740982
-17.5079 -11.8214 -0.930405
-17.4913 -12.13 -0.00654014
-17.4782 -11.8597 -0.952481
-17.209 -12.0681 -1.01711
-17.0683 -12.2548 -0.712683
-20.9627 -11.1548 0.286672
-20.8884 -11.3696 0.24449
-20.7971 -11.2144 -0.172269
-20.7621 -10.9189 -1.59576
-20.5975 -11.3238 -0.332828
-20.596 -10.9135 -1.55648
-20.6296 -10.8317 -1.77744
-20.57 -10.9747 -1.6308
-20.3909 -11.137 -1.33773
-20.3464 -11.5589 0.406958
-20.5081 -11.4433 -0.205204
-20.1777 -11.2205 -1.07239
-20.1723 -11.2957 -0.999888
-20.1866 -10.7999 -2.54882
-19.9621 -11.7983 1.08726
-20.0023 -11.4902 -0.662587
-19.8386 -11.7139 0.0301467
-19.879 -11.1507 -1.92741
-19.6538 -11.9178 0.365594
-19.859 -11.4667 -1.2017
-19.7936 -11.1936 -1.98764
-19.5912 -11.8697 -0.00222923
-19.6803 -11.5552 -0.756044
-19.4566 -11.4807 -1.28098
-19.3562 -11.4588 -1.44927
-19.1362 -11.2302 0.220772
-19.4198 -11.1344 -2.49625
-19.202 -11.1377 -2.33465
-18.9167 -11.3923 0.971959
-19.0722 -11.3595 -0.338583
-19.1037 -11.484 -0.376718
-18.8042 -11.3037 0.160259
-19.0726 -11.6194 -1.64968
-19.1385 -11.6579 -1.69792
-19.0168 -11.555 -1.6386
-18.9057 -11.3998 -2.24553
-18.9279 -11.4153 -2.30408
-18.9239 -11.1728 -2.93657
-18.5477 -11.4405 -2.87699
-18.3804 -11.8063 -0.288883
-18.2786 -11.649 -0.696919
-18.2675 -11.8195 -0.806078
-18.1267 -11.8271 -0.638686
-18.1332 -11.6572 0.400096
-18.1592 -11.6907 -1.13412
-17.7366 -10.41 1.41413
-17.8953 -11.9489 -0.854491
-17.7478 -10.4143 1.39309
-17.6793 -11.8321 0.32612
-17.6982 -12.1308 -0.30009
-17.5635 -11.9242 -0.423406
-17.5799 -11.8182 -1.02775
-17.4622 -11.9614 0.279899
-17.2825 -11.9192 0.526261
-17.2549 -11.6447 -1.57507
-17.1169 -11.9602 -0.35441
-17.1438 -11.9946 -0.8936
-17.052 -12.1689 -0.632295
-17.0289 -12.0966 -0.613926
-17.0684 -11.9181 -0.40955
-16.0287 -11.973 -2.06916
-20.9489 -11.3505 0.425226
-20.6341 -11.2778 -0.337271
-20.5563 -11.4668 0.484901
-20.4736 -11.519 0.435709
-20.6033 -11.6318 1.07422
-20.5436 -11.4045 -0.0662884
-20.388 -11.4185 -0.159245
-20.3229 -11.664 1.06087
-20.4276 -10.764 -2.38756
-20.3306 -11.3397 -0.542003
-20.3815 -10.898 -2.02071
-20.316 -10.8375 -2.16486
-20.2056 -11.3251 -0.965678
-20.0726 -11.602 0.174349
-20.1157 -11.491 -0.290951
-20.1439 -11.0587 -1.69499
-19.9271 -11.715 0.0337257
-19.9172 -11.4198 -0.776609
-19.8052 -11.133 -1.67427
-19.8473 -11.0709 -2.04419
-19.8744 -11.1654 -2.0358
-19.7672 -11.052 -2.38136
-19.7356 -11.7503 -0.242121
-19.5945 -10.9514 -2.36627
-19.6441 -11.4532 -1.10113
-19.6099 -11.1433 -2.21112
-19.3739 -11.4415 -1.18856
-19.1726 -11.4131 -0.110111
-19.2037 -11.4799 -1.42639
-18.6546 -11.3689 0.26093
-18.6683 -11.3914 0.339225
-18.5515 -11.8185 -0.303679
-18.6775 -11.7599 -1.58212
-18.2066 -11.589 0.305428
-18.1594 -11.6065 0.206127
-18.2653 -11.5976 -2.77439
-18.0498 -11.9409 -0.443336
-17.7238 -10.4238 1.31986
-17.9389 -11.7819 0.494175
-17.5734 -12.016 -0.416949
-17.5315 -11.8545 -0.826439
-17.2896 -12.1045 0.46006
-17.0991 -11.8075 -1.54779
-17.0611 -11.9917 -0.323849
-17.0145 -12.0228 -0.525245
-16.9643 -11.7988 -1.77336
-16.553 -12.0314 -1.54257
-16.5086 -12.3652 -0.723103
-16.3538 -12.2627 -1.0754
-16.2462 -11.7473 -2.12627
-15.9139 -12.7194 -0.707092
-15.8701 -12.4736 -1.78074
-20.8221 -11.3768 0.0549472
-20.6928 -11.4542 0.216357
-20.3604 -11.5596 0.464838
-20.1413 -10.8511 -2.12906
-20.1117 -11.4241 -0.38993
-19.9199 -11.4157 -1.2866
-19.9025 -11.2533 -1.24397
-19.7676 -11.0427 -2.23773
-19.8411 -11.7507 -0.0981407
-19.6228 -10.9858 -2.4345
-19.6697 -11.1698 -2.0365
-19.5469 -11.3284 -1.70407
-19.6629 -11.2921 -1.99801
-19.5226 -11.2237 -2.03223
-19.459 -11.2097 -1.92487
-19.3439 -11.6147 -1.08956
-19.1583 -11.1756 0.147902
-19.3064 -11.5309 -1.36361
-19.2259 -11.5162 -1.74238
-19.0233 -11.3619 -0.210179
-19.077 -11.2013 -2.85597
-18.7686 -11.1152 -0.933435
-18.962 -11.465 -2.2211
-18.5835 -11.7097 -1.56019
-17.7677 -10.4975 1.43217
-17.527 -11.9998 -0.423436
-16.5877 -12.2641 -1.09731
-16.503 -12.5827 -0.056285
-16.4865 -12.3252 -0.874504
-16.491 -11.7232 -2.53738
-16.0157 -12.7218 -0.765626
-14.8695 -12.9106 -2.9642
-20.9166 -11.3361 0.396294
-20.4723 -11.6662 0.626651
-20.3678 -11.6034 0.263335
-20.3579 -11.5561 0.199129
-20.1288 -11.0366 -1.73075
-20.0717 -11.4017 -0.358299
-19.9985 -11.7548 0.69414
-19.9436 -11.6604 0.433779
-20.0205 -10.8534 -2.31871
-20.0523 -10.8738 -2.49599
-19.7674 -11.7774 -0.223307
-19.5349 -11.54 -1.18005
-19.0388 -11.2817 0.751964
-19.0773 -11.3718 1.1652
-19.3975 -11.5393 -1.38873
-19.3197 -11.583 -1.22386
-19.3119 -11.4774 -1.27008
-19.1495 -11.516 -1.41983
-18.8622 -11.5128 1.58274
-19.1268 -11.4929 -1.66263
-19.0661 -11.152 -2.6599
-18.9104 -11.344 -2.42219
-18.9335 -11.3417 -2.50527
-18.3865 -11.592 0.42017
-18.3244 -11.7573 -0.76221
-18.1178 -11.6575 0.342965
-18.1968 -11.7334 -1.05114
-18.2347 -11.5461 -2.7421
-17.6412 -11.7865 -0.839129
-17.3965 -10.2995 1.75381
-17.4598 -10.4202 1.84947
-17.3023 -11.898 -1.08217
-17.2177 -12.0759 0.299094
-17.4038 -11.4489 -2.05113
-17.3222 -11.3672 -2.14904
-17.1249 -11.8695 -0.348472
-17.1373 -11.9949 -0.237401
-17.0591 -11.926 -0.500901
-16.5939 -12.2922 0.546006
-16.5367 -12.5519 -0.196515
-16.4614 -12.5589 -0.043301
-16.3833 -12.4012 -0.477622
-15.9982 -12.7707 -0.908505
-20.7831 -11.3407 0.190332
-20.4707 -11.6036 0.0401589
-20.1078 -11.2897 -0.965044
-19.9734 -11.718 0.549083
-19.8382 -11.3919 -0.757312
-19.8498 -11.6071 -0.119094
-19.2886 -11.4189 -2.0146
-18.9727 -11.4589 1.55664
-18.8442 -11.3164 0.260018
-19.0139 -11.2123 -2.83568
-18.5026 -11.7875 -0.60903
-18.0297 -11.9311 0.125082
-17.6826 -10.4003 1.29316
-17.5732 -11.8289 0.28257
-17.6392 -11.9811 -0.397373
-17.6291 -11.9549 0.197264
-17.5348 -12.0742 -0.35755
-17.4313 -11.8517 -1.1182
-17.3804 -12.0898 -0.233317
-17.4413 -12.088 -0.192605
-17.2636 -12.0697 0.547266
-16.4781 -12.1451 -0.780896
-16.4175 -12.3224 -0.754125
-16.4262 -11.6868 -2.51622
-20.2078 -11.369 -0.730633
-20.1938 -11.0426 -1.95068
-20.0381 -11.553 -0.317999
-19.3586 -11.5422 -1.24572
-19.0161 -11.3144 -2.67638
-18.6504 -11.8618 -0.387843
-17.9969 -11.1574 -2.2599
-17.6754 -11.8772 -0.636952
-17.2473 -11.3849 -2.1413
-16.9438 -10.4885 1.37612
-16.5587 -11.9977 -1.84794
-19.1496 -11.3461 0.0182842
-19.0833 -11.1495 0.10314
-18.9901 -11.1543 0.119117
-18.6433 -11.2419 -2.84117
-18.0471 -11.4445 -1.75836
-17.4891 -11.7132 -1.40261
-20.2019 -11.0788 -1.60198
-18.9872 -11.5488 -1.53718
-16.5953 -12.1165 -1.81402
-20.065 -11.751 0.275003
-19.1909 -11.196 -0.0167324
-17.6785 -11.2306 -2.3558
-17.6888 -11.4067 -2.34253
-17.0761 -11.9983 -0.778964
-19.087 -11.2641 0.435389
-18.0318 -11.7007 -1.43966
-17.8698 -11.9902 -0.243814
-17.2744 -11.3066 -2.16312
-17.5106 -11.3907 -2.51054
-16.4558 -12.0046 -1.51434
-15.3921 -12.5207 -1.73208
-17.0173 -11.573 -1.87628
-17.3719 -10.4748 1.59779
-21.0007 -11.1818 0.380897
-20.9451 -11.3123 0.254273
-20.4379 -11.5471 0.521975
-20.9473 -11.1879 -0.144416
-20.335 -11.5161 0.34262
