-19.3132 -11.8371 1.13917
-19.966 -11.4159 1.13776
-17.5566 -11.7898 0.640761
-17.2065 -12.1972 0.397677
-19.6716 -11.4971 0.879523
-19.7537 -11.3757 0.7951
-19.0901 -11.6856 0.384044
-16.8982 -12.494 -0.156219
-19.1126 -11.5232 0.14424
-16.1494 -12.7344 -0.408831
-16.2276 -12.6826 -0.418695
-16.379 -12.29 -0.288469
-17.5012 -12.237 -0.344406
-19.2714 -11.5346 0.0539635
-16.5085 -12.5557 -0.759249
-16.0948 -12.4336 -1.28205
-19.1746 -11.2291 -1.03576
-15.6204 -12.9789 -1.83583
-18.5162 -11.5612 -1.54813
-18.3649 -11.457 -1.49546
-18.6679 -11.2877 -1.70277
-16.9518 -11.622 -1.86598
-17.1357 -11.4847 -1.77346
-17.116 -11.288 -1.93326
-20.0598 -10.3095 -1.84804
-19.388 -10.5083 -2.1376
-18.7763 -11.195 -2.42021
-15.4841 -12.4566 -2.67989
-19.8725 -10.2185 -2.41997
-19.55 -10.5496 -2.57648
-18.6866 -10.935 -2.76593
-15.6341 -12.7923 -3.32888
-17.3413 -10.973 -2.5549
-15.7778 -12.7119 -3.36339
-16.3269 -11.5105 -2.80018
-16.0499 -11.6148 -2.80275
-16.636 -11.3908 -2.88423
-15.5552 -12.8062 -3.66363
-15.5081 -12.6505 -3.67123
-15.3323 -12.9 -3.86105
-14.9928 -11.3416 2.01403
-15.6608 -11.2927 1.7257
-19.8974 -11.6438 1.95992
-19.3082 -11.6521 1.02986
-17.7791 -11.7155 0.676414
-19.7903 -11.3403 1.00396
-19.0906 -11.6183 0.352382
-18.202 -11.7062 0.34765
-16.102 -12.6502 -0.393473
-19.1297 -11.6104 -0.0907685
-15.6922 -13.0849 -0.983543
-19.4593 -11.2788 -0.298756
-16.1964 -12.4462 -1.21282
-15.9574 -12.5662 -1.3925
-17.0196 -11.6004 -1.79925
-18.9452 -11.0049 -1.95758
-19.2998 -10.9226 -1.83593
-18.9694 -11.0145 -2.11002
-18.5697 -11.2483 -2.15168
-17.3532 -11.3662 -2.03282
-20.0857 -10.2784 -2.40522
-17.2226 -11.0838 -2.43714
-15.6102 -12.7849 -3.33186
-15.9348 -11.8714 -2.87588
-15.5609 -12.7492 -3.71284
-15.6673 -12.6136 -3.90392
-16.5543 -12.3942 0.252587
-17.65 -12.0894 -0.126969
-19.7362 -11.1621 -0.345598
-16.6168 -12.2268 -1.29158
-17.1912 -11.5161 -2.09186
-15.9993 -11.9664 -2.67494
-15.1226 -13.1185 -3.5659
-15.8513 -11.6469 -3.06487
-15.7367 -11.7034 -3.09856
-15.4509 -11.293 1.53601
-19.7508 -11.6955 1.82178
-20.0433 -11.4786 1.57663
-18.1929 -11.599 0.428678
-16.0051 -12.9284 -0.358985
-19.274 -11.5772 0.235664
-18.1825 -11.5305 -0.100705
-16.3955 -12.2214 -0.783929
-19.3185 -11.1954 -0.486352
-16.0657 -12.3647 -1.54236
-16.0009 -12.7754 -1.80836
-19.379 -10.8281 -1.93866
-17.4809 -10.9425 -2.50026
-16.0534 -11.6142 -2.94079
-16.4995 -12.4142 -0.253
-16.1749 -12.5569 -0.471887
-17.6816 -11.7418 -1.16763
-16.5531 -12.2478 -1.36651
-17.096 -11.9986 -1.28187
-17.7298 -11.7436 0.658278
-16.5111 -12.3964 -0.373257
-17.3924 -11.95 0.640419
-16.1315 -12.8948 -0.563417
-16.0853 -11.964 -2.3762
-16.7749 -12.684 -0.788153
-16.6091 -12.3017 -1.54021
-16.5349 -12.1677 -1.6182
-16.6314 -11.4279 -2.92252
-15.6947 -12.7435 -3.66686
-15.3417 -12.8658 -3.57634
-15.712 -12.7649 -3.38716
-15.6693 -12.7877 -3.38021
-18.784 -10.8907 -2.59622
-18.6579 -11.0638 -2.59753
-19.4163 -10.5724 -2.23539
-15.6596 -12.8079 -3.29094
-18.2958 -11.2349 -2.50708
-18.2754 -11.3459 -2.64038
-19.796 -10.3909 -2.12744
-19.1485 -10.7173 -2.3297
-18.1594 -11.4549 -2.53978
-18.1081 -11.4027 -2.5423
-19.3488 -10.6456 -2.19303
-20.4225 -10.0955 -1.91644
-18.5028 -11.1038 -2.36526
-20.1959 -10.1108 -1.90161
-18.7152 -11.0296 -2.25824
-18.4891 -11.2457 -2.38138
-20.3567 -10.1009 -1.89602
-20.1725 -10.2817 -1.87782
-20.1341 -10.2747 -1.80768
-20.0555 -10.3138 -1.84146
-20.0191 -10.3861 -1.9063
-19.4025 -10.7128 -1.9101
-19.3809 -10.7032 -1.96271
-18.5192 -11.2772 -2.21011
-18.5044 -11.2365 -2.10189
-18.6459 -11.2587 -2.11099
-19.4028 -10.8596 -1.93311
-19.1437 -10.9916 -1.91856
-19.3716 -10.8237 -1.8967
-16.1332 -11.8922 -2.3145
-16.2177 -11.873 -2.20261
-19.1796 -10.9606 -1.85425
-19.2115 -10.9282 -1.9184
-20.5199 -10.1208 -1.46826
-20.3537 -10.252 -1.38876
-18.7566 -11.2032 -1.76509
-19.9147 -10.5256 -1.46074
-15.989 -12.4403 -2.28736
-19.078 -11.1118 -1.64742
-15.9074 -12.4481 -2.27139
-17.5265 -11.6579 -1.76483
-17.5789 -11.6897 -1.85265
-18.9355 -11.1738 -1.51574
-19.5673 -10.7327 -1.3234
-17.7263 -11.3043 -1.62647
-17.6036 -11.6957 -1.65242
-15.4702 -13.2093 -2.58959
-16.6618 -11.9183 -1.82823
-15.4828 -13.0639 -2.47716
-19.5022 -10.8166 -1.45004
-18.9857 -11.2951 -1.41565
-17.689 -11.5018 -1.60392
-17.5664 -11.5074 -1.71445
-17.5937 -11.5631 -1.49675
-18.4885 -11.5227 -1.49735
-18.414 -11.5137 -1.43001
-19.1739 -11.0214 -1.34534
-19.2402 -11.0416 -1.31225
-20.3668 -10.4886 -0.836747
-18.6293 -11.4244 -1.35738
-18.7096 -11.4291 -1.36561
-19.2838 -11.0626 -1.12095
-15.8415 -12.6549 -1.89716
-19.3498 -11.0611 -1.19172
-19.0756 -11.2031 -1.06132
-15.7008 -12.865 -1.79731
-18.4695 -11.537 -1.18894
-17.815 -11.6644 -1.22681
-16.6424 -12.2047 -1.34398
-16.5917 -12.1553 -1.33902
-20.089 -10.7186 -0.671678
-17.8277 -11.6009 -1.02565
-17.8842 -11.6529 -0.988964
-17.887 -11.605 -1.01124
-18.7336 -11.5195 -1.06041
-18.6765 -11.5686 -1.00088
-20.1106 -10.7083 -0.429599
-17.9642 -11.5662 -0.852235
-17.9549 -11.7344 -0.839534
-19.2283 -11.2932 -0.55706
-18.0534 -11.5194 -0.633759
-20.3685 -10.7758 -0.1407
-19.3932 -11.4126 -0.438072
-19.8101 -11.0881 -0.361097
-19.4696 -11.2753 -0.339203
-19.7311 -11.0142 -0.17827
-16.6107 -12.2671 -0.972978
-17.9421 -11.8145 -0.623431
-16.1471 -12.5295 -1.06648
-16.5521 -12.6492 -0.802075
-15.7146 -13.076 -1.10471
-19.7643 -11.2092 0.120305
-16.5621 -12.4975 -0.715887
-19.8576 -11.0869 0.101799
-19.4325 -11.3262 -0.0314862
-19.6416 -11.1911 0.0652105
-17.0592 -12.3126 -0.434208
-17.6627 -11.8992 -0.272483
-16.3149 -12.4904 -0.582119
-17.5493 -11.975 -0.209979
-17.6011 -12.0009 -0.246537
-18.2841 -11.6254 -0.0307234
-19.4246 -11.316 0.198609
-16.195 -12.5975 -0.499081
-16.2457 -12.5497 -0.5216
-19.6088 -11.3436 0.337908
-19.9723 -11.1037 0.447031
-16.2127 -12.6698 -0.445399
-16.7703 -12.3877 -0.207053
-16.8769 -12.3604 -0.189604
-16.1853 -12.7216 -0.488044
-20.0075 -11.0992 0.48656
-19.2131 -11.6463 0.36674
-17.0122 -12.379 -0.0332085
-15.9809 -12.8862 -0.328463
-17.0542 -12.3636 -0.146059
-20.2035 -11.1184 0.802594
-19.9413 -11.2373 0.623577
-19.5257 -11.4903 0.517571
-20.0533 -11.2076 0.852488
-19.3885 -11.5725 0.675458
-19.5769 -11.4093 0.772841
-19.5972 -11.4915 0.799262
-18.1597 -11.5793 0.860659
-19.6068 -11.6102 0.951453
-19.9086 -11.339 1.17884
-18.0788 -11.5449 1.02503
-19.8371 -11.3847 1.28116
-17.2387 -12.1268 0.682925
-19.1674 -11.8424 1.17742
-20.1644 -11.3969 1.59343
-19.925 -11.6068 1.60168
-19.2816 -11.9076 1.36191
-19.5929 -11.7828 1.7923
-15.2148 -11.4561 1.40126
-15.3208 -11.4216 1.42862
-15.7274 -12.5964 -3.80443
-15.5389 -12.6518 -3.73749
-15.3085 -12.9537 -3.83687
-15.3282 -12.9837 -3.86011
-15.5869 -12.753 -3.5923
-15.59 -12.7929 -3.71613
-15.6719 -12.7381 -3.62652
-15.6488 -12.6592 -3.51456
-15.4685 -12.8135 -3.51211
-15.3438 -12.9484 -3.43896
-15.706 -12.7389 -3.37701
-15.6875 -12.6999 -3.38561
-17.4966 -10.9078 -2.5034
-15.5889 -12.84 -3.33321
-15.5234 -12.933 -3.24891
-20.038 -10.3047 -2.12636
-19.972 -10.3777 -2.15782
-18.65 -11.1945 -2.54696
-18.9458 -10.9579 -2.42021
-17.0437 -11.3218 -2.45049
-15.7442 -12.8538 -3.0654
-20.1615 -10.2372 -1.8433
-20.3237 -10.033 -1.74649
-20.1235 -10.2547 -1.81062
-16.0902 -11.9331 -2.35207
-16.2362 -11.9049 -2.3372
-16.026 -11.9073 -2.36599
-15.9451 -11.938 -2.38342
-17.2654 -11.2748 -1.9972
-16.2738 -11.9127 -2.35155
-17.0371 -11.5331 -2.09471
-20.0043 -10.3677 -1.7818
-16.0985 -12.0235 -2.26489
-19.9725 -10.3543 -1.72045
-18.9205 -11.0702 -1.93098
-17.0839 -11.4944 -2.04606
-18.5264 -11.2735 -2.07271
-18.8109 -11.308 -1.91632
-20.3882 -10.1966 -1.40935
-15.2911 -13.1514 -2.72028
-20.1058 -10.4472 -1.39933
-20.1651 -10.4357 -1.36582
-18.6931 -11.254 -1.70503
-18.6296 -11.336 -1.75129
-20.0213 -10.5532 -1.31012
-15.8536 -12.5749 -2.20983
-18.998 -11.0252 -1.65099
-15.8102 -12.6913 -2.19372
-17.6449 -11.6713 -1.63163
-19.0915 -11.1831 -1.43623
-18.3585 -11.5502 -1.63901
-19.0062 -11.149 -1.32503
-19.2592 -11.1286 -1.31782
-19.3465 -11.0801 -1.2712
-19.8008 -10.7351 -1.04121
-20.0188 -10.6407 -0.994182
-19.5997 -10.9794 -1.09942
-19.8462 -10.727 -0.827504
-18.7406 -11.3153 -1.26664
-19.8938 -10.8308 -0.80071
-20.2059 -10.5501 -0.676929
-19.2026 -11.2411 -0.921361
-17.6667 -11.8088 -1.09582
-17.8061 -11.6206 -1.05882
-18.9995 -11.4278 -0.812349
-18.7617 -11.4625 -0.88952
-19.1371 -11.3568 -0.654781
-18.0712 -11.5661 -0.838348
-17.9959 -11.704 -0.734033
-20.2803 -10.7218 -0.302205
-20.1981 -10.7273 -0.247357
-20.1795 -10.7502 -0.24078
-19.7732 -11.0918 -0.236937
-19.4417 -11.2927 -0.342612
-19.8118 -11.0975 -0.19913
-19.3971 -11.2574 -0.259823
-16.1175 -12.6353 -1.03223
-19.1556 -11.4535 -0.273588
-17.5858 -12.0063 -0.509735
-19.1766 -11.527 -0.148779
-18.1033 -11.7701 -0.276078
-15.681 -13.0438 -1.05667
-19.2994 -11.527 -0.0272242
-17.6252 -11.8274 -0.300724
-17.1742 -12.1647 -0.541128
-17.1129 -12.2615 -0.53543
-16.0826 -12.7428 -0.753296
-16.3384 -12.2288 -0.476289
-18.1161 -11.8229 -0.0843911
-16.4114 -12.3999 -0.482956
-15.8417 -13.2383 -0.761997
-17.4933 -12.1932 -0.292754
-15.9028 -13.1318 -0.869598
-17.8089 -11.9976 -0.174394
-16.3423 -12.3902 -0.413739
-19.2495 -11.498 0.128787
-18.909 -11.7278 0.0885228
-18.9677 -11.7401 0.148998
-18.9712 -11.7403 0.139568
-16.5932 -12.3401 -0.344492
-16.2042 -12.8027 -0.545948
-16.0799 -12.9024 -0.444122
-19.1627 -11.6987 0.285375
-17.5255 -12.2603 -0.0946023
-17.1799 -12.1827 -0.140893
-16.1039 -12.8643 -0.583389
-16.9726 -12.2096 -0.172517
-17.6333 -12.1463 -0.15476
-17.6046 -12.267 -0.167703
-19.1816 -11.5832 0.229433
-18.26 -11.6154 0.315217
-19.1893 -11.5351 0.42343
-19.2146 -11.5872 0.396373
-17.9117 -12.1006 0.0828635
-18.1272 -11.7478 0.237705
-18.0668 -11.7151 0.370392
-19.4412 -11.6664 0.583684
-17.8852 -11.7086 0.694995
-16.7703 -12.279 0.349508
-17.4293 -11.883 0.68085
-17.3162 -11.8996 0.597511
-16.8571 -12.3123 0.425002
-17.461 -12.0061 0.579825
-15.6886 -12.9086 -0.00305278
-16.3784 -12.5309 0.204904
-17.6366 -11.7018 0.734577
-15.8418 -12.786 0.117491
-20.0448 -11.2417 1.19923
-19.6472 -11.5662 1.06064
-16.6429 -12.4276 0.406641
-18.0019 -11.671 0.840608
-18.208 -11.5829 0.860693
-17.5377 -11.9148 0.724878
-19.7571 -11.4357 1.28511
-17.7848 -11.7048 0.869798
-17.0457 -12.1858 0.577289
-17.6838 -11.8684 0.871627
-17.0636 -12.1628 0.66852
-16.7163 -12.2795 0.452525
-19.1972 -11.7787 1.03526
-17.1524 -12.2163 0.691524
-16.2157 -12.8356 0.333332
-17.0514 -12.1701 0.618281
-16.461 -12.501 0.486015
-19.2867 -11.9404 1.10765
-16.0531 -12.7101 0.352009
-19.3411 -11.8806 1.13599
-15.9954 -12.8607 0.393334
-20.0131 -11.4885 1.52715
-19.5474 -11.7301 1.41435
-19.1437 -11.9368 1.39395
-19.1911 -11.9255 1.50836
-19.5913 -11.7928 1.6935
-19.471 -11.8037 1.66889
-19.5748 -11.8521 1.74738
-19.6342 -11.7884 1.78465
-19.0912 -12.0467 1.64525
-19.1603 -12.0636 1.62517
-16.0344 -10.8938 1.44278
-15.9669 -11.0383 1.40475
-15.6499 -11.1039 1.37186
-15.7646 -11.2595 1.46267
-15.2842 -11.5768 1.26334
-15.3553 -11.366 1.34398
-15.9226 -11.0322 1.71097
-15.3448 -11.3903 1.34233
-15.4779 -11.4495 1.4941
-15.306 -11.4318 1.50913
-15.9647 -11.0079 1.73905
-15.745 -11.2972 1.69789
-16.0094 -11.0475 2.06151
-15.7539 -12.8277 -3.33274
-15.3372 -13.0086 -3.39944
-19.9759 -10.235 -2.08687
-16.4719 -11.7358 -2.59498
-18.2855 -11.2666 -2.19437
-19.565 -10.7667 -1.86736
-19.0141 -10.9623 -2.0383
-18.6016 -11.2937 -2.05949
-16.1897 -12.0003 -2.2708
-18.7283 -11.2724 -1.9192
-19.7586 -10.536 -1.64038
-15.4312 -13.1463 -2.84354
-19.3792 -10.8382 -1.5176
-19.2569 -11.062 -1.57284
-19.6796 -10.6408 -1.47555
-18.7958 -11.1867 -1.71484
-18.732 -11.2002 -1.69427
-16.8637 -11.8221 -1.89819
-20.106 -10.5243 -1.2795
-18.633 -11.3489 -1.69236
-18.9366 -11.2823 -1.66249
-15.4807 -13.1298 -2.49486
-19.0229 -11.171 -1.50107
-18.7245 -11.3728 -1.47612
-20.0405 -10.5274 -1.11531
-18.6902 -11.4506 -1.39099
-19.7787 -10.8262 -1.09708
-19.5475 -10.8616 -1.12118
-19.6788 -10.9163 -1.08059
-19.9246 -10.6055 -0.930173
-15.7089 -12.8108 -1.84348
-20.0232 -10.5584 -0.83461
-19.2137 -11.1573 -1.08135
-19.2175 -11.2134 -1.12492
-19.5751 -11.0077 -1.01061
-18.6043 -11.5443 -1.12484
-15.7463 -12.7929 -1.75884
-17.6932 -11.7856 -1.25826
-18.6896 -11.5723 -0.97448
-18.6254 -11.6596 -0.92598
-19.8449 -10.9972 -0.394746
-20.1692 -10.7441 -0.27477
-20.1498 -10.6365 -0.291125
-19.6154 -11.1247 -0.286503
-19.4187 -11.1751 -0.318881
-17.6908 -12.0639 -0.669735
-17.5051 -12.0814 -0.703891
-17.5847 -11.9532 -0.570778
-17.9467 -11.8668 -0.518226
-19.1831 -11.4332 -0.121593
-17.4282 -12.0885 -0.537231
-19.0881 -11.4346 -0.200585
-18.8741 -11.72 -0.019355
-16.1389 -12.7875 -0.665893
-19.0566 -11.6084 0.064412
-16.2633 -12.6326 -0.443044
-18.9879 -11.6347 0.128242
-16.988 -12.2771 -0.279549
-16.8787 -12.3653 -0.268478
-15.9671 -12.8516 -0.510975
-19.8581 -11.2472 0.501609
-19.1354 -11.6137 0.397138
-19.4162 -11.5302 0.586946
-19.5692 -11.4859 0.574998
-18.2647 -11.7066 0.444615
-19.6086 -11.3875 0.701239
-17.0903 -12.3214 0.142255
-19.3409 -11.5402 0.74033
-19.0852 -11.7581 0.525574
-19.6005 -11.4737 0.855938
-19.6254 -11.5665 0.843423
-16.79 -12.4492 0.294604
-19.5095 -11.5842 0.977047
-19.3296 -11.6879 0.776499
-18.1887 -11.4194 0.787759
-18.2485 -11.3669 0.778998
-18.1661 -11.4622 0.779714
-17.3021 -11.9307 0.460626
-17.328 -12.0025 0.526664
-19.7931 -11.3436 1.10347
-19.6993 -11.4336 1.09097
-19.2015 -11.7294 0.973464
-15.9651 -12.7512 0.290569
-16.1271 -12.6832 0.339268
-16.4873 -12.484 0.416864
-16.5439 -12.5242 0.512471
-19.903 -11.4873 1.39569
-20.0377 -11.4888 1.58903
-20.0643 -11.4297 1.62312
-19.2564 -11.9716 1.32603
-19.4958 -11.6774 1.56515
-19.7075 -11.653 1.58422
-15.6839 -11.0975 1.41741
-15.5311 -11.1407 1.37356
-16.1056 -10.9892 1.45956
-15.7559 -11.3013 1.45767
-16.0567 -10.9553 1.53753
-19.1397 -12.0439 2.03304
-15.2774 -11.4912 1.4913
-15.7192 -11.3046 1.62449
-15.5889 -11.3521 1.7104
-15.7203 -11.3136 1.71209
-15.6358 -11.3332 1.70016
-15.6395 -11.2851 1.95861
-15.3105 -12.9378 -3.76572
-15.6666 -12.8169 -3.4892
-15.3769 -13.0287 -3.38301
-18.7558 -11.0767 -2.53778
-19.311 -10.714 -2.21712
-19.9874 -10.4316 -1.86979
-16.2229 -11.8674 -2.25261
-17.1337 -11.4994 -1.96637
-17.074 -11.5415 -2.00826
-18.7609 -11.2102 -1.96916
-17.2 -11.4581 -1.83667
-20.1823 -10.373 -1.42152
-20.0887 -10.436 -1.41556
-19.9133 -10.5192 -1.44567
-19.1084 -11.1313 -1.67716
-16.5136 -12.1208 -2.07998
-19.0625 -11.0569 -1.60418
-16.8694 -11.839 -1.96354
-17.7227 -11.2984 -1.5492
-15.4557 -13.2707 -2.5477
-19.8073 -10.7009 -1.08239
-16.9361 -11.8664 -1.62533
-16.5445 -12.0842 -1.76687
-17.6207 -11.7239 -1.58107
-19.4786 -10.9285 -1.14352
-18.364 -11.7196 -1.59425
-16.5583 -12.2352 -1.79111
-19.6142 -10.9275 -0.926831
-19.2362 -11.1389 -1.02976
-18.486 -11.569 -1.28887
-19.3457 -11.183 -1.01004
-19.4453 -10.988 -1.04384
-17.3212 -11.6421 -1.19804
-20.181 -10.7448 -0.611043
-18.6058 -11.6048 -1.15894
-18.5269 -11.599 -1.044
-18.7961 -11.3342 -0.892383
-19.2006 -11.2704 -0.707229
-16.0271 -12.5388 -1.26197
-16.533 -12.344 -0.942084
-16.9654 -12.221 -0.71682
-16.9826 -12.0252 -0.795142
-17.7646 -12.0377 -0.474526
-17.1914 -12.1789 -0.514548
-17.5904 -12.0639 -0.421097
-17.022 -12.2134 -0.683753
-16.1488 -12.8355 -0.73041
-17.071 -12.2119 -0.368844
-17.9487 -11.8339 -0.260735
-17.7121 -11.9691 -0.25966
-18.9801 -11.6193 0.0959557
-19.6517 -11.3076 0.407951
-17.1287 -12.2137 -0.211881
-18.2095 -11.5481 0.253727
-16.0672 -12.884 -0.409992
-17.0056 -12.3239 -0.0606135
-16.9588 -12.4127 -0.162323
-18.9427 -11.8119 0.523078
-19.1636 -11.7028 0.607871
-19.8456 -11.3903 0.925746
-19.7245 -11.4776 0.860442
-19.5585 -11.5591 1.05742
-19.4935 -11.5923 0.996661
-17.6881 -11.7953 0.771556
-16.1052 -12.8392 0.308621
-15.934 -12.8258 0.201411
-17.7511 -11.8355 0.830495
-16.0073 -12.7712 0.42403
-19.5118 -11.746 1.31373
-19.7153 -11.648 1.48954
-19.7633 -11.6396 1.54143
-19.9325 -11.423 1.65812
-19.0924 -12.1263 1.58392
-15.7788 -11.1436 1.58615
-15.264 -11.4847 1.53243
-18.4104 -11.1918 -2.63628
-18.5718 -11.1858 -2.49394
-18.3577 -11.2057 -2.61529
-18.6729 -11.228 -2.30457
-19.8081 -10.4648 -1.77954
-17.0425 -11.4247 -2.06645
-17.4495 -11.3902 -2.09144
-16.0019 -11.9787 -2.28872
-20.1709 -10.4528 -1.60785
-17.0374 -11.4916 -1.94509
-17.1795 -11.4435 -1.9622
-18.3302 -11.5734 -1.54102
-18.2964 -11.6294 -1.61131
-19.5999 -10.8801 -1.1716
-19.5979 -10.7501 -1.14122
-18.5514 -11.5731 -1.18372
-17.7764 -11.7623 -0.852211
-16.966 -12.0452 -0.987815
-20.1526 -10.7614 -0.0825154
-19.4548 -11.2229 -0.374203
-19.1572 -11.3371 -0.271938
-17.1797 -12.0645 -0.604237
-17.0565 -12.2228 -0.596531
-15.807 -13.0461 -0.942135
-16.0964 -12.8364 -0.62587
-17.1035 -12.1706 -0.42932
-16.8319 -12.3516 -0.282352
-16.6016 -12.452 -0.273465
-15.9287 -12.9212 -0.452338
-18.2893 -11.6679 0.330217
-19.0582 -11.8609 0.587874
-19.356 -11.5815 0.722278
-19.781 -11.3958 0.973458
-19.6037 -11.5288 0.85005
-17.1407 -12.1364 0.428107
-17.5096 -11.8958 0.605807
-17.2445 -11.9378 0.552944
-16.6999 -12.3505 0.376289
-16.6206 -12.5118 0.529695
-16.4492 -12.5013 0.4355
-19.6459 -11.678 1.52084
-19.9205 -11.6085 1.62934
-16.0797 -11.0919 1.85006
-16.1739 -11.8289 -2.63129
-16.0193 -11.9063 -2.33452
-16.985 -11.4058 -2.01489
-16.2152 -11.8167 -2.3358
-16.2063 -11.9731 -2.26102
-18.7313 -11.1384 -1.89821
-17.0147 -11.5937 -1.88817
-16.7039 -11.8992 -2.18223
-17.7983 -11.2377 -1.7877
-19.6256 -10.9469 -1.05613
-17.6168 -11.6806 -1.20909
-16.7906 -12.1038 -1.34256
-18.666 -11.6068 -0.857487
-16.7019 -12.16 -1.19832
-19.553 -11.1066 -0.462269
-15.7556 -13.037 -1.19944
-19.8917 -11.0425 -0.032032
-16.2789 -12.5748 -0.986333
-19.1476 -11.5551 -0.243186
-16.1137 -12.6463 -0.720966
-19.0428 -11.6276 -0.0220232
-18.891 -11.6863 0.0903934
-16.2384 -12.5421 -0.360372
-19.554 -11.431 0.377945
-16.2394 -12.6384 -0.274785
-18.3219 -11.627 0.386318
-19.0461 -11.7761 0.67088
-16.7429 -12.3466 0.486853
-16.0714 -12.7612 0.284919
-15.2822 -11.4574 1.5255
-20.0299 -10.4125 -1.49922
-16.4369 -11.9903 -2.02341
-16.6809 -11.9639 -1.88784
-18.843 -11.2857 -1.5978
-19.7109 -10.8543 -1.1543
-17.6277 -11.6925 -1.09633
-17.2731 -11.7917 -1.15848
-16.6353 -12.2923 -0.798699
-16.5872 -12.3553 -0.838147
-18.8854 -11.6549 0.00764011
-19.8788 -11.227 0.565751
-16.4127 -12.5563 0.285773
-18.2105 -11.5569 0.94636
-17.9905 -11.5302 0.993677
-18.2481 -11.5405 0.960135
-19.2647 -11.9342 1.35789
-15.8876 -11.7239 -2.94358
-16.03 -11.9713 -2.81891
-17.1511 -11.3859 -2.29052
-18.593 -11.2688 -2.23266
-15.5631 -12.6408 -2.38123
-16.2158 -12.3501 -1.6589
-16.1087 -12.6177 -1.12567
-17.0848 -12.1251 -0.520748
-18.3067 -11.5865 -0.0810446
-16.4788 -12.3543 -0.41395
-18.2352 -11.6307 0.302004
-18.0335 -11.5769 0.818241
-17.8162 -11.8417 0.665395
-17.179 -12.1093 0.641767
-17.51 -11.8777 0.659013
-19.7347 -11.4923 1.26496
-17.6911 -11.8302 0.804447
-19.6865 -11.753 1.89686
-16.7421 -12.266 -1.28244
-16.1989 -12.5591 -1.02743
-16.0906 -12.7162 -0.809168
-16.9412 -12.4141 0.0087348
-17.9469 -11.5948 0.729651
-15.0428 -11.4354 1.87573
-17.5059 -11.8184 -1.2453
-17.3739 -11.8591 -1.10271
-19.4757 -11.5044 0.600189
-19.5545 -11.4427 0.980319
-17.9698 -11.6511 0.859958
-17.0739 -11.9449 -1.16979
-16.5712 -12.2628 -1.1478
-15.9677 -12.3344 -2.02196
-16.2094 -12.4658 -1.64587
-19.9625 -10.5741 -1.44001
-19.4669 -10.5586 -2.11522
-19.4192 -10.6171 -2.29543
-19.7061 -10.7594 -1.17135
-19.2776 -10.7724 -1.90165
-19.6423 -10.8867 -1.16651
-19.3404 -11.1243 -1.12245
-18.6078 -11.1859 -2.49498
-19.8278 -10.9868 -0.207587
-18.5614 -11.1735 -2.52278
-19.3045 -10.9509 -1.29781
-19.575 -11.0536 -0.488835
-19.4614 -11.1263 -0.769008
-19.2133 -11.2335 -1.1418
-18.4888 -11.2223 -2.2399
-18.8097 -11.2401 -1.50912
-18.1982 -11.368 -2.56129
-18.7756 -11.2054 -1.47839
-18.1909 -11.3529 -2.58976
-18.1066 -11.3543 -2.51062
-19.1773 -11.3833 -0.527212
-18.1723 -11.4739 -2.60929
-19.145 -11.2841 -0.561366
-19.6492 -11.3744 0.334783
-19.4961 -11.4271 0.252902
-19.5015 -11.3854 0.124309
-19.6019 -11.3328 0.190855
-19.695 -11.37 0.536505
-19.8979 -11.4705 1.13733
-19.5896 -11.4165 0.788329
-19.4328 -11.5354 0.692631
-18.6836 -11.5044 -0.999032
-19.4967 -11.6036 0.545412
-18.527 -11.5258 -0.90757
-18.6348 -11.5704 -1.00854
-18.5405 -11.6657 -1.26018
-19.4072 -11.5215 0.50181
-19.8895 -11.4788 1.66809
-19.2968 -11.5071 0.498004
-16.788 -11.2931 -2.82015
-19.2528 -11.6212 0.384675
-19.4515 -11.5743 0.634873
-19.3252 -11.6487 0.732292
-17.7369 -11.5634 -1.62864
-17.6665 -11.5575 -1.56418
-18.8426 -11.7094 -0.0092299
-16.565 -11.4913 -2.83788
-17.4847 -11.6003 -1.82058
-17.8995 -11.701 -0.879721
-17.9925 -11.6387 -0.833565
-17.687 -11.6778 -1.34124
-17.9288 -11.6428 -0.777703
-19.294 -11.8323 1.02631
-19.3399 -11.8118 1.1775
-17.6033 -11.7146 -1.22608
-17.9042 -11.7661 -0.621402
-18.1656 -11.6927 -0.239554
-18.0659 -11.7891 -0.167689
-18.2007 -11.6727 -0.131828
-18.1445 -11.5292 0.900208
-19.1922 -12.0542 1.57175
-17.6728 -11.9659 -0.881072
-18.0384 -11.5998 0.754273
-19.2374 -12.0754 1.97267
-17.8952 -11.6653 0.825722
-17.6884 -11.9291 -0.189747
-17.6434 -11.9961 -0.406064
-17.7655 -11.7103 0.739513
-16.0885 -11.8953 -2.25887
-16.048 -12.1128 -2.35613
-16.6514 -12.1046 -1.36791
-16.6215 -12.1543 -1.37182
-16.8071 -12.1352 -0.981089
-16.8841 -12.1912 -0.738978
-17.4025 -11.9915 0.666944
-17.1832 -12.2693 -0.125462
-16.5486 -12.2199 -0.915889
-15.6833 -12.7956 -3.66987
-15.6288 -12.7638 -3.58463
-17.1937 -12.0652 0.745572
-15.5528 -12.7822 -3.58384
-15.9112 -12.3721 -2.20487
-17.033 -12.4086 -0.04229
-15.8585 -12.5333 -2.21347
-16.6894 -11.2333 2.24268
-16.9602 -12.3737 -0.13517
-15.5442 -12.834 -3.61138
-15.4476 -12.7319 -3.48819
-16.4556 -12.3341 -0.494797
-16.4948 -12.2914 -0.467879
-16.7217 -12.4729 -0.402031
-16.3636 -12.2568 -0.398248
-16.4918 -12.3101 -0.31481
-15.7665 -12.7826 -2.01373
-15.7695 -12.8113 -1.83969
-16.2025 -12.6602 -0.4295
-16.2431 -12.7079 -0.447962
-16.4343 -12.501 0.414549
-16.1291 -12.8491 -0.513854
-16.2719 -12.6675 0.263808
-15.3165 -11.4548 1.45304
-15.3638 -11.4044 1.36475
-15.9078 -12.9006 -0.599005
-15.9292 -12.9816 -0.38003
-15.1753 -11.4362 1.36732
-15.9726 -12.8303 0.1072
-15.7284 -12.9186 -0.0241704
-20.316 -10.2253 -1.485
-20.0516 -10.4723 -1.40196
-20.1159 -10.4372 -1.27845
-19.9579 -10.4547 -1.38196
-20.2925 -10.6456 -0.752803
-19.9201 -10.7111 -0.735855
-20.2169 -10.771 -0.188594
-18.9425 -10.9046 -2.38957
-19.7203 -10.8837 -0.395745
-19.1451 -11.0252 -1.66206
-19.7764 -10.896 -0.239447
-19.69 -11.025 -0.609396
-19.3208 -11.1246 -1.06522
-18.9429 -11.1423 -1.51699
-18.5817 -11.1952 -2.20168
-19.028 -11.15 -1.36061
-18.6008 -11.2893 -2.19024
-18.7088 -11.2124 -1.70782
-17.5522 -10.9753 -2.42472
-19.5221 -11.2651 -0.468193
-18.6077 -11.3252 -1.80134
-19.4595 -11.2492 0.0463615
-18.0931 -11.3957 -2.60958
-18.8715 -11.3748 -1.17371
-20.1713 -11.2273 1.2111
-19.6618 -11.3437 0.37833
-19.4684 -11.4022 0.292494
-20.1416 -11.3894 1.63068
-18.7198 -11.5887 -0.998438
-16.8958 -11.252 -2.87629
-18.6107 -11.6155 -0.981633
-17.1894 -11.3577 -1.99042
-19.8987 -11.5667 1.50294
-19.367 -11.6455 0.689059
-19.1802 -11.6853 0.312405
-19.6562 -11.5455 1.11907
-17.1674 -11.4093 -2.01063
-18.8888 -11.726 0.0862007
-18.9156 -11.7376 0.0175442
-18.8583 -11.7248 0.0173249
-16.5288 -11.5344 -2.97151
-17.0127 -11.5234 -1.96675
-19.57 -11.7197 1.56001
-18.04 -11.5978 -0.988104
-19.485 -11.7367 1.59427
-19.5805 -11.6924 1.70293
-19.0359 -11.8795 0.611302
-19.5104 -11.7983 1.61282
-18.9625 -11.8451 0.518614
-19.2334 -11.8664 1.16341
-19.1899 -11.7529 1.19791
-19.2093 -11.8543 1.13265
-18.1677 -11.7643 -0.0906906
-17.9609 -11.6842 -0.498265
-18.1381 -11.4989 0.803909
-19.2744 -11.9986 1.34487
-18.1427 -11.7998 0.0336878
-18.1881 -11.4607 0.959418
-16.2193 -11.791 -2.59692
-17.782 -11.6541 0.652715
-17.9657 -11.7806 0.659964
-16.2226 -11.9092 -2.32664
-16.2122 -11.9256 -2.33339
-15.9994 -11.9123 -2.41187
-17.0198 -12.0428 -0.847002
-17.1856 -12.0656 -0.956044
-16.1937 -12.0518 -2.18004
-16.0251 -12.0253 -2.41744
-16.8117 -12.2672 -1.447
-17.6133 -12.28 -0.0828046
-16.6742 -12.0874 -1.33254
-17.4672 -12.2092 -0.319852
-16.7527 -12.1184 -1.41709
-17.4065 -11.9696 0.572413
-16.7765 -11.1223 1.59499
-17.4171 -11.9807 0.602606
-16.7285 -12.1998 -1.15222
-16.7145 -12.2392 -1.16048
-17.3047 -12.0307 0.584234
-15.5962 -12.6389 -3.77522
-16.8331 -12.3572 -0.871332
-15.6917 -12.6122 -3.65412
-16.966 -12.3522 -0.447895
-17.0365 -12.27 -0.216356
-15.5915 -12.7034 -3.62958
-15.6077 -12.6356 -3.7118
-15.5267 -12.8224 -3.75234
-15.5845 -12.7391 -3.54125
-15.6216 -12.7108 -3.6861
-15.9036 -12.7214 -3.22165
-15.5403 -12.721 -3.59644
-15.7822 -12.691 -3.34554
-15.4855 -12.6721 -3.70167
-15.9304 -12.5029 -2.28927
-16.083 -11.0036 1.48523
-15.9559 -11.0707 1.68187
-16.1254 -12.4533 -1.37985
-15.8589 -12.5021 -2.23821
-15.3708 -12.7432 -3.8077
-15.9422 -11.1849 1.70941
-15.896 -11.1182 2.04069
-15.3251 -12.9357 -3.57117
-15.3593 -12.9213 -3.50631
-16.6123 -12.4545 0.432249
-15.6644 -11.2428 1.34514
-16.0997 -12.5788 -1.10452
-16.081 -12.5729 -1.00645
-15.6021 -11.2446 1.35558
-15.8398 -12.8233 -1.75317
-16.1324 -12.6771 -0.729088
-16.1738 -12.7206 -0.699025
-15.6338 -12.8495 -1.86085
-15.6318 -11.3372 1.72288
-15.3359 -13.1264 -3.15264
-16.5933 -12.5375 0.547776
-15.8741 -12.7724 -1.05693
-15.6359 -11.3034 1.60664
-16.097 -12.6966 -0.498704
-16.3404 -12.7427 -0.346761
-15.4815 -12.929 -1.74712
-15.4963 -13.0461 -1.84596
-16.0711 -12.8929 -0.432732
-15.8992 -12.9204 -0.638992
-15.8521 -13.1339 -0.845892
-15.9078 -13.087 -0.803925
-16.0822 -12.769 0.299008
-15.915 -13.1108 -0.441736
-15.7007 -13.1317 -0.848675
-15.03 -11.4436 1.1501
-15.963 -12.8001 0.169908
-15.7386 -12.877 0.0381332
-15.8266 -12.9082 0.108822
-20.1475 -10.4293 -1.36985
-19.9069 -10.5802 -1.68538
-20.3421 -10.7022 -0.157169
-20.148 -10.8112 -0.264674
-18.5169 -11.1265 -2.39401
-18.4735 -11.1546 -2.60035
-18.6104 -11.1639 -2.22178
-18.4091 -11.2338 -2.59133
-19.0044 -11.1331 -1.42669
-18.9443 -11.212 -1.69422
-19.1373 -11.2761 -0.570552
-19.5413 -11.2663 0.0719149
-19.1545 -11.3937 -0.45253
-20.0759 -11.2933 1.13822
-20.0921 -11.33 1.11386
-18.7577 -11.4071 -1.33023
-19.6213 -11.4777 0.717156
-19.8103 -11.4868 1.12524
-19.0363 -11.6337 -0.291888
-20.0503 -11.5342 1.61028
-18.302 -11.2596 -0.380619
-18.6447 -11.4957 -0.963524
-17.3236 -11.2229 -2.00888
-18.5938 -11.5865 -0.979121
-19.7218 -11.6067 1.17472
-18.9901 -11.7222 0.0955751
-18.862 -11.6835 -0.0234599
-19.6656 -11.6411 1.52097
-17.1523 -11.4369 -1.91752
-16.9951 -11.4592 -2.10669
-18.9065 -11.7183 0.326908
-19.0317 -11.74 0.532003
-19.129 -11.8249 0.964309
-17.9534 -11.7374 -0.653345
-18.3158 -11.6022 0.614806
-18.213 -11.7036 0.195881
-19.1939 -11.893 1.51917
-17.9116 -11.8092 -0.623631
-17.8304 -11.826 -0.449863
-17.8484 -11.9311 -0.615628
-19.1728 -11.9553 1.34418
-16.9057 -11.8961 -1.69252
-19.0993 -12.0661 1.50846
-17.8101 -11.9385 -0.305922
-18.0009 -11.6248 1.11704
-16.2024 -11.8899 -2.36534
-17.1951 -11.939 -0.927832
-17.0115 -12.0463 -1.02538
-16.1536 -11.9717 -2.40907
-16.1506 -12.0018 -2.12502
-17.4638 -12.2184 -0.360412
-17.3854 -12.3447 -0.412746
-17.4618 -11.9181 0.568042
-16.6198 -12.1088 -1.30616
-16.9781 -12.1631 -0.559699
-17.3426 -12.0307 0.46061
-17.3157 -11.9956 0.667396
-16.2539 -10.9354 1.46357
-16.5878 -12.2932 -1.10845
-15.7506 -12.593 -3.36336
-16.5125 -12.3051 -0.868075
-15.2486 -12.8566 -3.84997
-16.7772 -12.3297 0.318214
-15.3266 -12.9744 -3.59786
-16.1164 -12.5678 -1.38732
-16.0466 -12.5107 -1.35915
-15.985 -12.6397 -1.34015
-16.0358 -12.6449 -1.34169
-15.3306 -12.9982 -3.13946
-16.137 -12.6027 -0.513729
-16.3998 -12.4959 0.203171
-15.9309 -12.8681 -1.27178
-16.1974 -12.7315 -0.379512
-16.3257 -12.6666 0.33442
-16.0325 -12.8038 -0.532003
-15.6675 -11.3402 1.99732
-15.7908 -13.0982 -1.30709
-15.5991 -13.1089 -1.44926
-15.8152 -12.8876 0.275933
-19.4556 -10.6412 -2.12093
-19.3911 -10.6865 -2.20029
-20.1264 -10.6393 -0.615943
-20.1677 -10.7772 -0.418082
-19.4371 -10.9034 -1.1819
-18.6881 -11.1582 -1.97662
-19.147 -11.2727 -0.691186
-18.2241 -11.3792 -2.2147
-18.1582 -11.397 -2.29156
-18.7448 -11.5185 -1.1793
-20.0898 -11.4033 1.49792
-18.5307 -11.5381 -1.09323
-18.495 -11.6518 -1.02194
-17.1679 -11.2517 -2.17315
-18.4763 -11.5701 -0.994461
-19.0412 -11.6849 0.104082
-19.0027 -11.5904 0.137581
-19.3927 -11.6359 0.98869
-19.751 -11.6503 1.64123
-19.7338 -11.7485 1.46921
-19.5326 -11.7542 1.457
-16.8714 -11.4449 -2.26526
-19.0321 -11.8268 0.414451
-18.9569 -11.786 0.529942
-18.9319 -11.8895 0.49042
-17.8029 -12.0021 -0.364436
-17.6549 -11.8683 -0.489213
-17.6437 -11.9723 -0.523299
-17.2047 -11.9316 -0.965107
-18.1846 -11.718 1.51992
-17.0618 -12.0556 -1.02471
-18.046 -11.697 1.68457
-16.1926 -11.9869 -2.2392
-17.2499 -12.166 0.160196
-16.0684 -12.6317 -2.1424
-16.8809 -12.4421 -0.207648
-15.7641 -11.0624 1.3556
-16.8557 -12.2956 0.496798
-16.4634 -12.4169 -0.178505
-15.7522 -12.9915 -1.59438
-15.7099 -12.8884 -1.58625
-15.7749 -13.1184 -1.07587
-20.1241 -10.37 -1.73529
-20.2662 -10.5914 -0.77065
-18.3828 -11.1066 -2.76549
-19.0958 -11.3834 -0.407404
-18.8288 -11.5495 -0.93895
-19.1809 -11.5955 -0.126307
-18.2271 -11.313 -0.339922
-18.9386 -11.6612 -0.119427
-19.4204 -11.6255 0.790968
-17.1307 -11.5022 -1.86151
-18.8281 -11.708 -0.0363348
-16.7948 -11.582 -2.07765
-19.0027 -11.7854 0.615173
-17.5956 -11.8151 -0.932326
-16.9235 -11.9637 -1.46568
-19.1654 -12.0538 2.03154
-16.8737 -11.9624 -1.48077
-18.8984 -12.2035 1.77731
-16.7176 -12.1618 -1.27592
-17.098 -12.2307 -0.474036
-16.2981 -12.1967 -1.7359
-16.3181 -12.2938 -1.60427
-17.0354 -12.2438 -0.296445
-16.0984 -12.3308 -1.49171
-15.6427 -12.7715 -3.49191
-16.0475 -11.0626 1.64654
-16.4758 -12.4851 -0.741657
-16.7749 -12.3314 0.180149
-15.494 -12.4708 -2.48731
-16.6819 -12.4061 0.422481
-16.3297 -12.4725 -0.392216
-15.7209 -13.0662 -0.991431
-15.7159 -13.1134 -0.890358
-18.506 -11.0493 -2.68686
-18.4363 -11.1254 -2.54424
-19.8551 -11.3576 0.728006
-19.661 -11.4198 1.00209
-16.9967 -11.5356 -2.05749
-19.6864 -11.798 1.88809
-18.2853 -11.5959 1.08582
-17.6816 -11.7472 0.756995
-17.9098 -11.796 0.877032
-17.4595 -12.3567 -0.0401628
-16.9482 -12.2688 -0.228144
-17.265 -12.1503 0.678588
-16.9235 -12.3843 -0.0673716
-16.4077 -12.2171 -0.399737
-15.7383 -12.9868 -1.39452
-15.9133 -12.9651 -0.510041
-19.4781 -10.5259 -2.16646
-19.8811 -10.7424 -0.910576
-17.696 -10.958 -2.47375
-19.8956 -11.2218 0.640597
-19.1137 -11.4731 -0.250358
-20.0918 -11.3791 1.67053
-18.244 -11.5728 0.7749
-16.7515 -11.8071 -1.84097
-15.5982 -11.9365 -3.09935
-16.4489 -12.2826 -0.383522
-16.0329 -12.6452 0.337604
-20.0538 -10.3325 -1.47748
-17.3672 -11.1718 -2.40042
-17.5306 -11.3429 -1.92078
-17.5675 -11.4613 -1.91141
-17.162 -11.5216 -1.87247
-16.0457 -11.9297 -2.30639
-15.9316 -12.0633 -2.3294
-17.0004 -12.1275 -0.612455
-16.7131 -12.1 -1.37912
-15.0046 -12.9591 -4.09731
-17.4228 -11.8883 -1.31839
-16.2248 -12.3252 -1.5621
-15.4115 -12.7129 -2.40637
-17.6213 -11.9951 -0.439322
-16.5617 -12.2862 -1.20178
-15.7352 -12.983 -1.52751
-15.7999 -13.0524 -1.24275
-15.7251 -13.1273 -0.986382
-17.0691 -11.9436 -1.31326
-16.748 -12.0554 -1.8013
-16.2857 -12.3982 -1.03393
-19.921 -11.498 1.58973
-20.2016 -11.0915 0.781431
-19.8893 -11.3703 1.19272
-19.8278 -11.3794 0.793803
-19.7872 -11.4035 0.787396
-19.835 -11.3413 0.733122
-19.6086 -11.4715 0.685102
-19.3011 -11.9676 1.55676
-19.1865 -12.0652 1.54761
-19.2538 -11.9308 1.42115
-19.6611 -10.9606 -0.298438
-19.7702 -11.0199 -0.329995
-19.3963 -11.6235 0.699888
-20.1748 -10.4263 -1.60218
-19.362 -11.5335 0.512935
-19.5055 -11.3184 -0.00513731
-19.8675 -10.659 -1.09858
-19.8988 -10.4603 -1.39952
-19.2765 -11.6347 0.458239
-19.2007 -11.3237 -0.46538
-17.9718 -11.5357 0.767161
-19.4504 -11.0569 -1.13154
-19.3313 -11.1904 -1.05858
-18.9136 -11.6614 -0.0608382
-17.8417 -11.5688 0.699467
-19.4755 -10.8689 -1.82769
-19.2375 -11.0982 -1.30581
-19.3706 -10.7041 -1.91327
-19.5153 -10.6472 -2.10303
-17.8221 -11.7167 0.795058
-18.1229 -11.6483 0.210472
-19.2216 -10.9967 -1.84545
-18.1561 -11.7334 -0.249092
-18.8868 -11.3303 -1.40666
-18.7962 -11.2835 -1.50093
-18.9359 -11.2838 -1.56713
-18.1128 -11.7737 -0.226323
-18.0265 -12.0522 0.0751128
-17.3726 -11.9942 0.533108
-18.672 -11.4163 -1.30316
-18.6623 -11.4068 -1.45133
-18.7464 -11.2292 -1.79085
-18.7155 -11.3713 -1.44938
-18.8828 -10.9584 -2.24641
-17.988 -11.8608 -0.31504
-18.6986 -11.1946 -1.96132
-18.7099 -11.3244 -2.10726
-18.0115 -11.724 -0.596797
-17.8565 -11.6815 -0.745874
-18.0188 -11.6808 -0.746042
-17.582 -11.9567 -0.273936
-17.6354 -12.0959 -0.296058
-17.5855 -11.9501 -0.383348
-16.96 -12.2819 0.689225
-17.5911 -12.0295 -0.315821
-18.568 -11.2034 -2.16529
-17.9423 -11.6578 -1.01081
-15.3193 -11.3983 1.41641
-17.8683 -11.6635 -1.09126
-17.7019 -11.6741 -1.02466
-18.5141 -11.228 -2.37676
-18.4986 -11.0982 -2.55666
-17.5477 -11.8955 -0.89571
-18.3387 -11.1836 -2.59956
-17.6981 -11.763 -1.1249
-17.6544 -11.7082 -1.2278
-17.7266 -11.5873 -1.42863
-18.313 -11.3164 -2.60555
-17.6364 -11.5773 -1.57952
-16.78 -12.3995 0.508916
-17.6586 -11.69 -1.63912
-17.7282 -11.5778 -1.61497
-16.8782 -12.4086 -0.0355579
-17.0741 -11.8841 -0.864425
-17.2506 -12.0382 -0.870668
-16.9477 -12.2348 -0.647957
-16.7916 -12.3316 -0.277453
-16.3643 -12.6055 0.236724
-16.1743 -12.6454 0.279471
-16.5945 -12.2014 -0.932696
-16.518 -12.3293 -0.772443
-16.5171 -12.3505 -0.739066
-16.4159 -12.1754 -0.891571
-16.5613 -12.3581 -0.739022
-16.4193 -12.2644 -0.769914
-16.6516 -12.1511 -1.39484
-16.6375 -12.2504 -1.11246
-16.3979 -12.338 -0.778637
-16.6763 -12.2059 -1.43895
-16.424 -12.3478 -0.904219
-16.2107 -12.5832 -0.42116
-16.1206 -12.6447 -0.392199
-15.8816 -12.7558 0.158785
-16.6745 -11.9048 -1.82288
-15.8757 -12.9311 -0.390106
-16.2021 -12.5844 -1.17926
-16.5787 -11.4833 -3.05549
-16.1135 -11.9638 -2.41414
-16.1457 -11.599 -2.81749
-15.942 -12.5328 -2.35517
-15.9543 -12.5966 -2.33155
-15.6267 -12.8505 -1.54282
-15.7079 -12.7778 -2.04795
-15.8372 -12.761 -2.02303
-15.7248 -12.7669 -2.02031
-15.77 -12.6535 -2.12973
-15.9274 -12.4602 -3.72353
-15.8579 -12.6448 -3.17705
-15.7319 -12.7511 -3.36784
-15.7069 -12.6783 -3.36401
-15.7813 -12.585 -3.90251
-15.6051 -12.8013 -3.64991
-15.4069 -13.0265 -3.08203
-15.5002 -12.8168 -3.59518
-15.5616 -12.728 -3.73675
-15.328 -13.0759 -3.40334
-15.4918 -12.9437 -3.52051
-15.2349 -13.0085 -3.68234
-20.2452 -11.3496 1.64687
-20.1898 -11.1768 0.795703
-19.5399 -11.8757 1.62224
-19.5802 -11.6936 1.46216
-19.5945 -11.5334 0.840502
-19.5898 -11.3224 0.416153
-19.9717 -10.6762 -0.931192
-19.589 -11.4125 0.379312
-19.1659 -11.8465 1.1239
-20.0902 -10.5206 -1.35932
-20.0746 -10.417 -1.36245
-19.8848 -10.7587 -0.994894
-19.4888 -11.2897 -0.0727611
-19.2456 -11.6453 0.409086
-18.1621 -11.4942 1.02702
-18.1553 -11.4595 0.773039
-18.075 -11.5713 0.890754
-19.5097 -11.0409 -0.986649
-19.0017 -11.6919 0.0345069
-18.2632 -11.5121 0.58046
-18.3242 -11.5303 0.624946
-18.9346 -11.7262 0.138083
-18.9164 -11.6336 0.0458079
-18.858 -11.6288 0.0434904
-16.0177 -10.9512 1.70356
-18.8853 -11.7593 -0.00188165
-17.9317 -11.7362 0.825748
-19.484 -10.7546 -1.83484
-15.9892 -10.9707 1.64645
-15.9352 -11.0704 1.73059
-16.0189 -10.9853 1.6298
-16.0537 -11.0089 1.49783
-18.1751 -11.2835 -0.423976
-18.3252 -11.5023 -0.0331311
-19.1427 -11.0051 -1.74899
-18.1678 -11.7996 -0.0682831
-18.0881 -11.6991 -0.1265
-15.8184 -11.1678 1.53832
-18.9088 -11.1833 -1.675
-15.584 -11.3156 1.6548
-15.7044 -11.1365 1.29681
-15.6138 -11.2543 1.65728
-17.4397 -11.8952 0.585565
-18.017 -11.7588 -0.315043
-17.4329 -11.9374 0.580103
-17.2988 -11.8978 0.625837
-18.528 -11.5459 -1.12005
-15.5511 -11.2296 1.27774
-18.6154 -11.178 -2.0718
-18.7598 -10.9401 -2.48466
-18.6263 -11.2929 -2.14392
-18.2917 -11.6335 -1.36493
-17.6691 -12.1471 -0.00560169
-17.6464 -11.0037 -1.75872
-15.2917 -11.5148 1.4735
-15.1846 -11.4984 1.31721
-17.6587 -11.3895 -1.55013
-18.3888 -11.3457 -2.53335
-18.4629 -11.245 -2.66639
-17.5913 -11.8722 -1.09211
-17.7195 -11.5247 -1.5
-17.53 -11.0763 -2.41413
-15.0294 -11.5189 1.23157
-14.9977 -11.5857 1.20705
-17.139 -11.3829 -2.12407
-16.3226 -12.5326 0.3002
-16.2498 -12.605 0.202037
-16.2011 -12.6592 0.218118
-16.4683 -12.4404 -0.284727
-16.6914 -12.2702 -0.834777
-16.5366 -12.3314 -0.525102
-16.4111 -12.2298 -0.440026
-16.5474 -12.2433 -0.894569
-16.539 -12.401 -0.794025
-16.6043 -12.3281 -1.13538
-16.552 -12.3992 -1.12083
-15.9141 -12.7331 0.317655
-16.0824 -12.6813 -0.411099
-15.7232 -12.928 0.0997082
-16.052 -12.8012 -0.686379
-16.0962 -12.4445 -1.37392
-16.2942 -11.8267 -2.25365
-16.2243 -11.9245 -2.37669
-15.7905 -13.0081 -1.20061
-15.6088 -13.1055 -1.00844
-15.9113 -12.6998 -1.91664
-15.7478 -12.7718 -1.88488
-15.8664 -12.5593 -2.17841
-15.7012 -12.7929 -1.87034
-15.6647 -12.8451 -1.85906
-15.502 -13.0434 -1.79737
-15.5017 -13.0038 -1.7689
-15.4286 -12.38 -2.463
-15.811 -12.7769 -3.28389
-15.9209 -12.4958 -3.74437
-15.7436 -12.792 -3.39844
-15.6658 -12.7936 -3.30444
-15.6349 -12.6515 -3.61361
-15.6402 -12.7297 -3.70953
-15.5786 -12.6668 -3.69877
-15.4274 -12.9914 -3.06665
-15.4286 -12.8695 -3.35733
-15.4181 -12.8783 -3.60205
-15.4293 -12.7221 -3.80834
-15.1964 -13.137 -3.31386
-15.2846 -12.7555 -3.8125
-20.1611 -11.4586 1.99195
-19.5252 -11.7151 1.45118
-19.8137 -11.4246 0.945101
-19.602 -11.5868 1.19099
-20.3212 -10.4334 -0.971718
-19.4932 -11.6228 1.0769
-19.6282 -11.4281 0.707027
-19.8337 -11.0665 -0.0243871
-19.6567 -11.3236 0.465458
-20.4789 -10.0875 -1.89293
-20.0922 -10.5982 -0.993183
-20.1936 -10.5682 -0.998937
-19.8045 -10.9555 -0.527812
-20.1695 -10.4934 -1.46612
-18.0433 -11.8316 1.96247
-19.1989 -11.8038 1.01045
-20.0591 -10.421 -1.40105
-19.278 -11.4559 0.144766
-19.3859 -11.2266 -0.361756
-19.8261 -10.7068 -1.33629
-18.9622 -11.8368 0.484667
-16.4138 -11.2163 1.69557
-19.5798 -10.929 -0.986362
-18.9472 -11.8007 0.502671
-19.7446 -10.6364 -1.50382
-19.0479 -11.6145 0.022223
-17.9103 -11.7304 0.978757
-19.1355 -11.3488 -0.50715
-19.3374 -10.993 -1.13423
-19.3453 -11.0751 -1.24762
-18.8601 -11.6428 -0.0865643
-19.4717 -10.7364 -1.81649
-19.5117 -10.6091 -2.25191
-17.9076 -11.7428 0.715339
-18.1892 -11.6208 0.356089
-15.6864 -11.3621 2.12073
-17.562 -11.8504 0.77185
-18.9837 -11.1899 -1.37096
-15.8126 -11.041 1.32188
-19.2015 -10.7146 -2.36434
-15.7067 -11.27 1.69994
-15.6587 -11.1115 1.4832
-18.6334 -11.6261 -0.91849
-18.5529 -11.582 -0.977976
-15.6673 -11.2557 1.43286
-18.5166 -11.5622 -1.07019
-18.4754 -11.6072 -1.07308
-17.837 -11.7178 -0.44205
-15.4109 -11.3604 1.39723
-14.9588 -11.4062 1.98605
-15.0548 -11.5937 1.98296
-17.7838 -12.0292 -0.36607
-18.5412 -11.1379 -2.28353
-15.3564 -11.4751 1.55056
-15.3566 -11.5254 1.50407
-15.3511 -11.3677 1.34785
-17.8181 -11.9426 -0.733195
-17.7391 -11.9766 -0.733855
-17.6392 -12.0066 -0.657237
-16.6766 -12.4013 0.617356
-17.4416 -12.2215 -0.372492
-17.3596 -12.2331 -0.630551
-16.9903 -12.0173 -0.937134
-16.5611 -12.3601 -0.252811
-17.0751 -11.4014 -1.99916
-16.5516 -12.4666 -0.240411
-16.4505 -12.2567 -0.581718
-16.0644 -12.8345 0.321517
-16.5802 -12.4667 -0.720013
-16.586 -12.3155 -1.0481
-16.8972 -11.8638 -1.96579
-16.4645 -12.516 -1.05906
-16.1646 -12.6889 -0.700482
-16.1185 -12.8546 -0.676603
-16.269 -12.5372 -1.14715
-16.2771 -12.2334 -1.67066
-16.0021 -12.8664 -0.573625
-16.0834 -12.5245 -1.33061
-16.407 -11.5552 -2.94622
-16.1153 -12.4594 -1.35386
-16.1253 -12.5733 -1.19181
-16 -12.6315 -1.31149
-16.1265 -12.0039 -2.34886
-16.0809 -11.9686 -2.20929
-15.9452 -12.9174 -1.31233
-15.6659 -12.9603 -1.4071
-15.9405 -12.6695 -2.12801
-15.8534 -12.2593 -2.61332
-15.6943 -12.5921 -2.10852
-15.5928 -12.3709 -2.50029
-15.4476 -12.8702 -3.60197
-15.3184 -12.9603 -3.47447
-15.192 -12.8793 -3.81798
-19.747 -11.5863 1.4847
-19.6488 -11.5464 0.988579
-19.8996 -11.0989 -0.00446983
-20.1022 -10.543 -0.976423
-19.4196 -11.6569 0.759872
-19.4813 -11.3153 0.113788
-19.6556 -11.1358 -0.414907
-19.3398 -11.4801 0.404069
-18.0089 -11.7394 1.58895
-19.0157 -11.8685 0.508072
-18.9821 -11.7967 0.589046
-18.1035 -11.5435 0.97463
-15.9788 -11.0059 1.89098
-18.97 -11.7196 0.108017
-18.9071 -11.7575 0.0406725
-18.1921 -11.3366 -0.334688
-19.3564 -10.7452 -2.19577
-19.111 -10.6621 -2.39292
-18.6496 -11.5883 -1.031
-18.5586 -11.6477 -1.10121
-18.5091 -11.6657 -1.02759
-18.5953 -11.5609 -1.21763
-18.4888 -11.5677 -1.22728
-17.1623 -12.0662 0.470262
-17.896 -12.0498 -0.236765
-17.7172 -12.075 -0.447353
-18.6362 -11.2354 -2.40278
-17.6414 -12.0895 -0.448597
-17.752 -11.943 -0.502016
-17.5963 -12.0592 -0.288546
-17.5479 -12.0145 -0.428376
-17.6045 -12.0615 -0.465178
-17.5174 -12.1479 -0.470385
-18.4154 -11.2178 -2.61636
-17.6314 -11.6579 -1.50858
-16.7919 -12.4227 0.212375
-18.0636 -11.411 -2.45822
-17.2296 -12.1168 -0.676828
-16.9078 -12.2889 -0.492626
-17.1368 -12.0521 -1.03551
-17.0225 -12.0037 -1.10553
-16.1498 -12.6879 -0.250659
-15.9594 -12.0163 -2.22024
-16.048 -12.0686 -2.43733
-15.8101 -13.0538 -1.11911
-15.6913 -13.1537 -1.06169
-15.5974 -13.1382 -1.29562
-15.4727 -12.4914 -2.51787
-15.9153 -12.8051 -3.11334
-18.4068 -11.0634 2.45371
-19.6922 -10.9732 -0.282132
-19.7631 -10.8493 -0.985449
-18.0525 -11.7537 1.50572
-19.6554 -10.8865 -1.14279
-19.1911 -11.3884 -0.0635103
-19.1381 -11.4234 -0.50581
-18.2779 -11.1626 -0.340607
-19.4764 -10.6476 -2.20489
-18.7723 -11.6013 -0.881916
-18.8318 -11.1771 -1.4802
-18.0224 -11.619 -0.34098
-18.7767 -11.1864 -1.77972
-18.9327 -10.894 -2.40288
-18.7448 -11.2132 -1.90626
-18.7234 -11.1669 -1.90964
-17.6174 -12.237 -0.279624
-18.5194 -11.1862 -2.65222
-17.07 -12.2537 -0.156955
-16.9398 -12.417 -0.0340803
-17.0097 -12.0875 -0.542967
-17.0777 -11.9197 -0.97625
-16.8281 -12.3778 -0.120975
-16.4002 -12.3482 -0.316296
-16.1705 -12.8439 -0.481304
-16.1737 -12.7588 -0.657372
-16.2089 -12.5071 -1.28425
-16.0072 -12.8564 -0.682489
-15.8685 -13.0158 -0.460874
-15.6743 -13.1515 -0.996593
-15.6722 -12.9114 -1.54219
-15.504 -13.1243 -2.43674
-15.2883 -13.0947 -3.11248
-20.1267 -11.4157 1.58411
-19.8509 -11.4637 1.44129
-20.1113 -10.4572 -1.29437
-18.2553 -11.5509 0.964162
-17.8426 -11.8652 -0.719628
-17.828 -11.523 -1.20024
-17.6501 -11.6502 -1.18415
-17.8106 -11.3118 -1.63261
-18.3314 -11.1466 -2.60552
-18.3976 -11.1463 -2.75334
-17.1389 -12.2266 -0.310995
-16.1214 -12.8289 0.35305
-16.0119 -12.9911 -0.621605
-18.2158 -11.4602 1.02268
-19.4581 -10.7481 -1.70212
-18.0922 -11.6779 0.281068
-15.7165 -11.18 1.57874
-17.6103 -11.4544 -1.64055
-17.0063 -12.2628 -0.272664
-16.1055 -12.6738 0.315492
-16.5496 -12.166 -1.37443
-16.0469 -12.7705 -0.517148
-16.1169 -11.8537 -2.46101
-15.6779 -12.7336 -3.46028
-18.1033 -11.5616 0.811034
-17.7338 -11.8305 -0.775401
-17.0982 -12.2467 -0.403071
-17.5521 -11.3858 -1.92594
-17.1291 -11.9919 -0.899329
-17.207 -11.3318 -1.92767
-17.0805 -11.4834 -1.9363
-16.9081 -11.9038 -1.5097
-16.7979 -12.2558 -1.5505
-16.4836 -11.9596 -2.04763
-16.0856 -12.7555 -0.735634
-16.1206 -11.9631 -2.2952
-15.6252 -12.6119 -1.97788
-18.2353 -11.5497 1.10929
-18.9304 -11.5754 -0.146725
-16.9339 -11.8906 -1.69581
-16.1545 -12.2424 -1.42755
-15.7201 -12.9474 -1.30322
-19.2339 -11.4162 -0.0747007
-15.949 -12.6183 -1.6672
-16.1844 -12.0373 -2.01819
-15.7937 -12.4622 -3.20842
-15.8768 -12.0777 -2.62052
-17.1156 -10.2063 2.60519
-16.6205 -11.2272 2.21934
-19.5061 -11.9413 1.96627
-19.8329 -11.4669 1.56081
-19.1903 -12.0895 1.62799
-19.1841 -12.0685 1.73808
-19.5861 -11.7602 1.45148
-16.0615 -10.9386 1.60392
-20.0609 -11.2179 1.26375
-19.8884 -11.421 1.21979
-19.222 -11.8627 1.37627
-19.2238 -11.9936 1.36394
-19.2258 -11.9623 1.34967
-19.1943 -12.01 1.36375
-19.8013 -11.423 1.17283
-20.0105 -11.3526 1.20751
-19.5203 -11.7014 1.04541
-15.3919 -11.4472 1.44743
-19.8043 -11.3696 0.917259
-19.2402 -11.7639 0.952502
-19.5828 -11.5462 0.932643
-19.9319 -11.3392 0.766362
-19.4111 -11.6578 0.778913
-19.4311 -11.5895 0.655567
-17.7448 -11.7612 0.823236
-19.4492 -11.5954 0.645514
-17.7623 -11.8161 0.86194
-17.9509 -11.6343 0.741158
-18.8734 -11.7769 0.516495
-19.7037 -11.372 0.433328
-17.446 -11.9784 0.595
-19.4895 -11.4077 0.168929
-19.9695 -11.089 0.166469
-16.9986 -12.2356 0.626625
-19.5616 -11.2349 0.128352
-19.4018 -11.3349 0.0932992
-19.7305 -10.9796 -0.111455
-19.7272 -11.0227 -0.268015
-19.7192 -11.0414 -0.233641
-19.1905 -11.365 -0.291684
-19.6207 -11.0185 -0.371585
-16.4284 -12.5544 0.299348
-18.2005 -11.7472 -0.130386
-18.1771 -11.8187 -0.177612
-19.0256 -11.4712 -0.345079
-19.7126 -11.0062 -0.509625
-17.798 -11.9878 -0.205977
-20.3863 -10.497 -0.760082
-19.2153 -11.3715 -0.499792
-20.0839 -10.633 -0.713757
-19.2695 -11.4064 -0.548119
-19.1214 -11.3544 -0.53194
-16.9333 -12.3515 -0.14434
-17.032 -12.3097 -0.150903
-16.993 -12.1468 -0.265339
-15.9681 -12.8158 0.0447759
-19.2801 -11.1781 -0.780715
-17.5262 -12.0119 -0.385107
-20.3055 -10.4735 -0.992647
-17.5949 -11.9717 -0.335636
-20.013 -10.6887 -0.897687
-19.0063 -11.299 -0.719764
-17.5442 -11.9531 -0.31123
-19.5479 -10.9535 -0.855882
-19.1255 -11.3473 -0.731741
-17.9665 -11.7204 -0.693989
-19.3396 -11.0333 -0.932372
-19.6557 -10.9126 -1.15857
-18.7202 -11.5758 -0.939577
-18.5374 -11.6398 -0.923606
-19.3243 -11.0365 -1.0521
-18.6857 -11.5723 -0.937105
-17.6766 -11.9568 -0.810131
-17.9525 -11.7074 -0.769773
-19.7753 -10.6687 -1.24765
-17.9266 -11.6747 -0.826905
-20.3848 -10.2595 -1.53128
-20.4237 -10.2797 -1.43568
-17.9069 -11.5681 -0.861479
-16.2729 -12.5842 -0.518106
-16.2412 -12.5272 -0.339863
-16.0894 -12.6469 -0.531654
-16.3979 -12.3187 -0.523991
-18.5395 -11.5378 -1.12529
-16.5399 -12.3976 -0.74507
-19.1044 -11.1187 -1.34599
-17.8632 -11.631 -1.07782
-18.6148 -11.4857 -1.33161
-18.5856 -11.4062 -1.39989
-19.9235 -10.4556 -1.65519
-16.5679 -12.3464 -0.862458
-18.6681 -11.3835 -1.39547
-18.9237 -11.2652 -1.42626
-17.7968 -11.7742 -1.20341
-18.7548 -11.2929 -1.40892
-17.629 -11.7357 -1.23
-17.738 -11.789 -1.17247
-20.1612 -10.3435 -1.73155
-20.4538 -10.1219 -1.87896
-20.1636 -10.2607 -1.9192
-20.16 -10.1612 -1.833
-19.113 -11.0319 -1.71242
-18.8231 -11.2214 -1.6782
-18.9125 -11.1169 -1.75837
-17.7093 -11.6973 -1.39578
-17.6892 -11.6125 -1.43566
-18.7012 -11.2016 -1.73972
-18.7752 -11.2328 -1.68834
-19.287 -10.8448 -1.90203
-19.3533 -10.7923 -1.88271
-19.4781 -10.6528 -2.00259
-17.6691 -11.5853 -1.63498
-17.7582 -11.3773 -1.59718
-16.5624 -12.1688 -1.37563
-19.4341 -10.649 -2.13218
-16.6544 -12.0969 -1.32772
-19.3645 -10.6673 -2.20624
-19.329 -10.6638 -2.40849
-17.5977 -11.6183 -1.86282
-18.7922 -10.9085 -2.24524
-19.0212 -10.9113 -2.344
-18.5047 -11.1989 -2.2275
-18.4677 -11.2558 -2.31395
-18.4537 -11.099 -2.40366
-18.7431 -10.9066 -2.69421
-18.3693 -11.2429 -2.51301
-18.1123 -11.4805 -2.55023
-18.3478 -11.3676 -2.63254
-15.7422 -12.8152 -1.81419
-15.7438 -12.7385 -1.79935
-18.1056 -11.4219 -2.53595
-18.1422 -11.4297 -2.5925
-15.6882 -12.8632 -1.90503
-15.9066 -12.6558 -1.82493
-18.0734 -11.4446 -2.53773
-16.8077 -11.502 -2.05905
-15.7944 -12.6859 -2.2233
-15.9364 -12.4472 -2.34028
-15.9891 -12.5106 -2.3145
-16.0899 -11.9566 -2.32629
-16.1215 -11.8888 -2.37482
-16.8303 -11.286 -2.91754
-16.5204 -11.5042 -2.95926
-16.5585 -11.4556 -2.95704
-16.5745 -11.4275 -2.90148
-16.4557 -11.4807 -2.91133
-15.9928 -11.6439 -2.93165
-15.4201 -13.0367 -3.23252
-15.2111 -13.0727 -3.31291
-15.3453 -12.9094 -3.46004
-15.5403 -12.7002 -3.59707
-15.6318 -12.7098 -3.61975
-15.6823 -12.567 -3.84004
-16.0372 -11.1169 2.13329
-19.4491 -11.8455 1.56758
-19.5411 -11.7687 1.61538
-19.877 -11.61 1.53526
-19.2779 -11.9522 1.58669
-19.3094 -11.9425 1.55903
-19.1997 -11.9726 1.59075
-16.053 -11.0866 1.60366
-15.6121 -11.2717 1.69703
-16.0403 -11.0761 1.5954
-15.5726 -11.2211 1.5889
-20.1574 -11.2667 1.23082
-15.6858 -11.2647 1.65104
-19.2238 -11.9764 1.43071
-20.1442 -11.2511 1.15479
-19.9903 -11.229 1.20591
-19.8086 -11.4524 1.33473
-15.6819 -11.1905 1.46648
-15.73 -11.2064 1.42384
-20.1856 -11.1331 0.974365
-15.4129 -11.4283 1.53294
-19.2443 -11.827 1.08732
-15.3673 -11.4228 1.4545
-19.6064 -11.5606 1.03924
-15.7431 -11.1259 1.31611
-15.3079 -11.391 1.38306
-15.349 -11.4287 1.40085
-18.2127 -11.5252 0.974579
-19.3591 -11.6794 0.845327
-18.1429 -11.5722 0.974866
-19.4394 -11.607 0.700848
-19.4306 -11.561 0.687897
-17.7918 -11.8622 0.818826
-15.0604 -11.5857 1.07562
-17.7266 -11.7558 0.791844
