-15.6902 -11.287 -2.06904
-15.5518 -10.4246 -2.90679
-16.0092 -11.0726 -3.0403
-16.7684 -11.2102 -2.07512
-16.3221 -11.9605 -2.93643
-20.8348 -11.4387 -2.78612
-16.0202 -11.3704 -1.6967
-17.0297 -10.1296 -0.618156
-16.0477 -11.6527 -1.15404
-20.2102 -10.9214 -1.66079
-20.5798 -9.77078 -1.71744
-15.4259 -11.8092 -0.0735012
-15.771 -11.7245 -1.12187
-15.4196 -12.0167 -1.37635
-18.1433 -11.1277 -1.14362
-18.735 -11.873 -2.02387
-21.2566 -10.4271 -2.19271
-16.9147 -10.8389 -1.46463
-18.617 -11.3686 -0.717805
-17.7254 -10.2448 -0.433204
-15.6623 -12.0533 -0.165721
-18.1586 -10.9895 -0.39714
-16.9591 -11.4853 -0.542368
-17.9562 -10.9082 -0.669813
-20.5336 -10.7082 -0.909452
-20.417 -11.2076 -0.801208
-16.342 -11.1927 0.155627
-16.3119 -10.7907 -0.435458
-16.0862 -10.8341 0.0860391
-17.7574 -10.7261 0.161407
-19.004 -10.9265 -0.0113891
-15.4913 -11.2951 0.336915
-15.8703 -11.0106 -0.373368
-16.6499 -10.9353 0.260368
-15.323 -11.7553 0.705308
-19.6632 -12.2126 0.124342
-15.391 -10.8598 0.213548
-15.3697 -11.3294 -0.403977
-16.7683 -11.8922 -0.692029
-21.5645 -9.61553 -0.451947
-20.3042 -10.4723 -0.390393
-18.8373 -11.0134 -0.257934
-16.0784 -11.6301 -0.125237
-18.185 -10.5137 0.125188
-17.1933 -10.2918 0.568982
-21.4928 -10.3633 0.817697
-17.2365 -10.3543 0.885736
-15.3325 -13.0561 -3.42923
-15.0051 -12.7056 -4.25304
-14.5614 -12.6728 -2.59403
-14.8483 -13.1282 -3.49866
-15.5196 -11.8203 -4.17178
-14.8711 -12.0993 -2.86609
-16.1675 -11.8141 -4.38798
-18.2762 -12.0592 -4.50953
-16.6564 -11.1656 -4.64447
-13.895 -12.6567 -3.65201
-18.9884 -10.6853 -5.03197
-14.4933 -11.8709 -2.96996
-17.7668 -10.3538 -3.8232
-15.5463 -11.7503 -3.69253
-18.4005 -11.267 -3.2768
-15.4748 -11.8093 -3.19254
-15.7365 -11.0748 -2.6916
-18.8992 -10.5982 -4.25414
-20.2913 -10.5597 -4.24872
-19.0442 -10.7791 -4.08082
-15.1809 -11.921 -3.05049
-19.98 -9.6598 -4.82932
-19.0086 -11.4664 -3.92175
-23.2279 -10.2358 -5.17382
-16.0726 -10.5731 -2.15455
-19.9145 -10.3569 -2.95743
-15.5013 -12.3712 -2.26734
-15.1664 -12.6661 -2.42935
-14.2409 -12.7663 -2.3552
-14.6792 -12.2261 -2.23054
-15.516 -12.1462 -1.6264
-15.6344 -12.0258 -2.02141
-16.1531 -11.7533 -2.49882
-15.8227 -10.8405 -2.46556
-15.7669 -10.8572 -2.10116
-15.9249 -11.2845 -3.11068
-15.6544 -11.6261 -2.95512
-17.3879 -11.2081 -1.71764
-17.2181 -10.5625 -2.29943
-16.2991 -11.2678 -1.96095
-16.5352 -10.5836 -2.1736
-14.8029 -12.3154 -1.25578
-17.2788 -11.5289 -2.78208
-18.0576 -10.7087 -1.79595
-20.4995 -11.4137 -3.40551
-17.0346 -11.1222 -2.87892
-17.1253 -11.8605 -2.99652
-16.9108 -11.7583 -2.36301
-15.8215 -11.4456 -1.49773
-15.6903 -11.4763 -0.380358
-16.5018 -11.1548 -1.07805
-16.0913 -11.5169 -0.49811
-16.7511 -11.2303 -0.869631
-16.4295 -11.1363 -1.07057
-17.147 -11.6446 -0.331323
-18.1936 -11.0509 -0.716378
-17.4851 -11.6344 -0.206258
-16.1846 -12.2263 0.360461
-17.4017 -10.9178 0.147085
-15.7357 -11.4016 0.0385203
-16.8375 -11.5378 0.896785
-16.3629 -10.4298 -0.790454
-16.0859 -10.9177 0.602712
-18.3155 -10.4026 -0.0839073
-18.8866 -10.5885 0.63824
-18.7674 -10.895 -0.57871
-16.9208 -9.41447 1.48575
-19.989 -8.74357 1.68961
-17.0773 -11.7561 -4.79615
-15.8461 -10.7488 -4.38538
-19.0743 -11.138 -4.82604
-18.9433 -11.8214 -4.51056
-17.3124 -11.9163 -4.7406
-18.8977 -11.252 -4.6867
-15.4767 -12.2136 -3.66946
-15.7597 -10.4494 -2.31416
-15.2363 -12.2966 -2.41837
-15.7661 -10.8455 -2.76446
-14.9889 -10.8726 -2.65944
-15.2118 -11.601 -3.58227
-16.2221 -10.6316 -2.94323
-18.7878 -10.2517 -2.95997
-15.627 -10.5811 -2.25824
-14.7917 -12.6052 -1.74443
-15.9485 -10.5042 -1.83536
-15.1048 -11.9532 -2.86665
-14.3514 -12.7525 -2.10934
-16.101 -10.9809 -2.75287
-15.0997 -11.1816 -1.16788
-15.4031 -10.7278 -1.6379
-15.7265 -11.0701 -2.79849
-15.8443 -11.9267 -3.21093
-15.1147 -11.3775 -1.6595
-16.28 -10.4589 -2.43826
-17.6321 -11.2209 -1.3063
-14.5683 -11.5939 -2.23188
-19.3114 -10.8445 -3.08872
-17.5041 -11.4379 -1.76261
-16.1523 -11.7734 -1.53815
-15.0125 -10.8375 -0.801368
-16.4076 -11.9258 -1.53236
-16.0744 -11.7987 -1.01639
-17.2592 -11.4638 -1.46187
-17.6191 -10.4837 -0.19849
-16.2143 -11.2931 0.144513
-16.082 -10.932 -0.528322
-16.4242 -10.4334 -0.348657
-15.9217 -11.458 0.387765
-16.1986 -10.8752 -0.824605
-17.6443 -11.1125 0.647998
-18.0203 -11.0926 0.962474
-18.9078 -11.4268 -0.22514
-15.064 -12.4658 -2.25239
-14.7764 -13.1404 -2.17521
-14.0397 -11.9511 -3.00361
-18.3552 -11.547 -4.31319
-15.679 -11.2838 -2.38443
-16.263 -11.1499 -3.81664
-15.8868 -11.3499 -2.62353
-17.8439 -9.72966 -3.28435
-16.5719 -11.285 -2.51032
-17.0536 -10.749 -2.13367
-15.4384 -12.0268 -2.19637
-17.6253 -10.8311 -2.72563
-14.639 -11.6886 -2.58112
-19.0422 -10.822 -2.36224
-15.6035 -12.1085 -2.28356
-16.9214 -12.4928 -1.70167
-20.3931 -11.046 -2.32056
-17.0834 -11.8013 -1.45476
-14.8507 -11.2331 -1.81624
-15.5231 -11.172 -1.57095
-17.0627 -11.8068 0.125038
-19.7553 -11.2509 -2.47052
-16.2695 -11.2747 -0.90036
-17.046 -11.0393 -0.456178
-17.5866 -10.4295 0.461339
-17.8371 -11.7495 -0.933123
-19.9665 -10.2713 0.864837
-21.69 -11.238 -0.0586296
-15.5366 -11.7361 0.00909528
-16.2172 -11.2949 0.553634
-16.0481 -10.8309 0.321374
-14.2342 -11.995 -3.54759
-16.1689 -11.4932 -3.88029
-15.5222 -11.9127 -2.94529
-14.9862 -13.193 -1.76132
-15.8983 -11.445 -3.27775
-15.9646 -11.2801 -1.31518
-15.2798 -11.1354 -1.24298
-17.0335 -11.7034 -0.484137
-16.3815 -11.4127 -0.70684
-18.4222 -10.4726 -0.0223675
-15.5099 -12.0974 -0.374179
-15.6984 -10.4395 0.654705
-15.5419 -11.2544 -2.32755
-16.403 -10.5358 -2.59139
-15.7876 -11.2312 -1.62712
-17.45 -10.6179 -1.1469
-17.7654 -10.2257 -1.68686
-16.6957 -10.7128 -0.203291
-17.1299 -10.5853 -0.926816
-17.5154 -11.9484 0.0263451
-16.5584 -10.4242 -0.879617
-17.9192 -11.8648 -0.496242
-20.0459 -10.4238 -0.684078
-14.9453 -12.1343 -1.91328
-15.428 -11.2404 -1.94512
-15.8247 -11.8271 -1.46166
-16.1621 -10.9346 -1.57427
-15.1166 -11.3805 -1.7234
-16.7766 -10.119 -2.02823
-16.5293 -11.0742 -1.09755
-16.2985 -9.77014 2.43953
-15.8055 -10.8212 -3.11386
-16.7732 -10.8273 -2.23131
-16.5176 -11.7774 -1.07921
-17.4418 -11.9001 -1.01522
-16.1239 -11.7105 -0.362182
-16.8955 -10.9921 -1.79458
-14.6922 -12.5346 -1.94841
-17.0882 -11.4874 -0.594324
-15.9731 -11.2827 -1.76504
-16.1454 -11.7848 -1.08308
-17.2817 -10.8003 -0.805153
-17.4707 -11.4754 -2.10153
-23.0826 -8.84472 -4.5502
-21.1109 -10.2059 -4.17627
-18.6229 -11.3436 -5.59523
-20.3267 -11.3634 -4.72932
-20.6141 -10.8621 -4.53427
-20.0108 -10.8373 -4.62279
-18.9171 -10.3767 -4.76195
-19.5869 -10.4336 -5.02161
-19.1773 -10.5996 -4.04106
-18.5072 -11.0568 -5.52107
-21.0169 -11.178 -4.25272
-20.9786 -12.1853 -3.87837
-21.0012 -10.6361 -2.79303
-17.7852 -10.9637 -5.06139
-21.123 -10.7146 -3.14051
-19.7452 -11.5861 -4.15971
-19.0467 -11.0997 -4.23067
-20.6459 -10.7003 -3.17867
-19.4067 -10.6504 -3.5644
-19.0085 -10.9548 -3.8438
-18.3735 -10.7098 -3.97178
-19.307 -10.2762 -4.04209
-19.9518 -9.32106 -3.11843
-18.8106 -11.906 -3.46411
-18.2586 -10.3822 -3.63345
-19.7498 -10.2708 -4.28119
-20.3336 -10.4009 -3.27463
-16.9724 -11.5712 -5.27978
-17.2166 -12.2931 -3.87719
-18.1057 -11.6145 -4.82934
-17.9065 -11.4513 -4.6081
-20.245 -11.0069 -3.36875
-19.1915 -10.196 -3.2924
-20.1814 -10.682 -3.23339
-16.89 -11.9489 -4.03964
-20.464 -10.6714 -3.4865
-16.9507 -11.3551 -3.95374
-19.5739 -10.505 -3.42523
-21.4308 -9.86495 -1.72791
-16.5026 -11.9317 -4.11677
-17.1986 -10.564 -2.81487
-16.5138 -12.2319 -2.63913
-16.7943 -10.6325 -3.79453
-17.0811 -10.16 -4.38645
-16.7832 -11.2399 -4.03752
-16.4423 -12.0672 -4.17811
-19.3967 -11.9763 -3.29429
-19.2537 -10.6979 -2.92058
-21.5313 -11.6619 -2.18427
-18.5786 -10.7001 -2.31573
-16.3439 -11.8021 -3.80283
-20.8905 -11.1452 -1.12394
-15.9499 -11.3901 -3.53795
-16.6775 -11.2705 -3.16846
-15.6867 -11.6442 -3.00271
-15.7825 -11.3704 -3.42755
-15.6992 -11.9507 -3.90452
-18.6493 -10.6934 -1.73196
-21.4564 -10.978 -1.60477
-17.4415 -9.88668 -2.0243
-20.6955 -9.31826 -2.07108
-18.1374 -10.2821 -1.88217
-15.8565 -11.8169 -2.55825
-19.0665 -11.0005 -2.51298
-22.0826 -10.1345 -0.608561
-21.2951 -9.93125 0.702141
-16.5694 -11.8835 -4.22068
-21.7853 -11.1327 -0.210397
-18.9932 -11.6041 -0.743752
-20.9108 -10.9358 0.196165
-20.9246 -9.2907 -0.45584
-15.7377 -12.2638 -3.69789
-21.5241 -9.88311 -0.0124492
-21.2533 -10.9673 -0.323433
-17.162 -10.2287 -1.91802
-16.3091 -11.9153 -3.22204
-17.3607 -10.8667 -1.81254
-15.2538 -12.2907 -3.55152
-22.3472 -9.85554 0.597294
-15.9614 -10.9563 -1.87632
-15.5113 -12.7701 -4.32079
-15.1348 -11.9563 -3.53238
-16.4933 -10.3544 -1.43689
-20.3966 -10.4217 0.753105
-16.1478 -11.6743 -2.78839
-15.7145 -11.0787 -2.79907
-15.5559 -11.5275 -2.19048
-17.9567 -11.2742 -1.79337
-14.5284 -12.4628 -4.12906
-16.1289 -11.9536 -2.12545
-14.7082 -11.7527 -3.1924
-15.0353 -11.9166 -4.095
-14.1676 -12.5447 -3.13847
-14.3501 -13.1294 -3.81298
-14.7921 -12.7449 -3.31149
-15.0335 -11.8232 -3.04266
-14.3668 -11.9976 -3.29367
-17.1632 -9.12242 0.663166
-15.9907 -11.2182 -2.11413
-16.5352 -9.47959 0.733328
-15.5377 -12.2332 -3.3727
-20.7905 -11.6779 0.121867
-16.9122 -10.0173 1.20219
-15.3394 -12.5421 -3.34827
-16.6905 -10.5276 0.645476
-19.4951 -11.1329 -0.909617
-16.8696 -9.69865 0.665484
-14.475 -13.0723 -3.35311
-14.5552 -12.1731 -3.1685
-16.2252 -10.8151 -1.0724
-15.5194 -12.2193 -2.95186
-15.165 -12.9374 -3.03469
-15.1492 -12.6712 -2.40757
-14.6471 -12.3191 -3.59639
-16.9698 -10.5309 -2.10917
-13.9075 -12.3038 -3.53628
-15.0605 -12.0489 -2.58377
-14.813 -12.3897 -2.45569
-15.3576 -11.6485 -2.74806
-15.1294 -12.5036 -3.02009
-14.3677 -12.5581 -3.47181
-17.4849 -10.2239 0.424267
-18.5827 -9.63864 0.891727
-16.6901 -10.9788 -0.99248
-18.1103 -10.9946 -0.663653
-14.0139 -13.2125 -3.35032
-14.3391 -11.6135 -2.30021
-16.9734 -11.5821 -0.880236
-17.4176 -11.7121 -1.80458
-16.7608 -8.51533 1.44474
-16.3128 -11.1381 -0.37311
-17.6621 -10.8729 0.368024
-16.1197 -12.4645 -1.50132
-16.9624 -11.4993 -0.898744
-14.3104 -11.2411 -2.24572
-18.0261 -10.2016 0.427585
-17.1561 -11.1087 0.545861
-17.4361 -10.6213 0.61726
-17.0435 -10.9421 0.493705
-14.6718 -12.7385 -1.94651
-16.9005 -9.84931 1.63737
-16.393 -11.8734 -0.524958
-17.6983 -10.6234 -0.0334505
-17.0874 -11.0027 -0.0773808
-16.8024 -11.4667 -1.10243
-17.0049 -12.4549 -0.453548
-15.7044 -11.3829 0.368986
-16.7287 -12.0502 -0.67476
-16.218 -11.4534 -0.371048
-16.3691 -11.988 -0.377533
-16.8244 -11.5124 0.134475
-16.2751 -11.7775 -1.14591
-16.4999 -12.149 -0.815519
-16.929 -11.3801 -0.955938
-16.091 -10.8816 0.708414
-15.6276 -11.8329 -0.874741
-16.0426 -11.1295 -1.09984
-16.7342 -11.8335 -0.556055
-16.185 -10.445 -0.733459
-16.1722 -11.1259 -0.305473
-16.2089 -11.0264 -0.352891
-16.743 -10.9888 0.178074
-15.5182 -11.7248 -0.504155
-16.1411 -11.9581 -0.373816
-15.6506 -13.2922 -1.57304
-16.4592 -11.953 -0.904914
-16.896 -11.1412 -0.395855
-15.0471 -11.2896 -0.386825
-16.603 -11.0574 -0.266926
-16.1029 -10.2715 -0.0268372
-16.875 -10.8311 -0.315087
-15.1129 -11.8339 0.0560605
-16.589 -11.8878 0.409277
-16.2616 -11.9103 0.0101634
-15.187 -12.4422 -2.01797
-15.1292 -10.7859 0.574534
-16.9308 -10.9883 0.398318
-16.5183 -11.4124 -0.605882
-15.8102 -11.8452 -0.375008
-16.038 -11.7604 0.042813
-15.3126 -11.643 0.174954
-16.5831 -11.5067 0.32976
-15.849 -11.8419 -0.350626
-15.4929 -12.3224 -0.94109
-16.239 -11.3475 0.158667
-16.282 -10.9928 0.425339
-22.8527 -9.00288 -5.62055
-22.8991 -8.79321 -5.19132
-22.6937 -8.86252 -4.21001
-22.4705 -10.2808 -5.10454
-20.2759 -10.4603 -5.1963
-19.6967 -9.87175 -5.40732
-19.2602 -11.4354 -4.50443
-19.1624 -11.4865 -4.34031
-19.0753 -10.2563 -4.68338
-20.1538 -10.7304 -4.63391
-18.6526 -11.8263 -4.67502
-20.3063 -10.7924 -4.33769
-19.6486 -11.463 -4.49636
-20.238 -9.79802 -4.4861
-19.9332 -11.2964 -4.28133
-19.5263 -11.1896 -4.23954
-20.6078 -10.3943 -4.32781
-19.2645 -10.3031 -4.30088
-20.6095 -10.4633 -4.00022
-17.26 -10.9348 -5.09232
-19.3959 -10.2309 -3.22788
-19.6046 -10.8336 -4.01752
-18.8313 -10.4047 -3.68318
-18.6061 -10.9213 -4.48328
-18.5074 -11.2355 -4.89888
-18.0576 -11.769 -5.31229
-18.184 -10.9998 -4.12091
-18.9168 -10.508 -4.82415
-18.7545 -12.2309 -3.51614
-20.5723 -10.3445 -2.19676
-17.705 -11.1285 -4.99628
-17.27 -11.5219 -5.0495
-19.3451 -10.675 -4.48343
-17.032 -11.5006 -4.95993
-17.2605 -12.4053 -4.97059
-16.9466 -12.7504 -4.985
-19.6349 -10.1562 -3.27054
-17.673 -11.5921 -4.5391
-20.0397 -11.6916 -3.93385
-20.3097 -11.2186 -3.46161
-19.6187 -10.5693 -2.53473
-20.4979 -10.7403 -3.03851
-19.9888 -10.4232 -2.95124
-17.4966 -11.3784 -4.60427
-16.3726 -11.7806 -4.24177
-21.0141 -9.42747 -3.29887
-17.7247 -12.0867 -4.6472
-16.9962 -11.4428 -5.15202
-16.7776 -11.5854 -4.58954
-16.0153 -10.7677 -4.32228
-17.6509 -11.8138 -3.85634
-17.8026 -12.0498 -3.00957
-16.665 -11.4762 -4.57925
-15.3315 -11.0936 -4.25446
-16.5184 -11.5709 -3.53871
-16.7575 -11.4455 -2.89097
-17.089 -11.6738 -3.9385
-15.1155 -11.3013 -3.62786
-16.8116 -11.3657 -3.67937
-18.86 -10.2308 -2.52788
-20.7626 -11.2021 -2.2086
-20.338 -10.2046 -1.6551
-20.7623 -10.7095 -1.27484
-18.4461 -10.9193 -3.35488
-17.331 -11.8922 -2.895
-16.7552 -11.6422 -3.7305
-15.6946 -11.8079 -3.99573
-16.2121 -11.6768 -4.79956
-16.6293 -11.8494 -3.6897
-17.6317 -10.9745 -2.96535
-16.0867 -12.5785 -3.65628
-15.695 -12.3573 -5.08764
-18.7502 -11.159 -2.43125
-16.7032 -11.3876 -3.938
-20.3484 -10.7145 -2.99477
-17.0847 -11.4958 -2.16028
-19.3368 -10.9296 -1.13762
-16.9893 -10.8621 -1.95739
-21.1766 -10.2875 -1.84785
-16.6475 -11.7962 -2.11263
-15.8699 -11.3687 -1.74561
-16.4759 -12.4354 -2.14337
-17.2868 -10.2767 -1.71019
-17.2162 -10.6456 -1.90947
-15.7449 -12.0374 -3.4804
-15.86 -12.1479 -3.98784
-17.6137 -11.1157 -2.13053
-16.1144 -10.9852 -3.69896
-16.6188 -11.2622 -2.83631
-19.1216 -10.58 -1.21781
-15.6808 -11.3385 -4.42858
-15.5394 -12.1126 -3.26869
-16.1682 -10.9235 -2.83227
-21.6147 -11.0441 -0.236601
-16.3655 -12.2554 -3.84016
-15.8175 -11.2978 -3.04648
-20.5242 -10.853 0.0747529
-21.6696 -9.71572 -0.272551
-21.542 -9.98343 0.18233
-17.4693 -11.1453 -1.61877
-16.8532 -11.2819 -2.31921
-14.7471 -12.5421 -3.4766
-14.8173 -12.5624 -3.64706
-14.6675 -12.2924 -4.3681
-15.8722 -11.3701 -2.24694
-15.1341 -11.8531 -3.43428
-16.171 -10.556 -2.58066
-16.1179 -11.1074 -2.49917
-18.8874 -10.7754 -1.28039
-14.5357 -13.5782 -3.78568
-15.746 -10.6519 -1.73478
-15.1459 -12.2383 -4.0054
-20.5764 -10.3651 0.106526
-15.4889 -11.9874 -4.00879
-14.3195 -12.2509 -3.15094
-16.9765 -10.5943 -2.20742
-16.0356 -11.8418 -2.83758
-20.003 -10.8211 -0.752912
-17.5298 -11.1347 -1.3128
-20.0765 -11.0536 -0.249242
-15.9674 -11.12 -2.31395
-15.1674 -12.1049 -2.94818
-16.3438 -10.6056 -1.76615
-15.2415 -12.5568 -3.44356
-15.1123 -11.024 -2.35362
-20.0772 -10.5307 0.259605
-21.1678 -10.2846 -0.0304727
-20.2205 -12.1057 0.296048
-16.3601 -10.4651 -0.91676
-14.0421 -11.6573 -2.6455
-14.5009 -12.474 -3.66809
-14.1808 -12.3261 -3.0289
-14.6515 -13.0095 -4.41656
-14.2931 -12.3797 -3.33715
-17.0402 -9.33012 1.68364
-15.391 -11.7498 -3.45616
-17.172 -11.0039 -1.15186
-16.3226 -12.2649 -2.58577
-15.5043 -11.1176 -3.12597
-13.5713 -12.3393 -3.18434
-15.5699 -12.2662 -3.09153
-15.6325 -13.3097 -3.31189
-18.7837 -10.815 -1.08198
-14.006 -11.1248 -3.01771
-17.7185 -11.2152 -1.75235
-16.2578 -9.42873 1.76224
-18.1648 -10.4968 0.327097
-18.7532 -11.3044 -0.493431
-16.9128 -11.0388 -0.544826
-17.4969 -10.782 -0.238729
-15.0749 -11.7425 -3.60836
-18.4248 -10.6972 0.168424
-18.728 -10.1202 0.445883
-16.2941 -10.6822 -0.746287
-17.3096 -11.5516 -1.02279
-18.2186 -11.2179 -1.13307
-14.7015 -11.8741 -1.75828
-14.2966 -12.7826 -2.34102
-16.8425 -10.943 -0.767332
-18.0127 -10.3429 1.11824
-18.1066 -11.3484 1.26445
-17.8196 -9.98091 0.154809
-17.5248 -11.1172 1.30911
-16.0328 -11.8715 -2.02382
-14.8632 -12.029 -1.60695
-16.2251 -10.7755 0.206372
-17.4768 -11.4418 -1.07904
-15.5047 -10.5715 1.90692
-16.5942 -10.6519 -0.163737
-17.3228 -11.2309 -0.632347
-14.5145 -11.6559 -1.88918
-16.5564 -11.6127 -0.457121
-14.6853 -12.4283 -2.41386
-16.6627 -9.90486 -0.126194
-15.5789 -12.5969 -1.96737
-17.0234 -10.9631 -0.863582
-16.3411 -10.6021 -0.464521
-14.8001 -12.2608 -1.01568
-17.5174 -11.265 0.120937
-17.9106 -10.5659 -0.02266
-16.8906 -10.8298 0.0829867
-17.8258 -10.6685 0.147618
-15.516 -12.2074 -1.12807
-16.7578 -10.3354 -0.0747142
-15.4175 -12.0334 -0.938411
-16.5022 -11.4637 -0.943774
-15.6571 -10.8197 0.242974
-15.8025 -11.9565 -0.66196
-16.8204 -12.1115 -0.33814
-17.3962 -10.4968 0.388509
-15.7919 -11.1814 -1.18293
-15.097 -11.6532 -2.88871
-16.4558 -11.5432 0.0702529
-15.5741 -12.6376 -2.47909
-15.1317 -12.6673 -2.29625
-17.1569 -11.0044 0.0897942
-16.2326 -11.9681 -1.72225
-16.0226 -11.8593 0.0507243
-17.2302 -10.9293 -0.695003
-16.8852 -10.7442 -0.38575
-15.9932 -10.9974 0.320837
-17.2239 -10.832 0.930774
-16.8954 -11.1549 0.392292
-15.4048 -12.1448 -1.97464
-16.7766 -10.819 -0.19952
-15.6421 -11.5591 -0.468193
-15.7777 -12.2016 -0.742743
-16.1676 -10.823 -0.561121
-16.6472 -11.2396 -0.498221
-16.2917 -10.9558 -0.142166
-16.0887 -11.9407 -0.690657
-15.4886 -11.9219 -0.508289
-15.3896 -12.032 -0.880124
-16.309 -12.3659 -0.715343
-15.5687 -11.8342 -0.391251
-15.0479 -11.0931 0.144653
-15.7065 -11.1636 1.42065
-17.0482 -11.8319 0.875108
-15.6101 -11.8432 0.349566
-22.8479 -8.88972 -4.95425
-22.7382 -8.59492 -5.06597
-20.2679 -11.0422 -5.75807
-19.8423 -10.6739 -6.0303
-20.1189 -11.2009 -5.07183
-20.9425 -10.5102 -5.4348
-19.2003 -10.307 -4.59733
-20.4461 -10.5601 -4.22596
-20.6123 -10.8013 -3.6296
-20.1443 -10.7107 -4.10575
-19.4502 -10.5388 -2.98205
-17.9152 -11.4868 -4.83488
-19.9778 -11.083 -4.03795
-17.8814 -11.2983 -3.39411
-19.3161 -10.1889 -4.70076
-19.1242 -10.5542 -4.02079
-19.9001 -11.4019 -4.24085
-17.9602 -10.6531 -5.00523
-18.2943 -10.8381 -4.83032
-18.5569 -10.4106 -2.655
-18.0848 -12.1687 -4.22777
-18.3184 -11.5627 -4.67764
-17.8418 -10.4248 -3.00646
-21.0107 -10.5404 -2.49965
-17.6859 -11.9897 -3.79374
-21.2212 -10.2506 -2.74218
-18.7316 -11.7526 -2.52214
-19.1984 -10.0786 -4.05239
-16.7542 -12.3038 -4.0466
-16.4329 -11.2568 -4.68827
-17.9962 -11.0815 -5.12652
-16.1066 -11.4693 -4.26921
-20.1554 -10.5322 -3.30782
-16.7568 -11.4523 -4.35658
-19.9267 -10.9671 -2.85216
-16.2649 -12.2035 -4.67942
-19.8288 -10.1041 -2.44732
-15.4055 -11.163 -3.68768
-17.3701 -11.3811 -4.12057
-16.0182 -11.9909 -3.53107
-15.7209 -11.4243 -2.94385
-15.4527 -10.8606 -2.9559
-20.3219 -11.1823 -1.05671
-16.8234 -11.9889 -4.4672
-19.9107 -10.3421 -0.668179
-17.3467 -10.3298 -2.73182
-17.2523 -10.9189 -1.91614
-16.619 -11.6827 -2.50091
-18.969 -12.103 -2.32578
-17.4486 -11.4261 -2.47436
-17.1152 -10.697 -2.74195
-17.731 -11.2721 -2.05679
-15.9016 -11.5318 -2.56444
-16.2725 -11.4364 -2.69393
-21.5043 -11.1156 0.650848
-15.159 -10.8475 -2.12224
-15.4101 -10.7131 -3.20725
-16.416 -11.2412 -2.37601
-18.7166 -10.8849 -0.782891
-15.6283 -11.4708 -2.6206
-19.832 -10.8255 -1.52726
-20.7281 -11.2866 -1.23024
-18.7551 -10.511 -0.430415
-15.4396 -11.7518 -4.78023
-15.898 -11.3606 -3.24595
-15.1927 -12.1594 -1.90314
-21.0159 -10.6737 -0.389264
-14.8492 -10.6112 -2.30148
-17.4146 -11.7384 -1.13765
-15.5498 -11.0293 -1.64313
-20.9146 -11.3473 0.584329
-14.4169 -11.9566 -4.21184
-20.1851 -11.3722 -0.580707
-16.3197 -11.4701 -1.99667
-16.4083 -11.3292 -1.57033
-14.9373 -11.9266 -3.68814
-17.3712 -11.4876 -1.74497
-15.7582 -11.9586 -3.40617
-15.4631 -12.0908 -3.6422
-16.0695 -11.5657 -1.57527
-16.1851 -11.6799 -3.04509
-15.6946 -10.7513 -2.0315
-15.3427 -11.8447 -2.76071
-20.6081 -10.5355 -0.212734
-16.8891 -8.90585 1.1224
-20.455 -10.704 -0.146427
-15.5239 -11.7576 -1.56716
-16.1144 -11.3529 -0.967425
-16.7076 -8.73774 0.952995
-16.8037 -11.9038 -1.13354
-14.337 -12.3878 -3.51605
-14.215 -12.4176 -3.02266
-14.3439 -12.1771 -2.75377
-13.733 -12.2703 -3.13668
-17.9631 -11.8013 -1.11158
-14.1798 -11.698 -3.21079
-15.1937 -12.2235 -2.79759
-17.0924 -11.2701 -0.562851
-18.84 -10.4323 -0.532861
-16.8188 -10.9236 -0.856883
-18.5418 -10.4462 -0.214765
-15.1318 -11.9416 -2.76159
-18.7756 -10.6652 0.525546
-14.4783 -12.2929 -2.22753
-14.9114 -12.4975 -3.17082
-18.6311 -11.3486 1.21956
-17.1044 -11.7328 -0.631857
-17.0074 -11.5447 -0.472961
-16.3033 -8.94792 2.13282
-16.4781 -10.2847 -0.450475
-15.0948 -11.8395 -2.75728
-14.7375 -12.2517 -1.2344
-16.6172 -11.638 -0.568738
-16.7982 -11.9193 -1.43208
-14.7907 -12.0102 -1.86908
-15.3787 -11.1239 -0.665124
-16.1284 -10.7857 -0.735873
-15.7026 -10.6231 -0.30289
-15.4335 -12.3531 -2.65337
-16.8497 -12.3477 -0.361211
-17.2356 -11.4106 -0.129138
-15.5699 -11.6427 -1.32284
-16.4444 -11.03 0.10766
-16.5292 -11.5404 -0.684495
-15.5727 -11.5768 -1.72266
-15.4248 -11.5964 -0.833525
-15.1839 -13.3133 -2.80557
-17.1817 -10.4861 0.238767
-15.9432 -12.3591 -0.595225
-14.4091 -12.4718 -2.81549
-15.2783 -11.0004 -0.7992
-17.687 -11.3957 1.10182
-15.8098 -11.1935 -0.820153
-16.5777 -10.8075 -0.94946
-17.3977 -11.1866 0.453689
-16.2498 -11.2131 0.523746
-16.7769 -10.9125 -0.972854
-15.9282 -11.7586 -0.179288
-16.569 -11.6583 -0.263731
-15.2398 -11.6392 -1.31347
-16.8654 -11.3027 1.59562
-16.309 -11.0275 0.582391
-16.8149 -10.0371 0.136565
-15.9182 -11.0836 0.0544742
-16.3163 -12.1761 -0.0895181
-16.4572 -11.2465 -0.865157
-16.5689 -12.5308 -0.481201
-14.9033 -10.8668 -0.102689
-16.2361 -11.7703 -0.436917
-15.3672 -11.5369 -1.29903
-15.92 -11.8102 -0.584293
-15.953 -11.2293 0.640916
-16.2843 -10.9457 -0.288328
-15.6778 -11.6199 -0.481594
-16.5613 -12.4786 0.912233
-16.2512 -11.1984 0.610787
-16.4187 -11.8539 -0.574989
-15.6857 -11.7217 -0.212349
-22.4102 -9.51445 -4.66923
-20.2376 -10.662 -3.70064
-18.4006 -11.8837 -4.189
-17.0927 -11.0014 -4.62854
-17.5082 -11.681 -4.18958
-18.5224 -11.9672 -4.42169
-17.3336 -11.1484 -3.53224
-18.4153 -11.7521 -3.66759
-19.707 -10.9747 -3.55709
-16.6231 -11.1438 -4.02317
-16.6611 -11.5296 -4.03586
-17.3345 -10.813 -2.96121
-19.4434 -10.8727 -3.0701
-16.5551 -11.2437 -4.81405
-16.8363 -11.5408 -4.18656
-16.7858 -12.0823 -3.4844
-16.5926 -11.5605 -3.76047
-16.2487 -11.0044 -3.33574
-15.8582 -11.9353 -4.38304
-15.9546 -11.5883 -3.20229
-15.477 -11.2286 -3.47746
-20.9987 -10.8011 -2.21765
-15.8247 -11.5687 -2.31944
-16.775 -11.4938 -3.36681
-16.8907 -10.3081 -3.07692
-17.2176 -11.6018 -3.44068
-16.0012 -11.6711 -3.82527
-16.0795 -12.4117 -4.18069
-15.6611 -11.8518 -4.27477
-16.4805 -10.5699 -2.18069
-21.4676 -10.6362 -1.17206
-16.2131 -11.637 -2.82006
-18.0317 -10.94 -0.504542
-16.8517 -11.2756 -1.88252
-15.4559 -12.0932 -3.72658
-15.9363 -11.2253 -3.44462
-15.4561 -12.3809 -2.17492
-16.2522 -10.7611 -1.79626
-17.1888 -11.0743 -2.46972
-15.8285 -10.5895 -2.60299
-15.6176 -12.704 -3.43585
-16.067 -11.6829 -2.63419
-15.9466 -11.5211 -2.73117
-15.9883 -11.4861 -1.85542
-15.8797 -10.8952 -1.80391
-14.6081 -12.5489 -4.09769
-14.9724 -12.5292 -3.80739
-14.8985 -11.94 -3.47076
-14.1504 -12.557 -3.29218
-14.6963 -11.742 -3.7106
-20.0495 -11.1088 -0.2452
-15.0564 -11.7185 -2.52891
-14.3057 -11.9531 -3.55081
-20.1159 -11.3921 0.169373
-17.5177 -12.7502 -1.25773
-17.1403 -11.5128 -1.7708
-18.5167 -10.9195 0.371753
-16.6979 -11.1384 -0.732068
-16.2565 -11.8406 -2.21319
-15.5911 -11.1664 -1.53336
-14.3724 -11.9031 -3.49885
-16.4953 -11.4656 -1.56209
-15.4466 -11.8394 -2.23884
-17.0495 -11.7393 -0.837635
-15.8743 -12.3028 -2.88978
-15.973 -12.6102 -1.70381
-18.9105 -11.0173 0.267625
-18.1231 -11.2176 -1.29315
-18.903 -9.54386 0.426397
-15.7532 -10.9261 -2.12172
-17.9373 -10.4721 0.92756
-16.8161 -11.6565 0.098528
-17.8103 -9.38087 -0.173328
-18.0274 -11.5641 0.0402264
-16.0736 -11.087 -1.26867
-17.3187 -11.9937 0.116097
-17.2215 -10.759 -0.228513
-15.0434 -10.9112 -1.53036
-17.7383 -10.2667 0.642883
-17.3594 -10.834 -0.343902
-17.6032 -10.9888 0.298359
-16.7047 -11.477 -0.833146
-16.5474 -10.8627 -0.67586
-16.0698 -12.3385 -2.25045
-16.8505 -9.28631 -0.072962
-17.5825 -11.378 1.22083
-17.9641 -10.5951 -0.206457
-14.5939 -13.7658 -1.95287
-16.3105 -11.7456 -0.107648
-16.101 -11.6036 -0.817329
-15.9338 -11.5793 -0.0978094
-16.0803 -11.697 -0.44976
-15.4812 -12.2109 -1.54114
-15.896 -11.3187 -1.35385
-16.106 -11.3393 -0.350215
-16.8584 -11.4109 0.0284125
-16.3956 -11.9664 0.137768
-16.0155 -10.5292 0.10198
-15.9941 -10.7224 0.00998892
-16.7743 -11.3022 -0.381059
-15.5686 -12.2479 -1.87582
-16.4155 -11.4569 -0.603424
-16.7544 -11.4882 0.253107
-15.6834 -11.8479 -0.252386
-15.6647 -12.0037 -0.242942
-15.6808 -10.6973 0.691354
-16.5802 -12.281 -0.814854
-19.6419 -10.7754 -4.6144
-18.6508 -11.3 -4.08552
-20.6107 -10.3409 -3.3321
-16.8568 -10.5955 -2.01808
-16.9378 -11.8383 -4.61595
-17.465 -10.1819 -2.61554
-17.4829 -11.0164 -2.60472
-16.684 -10.233 -3.04713
-16.5046 -12.14 -4.58015
-16.1467 -9.89881 -3.31702
-16.6018 -10.7432 -3.90922
-16.5209 -12.1952 -3.46326
-19.5037 -10.7213 -2.25629
-14.9129 -11.6426 -3.10763
-15.4398 -10.1956 -2.94098
-15.5571 -11.0359 -3.61581
-15.6305 -11.6894 -3.00477
-16.2853 -11.8593 -3.43704
-15.2191 -12.4247 -4.14944
-17.1398 -11.5044 -3.30777
-15.9527 -12.1538 -3.39396
-16.1154 -12.42 -3.16492
-15.8124 -11.1313 -2.14754
-15.9704 -12.0088 -1.38008
-15.4402 -11.4388 -2.7288
-15.505 -12.0151 -3.00255
-14.3857 -11.5475 -3.34232
-16.2362 -11.2829 -3.36552
-20.33 -11.1532 0.55259
-17.7634 -11.6452 -3.10558
-15.4191 -13.1345 -2.51803
-16.835 -11.9988 -1.88857
-15.3584 -12.3353 -2.497
-16.1231 -11.2063 -1.03474
-16.2452 -9.66423 0.844245
-14.9044 -13.1429 -3.46908
-18.1385 -11.2272 0.0332501
-15.5236 -12.925 -3.39467
-15.8788 -8.09293 0.219976
-16.6613 -10.5991 -0.94035
-15.1691 -11.3286 -3.96692
-19.2226 -10.4967 0.372142
-18.3842 -9.93344 -0.158233
-18.4481 -10.6246 -0.221986
-14.9915 -12.201 -1.85127
-17.8084 -11.7428 -0.944935
-15.7725 -11.6366 -1.21327
-15.8168 -11.9096 -0.808039
-16.5396 -11.4792 -1.18259
-17.5817 -11.173 1.07261
-14.0151 -12.5805 -1.9982
-15.8344 -12.4428 -1.27712
-15.3245 -11.5621 -2.0214
-16.0199 -11.59 -1.07369
-16.3681 -11.5392 0.274752
-16.2076 -11.1188 -0.275971
-16.6203 -11.2159 -0.462647
-16.1195 -11.7287 0.160134
-16.7387 -11.4788 -0.469059
-15.7023 -12.4089 -0.0239097
-14.7453 -11.6899 0.367851
-15.4925 -11.1814 1.02376
-16.3035 -11.1571 0.0197023
-15.958 -12.0382 0.603906
-22.8572 -9.88018 -5.08616
-18.5198 -10.0335 -4.37663
-17.9802 -11.2908 -3.5953
-16.236 -11.028 -2.40085
-15.4057 -11.347 -3.49719
-16.084 -11.8513 -2.71052
-15.9771 -11.5518 -3.20201
-18.2224 -10.6711 -1.95277
-18.2898 -10.4344 -0.981796
-19.3767 -10.9561 -0.969434
-16.4392 -11.7655 -0.913292
-18.5877 -11.3843 -0.947533
-16.7192 -11.2631 -1.51872
-18.6857 -10.6025 -1.04265
-16.9149 -11.0809 -0.572903
-14.4931 -12.5243 -3.09689
-18.097 -10.5337 1.14565
-18.4664 -11.2667 -1.15764
-17.9301 -9.56137 -0.349495
-17.1089 -10.3089 0.347832
-18.1309 -10.0063 0.844431
-15.4356 -11.1789 -1.4647
-15.0584 -12.2358 -1.4514
-16.0489 -11.8816 -0.59136
-16.8706 -11.2626 0.387801
-14.996 -13.355 -1.02129
-15.8028 -12.3303 -1.40732
-17.3391 -11.4571 -1.07247
-15.8971 -11.1749 0.130374
-16.3907 -11.757 0.871466
-16.3527 -11.8518 -3.70796
-16.2724 -10.6808 -3.96764
-16.2732 -11.4437 -2.51545
-17.7822 -10.3295 -1.34088
-16.0131 -10.7745 -1.52873
-20.1016 -10.7089 0.706079
-15.0435 -11.8482 -2.27168
-15.0446 -12.2857 -2.73613
-18.0175 -10.4333 -1.55287
-15.2236 -12.0618 -3.05664
-16.6601 -10.5195 -0.445175
-16.4496 -12.0899 -0.448304
-16.9874 -11.9653 -0.931794
-17.5903 -10.9992 0.195475
-16.4118 -11.1401 -1.48185
-16.1485 -10.5806 -0.261354
-14.9355 -11.893 -0.218274
-22.559 -9.90098 -4.19308
-16.0804 -10.113 -2.5277
-15.8459 -12.0677 -4.21223
-18.1687 -10.189 -1.90087
-16.6109 -10.4608 -1.29072
-17.7668 -11.3939 -1.83109
-16.8847 -11.7412 -1.13204
-15.2972 -11.4345 -2.61287
-15.6291 -11.0781 -1.58642
-15.1935 -12.2844 -1.34988
-16.4847 -10.6818 -0.874423
-18.2711 -10.203 0.457657
-17.2277 -11.4412 -0.916332
-14.6917 -11.6079 -2.55589
-16.7087 -10.9496 -1.2322
-16.6623 -10.8415 -0.114728
-15.4013 -11.7377 -2.26695
-15.1675 -11.4571 -0.938261
-15.6563 -11.4707 -2.2404
-15.9001 -11.9105 -0.690131
-16.9119 -10.4441 -1.0289
-18.8316 -10.9456 -3.20881
-18.0408 -10.6349 -0.633062
-16.8763 -12.008 -2.26215
-16.4258 -11.356 -2.5029
-16.9066 -11.1231 -0.43881
-16.0932 -11.6251 0.0145176
-17.5628 -11.2849 -3.43811
-16.0623 -10.8747 -1.31334
-15.9408 -11.1754 -2.02749
-17.3745 -11.7357 -0.635639
-15.7768 -11.0229 -1.23619
-16.0863 -11.3922 -1.12418
-16.694 -11.6444 -1.81018
-15.7958 -11.3929 -1.46869
-17.638 -10.1057 -2.21876
-16.6509 -11.4127 -0.892868
-15.2192 -11.1669 -2.45799
-15.3431 -12.8342 -1.76993
-15.2134 -11.6499 -4.00484
-16.4565 -9.14912 1.7542
-16.9882 -8.58375 1.89187
-17.4253 -9.50259 1.23162
-17.0552 -8.93336 1.09555
-22.2214 -10.354 -0.0497454
-23.2146 -8.71904 -4.94073
-21.6286 -10.3658 -0.473448
-21.1069 -11.0367 0.00344258
-21.6443 -10.6186 -1.33132
-17.9138 -10.8334 0.561392
-20.2779 -10.9734 0.17258
-20.783 -10.8196 -2.47565
-19.3035 -10.4857 0.0155063
-20.5121 -10.101 0.614961
-21.0389 -10.4299 -0.926306
-20.383 -10.8409 -0.149215
-21.1825 -10.0253 -4.3727
-18.2051 -10.5736 1.18383
-20.3901 -10.7251 -2.18102
-17.8515 -9.83249 -0.197756
-18.1078 -11.5712 0.239831
-17.6568 -10.1253 0.840271
-20.1313 -10.8832 -2.38738
-20.2771 -10.1802 -3.64935
-20.8833 -11.1682 -4.77312
-16.5258 -10.4254 1.11287
-20.0501 -11.9026 -3.55286
-20.3879 -10.1464 -4.73987
-20.5118 -10.598 -2.07139
-19.0652 -10.6091 -4.10876
-18.4033 -10.942 -4.06775
-19.1594 -10.7821 -4.36822
-19.8467 -11.1801 -2.45472
-19.4376 -11.4089 -3.51127
-19.7472 -10.4239 -3.20386
-19.1485 -11.0513 -4.9344
-17.7717 -11.0486 -0.502526
-19.491 -11.0963 -2.64965
-17.2701 -10.6097 -0.200995
-17.1767 -11.1333 -0.858037
-16.9459 -11.1265 -0.521367
-17.8148 -11.3485 -0.736568
-18.9333 -10.8448 -3.65439
-16.9979 -10.1464 0.360915
-19.8616 -10.7181 -4.46236
-17.1169 -11.0969 -0.349387
-16.8474 -11.0616 0.0975675
-15.2398 -10.9331 0.272105
-17.0973 -10.0765 -0.798233
-19.1953 -10.6687 -3.20168
-16.55 -10.4785 -0.712472
-16.9973 -10.4587 -0.214514
-19.1769 -10.6657 -4.58361
-18.6375 -10.4071 -5.27488
-18.7267 -11.5078 -3.64414
-17.5451 -9.83425 -1.7679
-16.7431 -10.5917 -0.520329
-17.0727 -11.2571 0.406645
-16.3708 -11.0006 -0.996548
-16.7624 -10.7083 -0.909767
-15.9476 -10.4761 -0.2749
-16.1116 -11.1782 -0.591791
-16.9115 -11.2195 -0.896714
-16.6772 -11.8004 -1.38422
-16.3129 -11.9356 -0.236608
-16.2822 -10.18 -1.19948
-17.135 -10.9521 -0.135516
-16.1422 -11.3082 -0.395761
-16.7629 -10.6417 -0.485926
-16.7768 -10.4923 -0.773452
-16.3475 -10.8636 -0.739306
-16.7139 -10.9751 -0.330771
-15.8022 -11.5888 -0.569463
-16.778 -11.4393 0.0502615
-16.4977 -11.0675 -1.32933
-16.7254 -10.9647 -0.0210175
-16.4801 -11.8948 -1.27208
-17.4892 -11.6545 -4.76521
-16.5439 -10.6715 -1.07234
-17.2742 -10.9969 -3.9632
-15.9693 -11.1715 0.10784
-17.4603 -11.6355 -3.64061
-16.2462 -10.666 -1.68721
-16.0811 -11.6354 -0.173522
-16.4721 -12.1769 0.120563
-15.1827 -11.5099 -1.92623
-16.1388 -10.0164 -2.61285
-17.557 -11.9676 -4.01483
-15.6604 -10.3903 -1.481
-16.3161 -11.864 -2.9139
-15.6233 -11.1495 -0.161523
-17.408 -11.1701 -3.96953
-16.8597 -11.2485 -5.41689
-15.4512 -12.0471 -5.19219
-17.4919 -10.9246 -4.57042
-17.1137 -11.4849 -4.04071
-16.0778 -12.2384 -3.60602
-16.8623 -11.582 -4.05869
-16.593 -12.2405 -4.53906
-17.2391 -10.6752 -3.89756
-15.3502 -11.5845 -0.635188
-16.2367 -11.5589 -4.30178
-16.552 -11.9327 -4.03047
-16.2903 -11.8979 -4.7973
-16.7643 -11.1088 -3.96953
-15.8867 -13.432 -4.75274
-15.5461 -11.9448 -2.12988
-15.2779 -11.3624 -3.30938
-15.0376 -11.3316 -2.69772
-14.9773 -11.4559 -3.05295
-14.9823 -12.1058 -3.01053
-15.9521 -12.5132 -2.59336
-15.7156 -12.1805 -3.70266
-14.3821 -12.8558 -2.40749
-14.5551 -12.2395 -2.45354
-14.7511 -12.4461 -3.61266
-14.628 -12.6989 -3.1531
-14.3787 -11.4606 -2.10049
-15.0743 -12.9832 -2.66888
-14.7579 -12.473 -3.40031
-13.778 -11.9157 -2.64815
-15.1944 -11.8547 -3.70786
-14.948 -12.2497 -3.91765
-14.4463 -13.2435 -2.24879
-14.3167 -11.9647 -3.2815
-14.7021 -12.2689 -2.34897
-15.0689 -12.0159 -3.96357
-15.4922 -11.7425 -3.53576
-13.9233 -12.1598 -3.56066
-15.2757 -12.4874 -3.16262
-14.3751 -12.5942 -3.0923
-13.8523 -12.7616 -2.8132
-16.0594 -11.6967 -3.53171
-14.0477 -12.4838 -4.20942
-14.1012 -12.3982 -3.32322
-13.988 -12.9782 -2.50187
-22.1655 -8.35425 0.827135
-17.4616 -9.22525 1.0651
-21.7369 -9.95792 0.707223
-20.9162 -10.6462 1.82707
-22.3678 -9.63801 -0.399151
-22.9599 -9.86568 -5.03953
-20.8196 -10.6387 0.566297
-20.9614 -9.90253 -0.176166
-19.4176 -11.2735 -0.363706
-20.771 -10.5628 0.347923
-20.8611 -10.5187 -1.22848
-20.5227 -9.98716 -1.15103
-19.8607 -10.5945 -1.25018
-21.4048 -10.9103 -2.51289
-19.9066 -9.96691 -0.7131
-19.9993 -11.1406 -0.684984
-17.0476 -10.541 1.15074
-20.4019 -11.4638 -1.32502
-20.713 -10.6441 -3.1697
-18.5012 -10.5232 -0.953898
-19.9131 -10.7337 -1.74259
-20.1488 -11.1976 -2.9754
-19.0189 -9.63658 -3.07198
-20.8251 -10.2867 -4.40565
-17.0327 -10.2114 0.461023
-18.9368 -10.5384 -0.451097
-20.5814 -10.1596 -4.8247
-20.2119 -10.9441 -3.87214
-19.9258 -10.3755 -4.76118
-19.8683 -10.6905 -3.3191
-19.9102 -10.6235 -4.42627
-19.6233 -10.7046 -4.82158
-19.8887 -10.426 -2.39467
-20.2788 -11.0867 -0.999099
-18.5116 -10.3429 0.400021
-20.6551 -10.6327 -4.40494
-19.7175 -9.99851 -4.6218
-18.9517 -11.3873 -2.26684
-19.3843 -10.1924 -4.98966
-19.0465 -10.0174 -2.99922
-18.2708 -11.1165 -0.61999
-18.4161 -10.5985 -0.575146
-16.3504 -11.9915 0.555232
-18.1708 -10.9521 -2.15455
-16.9765 -11.7593 -0.164015
-18.0709 -10.7056 -1.50629
-17.1925 -10.6774 -0.271181
-18.7267 -11.7706 -0.691223
-19.5597 -10.373 -4.51754
-20.6783 -9.56189 -3.34663
-17.6241 -10.9852 0.585588
-17.3313 -11.1137 -2.20298
-19.3202 -10.927 -3.17018
-17.8117 -11.131 -0.140222
-19.2172 -10.0549 -4.99938
-19.6273 -10.9837 -4.61747
-16.4193 -11.5224 1.00885
-17.3472 -11.8528 0.119988
-17.4781 -12.0583 -2.00891
-17.2282 -11.1995 -1.47083
-17.2453 -10.3654 -2.50005
-16.7587 -10.7521 0.139978
-19.2896 -11.2873 -4.8382
-18.1675 -11.3068 -2.38214
-16.9223 -11.2133 -1.6894
-18.1877 -11.0644 -2.65079
-18.3181 -10.9878 -3.94071
-16.084 -11.4824 0.296122
-16.9657 -10.5756 -0.273728
-16.7373 -11.4684 -0.225256
-16.1059 -11.3663 0.0268387
-18.9281 -11.6153 -5.16587
-16.8253 -10.6739 -2.45835
-17.094 -11.2657 -1.87553
-16.2171 -11.6923 0.951196
-16.1583 -11.5083 -1.31915
-16.5685 -10.8152 -2.14011
-15.9167 -11.0652 -0.0343481
-16.0475 -10.3896 -1.09867
-15.8014 -11.6642 -0.354642
-16.4884 -12.0267 -0.303287
-17.5659 -10.9743 -2.63121
-17.548 -11.0253 -4.74446
-16.2741 -11.8815 0.363127
-17.5419 -12.2713 -4.9075
-16.3845 -11.3434 -0.289809
-16.4819 -11.9964 0.500582
-17.2945 -11.3885 -2.48205
-16.2805 -11.6879 -0.392968
-16.4182 -11.1709 -2.54423
-16.4512 -11.5742 -0.860653
-16.269 -11.2306 -2.10076
-16.7246 -10.8521 -2.11463
-15.6071 -11.0044 -1.21346
-16.6067 -12.0951 -0.274655
-14.7282 -11.5549 -1.35104
-15.6562 -12.0769 0.339949
-17.0388 -11.1216 -0.496412
-15.8298 -11.3091 -1.27119
-17.5265 -10.9735 -3.61477
-17.0971 -11.739 -3.91233
-16.6593 -10.8797 -0.887215
-15.4684 -11.2253 -0.437353
-16.7414 -12.2295 -0.161971
-16.5091 -10.4308 -2.43689
-15.7763 -11.0793 -0.0856213
-15.8099 -12.3287 -0.956279
-16.3234 -11.8914 -3.61084
-17.0034 -12.1109 -1.05961
-16.085 -11.4172 -0.527157
-17.7308 -11.1264 -3.25719
-17.2324 -12.6289 -3.75582
-14.8186 -11.1816 -1.02765
-17.562 -10.5595 -4.47618
-16.8803 -11.2793 -3.73857
-15.9382 -10.7803 -1.93964
-16.5156 -11.2948 -1.6669
-15.9833 -10.6067 -2.01893
-15.4294 -11.0486 -1.30901
-15.361 -11.6309 -2.32129
-16.5836 -12.2967 -0.0176337
-15.3845 -11.7156 -3.05825
-15.3285 -10.8239 -1.77738
-16.1634 -11.238 -3.17973
-15.4634 -11.5292 -1.03586
-16.8669 -11.4076 -4.56955
-15.8244 -11.0633 -4.2203
-17.0295 -11.6308 -3.72904
-14.6968 -11.9548 -0.774615
-16.4128 -11.4033 -4.12212
-15.3117 -10.9245 -1.35476
-15.812 -11.6291 -3.46557
-14.4137 -12.2426 -3.1238
-16.3175 -11.0953 -3.41996
-14.9862 -11.6686 -4.29988
-16.2972 -12.3556 -2.63869
-15.5847 -11.9546 -4.37077
-15.1274 -11.0598 -1.2691
-15.6676 -12.2695 -3.6214
-14.9019 -11.9102 -2.07467
-15.4139 -12.3604 -2.72351
-15.2888 -12.4006 -4.17953
-15.256 -11.539 -4.33338
-15.3039 -11.0999 -3.0759
-14.7257 -11.505 -2.27766
-14.597 -12.5666 -2.51625
-15.0953 -12.6024 -2.01836
-14.8551 -12.2276 -2.75821
-14.6482 -11.9101 -4.21759
-15.253 -12.4617 -3.09843
-14.9839 -12.0335 -3.66653
-15.6083 -12.5688 -2.66136
-15.3117 -11.6716 -1.96078
-15.3382 -13.1059 -2.85982
-15.0093 -12.5652 -2.36999
-14.661 -11.5962 -3.35711
-15.3252 -12.2079 -1.90199
-14.7866 -12.3926 -3.38047
-14.195 -11.7113 -4.11143
-14.9842 -12.6089 -4.34238
-15.2414 -12.4415 -3.66031
-15.0622 -12.609 -2.86198
-13.155 -12.1874 -3.49705
-14.5163 -12.4723 -3.49985
-14.5388 -12.3581 -4.14429
-16.8752 -9.73231 1.22536
-23.4694 -8.76532 -6.07135
-20.5806 -9.92927 0.487244
-19.8736 -10.9738 -0.532248
-20.8957 -11.6765 0.223295
-19.7797 -9.51746 -1.19709
-19.9886 -11.3189 -0.113919
-20.6056 -11.3765 -0.27213
-19.5465 -11.1113 0.242126
-19.2989 -11.7136 -0.663738
-19.9109 -10.9695 -1.82371
-20.4088 -11.236 -3.04279
-19.7859 -11.3302 -2.37783
-21.1649 -10.4985 -4.65823
-17.7919 -10.4655 0.23599
-21.0951 -11.7846 -5.69316
-16.7179 -11.828 1.08396
-19.7382 -11.2274 -2.38896
-18.7948 -10.8068 -4.896
-18.2883 -11.3445 -0.323122
-17.3582 -10.3996 0.612853
-17.2291 -12.1039 -1.27053
-17.5807 -11.2806 0.580656
-17.0509 -11.3689 0.440381
-17.3167 -10.645 -0.687886
-17.8708 -11.3973 -2.8004
-19.3879 -10.8579 -3.97443
-17.0699 -10.4977 1.34959
-18.8142 -11.1021 -3.93697
-16.4168 -10.909 0.650037
-18.406 -11.4518 -1.19212
-16.6312 -10.7608 -1.67655
-16.6728 -11.4621 0.599189
-18.938 -11.408 -4.5368
-16.5095 -10.9792 0.0795799
-16.7496 -11.1587 -2.59053
-16.4225 -10.8311 -0.316782
-17.5282 -11.4807 -2.01963
-16.4203 -11.3935 -0.427357
-16.8412 -11.0786 -1.45011
-16.735 -11.2744 -0.553862
-17.1749 -11.9842 -0.289235
-17.2223 -11.4189 -1.07528
-17.492 -11.6192 -1.44577
-14.9378 -10.7261 0.466283
-16.3565 -10.199 -2.19872
-18.2092 -11.3996 -4.51647
-16.8412 -11.1362 -1.95707
-17.7605 -11.4937 -3.21489
-16.918 -10.378 -2.06597
-18.4305 -11.4224 -3.26558
-16.0754 -11.1195 -0.256579
-16.9281 -11.2815 -0.61876
-16.6882 -11.1881 -0.806166
-17.8444 -10.914 -0.78739
-16.4536 -12.1987 0.159899
-17.3849 -12.2705 -0.625553
-17.4958 -11.1026 -3.5929
-16.1349 -11.4713 -0.655828
-15.7583 -10.2764 -0.0670549
-16.5754 -10.9485 -0.340878
-16.4372 -11.4124 -0.8796
-15.4574 -10.8713 -0.374775
-15.4082 -10.9918 -0.240613
-16.5511 -11.4357 -3.73587
-17.2264 -11.7004 -3.117
-16.2221 -11.1364 -1.51562
-17.8125 -11.6607 -4.35116
-17.5807 -12.0305 -4.18316
-16.5165 -10.0941 -1.75579
-14.2741 -11.4046 -3.04444
-15.6974 -11.5195 -2.4156
-17.0489 -11.6143 -4.37304
-15.4198 -10.7548 0.0578425
-15.4625 -12.1848 -2.69191
-16.0246 -11.6238 -1.67289
-16.6378 -11.893 -2.41891
-15.2475 -11.4719 -1.93644
-17.0465 -11.711 -3.79195
-16.9609 -12.0932 -4.01282
-15.5079 -13.1246 -0.434025
-15.4689 -11.3275 -1.95871
-16.2397 -11.4545 -3.63906
-16.6109 -10.5787 -3.92015
-14.9243 -12.0051 -2.07381
-15.7185 -12.3467 -1.88987
-17.2071 -12.5126 -4.34863
-14.4136 -11.6007 -2.07484
-16.6338 -12.3603 -3.61367
-14.91 -12.1125 -3.81428
-14.777 -12.5007 -2.8311
-15.4238 -12.6821 -1.75572
-14.9203 -12.4981 -3.04236
-14.6195 -13.0312 -2.47875
-14.5021 -11.7724 -2.09875
-14.9767 -12.1935 -2.04174
-13.7465 -12.9815 -3.66583
-14.898 -12.3138 -2.52633
-15.0756 -11.7081 -3.79842
-15.3267 -11.8163 -2.10961
-14.0949 -11.6782 -3.80482
-14.3207 -12.4994 -3.14881
-14.6392 -13.4018 -2.8401
-13.7379 -11.9043 -3.50431
-14.6023 -12.1146 -4.23936
-14.1689 -12.756 -3.55879
-20.5391 -10.4301 0.185845
-19.7585 -11.24 -0.226363
-18.0974 -10.6494 0.253261
-20.9112 -9.99305 -1.84007
-17.1986 -11.373 0.736796
-18.9785 -10.8666 -2.86895
-20.038 -11.5569 -2.61098
-16.319 -10.9092 0.541463
-17.5468 -10.5229 0.220071
-17.3739 -10.4729 -1.42033
-17.2296 -9.97063 -0.741198
-17.2367 -10.6289 -0.638414
-16.8764 -11.6263 -1.25864
-17.0098 -11.1383 -1.30029
-15.684 -10.0453 -0.46844
-15.8711 -11.1589 -0.921853
-17.8612 -11.1313 -0.995184
-16.3011 -10.4603 0.849059
-16.9254 -11.9551 -0.192239
-15.9051 -11.8406 0.751786
-16.8207 -11.0433 -1.66353
-16.8837 -10.8135 -2.48745
-18.0266 -11.7191 -5.03224
-16.3348 -11.4501 -0.835923
-17.863 -11.594 -4.52928
-15.7903 -11.9703 -0.184081
-15.8548 -11.1341 -3.27414
-15.3647 -10.9687 -0.587857
-16.5455 -10.3685 -1.4884
-16.9305 -10.8851 -2.62382
-16.6315 -11.9584 0.00825446
-17.4813 -11.6017 -4.56342
-16.2905 -11.7727 -2.87961
-15.7681 -11.5221 0.0356119
-15.4537 -10.7456 -2.87424
-15.7755 -10.9431 -1.79672
-16.3357 -11.6258 -1.95926
-15.9645 -12.1168 -2.35764
-16.081 -11.7581 -3.30541
-15.481 -11.1066 -3.19584
-14.7985 -11.0033 -2.85362
-17.1855 -11.4076 -3.58958
-15.771 -11.8374 -0.787409
-15.7316 -10.8238 -3.43461
-15.5551 -12.0756 -1.54108
-15.5062 -12.3009 -2.75322
-16.2319 -12.1242 -4.00206
-16.328 -11.3847 -4.08355
-15.9237 -11.7275 -3.17725
-16.7922 -10.5622 -4.46667
-15.6817 -12.449 -2.37447
-14.7685 -12.1112 -2.13216
-15.2677 -12.2754 -3.6421
-15.4623 -12.4201 -2.02576
-15.6385 -11.9172 -4.32359
-15.2989 -11.294 -2.79262
-15.6601 -12.8704 -3.00111
-15.2378 -11.3416 -3.90476
-14.5239 -11.6039 -2.78644
-13.7839 -12.0964 -3.01383
-19.124 -10.6508 0.183033
-17.7532 -11.1624 0.648277
-17.8889 -10.2539 0.759745
-18.9407 -10.679 -0.012823
-20.7699 -10.5582 -2.7023
-20.6343 -10.6164 -2.21116
-17.7088 -10.2068 0.258362
-17.588 -10.8821 -2.6675
-17.5502 -10.6955 -1.04417
-16.213 -10.523 0.208858
-19.1222 -10.9251 -4.21272
-16.7546 -11.921 0.0435821
-16.3208 -11.904 0.471328
-15.7356 -10.4757 0.042596
-15.9591 -11.6921 -0.583508
-16.3916 -11.4682 -0.0564757
-16.2961 -11.3823 0.807986
-15.9497 -11.3201 -0.506247
-16.3485 -11.3275 -2.54493
-16.1858 -10.4256 -1.71279
-16.4606 -10.5338 -4.21666
-16.4592 -11.477 -0.0165757
-15.498 -12.4586 -0.662351
-16.7705 -11.0366 -1.21197
-15.7712 -11.6696 -2.18959
-16.2297 -10.4343 -3.80719
-16.467 -11.093 -0.715067
-16.3716 -9.89918 -1.58583
-15.4037 -12.2993 -1.68921
-15.8218 -11.259 -2.21434
-16.0818 -11.6325 -3.40243
-15.7773 -11.1566 -2.02851
-16.7372 -11.0186 -3.32179
-16.1587 -11.1416 -1.07318
-15.2897 -10.8518 -2.97284
-16.9954 -11.3402 -3.86666
-14.7677 -12.3043 -2.05345
-15.5364 -12.5209 -3.83132
-15.22 -13.5052 -1.4299
-15.9118 -12.665 -3.3287
-14.7285 -11.9785 -2.5365
-15.2553 -12.1658 -3.9631
-14.6928 -11.3737 -3.22153
-17.8412 -10.1683 -0.133316
-18.6632 -10.277 0.382917
-17.9132 -10.8098 -0.38176
-18.5039 -11.3127 -0.662439
-16.948 -10.7317 0.42245
-18.4608 -11.6435 -0.431491
-16.3349 -10.7851 0.679564
-16.738 -11.8578 -0.851321
-17.1744 -12.3196 -0.980504
-14.6354 -12.6072 -3.61088
-15.2682 -12.1562 -3.73042
-14.9238 -11.427 -3.27031
-18.4011 -11.952 0.185065
-16.8985 -10.6699 -3.02014
-15.7566 -12.2011 -1.45066
-15.8792 -11.8623 -2.71088
-15.2576 -11.1512 -1.93161
-13.8598 -12.585 -3.89907
-17.9546 -10.9026 -1.79568
-16.6004 -11.7154 -1.61736
-16.9352 -10.3161 -2.47199
-17 -11.6022 -0.644509
-16.9897 -11.6672 -0.960818
-16.4236 -10.3677 -1.43751
-16.051 -11.6167 -2.0635
-14.5238 -11.6404 -2.21921
-15.1724 -12.3792 -2.88745
-22.3074 -9.95758 -4.71587
-16.7521 -11.5973 0.332462
-15.5649 -10.0791 -1.12424
-16.7372 -10.815 -0.901412
-16.3301 -10.8858 -4.02817
-16.1768 -12.301 -1.72718
-15.2174 -11.7767 -2.64955
-15.4374 -11.7179 -1.52502
-15.0966 -11.8841 -2.75189
-14.5024 -13.2856 -3.00332
-16.3528 -11.5701 -0.693551
-16.3749 -10.3414 -0.622157
-16.1268 -11.5716 -1.41316
-15.8972 -11.2378 -2.71235
-15.7381 -12.3797 -0.812049
-15.1099 -11.3689 -2.7597
-16.7653 -11.2985 -0.272808
-16.1078 -12.4353 -1.08722
-15.3144 -11.0909 -1.94768
-15.5302 -11.7797 -2.73395
-15.5312 -12.3098 -3.01813
-17.2379 -11.2682 -3.28927
-18.6385 -10.5584 -1.16723
-18.5583 -10.581 -1.14033
-15.9854 -11.0534 -3.80203
-22.0964 -9.34202 1.83898
-16.1715 -8.95235 0.774936
-15.7881 -9.88277 1.59754
-16.2007 -9.68005 0.635643
-21.6292 -9.87824 -0.874648
-21.1594 -10.0573 0.460665
-21.4088 -9.98621 -0.309694
-22.0643 -9.63857 -0.107221
-20.9901 -10.8221 -0.574632
-18.7288 -10.5649 0.49353
-17.8115 -10.7614 0.466263
-17.6952 -12.0803 -0.465728
-18.4014 -10.0567 -0.0430282
-18.1371 -9.75444 0.536605
-17.7541 -11.1787 1.31925
-17.9012 -10.9207 0.598858
-17.8027 -10.5379 0.330423
-20.8294 -10.6785 -0.305823
-18.1694 -10.7498 1.28837
-18.075 -11.8126 0.297306
-16.572 -11.3802 -0.266575
-16.476 -11.5258 0.357428
-16.7539 -11.2442 0.547918
-19.9405 -11.1979 -1.03454
-20.2833 -10.6178 -1.97742
-17.6182 -11.0862 -1.24229
-16.8262 -10.9936 -0.490223
-20.8933 -9.27026 -1.25729
-20.2155 -10.3107 -2.27451
-22.1431 -9.52257 -1.39857
-16.9538 -12.6538 0.395789
-17.4736 -10.3972 0.23009
-16.2091 -10.7365 -0.52685
-16.843 -11.3882 -0.923986
-15.5305 -10.9455 -0.864925
-15.9244 -11.9034 -0.207319
-15.3757 -10.9221 0.831481
-15.7319 -12.3374 -0.0332421
-19.793 -10.857 -1.56534
-15.2606 -11.7881 -0.411719
-16.0736 -10.6053 0.0126485
-17.0334 -10.5472 -1.21062
-20.2673 -10.9676 -1.9417
-17.1595 -11.5549 -0.604515
-16.4442 -12.3239 -0.668663
-16.3546 -11.5548 -1.21753
-16.9122 -11.3234 -0.495235
-16.1873 -11.4065 0.172813
-17.1863 -11.0646 -1.18606
-16.2293 -11.5495 -1.05188
-17.065 -10.9014 -0.30533
-19.3286 -10.3699 -3.02504
-15.9223 -10.8629 -0.708848
-17.1021 -11.3102 -1.72309
-17.1327 -11.6693 -1.06017
-16.2172 -12.4572 -0.476155
-16.0782 -11.5385 -0.686904
-16.3997 -11.7444 -1.1367
-15.741 -12.0374 -0.876827
-16.7933 -10.7873 -1.45776
-16.1143 -10.8345 -1.36757
-17.54 -11.1211 -1.33494
-16.3069 -11.5559 -0.667296
-17.44 -10.8374 -1.65516
-17.3756 -11.2266 -0.0341455
-16.8503 -11.3424 -0.408769
-19.9576 -10.8685 -1.73653
-15.8695 -10.2737 -1.71702
-19.8977 -10.2424 -2.25384
-16.0313 -11.1423 -0.619027
-17.4402 -11.8056 -0.964932
-19.7365 -9.69757 -2.80651
-19.7481 -11.164 -2.13398
-19.3514 -10.9569 -2.89114
-20.0786 -11.1052 -3.42401
-22.8891 -9.26221 -4.84098
-16.6103 -10.6915 -2.27237
-16.98 -11.4429 -1.18036
-16.2593 -10.0656 -2.02838
-16.1114 -11.1337 -2.08241
-17.3458 -11.6294 -1.71535
-18.7961 -11.5667 -2.55693
-20.5226 -10.634 -3.37389
-16.7748 -10.4749 -2.52795
-16.4241 -10.7348 -1.6532
-16.5663 -11.2316 -1.38119
-17.4416 -11.5767 -3.42564
-19.7756 -10.9296 -3.54209
-19.0538 -11.194 -4.20161
-14.9569 -11.3136 -1.14172
-20.3039 -10.1697 -4.12402
-16.5738 -11.0901 -1.66471
-15.9596 -12.0745 -2.18165
-20.2109 -11.3573 -3.70368
-20.4923 -11.4655 -3.71529
-15.2775 -11.0034 -2.26077
-16.0727 -10.2144 -2.62964
-14.9792 -12.0525 -2.63573
-20.6629 -10.6115 -4.84377
-16.065 -11.8064 -2.19503
-16.0728 -10.9148 -1.51251
-16.0046 -11.6843 -2.41936
-14.4811 -12.3365 -2.4238
-20.4701 -10.5167 -4.96755
-20.0274 -12.0356 -4.52015
-14.4942 -12.5055 -1.87177
-19.3937 -11.4316 -4.58878
-17.4692 -11.5369 -3.98257
-14.6607 -12.6016 -2.46029
-18.3364 -11.0844 -3.82586
-19.7068 -10.829 -3.75932
-17.2466 -11.1168 -3.18251
-17.8981 -11.0759 -4.07049
-15.9731 -12.3728 -2.776
-17.9322 -11.4368 -3.59466
-16.8051 -12.0999 -4.25551
-15.3462 -12.7561 -2.43921
-15.5316 -11.2742 -2.52857
-18.3547 -11.7513 -4.54617
-17.0941 -11.782 -5.31681
-14.6174 -12.1124 -2.86047
-14.8475 -11.7465 -2.97725
-14.6125 -11.8976 -2.4661
-14.5386 -12.5429 -2.74073
-14.5728 -11.7168 -2.84639
-15.7891 -11.1254 -3.83956
-15.6674 -11.7274 -2.5838
-17.0998 -11.7836 -3.49227
-16.4152 -10.9018 -4.14743
-16.924 -11.3359 -4.27967
-17.4632 -11.6434 -4.43349
-14.9906 -11.7776 -3.70501
-15.7452 -11.9259 -3.08154
-16.0082 -13.0482 -2.97327
-16.6237 -11.5935 -3.98816
-15.2465 -12.5313 -3.32613
-16.636 -11.4922 -3.93596
-15.9711 -10.9651 -4.10288
-16.0633 -12.1851 -3.71392
-15.2843 -12.0884 -3.71749
-14.8126 -11.5886 -3.10373
-14.4638 -12.0187 -3.65138
-13.6486 -12.357 -2.61583
-14.3736 -12.0061 -3.82212
-14.5128 -12.5444 -4.01656
-13.9612 -12.6235 -3.25547
-13.8054 -12.4345 -3.57604
-14.2347 -11.9696 -2.79293
-14.4279 -12.1063 -3.26902
-14.3523 -12.51 -3.35223
-14.6793 -12.2199 -3.95122
-14.0026 -11.4873 -3.04598
-14.8242 -11.7534 -3.07224
-21.3082 -8.84564 1.14682
-21.5908 -8.92362 0.364197
-16.8892 -9.56737 1.82558
-17.5415 -9.42155 1.64281
-15.7815 -9.24708 2.07679
-22.8289 -10.4653 -0.329555
-20.9792 -10.585 -0.00561353
-18.436 -10.8973 0.046953
-16.7031 -11.7243 0.737129
-16.9113 -10.666 0.925088
-17.7879 -11.5225 0.851516
-15.6707 -11.6932 0.559601
-16.5066 -11.5322 0.136086
-17.6335 -10.8732 -0.32043
-20.1306 -10.9632 -2.17085
-20.7421 -11.0911 -1.12063
