-19.8438 -10.596 0.18721
-17.3022 -11.3359 -1.7464
-21.1601 -10.6641 0.780739
-21.3617 -10.14 0.836914
-17.2204 -10.9522 -1.06081
-20.2391 -11.4384 -0.108001
-18.0452 -11.593 0.269704
-16.5345 -11.6222 -0.225164
-15.4299 -11.6291 -1.81454
-17.4584 -10.5561 -1.32776
-15.9363 -11.098 -1.14728
-16.2293 -11.658 -1.66658
-16.4368 -11.4192 0.339792
-16.7648 -11.9434 -1.21797
-18.2405 -11.6164 0.632851
-17.3723 -11.153 -0.198249
-15.7276 -12.0048 -1.71381
-15.4335 -13.2487 -1.42661
-17.1891 -11.5816 0.0688432
-17.7637 -9.74809 0.237105
-17.44 -11.1162 -0.518139
-17.4717 -12.0341 0.0726221
-16.2637 -11.9478 0.155314
-16.1889 -10.882 0.0946362
-14.6482 -10.912 -0.713616
-16.9941 -8.80972 1.61249
-16.6811 -11.7028 -0.0196571
-15.7869 -12.1194 0.331754
-15.8573 -11.8856 -0.0802424
-14.9195 -10.9246 0.909579
-16.3868 -11.532 -0.728402
-15.737 -10.3284 0.972081
-16.2233 -9.82083 2.90493
-19.166 -10.6042 -3.94257
-20.7164 -10.9403 -3.11816
-20.9571 -10.8447 -3.2199
-19.028 -12.0045 -3.43367
-20.1435 -11.3301 -3.07641
-20.1601 -10.6571 -1.30434
-18.9226 -10.8276 -2.6159
-19.9038 -10.3726 -3.26115
-21.12 -10.8485 -2.62687
-18.1837 -11.0512 -2.59678
-17.3466 -10.9744 -3.66412
-16.1631 -11.6008 -3.35513
-16.9876 -11.5809 -2.42942
-16.9592 -11.0717 -2.41638
-18.9378 -10.9756 -2.42363
-17.063 -11.4148 -2.83273
-18.9587 -10.2058 -1.3565
-19.2622 -11.5584 -1.088
-19.9484 -10.4254 -0.412164
-20.5016 -10.8877 0.000176523
-16.2555 -12.2252 -2.74877
-15.5685 -11.8263 -3.32507
-17.022 -11.9166 -0.898354
-19.8298 -10.5028 -0.667248
-16.5973 -10.5102 -1.78752
-14.9605 -11.721 -3.04164
-19.2885 -10.9532 0.775611
-15.2222 -11.6919 -2.88389
-17.9724 -10.9826 -0.510069
-17.0611 -10.2207 -0.646218
-20.2687 -11.0764 0.572597
-20.4043 -11.024 0.783478
-21.0583 -10.7836 0.655867
-19.8772 -10.3717 0.115211
-20.6444 -10.7942 1.71525
-17.3661 -11.2195 -0.708317
-18.0597 -11.166 -0.568609
-15.3476 -12.3235 -2.52649
-19.422 -10.8243 0.251076
-21.1839 -10.1857 1.0808
-19.836 -10.7672 0.19014
-16.9302 -11.1898 -1.70679
-20.679 -10.3253 1.1144
-19.6782 -11.3081 1.21296
-16.6704 -10.7803 -1.13485
-14.5952 -11.8444 -1.82824
-19.3024 -10.7636 0.879103
-20.0509 -10.1698 1.0183
-17.2242 -11.5386 -1.15055
-16.8036 -11.0257 0.0789245
-17.2888 -11.1361 1.10431
-16.1049 -11.6328 -0.189076
-15.6141 -11.9835 -0.58811
-16.2191 -8.96182 1.4061
-16.1676 -10.6375 0.199648
-15.475 -11.9045 1.15367
-20.764 -9.67882 -3.71452
-19.4374 -10.6203 -3.49761
-19.7663 -9.78724 -1.1276
-17.2435 -11.2401 -2.02747
-17.9389 -11.2036 -1.61445
-17.9885 -11.8855 -2.0343
-16.3677 -10.2968 -0.479502
-18.7568 -11.733 -2.36056
-19.6504 -12.3176 -1.08031
-17.3541 -11.4767 -1.55393
-16.0173 -11.536 -1.98066
-18.3157 -10.7331 0.229682
-16.8696 -11.9646 -2.29275
-19.5188 -10.5079 0.444331
-16.3341 -12.0098 -2.46096
-17.8368 -10.7036 -0.349873
-15.1726 -12.3372 -2.34364
-17.9164 -11.0385 -0.0380037
-16.4976 -11.1656 -0.880934
-17.6378 -11.3148 0.268128
-17.1934 -11.205 -0.734799
-19.0607 -11.8591 -2.71461
-17.1041 -10.9821 -2.40773
-18.0309 -11.5652 -1.94455
-17.7103 -11.0422 -2.63679
-17.2299 -10.5424 -1.87135
-16.5884 -11.156 -2.37303
-15.708 -10.9959 -1.77356
-16.6995 -10.5048 -2.28738
-19.5801 -11.2313 -1.06788
-16.2356 -11.7688 -2.54326
-19.7512 -11.2688 -0.299056
-16.4285 -11.5614 -1.40611
-19.2472 -10.5571 -0.243418
-16.2635 -11.6563 -1.40938
-17.3901 -10.9658 -1.55924
-18.389 -10.9212 0.127535
-15.8914 -10.6493 -1.14389
-16.8241 -11.2236 0.800763
-17.6743 -11.1433 0.475347
-16.8797 -11.3426 -0.304762
-15.872 -12.0041 -0.0992476
-16.2402 -11.6541 -0.59952
-19.7529 -10.6481 -2.64807
-18.9517 -11.1893 -2.06965
-18.1512 -11.136 -2.13162
-19.3876 -11.0155 -0.319702
-15.9832 -10.888 -2.20051
-18.7462 -10.5807 -0.903669
-15.9313 -11.0367 -1.68616
-15.5242 -12.2119 -0.455265
-17.0136 -10.8826 -0.260825
-16.3895 -10.6632 1.06032
-15.8517 -11.2605 0.570113
-17.5693 -11.3863 -1.92151
-17.316 -11.8104 -1.23329
-16.7243 -11.8351 -0.597366
-17.2537 -10.5042 -1.45401
-17.8604 -10.4213 0.0825611
-16.9011 -11.538 -0.206171
-15.7202 -11.4308 0.587983
-20.2569 -11.237 -1.16609
-16.026 -11.7171 -3.22658
-16.1997 -11.5048 -0.199702
-16.5307 -11.636 -1.29082
-16.214 -11.7052 -1.12858
-16.4871 -10.4752 -1.94661
-15.4076 -11.8259 -1.01052
-15.2424 -10.7291 -3.44584
-20.2511 -10.3495 -2.59289
-20.4123 -10.7529 -1.2831
-20.4755 -10.7011 -2.1915
-19.3976 -11.4234 -3.95515
-18.4813 -10.8836 -2.1796
-20.9124 -10.1579 0.473408
-19.9956 -10.4937 -0.110085
-19.3702 -11.3402 -2.02693
-20.2088 -11.4405 1.45995
-18.3089 -10.9975 -3.09818
-19.242 -12.4833 -3.05705
-19.9161 -10.8795 1.02789
-17.9634 -10.0136 1.22163
-16.031 -10.9894 -2.86753
-16.2942 -9.75232 0.364971
-17.1931 -11.3426 -0.289588
-15.7685 -10.8223 -3.44648
-17.3773 -11.293 -0.50082
-16.4082 -11.1984 -2.92575
-15.5953 -9.62903 0.784074
-17.1726 -10.6212 -1.41517
-16.9279 -11.6517 -1.39211
-15.5673 -8.50563 2.11076
-16.9818 -12.096 -0.211342
-15.5553 -10.7777 -1.80094
-15.2223 -11.5779 -1.58244
-16.9519 -11.4395 -0.16396
-16.185 -12.0335 -0.342186
-15.8767 -12.0856 -0.815995
-16.7312 -11.2201 -0.434407
-14.5456 -12.376 -1.60352
-16.3224 -11.1399 -0.17347
-15.9104 -11.7313 -0.130572
-16.551 -12.4388 -1.02033
-16.2593 -11.3634 0.315457
-14.9125 -12.0903 -3.92752
-14.6393 -12.282 -2.94078
-20.7115 -10.8908 -2.09307
-19.6785 -10.6824 -2.98664
-19.7932 -11.0458 -3.05027
-19.8375 -10.6233 0.729081
-20.4018 -10.4609 0.728196
-17.8851 -10.1509 -3.80959
-19.0841 -10.8743 -1.20374
-19.717 -10.8832 0.312291
-19.9923 -11.2169 -1.49384
-18.498 -10.9381 -2.95044
-19.2078 -11.1734 0.454724
-18.7568 -11.9322 -2.93235
-18.2079 -11.0489 -0.812924
-19.0108 -10.8076 1.10497
-17.3946 -10.7287 0.977108
-17.643 -10.9886 -0.870312
-17.1637 -10.6692 -1.86773
-17.374 -10.8409 -0.947948
-16.3295 -10.2564 -0.646769
-16.6897 -11.7102 -2.26691
-15.7655 -11.1375 -1.22667
-16.7251 -10.9779 -0.83456
-17.3568 -10.8971 -1.11042
-15.3687 -10.8398 -3.11035
-15.5637 -11.4967 -1.79127
-16.0358 -11.1104 -0.524833
-16.3432 -11.1557 0.129884
-16.3891 -11.373 0.456891
-15.7951 -11.1283 -1.92246
-15.8148 -11.0006 -0.448562
-15.7754 -11.8329 -0.149876
-15.81 -12.6868 -0.176311
-15.6553 -11.0357 0.523134
-19.9001 -9.58863 -0.685832
-20.0472 -11.4961 -0.0780585
-19.4842 -12.0302 -1.35274
-19.99 -11.1706 0.637682
-20.1063 -10.6048 1.06719
-18.2448 -10.9644 -0.557552
-17.9311 -9.66283 -0.785475
-19.6289 -11.6325 0.0862158
-19.1977 -10.3205 0.00714447
-17.7638 -11.7438 -3.1072
-17.4615 -11.1456 -2.16136
-16.9938 -10.4065 -1.17245
-16.2325 -12.0518 -1.86572
-18.8294 -10.5142 0.489375
-17.1826 -11.1169 -1.63919
-17.7678 -11.0942 0.990246
-16.5783 -10.7392 -0.975072
-16.584 -11.0131 -0.907289
-17.2384 -11.8167 -2.27622
-17.1616 -10.9524 0.29826
-17.1001 -10.6473 0.110444
-16.7176 -11.8616 -2.07731
-14.5812 -10.439 -1.85438
-15.8361 -10.9537 0.193885
-15.4897 -11.8269 -1.19093
-16.1447 -11.081 0.25316
-15.8411 -11.8492 -0.22338
-15.117 -11.5828 -0.810932
-16.1003 -12.0369 -0.803958
-14.862 -12.5727 -2.75607
-19.125 -10.2902 -2.07587
-20.5327 -10.4789 1.07547
-17.5821 -9.96082 -2.45223
-17.3878 -10.5868 0.585352
-17.3851 -10.6898 -1.13771
-16.6284 -11.7428 -2.53967
-17.2826 -11.715 -0.722755
-17.3805 -10.5911 -0.102694
-16.6006 -12.6653 -1.36638
-15.2322 -11.356 -2.54477
-17.1276 -11.4901 -1.14451
-21.1519 -10.8293 -0.236751
-19.8106 -11.1341 1.12525
-19.0598 -10.56 -1.9496
-18.2282 -11.3209 -0.550821
-18.4041 -11.9875 -1.84208
-16.9352 -10.9473 -0.241054
-17.0033 -12.4089 -0.518541
-14.8551 -12.6339 -3.00756
-19.2679 -10.5643 -0.455369
-19.3739 -10.2297 -1.00329
-18.5704 -10.3112 -0.244774
-18.5837 -10.7663 0.172898
-16.2487 -11.2607 -1.39025
-18.0197 -11.8458 -1.56572
-16.1862 -11.6185 0.394901
-19.7249 -11.1372 -0.153242
-17.9477 -10.4067 -1.11234
-18.052 -10.0541 0.382316
-17.2741 -10.9129 -0.908943
-16.8399 -11.3406 -0.557707
-17.5928 -11.3444 -1.22748
-14.9991 -12.222 -0.505996
-19.4464 -9.82763 -0.132532
-15.7988 -10.5378 -2.4723
-16.9948 -10.5338 -2.85843
-15.4794 -11.9229 -1.72504
-15.47 -11.459 -2.03661
-20.7418 -10.6803 -0.503521
-20.6437 -10.8746 -0.140709
-20.7077 -10.9483 -1.99209
-16.702 -9.57015 1.73659
-20.4883 -10.8679 -1.3705
-19.6854 -10.8637 -2.35052
-19.9863 -10.9669 -2.31983
-16.6521 -9.99255 1.7864
-19.157 -10.2526 -1.24799
-18.6379 -10.7407 -3.47511
-18.1355 -11.7424 0.0946467
-17.9583 -11.1097 -1.13246
-17.5904 -11.2973 -0.128573
-17.4707 -11.3075 -0.755766
-17.3746 -10.5192 -0.73272
-17.9948 -11.3214 -1.99258
-16.1835 -10.72 -3.10482
-16.2223 -12.4132 -0.2868
-17.0887 -11.4566 -1.29363
-16.7776 -11.3588 -0.411432
-17.1107 -12.2153 0.0572116
-16.679 -11.3444 -0.854981
-16.8268 -11.3099 -1.19729
-15.5589 -10.5933 0.445323
-15.8395 -12.0061 0.585835
-17.2463 -12.2414 -3.17643
-15.4632 -11.5546 -1.15306
-15.5574 -12.4624 -0.305213
-15.744 -11.9687 -3.13947
-15.7474 -12.3168 -2.05984
-13.9277 -13.1066 -2.62203
-20.0804 -10.9131 1.49978
-20.7261 -10.8542 0.902629
-19.6518 -12.2051 -1.25766
-16.9542 -9.44628 0.760817
-18.9822 -11.2516 0.325079
-18.5838 -11.3937 0.371876
-18.8815 -11.0697 0.485159
-20.2047 -10.4344 -3.10969
-20.1946 -10.541 -2.13111
-19.6337 -11.1979 -1.37606
-18.0482 -10.3187 0.167284
-16.1053 -9.54198 1.60431
-19.5129 -11.6534 -3.24648
-18.8168 -10.9755 -0.973057
-18.3684 -11.8442 -1.22453
-18.2376 -11.0221 -1.69084
-17.2389 -10.4996 -0.135128
-17.4232 -10.5052 -1.23212
-16.5817 -11.0237 0.215235
-16.9175 -10.8381 -1.05672
-16.6382 -10.8125 0.754518
-16.675 -11.2414 -1.12248
-15.7433 -12.075 0.218741
-15.6177 -11.0595 -0.394435
-15.7005 -11.6924 0.50439
-16.4414 -11.187 0.083797
-16.3959 -11.9738 -1.309
-15.2739 -11.9467 -0.953984
-16.4797 -11.5916 -0.0467162
-15.7257 -11.0658 -1.63051
-15.4242 -13.3922 -3.06923
-15.439 -12.0715 -1.49086
-15.7556 -13.1122 -3.9033
-20.6248 -9.88637 -1.59451
-20.8112 -10.7492 -1.2822
-18.7932 -10.3612 0.774733
-20.1702 -10.6774 -2.38369
-18.412 -10.6553 -0.283987
-17.6965 -11.1776 0.305607
-17.444 -11.5145 0.201564
-17.7237 -11.2572 -0.83968
-17.0029 -11.6986 0.928536
-17.8554 -10.9906 0.737892
-17.4356 -11.3945 -0.347142
-18.6391 -12.345 -3.22927
-16.4072 -11.3918 0.0813188
-16.2793 -10.6757 1.1046
-17.1005 -11.2232 -2.07015
-16.1685 -11.4299 1.23233
-16.6244 -11.1465 -1.08335
-16.3466 -11.3952 -1.69411
-16.1327 -10.9846 -2.53113
-15.8107 -12.7202 -0.902939
-17.1478 -10.7432 -0.407203
-16.388 -11.1606 -0.0280518
-16.1102 -11.631 0.748044
-16.0927 -11.9177 -0.155049
-16.555 -10.1132 -1.44706
-15.5327 -12.1544 -0.627345
-15.227 -12.8178 -2.55067
-15.1905 -13.0465 -2.77292
-14.7699 -12.3327 -3.06989
-14.4589 -11.5748 -2.67868
-14.6121 -12.3441 -1.85741
-17.7889 -10.1352 1.54279
-18.4593 -10.8654 -0.393636
-18.1064 -10.8407 -0.820787
-19.6797 -9.97201 -3.17213
-19.4135 -10.6357 -2.81398
-17.5408 -11.6384 0.940577
-16.6938 -11.1451 -0.0889136
-16.7618 -11.1614 -0.372407
-18.3391 -11.5994 -3.12603
-17.6353 -11.326 -0.247554
-17.3257 -10.979 0.0577665
-17.2479 -11.2553 -1.04051
-17.1286 -11.8829 -0.795022
-16.723 -11.4828 0.704008
-15.8574 -11.0195 -1.50019
-16.85 -11.9909 -1.68479
-16.8674 -11.2917 -0.895618
-16.6786 -11.3133 -1.97756
-16.6543 -10.6587 -3.07267
-15.5715 -11.9065 -0.820444
-16.4866 -10.8929 -1.44582
-16.558 -11.5335 -1.30993
-15.8484 -11.8257 -1.38982
-16.6148 -11.3529 -0.173546
-16.3394 -11.4146 -0.446117
-16.5891 -10.8269 -3.22724
-14.5182 -12.5658 -1.86253
-14.4784 -12.7752 -2.53561
-20.5112 -11.1696 -0.960921
-19.8668 -10.7113 -0.709986
-18.7382 -10.5075 -2.70303
-16.972 -11.1773 -0.59192
-17.2677 -10.0613 -0.711047
-17.5595 -11.1856 -1.31727
-16.8099 -10.1278 -1.05729
-16.8797 -11.881 -0.987239
-17.0238 -10.6316 -0.833132
-16.7975 -11.7126 -1.59054
-15.7905 -12.6169 -0.11281
-15.9312 -11.6276 0.851793
-15.1945 -11.2716 -2.8469
-15.3059 -11.5394 -4.03967
-15.7884 -11.9632 -2.98079
-14.8781 -12.3898 -2.2938
-20.3156 -10.7689 1.21304
-20.3887 -11.9131 0.332078
-18.0908 -11.0958 0.118748
-18.3851 -9.74957 -0.390406
-18.2853 -11.4092 -0.861631
-16.3084 -10.2992 -1.19828
-15.1635 -12.4492 -0.765693
-17.3364 -11.1632 -0.853382
-19.1167 -11.572 -0.136418
-17.5981 -10.8576 -1.0774
-15.0804 -12.4665 -1.00841
-18.6554 -9.48477 -1.21386
-18.2123 -10.9386 -0.696341
-16.5492 -10.774 -1.91265
-16.7266 -11.7305 -0.817947
-19.1532 -10.7477 0.0776614
-16.9468 -11.9014 -0.927919
-17.5731 -11.3075 -0.984658
-16.7935 -9.79461 -2.36387
-15.2634 -12.0567 -2.99624
-15.9977 -11.3563 -0.792335
-16.127 -11.9521 -0.653388
-20.2771 -10.1071 1.53526
-17.6529 -8.96105 2.35752
-20.2134 -10.9074 0.59583
-16.4786 -9.20039 1.68067
-15.864 -9.41804 0.750137
-20.2755 -11.5522 0.0507338
-20.4366 -10.7431 0.0788391
-20.4716 -11.0431 -0.314723
-19.0669 -10.2661 0.739872
-17.176 -10.5898 1.60556
-19.0828 -10.2941 -1.05569
-18.4118 -11.1035 -0.16851
-18.7396 -11.297 -0.382947
-17.6777 -11.0478 0.338256
-19.4402 -9.81099 -1.45845
-18.5303 -10.5423 -0.625514
-17.7686 -10.412 -0.919253
-20.6832 -9.99664 -1.68231
-18.3577 -11.4607 -0.890484
-17.268 -11.3561 0.442765
-17.8756 -11.1729 -0.366011
-17.355 -10.7633 -0.556532
-20.4966 -10.7482 -2.54964
-20.8864 -10.7055 -3.48872
-19.6371 -11.094 -2.74757
-17.9648 -11.3517 -1.00391
-20.8309 -11.3579 -2.64486
-18.2666 -10.7938 -0.182541
-20.2253 -9.83704 -1.62002
-16.2688 -10.9481 -1.53943
-16.707 -11.3844 -0.0925705
-18.3837 -10.6599 -1.24523
-19.7718 -11.3065 -1.17471
-16.1804 -11.4422 0.869908
-17.7786 -9.71042 -1.04513
-16.5352 -10.5231 0.126609
-20.1292 -11.0135 -2.51943
-17.6013 -12.1072 -1.80529
-19.0053 -10.5893 -2.78083
-18.8277 -11.1988 -3.04516
-17.2093 -11.7911 -1.15762
-19.7186 -10.4132 -3.32216
-18.8054 -11.6976 -2.64483
-19.0502 -11.0415 -3.82979
-16.6376 -11.3224 -1.19763
-15.2274 -12.012 -0.405693
-18.2523 -10.8425 -1.72886
-19.8421 -10.4718 -4.29857
-18.3453 -10.3149 -3.2257
-16.9669 -11.3218 -1.82222
-15.2183 -12.4045 -1.21724
-16.441 -12.0762 -2.75483
-15.2332 -12.0501 -2.07907
-15.8325 -12.2051 -3.35495
-16.1212 -12.4112 -3.19927
-14.6466 -12.3522 -2.6784
-14.0971 -12.7787 -3.04753
-20.421 -10.8942 0.564671
-20.536 -10.5815 1.0457
-19.7783 -10.7409 0.982715
-21.3273 -10.1687 0.676715
-16.5504 -9.05438 0.788344
-15.7882 -9.29342 1.5153
-20.3986 -10.4936 -0.0994866
-15.8186 -9.96903 0.553903
-18.7551 -9.74348 0.425217
-15.3372 -9.41344 0.678602
-18.4581 -10.6355 0.168324
-17.63 -10.461 0.167197
-18.296 -9.92028 -1.34891
-19.7491 -10.9382 -1.12492
-18.8247 -10.7008 -0.65593
-19.2181 -10.6816 -1.07363
-16.4599 -11.1991 -0.406883
-18.3117 -11.6282 0.125438
-16.9631 -11.0654 0.721703
-18.8215 -11.0158 -1.04224
-19.6991 -10.3052 -1.61519
-17.4086 -11.487 -0.448214
-18.2931 -11.2232 -0.553628
-16.9834 -11.8205 -0.397354
-19.4963 -10.7313 -2.44562
-20.5906 -10.6907 -3.55048
-18.285 -12.0252 -1.42918
-18.313 -11.7377 -1.12479
-19.1769 -11.0282 -1.31496
-19.763 -10.1896 -3.36679
-15.4277 -11.3482 0.648973
-19.185 -11.5134 -2.25025
-16.4819 -11.157 -0.234932
-16.0395 -11.6794 0.292081
-17.7019 -11.2702 -2.61638
-19.0288 -10.9576 -2.94925
-18.8751 -10.996 -3.14242
-17.5708 -11.4409 -1.57627
-19.4434 -11.7058 -2.9382
-17.1134 -10.0698 -2.6505
-18.2018 -10.1192 -2.67802
-15.7749 -11.239 -0.28991
-14.4603 -12.3899 -0.587467
-15.4 -11.7458 -1.03335
-16.3448 -10.894 -2.12237
-15.4044 -11.3122 -2.33471
-15.1708 -12.5753 -1.40542
-15.8611 -12.3858 -2.86897
-14.8651 -13.164 -2.07019
-15.3792 -13.035 -2.9612
-14.4885 -13.3541 -4.34549
-14.3477 -13.4001 -2.49553
-13.9098 -12.8358 -2.70656
-20.0487 -11.8292 1.45134
-15.8418 -9.39771 0.622072
-17.2899 -10.0426 0.699798
-16.1936 -9.03307 1.64636
-20.265 -11.0254 0.245751
-17.7675 -10.3701 0.526149
-20.5181 -11.3744 -0.622911
-18.6584 -10.9228 -0.64451
-20.1226 -10.7236 -1.54585
-17.6983 -11.6859 -1.05074
-15.7453 -11.7175 0.609236
-17.027 -10.7021 -0.725996
-18.1016 -11.1067 0.43579
-16.8816 -12.0188 -0.311166
-16.417 -11.9992 0.55962
-20.6684 -11.3676 -3.98016
-18.7957 -10.6379 -1.487
-19.6603 -11.3769 -2.01418
-18.7208 -11.9946 -1.42776
-17.1285 -10.1916 -1.41796
-20.466 -11.4665 -2.69679
-20.4768 -9.94266 -1.62738
-18.723 -10.4656 -3.64911
-16.9173 -10.8335 -1.28131
-18.3675 -11.0619 -2.92566
-19.3475 -11.6579 -3.11627
-15.3499 -11.9558 -1.04446
-16.3319 -11.4574 0.183059
-15.7772 -11.5433 -0.282859
-16.9349 -12.3447 -1.95115
-17.5931 -11.3943 -1.86733
-17.2935 -11.0988 -3.10319
-16.6452 -10.9771 -2.61209
-18.6454 -11.5009 -3.4031
-15.774 -11.4406 -2.11725
-15.3982 -12.0813 -2.56634
-16.1713 -11.3534 -3.30706
-15.5882 -12.5403 -1.54225
-15.381 -11.8217 -2.41233
-17.2504 -8.77743 1.6766
-19.7751 -11.4185 0.266748
-17.776 -11.5065 0.0845219
-19.722 -11.6566 0.524028
-15.9449 -10.8631 -0.507577
-19.5914 -11.5438 -1.36722
-17.0708 -11.1106 0.875583
-19.2423 -11.4 -2.52843
-19.6314 -10.8668 -2.12163
-16.3729 -11.9502 -1.35381
-19.368 -11.0826 -2.03722
-19.8352 -11.1679 -3.21588
-15.6256 -11.7545 -1.44475
-17.9615 -10.8357 -2.6124
-16.0594 -12.269 -1.43597
-17.459 -11.4965 -1.30517
-14.9452 -12.8913 -1.51312
-16.688 -10.4835 -3.09305
-18.7162 -11.2179 -2.43379
-16.3823 -12.1527 -1.40186
-17.4928 -10.5381 -1.60935
-14.728 -12.6533 -2.03569
-20.3683 -11.5379 0.28336
-19.6051 -10.8232 -0.407338
-19.022 -11.0433 0.182782
-17.3248 -11.0207 0.456951
-20.3753 -10.9749 -0.832673
-19.3084 -11.9056 -1.37526
-20.054 -10.5433 -0.388973
-17.3525 -11.7678 -0.569457
-16.2772 -11.9056 -0.15007
-17.0364 -11.4741 0.333669
-18.4272 -11.5204 -2.34227
-16.3426 -10.5671 -2.61486
-14.7628 -12.8129 -1.76003
-14.4551 -12.2936 -3.36518
-20.3054 -10.2723 0.991451
-17.9049 -10.7196 0.192326
-19.5772 -10.571 -0.508376
-19.475 -10.7364 0.961296
-18.3799 -10.5977 -0.0841464
-15.9098 -10.2693 -0.397207
-16.1784 -10.9013 -0.103067
-16.5378 -11.4705 -2.24828
-15.4454 -9.99138 -2.08536
-16.932 -10.8598 -3.37721
-14.8623 -12.2114 -3.68403
-16.9104 -9.91459 0.867433
-19.9582 -11.6056 -0.00400257
-17.9606 -11.1235 -0.701508
-15.9338 -10.732 1.26255
-18.834 -10.6078 -0.89066
-19.1674 -11.1776 -1.46578
-16.1957 -11.0373 -1.81936
-15.2367 -11.4404 -0.828203
-16.1064 -11.2869 -1.60859
-16.1831 -11.0778 -1.3825
-14.7631 -12.5737 -3.67516
-15.3961 -11.924 -3.00401
-15.3548 -12.5872 -3.04074
-14.8465 -11.3806 -2.49752
-14.3187 -13.0845 -2.60953
-15.2387 -9.99455 -3.18674
-14.7906 -11.018 -3.09212
-18.1752 -11.1043 -4.64646
-14.4437 -12.6396 -3.51422
-19.4142 -11.1694 -3.25427
-15.8841 -10.6572 -2.29044
-16.5535 -11.1745 -2.07155
-18.2695 -11.3233 -2.58342
-18.8116 -12.0724 -3.24072
-18.644 -10.6661 -2.49788
-20.1949 -10.5687 -2.75248
-20.1668 -10.4723 -2.56317
-15.2809 -12.3042 -2.36247
-18.552 -11.6331 -2.31217
-20.6129 -11.923 -2.60312
-14.7415 -12.7187 -2.49502
-19.9001 -10.3561 -3.62253
-15.9349 -11.6952 -2.02323
-16.7894 -11.1258 -2.05015
-19.7027 -10.2344 -2.12662
-20.0098 -11.2271 -2.682
-19.0545 -10.1734 -2.27449
-21.0149 -10.704 -2.4645
-18.5563 -11.1311 -1.19521
-20.6318 -10.5097 -1.54145
-16.7026 -10.2113 -1.38063
-19.1152 -11.6563 -2.14238
-20.2823 -11.5615 -1.67009
-15.4364 -11.5872 -1.5313
-15.7678 -11.953 -0.746674
-18.1451 -11.0769 -0.850568
-20.3058 -10.8156 -1.00148
-19.5316 -10.1106 -0.96621
-14.8204 -12.1589 -0.219286
-18.6333 -10.9444 -1.0997
-17.6763 -10.729 -0.522144
-16.6053 -12.1406 -0.0760333
-17.188 -10.9676 -0.440708
-16.9014 -11.1216 -0.0106571
-19.7422 -10.5625 -0.144208
-17.3597 -11.3156 -0.490428
-16.9094 -11.8097 0.0649676
-19.0515 -10.6001 -0.729147
-17.1169 -11.8839 0.831652
-16.476 -11.5336 -0.11891
-19.752 -11.5615 -0.660689
-18.6366 -10.5788 -1.09398
-19.2153 -10.2377 -0.816994
-19.3842 -10.047 -0.0757587
-17.7447 -11.324 0.441677
-17.4738 -10.5833 -0.64941
-20.1886 -11.6682 -0.264549
-17.2316 -10.1571 0.42522
-18.3383 -10.6677 1.00225
-17.5714 -11.419 1.37966
-17.2846 -10.3741 0.548354
-15.9514 -11.6915 -0.124966
-19.0047 -11.6327 0.896866
-20.606 -11.0374 1.17841
-15.6591 -9.49909 1.20239
-15.9843 -9.55231 1.22503
-16.9322 -10.2982 2.21677
-14.7763 -12.0733 -3.46563
-15.1632 -12.6917 -3.29894
-15.314 -13.3282 -3.54313
-13.9436 -12.2597 -3.09934
-15.3174 -12.2895 -3.04622
-16.7378 -11.0366 -3.03103
-19.878 -10.674 -2.88633
-15.4653 -11.6052 -2.00687
-15.9125 -11.331 -1.83927
-17.609 -10.5944 -3.24762
-19.302 -11.2349 -2.74664
-16.1324 -11.8037 -2.9385
-18.4015 -11.3726 -1.93403
-18.1842 -11.6852 -2.78933
-18.6998 -10.4564 -3.16594
-16.9399 -11.0658 -1.7659
-17.7205 -11.0716 -2.2972
-20.5186 -11.2667 -2.67658
-18.63 -11.6913 -2.3689
-16.8898 -11.0028 -1.16406
-16.4538 -11.7537 -1.21415
-18.798 -11.3559 -0.899466
-19.6478 -11.4026 -1.53176
-18.3734 -12.2833 -0.985241
-18.7707 -10.6671 -1.68591
-17.5472 -10.4858 -0.512741
-17.4403 -10.6391 -1.11302
-17.2003 -11.1597 -0.562468
-19.5918 -10.5599 -1.37198
-19.742 -11.5094 -1.42951
-18.7093 -10.891 -1.63371
-19.2282 -10.1767 -0.954835
-17.6944 -11.7455 -0.694872
-17.4855 -11.4496 -0.673571
-15.5758 -11.963 -0.84765
-20.7056 -11.2766 -0.645633
-16.4668 -11.2761 -0.0552981
-17.2063 -10.702 -0.0910713
-16.6776 -10.4828 -0.0932623
-16.3902 -11.2863 1.27114
-19.8885 -11.3972 0.517582
-20.214 -10.5438 -0.58267
-21.0168 -11.8688 0.563897
-16.6606 -10.819 -0.072697
-20.2147 -10.2638 0.66497
-16.9298 -10.5983 0.681307
-18.4614 -11.1126 -0.598792
-17.5094 -11.535 0.0215633
-19.5169 -11.5281 -0.0320851
-20.3557 -11.1017 1.50893
-15.8943 -9.60817 1.20607
-15.6434 -9.45675 3.08841
-14.6258 -11.5077 -3.50029
-15.9951 -12.3031 -3.56774
-15.0411 -12.3441 -2.96184
-14.9541 -12.8602 -2.40232
-15.5609 -11.4043 -2.67242
-15.6136 -11.0704 -3.25337
-15.4773 -11.6521 -1.77196
-16.0536 -11.5008 -2.25829
-19.7371 -10.7999 -2.45053
-17.9851 -11.6211 -1.86029
-17.2299 -11.667 -2.02722
-19.3589 -11.5068 -1.8656
-19.922 -10.7133 -2.60091
-19.5938 -11.0948 -1.06813
-15.7037 -11.7009 -1.1259
-17.236 -11.5663 -1.48552
-17.4299 -11.0301 -1.65832
-19.0455 -11.0593 -0.0948912
-20.2464 -10.4099 -1.66536
-18.4866 -10.1296 -0.11548
-20.3517 -10.8713 -0.307551
-20.4289 -10.5677 0.84193
-20.5848 -10.1197 0.461916
-16.4931 -9.46615 1.5004
-15.9259 -12.4348 -3.62812
-16.8116 -10.2031 -2.51241
-19.9676 -11.2297 -2.84591
-19.9573 -11.4877 -3.05248
-15.5024 -12.3159 -2.43604
-16.7404 -11.1647 -2.58626
-17.2978 -11.3136 -2.25942
-18.1488 -11.77 -2.34581
-17.2124 -11.4622 -1.53028
-16.7409 -10.9913 -2.05536
-16.2419 -10.8022 -2.46673
-15.9343 -10.5435 -1.36395
-15.1446 -11.3846 -1.33771
-15.6444 -11.9178 -1.12947
-16.1358 -12.2932 -0.730325
-16.0243 -11.5704 -0.239337
-19.9646 -10.6233 -0.776655
-15.434 -13.0754 -0.805844
-15.8715 -11.1946 -0.381419
-18.6779 -10.7337 0.0110026
-16.4151 -10.872 0.0447653
-18.642 -9.6967 0.683272
-20.3794 -10.6472 0.472135
-16.7861 -9.6452 1.1617
-20.2197 -10.5131 -2.99905
-14.7884 -12.2738 -1.85456
-17.2372 -10.8027 -2.54673
-18.5225 -10.7811 -1.54115
-17.2537 -10.203 -1.17844
-16.5511 -11.4081 0.374655
-17.4702 -11.4425 -0.117591
-19.5103 -11.3164 1.05131
-15.6753 -8.77783 1.8019
-16.8114 -11.2178 -1.61436
-18.4514 -10.4176 -0.114374
-19.1773 -10.4535 -0.608919
-14.9212 -12.1937 -3.06262
-16.0442 -10.8169 -1.60189
-21.4322 -11.4755 -1.36077
-18.8924 -10.9992 -1.23381
-17.0885 -11.0279 -0.562898
-15.1275 -11.602 -2.91982
-16.8506 -11.8694 -0.86296
-19.7763 -10.1358 -0.391116
-16.6632 -10.8088 -0.245071
-19.0204 -10.2403 -0.363964
-17.5266 -10.6672 -0.93444
-16.1166 -11.4914 -0.457485
-19.8104 -11.2443 0.602985
-16.1802 -11.409 -2.11884
-16.205 -11.6827 -1.78858
-19.9577 -10.6522 -3.34719
-19.3541 -9.98416 -3.33972
-20.6791 -12.2831 -3.22669
-20.3498 -11.7154 -3.31667
-17.5127 -11.4634 -3.28539
-18.0576 -12.1616 -3.38656
-16.3082 -10.9759 -3.35229
-16.735 -11.8356 -3.51004
-18.8135 -12.2814 -3.22484
-19.3254 -10.5613 -2.31948
-20.1168 -10.3446 -1.95847
-18.7094 -11.6213 -2.34102
-21.5672 -10.9724 -1.23708
-19.0478 -10.5393 -1.94443
-16.2829 -11.2753 -2.3826
-15.0045 -12.8145 -3.46928
-20.8529 -10.5546 -1.39419
-15.923 -10.9703 -3.43012
-20.5132 -11.2863 -0.889249
-15.5238 -12.1554 -1.36133
-15.1404 -12.388 -3.08303
-20.0858 -10.3513 -1.44992
-18.1956 -11.1773 -0.338858
-16.6335 -12.079 -1.35021
-16.8412 -11.9496 -2.01289
-19.9237 -10.2118 -0.139872
-17.7556 -11.0095 -0.0919397
-18.4597 -12.2905 -2.01037
-16.4797 -10.8521 -1.31489
-18.06 -11.6365 -1.52977
-19.1878 -10.0959 0.327441
-19.3057 -11.2947 -0.433281
-19.9789 -10.6524 0.592374
-20.9255 -10.7198 0.054415
-20.3066 -11.6109 0.0537731
-18.3638 -10.6412 -0.0694823
-17.1329 -11.5456 -1.11535
-20.0947 -11.2271 -0.384277
-17.2953 -11.6138 -0.518989
-15.4888 -11.6154 -1.16165
-19.9693 -10.6952 0.382427
-21.0475 -11.1727 0.266594
-17.9538 -10.7938 -0.196883
-19.4584 -10.5386 0.692182
-20.1182 -10.58 0.995189
-16.1178 -11.9101 -0.41521
-20.1984 -11.2188 1.09904
-16.8833 -10.8655 -0.0629096
-16.5338 -11.0367 0.616841
-18.1053 -11.4179 0.635829
-18.1897 -11.2765 1.02287
-20.6979 -10.3449 0.523217
-16.1339 -11.0838 -0.609967
-16.1439 -10.9565 -0.517469
-16.8878 -12.0663 1.08472
-17.1061 -10.564 0.773314
-16.4316 -9.72371 1.95424
-16.9953 -9.13787 0.627459
-16.0549 -9.28126 0.834952
-15.9815 -8.56498 1.29036
-19.4814 -10.2844 -3.45505
-19.3693 -10.6591 -4.04307
-20.4163 -10.6884 -2.22226
-20.6946 -11.0326 -3.01481
-19.229 -9.9279 -1.841
-20.5464 -10.7916 -2.08123
-19.035 -11.5745 -2.68509
-17.3028 -11.205 -1.68163
-19.905 -10.465 -1.10069
-17.404 -11.0155 -2.28948
-20.4718 -10.8265 -1.00125
-19.5691 -10.7443 -2.34124
-15.2306 -11.7682 -3.23073
-15.1441 -11.7985 -2.74792
-20.3783 -11.5418 -0.896913
-19.2988 -10.5513 -2.68513
-14.4718 -11.7821 -1.69227
-16.4081 -11.2037 -1.42275
-18.5823 -9.96875 -0.550655
-18.9367 -10.5317 0.314796
-17.6673 -10.5454 0.166262
-21.0159 -10.3533 0.997735
-19.6726 -10.3978 0.218353
-16.9209 -11.1975 -0.753503
-20.5481 -10.8722 1.18444
-17.0387 -11.1977 -1.09552
-20.8843 -10.2635 1.32212
-20.7191 -11.1168 0.946444
-20.3493 -10.8505 0.759808
-20.1661 -9.84696 0.673745
-20.7929 -11.4016 0.758373
-15.9727 -11.7289 -0.969641
-19.2572 -11.341 -0.195602
-15.2853 -11.8165 -0.27096
-16.6104 -11.0313 0.56293
-19.8703 -10.9075 1.55521
-17.3196 -9.3019 1.75955
-15.2308 -11.8837 0.429708
-16.3474 -9.60555 0.808622
-19.1408 -10.8789 -2.84487
-16.6597 -11.6514 -2.48777
-17.6888 -11.2872 -2.33925
-18.574 -11.0509 -1.58714
-16.1788 -10.7417 -2.34953
-14.7151 -11.4788 -2.77325
-15.7114 -11.9533 -2.47031
-19.4875 -10.9276 -1.19523
-16.7785 -11.6641 -2.46803
-17.8078 -11.2872 -1.85197
-16.6661 -11.7529 -1.42329
-19.6666 -11.6071 -0.604021
-20.5807 -10.598 -0.613179
-20.0988 -10.3524 0.506411
-18.5476 -10.6845 -0.166089
-18.3316 -10.4899 -0.222219
-18.7894 -10.3894 0.580654
-17.3244 -10.1575 -0.937747
-19.6653 -10.3898 0.488117
-19.1783 -9.76882 1.09962
-16.3137 -11.5118 -0.850239
-20.0543 -11.8288 0.923958
-17.0876 -11.0679 -0.126474
-16.6504 -11.5606 -0.385851
-17.4275 -10.6997 0.679251
-17.9769 -11.43 0.429589
-20.2062 -10.7214 0.156669
-17.2544 -11.0604 0.400788
-15.8941 -11.6272 0.365779
-17.4513 -10.5271 0.793339
-15.9788 -9.13451 2.92332
-18.7942 -11.2426 -3.45922
-17.871 -11.0672 -2.25196
-16.3975 -11.2066 -1.24972
-19.8397 -11.211 0.312868
-19.617 -11.2782 -0.347681
-19.6748 -11.5435 -0.0231105
-19.9544 -10.7002 -1.01905
-15.7166 -11.2579 -1.31225
-17.1815 -10.7449 0.512718
-17.1786 -11.0325 -0.675141
-16.3914 -11.159 -0.615928
-16.1189 -11.3109 -0.847556
-16.5178 -11.2027 -0.781488
-15.1003 -11.7782 0.858908
-16.2931 -12.2348 -3.2419
-16.2229 -10.2993 -2.45413
-17.7581 -10.8791 -2.62302
-17.5348 -12.3402 -1.25766
-18.5353 -11.5912 -0.687955
-18.4735 -11.2296 -0.778366
-19.2891 -11.5687 -0.402336
-18.8638 -10.522 -0.292699
-16.3766 -10.8508 -0.571861
-19.0204 -11.4949 -0.730521
-18.7935 -9.72157 0.5119
-17.2439 -11.6764 -1.2719
-15.1261 -12.1955 -0.388419
-16.0049 -11.7788 -1.42387
-16.4907 -11.6882 0.0772104
-16.2315 -11.4251 -0.115069
-17.4203 -11.2187 -2.28601
-17.3302 -10.3613 -2.24808
-16.5703 -11.2124 -1.80642
-19.5173 -10.9478 1.2291
-19.047 -11.1291 1.14481
-18.6678 -10.3657 0.678489
-18.1971 -11.022 0.0956409
-17.5558 -11.9992 0.286813
-15.8727 -11.4755 -1.38852
-17.5057 -10.6687 -0.422869
-18.4081 -10.5664 0.517017
-15.9261 -11.9208 -1.00826
-17.3786 -10.9824 -0.186033
-16.1792 -10.0177 2.28566
-16.7242 -8.35329 1.48052
-16.2423 -11.7327 -1.69675
-17.0884 -10.3255 -1.58373
-20.5804 -11.0787 -2.81251
-19.5035 -11.8304 -2.8885
-18.9152 -10.5177 -1.13863
-19.3713 -10.8164 -0.774217
-17.666 -10.4488 -2.16999
-16.3054 -11.1698 -2.66888
-19.012 -11.6921 -1.98567
-20.6551 -9.62209 1.14011
-21.1378 -11.9717 0.389761
-19.8524 -10.6419 0.521885
-19.2867 -12.0366 0.392194
-19.4833 -10.9167 -0.342511
-19.3869 -10.4731 0.963401
-18.0757 -11.4732 0.0180806
-17.0801 -10.2311 0.00676461
-17.2546 -11.0383 -1.79515
-17.7652 -11.1546 -0.73906
-17.0032 -10.9334 0.155033
-17.4431 -9.47783 1.42182
-17.5629 -10.7212 -1.28439
-15.5376 -11.203 -2.93762
-15.2312 -13.0699 -2.74373
-17.6557 -10.9937 0.0898331
-16.946 -9.18528 0.741176
-15.4158 -12.4794 -3.29105
-17.0124 -10.128 1.90273
-15.7069 -11.249 -1.252
-15.9603 -9.77183 0.55375
-16.6893 -11.9992 0.332029
-16.7541 -9.014 0.500165
-20.311 -9.80964 -1.71002
-17.5582 -11.6853 -1.85979
-18.5631 -9.89867 -0.787483
-19.9303 -10.5734 0.965374
-20.3146 -10.7746 0.846469
-19.5203 -11.2613 -0.396662
-19.3073 -11.0027 0.203731
-19.5071 -10.5335 0.296808
-20.0715 -10.3714 -0.480766
-20.1655 -10.2779 0.432608
-15.8767 -11.0648 -2.2276
-16.7364 -11.3525 -1.15664
-16.2378 -11.1135 -3.19263
-17.1099 -11.8093 -2.36363
-17.8698 -11.4273 -1.12026
-17.6967 -11.7531 -0.374711
-17.5334 -10.6143 0.673378
-16.6486 -12.1357 -0.330141
-16.2013 -11.1782 -0.497174
-16.3109 -11.8557 0.256104
-15.9365 -11.4818 1.84278
-15.1429 -12.1016 -1.08525
-21.1365 -10.5605 0.565294
-18.9329 -9.33408 1.09537
-15.8127 -11.3206 -2.22032
-17.5564 -12.6568 -0.704053
-15.8272 -11.2043 -2.21926
-16.0551 -10.9361 -0.460609
-17.6246 -10.5542 -0.129161
-17.2696 -10.325 1.31327
-15.9846 -11.4357 -0.951838
-15.9945 -11.4951 -1.24884
-15.1009 -12.3424 -0.61603
-20.3799 -10.3276 0.441625
-20.2848 -10.992 0.302486
-16.0127 -11.173 -2.7077
-16.4955 -11.4287 -0.377357
-16.4974 -11.2628 -0.297643
-15.9864 -11.2815 -1.10848
-15.8243 -11.5619 0.505834
-19.5432 -11.0396 0.914289
-20.8398 -10.0308 -0.158319
-18.5304 -10.3556 0.148832
-18.0803 -11.4077 0.398059
-18.4046 -11.1151 1.45113
-16.7296 -10.8723 -1.72474
-15.1823 -12.5615 -3.83024
-15.8361 -12.2502 -1.85696
-15.9899 -10.8886 0.0616615
-17.1136 -11.9973 -1.54262
-15.3161 -11.4498 -1.66757
-16.5615 -10.518 -2.67238
-14.89 -11.6107 -0.608793
-18.1769 -11.1459 -0.955269
-15.473 -12.247 -2.22895
-16.0011 -11.9724 -0.297123
-16.723 -10.8109 -2.07306
-18.5517 -8.71893 2.30084
-20.7704 -10.5395 0.678387
-20.5715 -10.9924 -0.0576561
-19.5295 -10.151 -0.524149
-19.0588 -9.68917 -0.78
-18.8811 -10.8976 -0.499597
-19.0243 -10.3395 -1.68669
-16.9484 -10.5577 -2.33389
-17.2149 -11.5478 -1.7008
-17.1414 -11.7563 0.249476
-17.9878 -11.1225 -0.778761
-16.9641 -10.9576 -0.00168207
-16.2399 -10.9585 0.347745
-16.5386 -11.2004 -1.18671
-17.2779 -10.8245 0.0894167
-16.2549 -10.9225 -2.04722
-15.7001 -11.6647 -1.9839
-16.5393 -10.7802 -0.454686
-15.9893 -12.04 -1.39038
-20.0548 -10.102 -2.73014
-20.2091 -10.9086 -3.35387
-20.4245 -11.1354 -2.81737
-19.7933 -10.3894 -0.754922
-19.6733 -11.1981 -1.71973
-17.5758 -11.0182 -2.65714
-18.3592 -10.4482 0.365376
-17.9579 -11.3416 -1.53257
-18.5559 -11.7708 0.197879
-16.7406 -11.755 -2.80389
-17.6229 -11.1853 -0.320732
-16.8699 -11.2233 -2.23567
-16.2698 -11.0844 -1.59095
-16.3261 -11.3379 -2.29958
-15.7493 -10.2116 -1.89408
-17.1506 -10.9045 -2.05978
-16.0888 -11.3319 -1.77374
-17.0284 -11.9467 -0.87999
-15.3739 -11.1031 -2.25292
-17.016 -11.5543 0.107008
-15.9705 -11.744 1.10397
-15.977 -11.5883 -0.724025
-16.381 -10.9969 0.888363
-16.1246 -12.0373 0.623543
-15.4847 -11.5921 0.107676
-14.4448 -11.5389 -3.15666
-15.2589 -12.3934 -0.258876
-15.331 -11.8312 -0.422268
-19.1436 -11.4136 -0.489584
-19.1837 -10.1738 -1.59725
-18.3177 -11.1202 -2.92266
-16.1981 -11.7322 -0.42758
-18.0801 -11.6898 -1.29206
-16.0422 -11.3095 -2.04919
-17.1463 -12.2636 -0.734469
-15.8396 -11.6161 0.0368865
-15.5818 -11.0311 -0.577357
-20.3412 -11.257 -1.12245
-20.3484 -10.3311 -0.258408
-18.0845 -10.024 0.943545
-17.7818 -11.9571 -2.34368
-16.3296 -11.3004 -1.78228
-16.3619 -10.9858 -0.425431
-16.4584 -11.5287 0.448777
-15.7495 -12.1559 -0.48215
-14.5641 -11.5999 -2.49699
-16.0717 -12.8532 -1.55138
-15.4528 -11.8161 -2.38663
-18.0823 -10.9112 -1.53966
-17.3278 -11.9774 -0.27752
-16.7412 -10.9038 -0.693484
-15.7189 -10.514 -0.542673
-16.2189 -11.1742 -0.803296
-14.9997 -12.1789 -2.57182
-20.8808 -11.0138 -2.56001
-20.2785 -11.1358 -0.775738
-19.1256 -11.3056 -0.428865
-18.2475 -11.6957 -2.80266
-16.3056 -10.7945 -0.00392227
-17.0067 -11.944 -1.64056
-16.5743 -10.646 -1.14109
-20.5291 -11.0139 -3.46433
-16.675 -9.19329 1.07347
-16.5687 -10.1281 2.44076
-19.7576 -10.4409 -0.560286
-19.7779 -10.182 -3.27589
-19.0792 -11.0475 -0.671834
-16.1808 -8.42277 2.07772
-15.7052 -8.5823 2.22423
-19.1991 -11.5087 -2.91121
-19.6206 -10.8654 -3.59782
-19.1721 -11.1881 -3.95471
-19.661 -10.6383 -2.94548
-17.756 -10.359 -1.00106
-18.3596 -11.4501 1.15593
-17.273 -11.3273 -1.66596
-17.4244 -11.6314 -0.799803
-16.7999 -11.4798 0.29369
-16.6878 -11.8791 -1.2877
-16.5961 -12.1163 0.586679
-16.0092 -10.8267 -1.21304
-17.0397 -10.5279 -2.04813
-17.0398 -10.6139 1.39303
-15.4962 -11.259 -0.772897
-16.0527 -11.6467 -1.63008
-16.3108 -12.4188 -0.794655
-15.2861 -10.31 -1.3895
-15.0943 -12.0553 -1.34155
-15.5761 -11.6586 -2.60933
-14.5002 -12.7938 -3.05922
-14.6463 -14.1142 -2.59837
-20.3356 -11.6125 -0.738876
-20.4773 -9.7538 -0.875092
-16.055 -9.40337 1.75496
-17.5609 -10.1765 0.366477
-19.2197 -11.4061 -3.15311
-18.9168 -11.362 -2.36739
-18.1019 -11.3132 0.00950221
-17.6578 -11.3611 -1.35721
-16.0059 -10.9659 -3.15977
-16.6585 -11.471 0.750026
-16.352 -11.8461 -0.962963
-15.7583 -11.9274 -0.35907
-17.4702 -11.0503 -2.31332
-16.2046 -11.1126 -0.050799
-14.8924 -12.8192 -3.20278
-15.6681 -11.9114 -2.86928
-19.9612 -10.6246 0.363048
-20.1627 -10.4829 -2.03623
-20.2691 -11.1272 -2.03808
-18.9806 -11.1547 -1.3757
-18.5806 -10.4097 0.0775175
-19.7425 -10.6438 -2.03018
-19.1667 -10.8747 -2.71879
-18.2814 -10.6811 -3.48853
-17.817 -11.9595 -3.43334
-17.3131 -11.4036 -3.39566
-16.3458 -11.1466 -0.404054
-16.6227 -11.6885 -2.41441
-16.5483 -10.1255 -2.62332
-15.9923 -11.6756 -0.126919
-20.801 -10.8216 -0.555085
-20.1805 -10.3757 -2.31669
-18.933 -10.6114 -1.68854
-19.0315 -11.8112 -3.30551
-17.1152 -10.9096 -1.64573
-17.7077 -12.062 -1.7755
-16.4747 -11.4661 -0.0472691
-17.0332 -10.7993 -1.25555
-16.1332 -12.4374 -1.2661
-15.9155 -11.33 -1.00443
-20.3497 -10.271 1.31254
-17.5342 -9.17387 1.88812
-19.0248 -11.0132 -0.948646
-16.8155 -11.0568 -0.728792
-16.2064 -10.4872 -1.05761
-16.4049 -10.9844 0.0341343
-16.1399 -11.08 -0.594567
-18.8051 -11.333 -3.00422
-14.9799 -11.9764 -0.758935
-18.8855 -10.5902 0.415533
-15.3083 -11.0864 -0.536629
-17.0028 -11.3192 -1.51588
-15.6451 -11.7048 0.531628
-17.2103 -11.0579 -0.949754
-20.2058 -10.0967 0.305644
-16.5748 -9.70515 1.18702
-18.9231 -9.89919 -0.384311
-18.5653 -10.8897 0.7405
-19.9864 -10.5706 -0.25264
-18.4263 -11.1457 1.49372
-18.3134 -12.0039 1.00634
-20.1403 -10.3378 -3.63835
-19.9545 -11.014 -2.24137
-18.414 -12.0218 -0.557761
-17.7505 -10.6895 0.588821
-15.9656 -11.2578 0.460879
-17.354 -11.3991 -0.504376
-18.4217 -11.4407 -0.390784
-16.5381 -11.809 0.470815
-16.0088 -11.5127 0.037872
-19.4609 -10.7864 -2.96578
-19.8849 -10.5842 -2.81148
-19.6806 -10.3291 -2.71918
-17.9175 -11.443 -0.990343
-17.8745 -11.1826 -0.504846
-18.7512 -10.9706 -3.59364
-15.5549 -11.1441 1.30385
-16.9545 -10.6242 -0.3398
-16.7515 -11.0724 0.39506
-15.7045 -11.0985 0.174424
-17.0409 -11.7712 -0.84163
-16.2315 -11.4048 0.0728355
-17.4105 -10.46 -2.23505
-17.2863 -10.956 -2.05729
-17.3954 -11.6662 -1.84165
-15.1013 -11.6113 -2.07785
-14.4633 -11.7329 -2.03903
-15.1829 -12.2599 -1.68249
-20.8918 -11.7067 0.221347
-19.6052 -11.3141 -0.311738
-19.6852 -10.9018 -1.07763
-18.0116 -10.3083 0.0882723
-19.2577 -11.2855 -1.39477
-20.3415 -11.149 -3.3619
-19.4289 -10.6087 -3.06395
-20.168 -10.5839 -3.26289
-17.9565 -11.5079 -1.34885
-20.0175 -9.59479 -2.28397
-15.9594 -10.9894 -0.0523426
-16.4149 -11.3969 -0.634747
-16.5802 -11.6808 -0.280652
-19.6061 -11.1888 -2.59556
-17.8074 -10.8418 -1.22065
-19.5975 -10.9693 -2.14069
-19.0056 -11.0425 -1.89537
-15.9287 -11.5422 -0.315694
-18.5691 -10.9539 -3.0246
-18.9107 -11.2697 -2.54126
-15.1581 -12.3051 -0.293629
-16.9196 -11.5915 -1.96497
-16.8393 -10.6223 -2.58589
-15.4075 -10.4046 -0.669961
-14.9056 -13.2317 -1.54446
-14.6232 -12.2701 -1.48666
-15.5818 -12.4767 -3.22968
-14.0524 -11.6506 -2.04993
-15.1231 -12.1668 -3.41542
-16.25 -8.89047 0.621246
-20.6772 -10.6413 0.804188
-20.008 -10.1003 -0.648878
-20.1466 -11.3658 0.239504
-20.5674 -10.8157 0.143841
-20.2319 -10.769 -0.824159
-18.9653 -11.1808 -0.0349092
-19.8924 -11.2867 -1.82638
-18.14 -10.8398 1.09128
-16.5074 -10.761 0.250983
-16.2285 -10.9028 -0.182428
-17.3542 -11.8105 -0.653508
-17.293 -11.0416 -0.840691
-16.17 -11.0407 -2.10508
-17.5831 -11.1473 -0.63214
-15.2565 -9.84636 0.470701
-18.6893 -10.6467 -0.762048
-17.4225 -10.9489 -2.61729
-16.5453 -10.831 -0.379248
-15.6183 -11.0452 -0.102078
-16.6474 -11.6769 -0.506612
-19.0944 -11.1157 -4.14221
-18.0642 -11.5992 -2.82728
-15.5434 -11.2095 -1.17714
-16.2329 -12.5644 -0.776405
-16.2439 -11.3554 -2.41143
-16.6724 -11.18 -0.604815
-16.2619 -11.4001 -0.987045
-17.0128 -11.0508 -2.59606
-14.9212 -10.6423 -2.45416
-15.7174 -11.5491 -2.16105
-14.6926 -12.7047 -1.34232
-14.9018 -12.7722 -3.03073
-13.6482 -12.8882 -2.53664
-19.366 -10.6737 -0.463419
-17.6477 -11.4189 0.279722
-19.5401 -10.7537 -1.52688
-18.0197 -10.5643 -0.853696
-17.4466 -10.835 -1.45821
-17.2947 -11.0949 -0.552833
-18.0738 -10.4283 -1.45159
-18.3992 -11.6359 -2.38724
-18.4527 -11.4634 -3.55131
-19.3916 -10.8299 -2.68525
-18.7473 -11.5698 -2.68194
-15.4316 -11.5196 0.256817
-15.684 -11.0302 -0.213241
-15.7848 -11.4703 0.747198
-15.917 -11.3908 -0.997243
-15.7488 -11.0577 -1.72343
-17.3104 -11.0619 -1.83783
-16.2361 -11.827 -1.39979
-16.037 -11.3167 -2.0813
-16.4261 -10.3101 -3.03109
-15.0727 -12.7369 -1.73349
-17.5382 -10.8453 0.879446
-17.5303 -11.117 -0.931483
-18.4325 -11.2843 -0.855814
-18.99 -11.0443 -1.50932
-16.2248 -11.8991 -0.610857
-15.3693 -10.8487 -1.02512
-16.4632 -11.6581 -1.8602
-15.2919 -12.4089 -2.71196
-21.0571 -10.4039 -2.37214
-16.5295 -12.1169 0.801727
-17.7046 -11.4983 -0.471804
-17.0392 -11.0016 -2.23148
-16.3482 -10.6829 -1.56512
-19.4608 -10.6191 0.378216
-18.7443 -10.749 -1.03049
-17.7617 -10.3957 -0.0912211
-17.4982 -10.6537 -1.29979
-16.6788 -11.72 -2.67054
-17.129 -11.3067 -1.94467
-16.2794 -11.562 -1.52338
-16.7655 -11.8225 -0.93192
-14.9837 -10.8483 -2.0149
-16.6191 -11.4192 -0.952802
-16.9291 -9.82542 0.820202
-19.1797 -10.6948 0.346144
-16.7772 -9.34067 0.922156
-15.0265 -10.0025 1.49448
-19.5262 -10.4587 0.157952
-18.6206 -9.9435 -0.462141
-17.7146 -10.242 0.687783
-18.0001 -11.0812 0.86113
-19.3215 -10.572 -0.0965012
-17.3404 -10.8139 0.0403797
-17.9165 -11.256 1.23476
-20.0143 -11.0639 -0.936572
-20.0078 -11.6061 0.0798207
-20.4949 -9.76109 -0.445152
-18.2119 -11.7137 0.0186651
-19.9779 -11.5904 -1.37132
-16.5112 -10.7829 -0.127194
-18.1085 -10.7355 0.221069
-17.3563 -11.0534 0.106122
-18.0577 -11.4462 0.0503922
-17.5317 -10.997 0.208356
-16.5388 -11.0905 0.134957
-16.6561 -11.1719 0.407867
-18.6187 -10.4733 -0.651165
-21.4843 -10.5574 -2.18785
-16.7825 -11.1756 0.432866
-18.9448 -10.9093 -1.10932
-19.1718 -11.1042 -1.19142
-17.9368 -11.2748 -0.299681
-19.9924 -10.4781 -2.1913
-16.9882 -10.9901 -0.185234
-15.786 -11.854 -0.610137
-16.9926 -11.701 -1.19769
-17.0809 -12.0842 -0.622248
-20.8113 -11.1026 -1.88761
-19.6161 -11.3894 -2.31291
-17.7855 -11.5895 -2.01855
-15.948 -12.003 -0.343553
-19.3805 -10.1342 -2.45097
-19.2888 -10.9183 -2.22113
-19.8479 -10.0362 -2.96869
-19.2896 -10.979 -2.29808
-18.7709 -10.5033 -3.86008
-19.0565 -10.6981 -2.7387
-19.2327 -10.9656 -2.79442
-16.9332 -11.7659 -2.15021
-18.57 -11.1488 -3.71966
-15.5097 -11.3683 -2.16035
-20.0602 -10.1135 -2.22781
-15.4673 -12.6102 -1.75115
-18.2234 -11.1646 -3.02569
-18.7298 -11.0922 -2.59821
-16.6171 -11.3265 -2.08006
-18.9427 -10.7551 -3.21799
-18.6556 -10.5321 -3.77869
-15.6489 -11.1074 -3.17892
-16.2772 -11.9523 -3.01144
-15.363 -11.15 -2.05268
-16.0136 -11.836 -3.34758
-15.5837 -12.2359 -2.75037
-16.4565 -12.2054 -2.61687
-14.5071 -12.7059 -3.86199
-15.5335 -11.4617 -3.11653
-15.2343 -11.7826 -3.43069
-14.6319 -13.184 -3.85302
-19.3549 -11.3394 1.99228
-15.6758 -10.5111 0.620462
-20.4887 -10.2325 -0.300363
-16.5389 -9.12302 1.02299
-19.9968 -10.4234 -0.362179
-17.6021 -10.6061 0.667605
-20.1993 -11.2499 -1.30526
-17.1376 -10.9476 0.644056
-19.719 -11.1479 -0.958781
-17.1025 -11.6751 -0.142512
-21.1063 -10.3282 -2.50697
-17.4754 -11.1858 -0.413917
-18.778 -11.7753 -0.116658
-16.9114 -10.3926 -1.25763
-19.2287 -11.7186 -2.65073
-16.3259 -10.8195 -0.308623
-18.2357 -11.0015 -1.06146
-17.5901 -11.5449 -1.45862
-19.9407 -10.1301 -2.19457
-20.2541 -9.99188 -2.61546
-18.4579 -11.4182 -1.69363
-16.1969 -12.8528 -1.35807
-19.8361 -10.5724 -1.9351
-17.5784 -11.1716 -1.34938
-18.351 -11.7693 -1.71043
-15.7775 -12.0638 0.226945
-19.505 -10.5287 -3.35002
-19.8959 -11.3256 -3.10934
-18.9378 -10.7534 -3.01052
-15.5251 -11.9495 -0.834587
-17.3614 -10.8099 -1.42359
-16.0407 -11.8581 -1.87653
-17.298 -10.0288 -3.46338
-18.2932 -12.1161 -2.41252
-18.3323 -11.9057 -2.9738
-17.4806 -11.3636 -3.66976
-16.257 -11.6729 -2.75973
-17.471 -11.4501 -2.30254
-17.9891 -11.1738 -3.8402
-15.4398 -9.96211 -2.02007
-15.5207 -11.1716 -2.42929
-15.9091 -11.7542 -1.29071
-16.5924 -11.8151 -2.62181
-16.0042 -11.8777 -2.03155
-16.1168 -10.9712 -1.96918
-20.3626 -11.0454 1.88989
-20.3696 -10.8117 -0.00756642
-20.4611 -11.159 0.233534
-16.6464 -10.9816 0.455843
-16.8184 -11.2739 -0.00953933
-18.5005 -10.5245 -1.24129
-15.901 -11.6536 -0.587801
-20.908 -10.9083 -2.5736
-16.2927 -10.7958 -1.3291
-20.8007 -10.1445 -3.78635
-19.7553 -11.4752 -3.78528
-16.6473 -11.6245 -1.06627
-19.8742 -10.9833 -3.12573
-17.2842 -10.568 -3.07587
-16.3907 -10.474 -1.58889
-17.5803 -11.3408 -1.84062
-17.9074 -11.3674 -3.04286
-15.8808 -11.1142 -1.49176
-15.368 -11.2414 -2.46972
-15.7876 -11.0784 -2.51906
-15.1076 -12.3119 -2.08401
-15.8057 -12.0496 -2.26983
-15.2152 -11.8181 -3.39222
-18.2732 -9.9489 0.884558
-19.1638 -11.0093 0.897598
-16.6621 -11.1873 0.852447
-15.9957 -11.1988 0.937894
-17.0834 -10.855 -1.25369
-17.1111 -11.2218 -0.18112
-18.9209 -11.7031 -0.892186
-15.8306 -10.885 -0.173228
-17.0968 -11.6292 0.066712
-15.4385 -12.5143 -0.829431
-15.3521 -11.7865 0.230494
-16.9505 -12.5668 -0.521174
-16.6673 -11.0231 -1.57491
-17.803 -11.0323 -2.3952
-15.6772 -12.3837 -2.07259
-16.5148 -11.1149 -2.24408
-14.0463 -11.6622 -2.34325
-16.3997 -10.1481 0.94089
-15.7576 -11.8671 -0.653422
-19.4799 -11.2292 -1.86361
-15.7798 -11.8839 -0.967321
-15.5803 -12.4929 -0.320337
-16.2909 -10.3296 -1.92438
-15.5289 -10.949 -2.47359
-16.0564 -11.4008 -1.76376
-17.3335 -11.3564 -1.19999
-16.8773 -12.2618 -1.79751
-14.5238 -12.4298 -3.29001
-15.7177 -11.9021 0.127445
-19.0237 -10.6126 -0.683658
-17.6368 -10.9492 0.0781807
-16.2224 -12.015 -2.62973
-15.8557 -11.0312 -3.51418
-14.7633 -12.176 -2.38909
-18.7147 -10.7076 0.784022
-15.4627 -10.8473 -1.38594
-16.2447 -11.2562 -0.512732
-15.7388 -11.5306 -1.56801
-15.4161 -10.9522 -2.01376
-14.722 -11.8076 -1.84465
-15.4003 -12.2196 -1.05815
-16.1185 -9.55059 0.99816
-20.0338 -11.0345 1.87329
-16.3642 -9.40937 1.28469
-15.757 -10.1284 2.40549
-15.5519 -9.14581 1.52389
-17.0449 -9.14689 1.52143
-16.4476 -9.36826 1.69722
-15.8353 -9.42503 1.52319
-16.1594 -9.09796 1.04875
-16.5653 -8.59511 0.678715
-20.1465 -11.6461 1.53163
-20.6013 -10.8733 0.833759
-20.2399 -11.3901 1.02796
-19.7667 -9.74199 0.971985
-20.4077 -10.7404 0.699135
-20.8469 -9.75764 1.82101
-20.5906 -10.6009 1.3194
-21.0494 -10.6056 0.605691
-17.9028 -10.7107 0.475482
-17.7616 -10.8243 0.362259
-16.2223 -11.656 0.117368
-19.1817 -12.1503 0.79226
-17.9974 -11.3632 0.819787
-17.5372 -11.4661 1.11393
-17.3577 -11.7049 0.506301
-17.8936 -10.4529 0.334704
-17.5508 -11.0508 0.679794
-17.133 -10.6496 1.48695
-17.6654 -10.3083 0.649146
-20.4541 -10.5398 -0.134185
-16.5134 -10.0258 0.712896
-16.5956 -11.5189 1.19905
-20.3867 -10.3064 0.276843
-20.6978 -10.4342 0.910318
-20.6561 -11.2524 0.13255
-17.0699 -9.56902 0.118923
-19.6502 -10.0246 0.254593
-18.3193 -11.0691 0.627779
-21.1522 -11.4506 1.28581
-17.6131 -9.62016 0.0567885
-20.0077 -10.9894 -0.25775
-18.6167 -10.6231 -0.132731
-20.3383 -10.5841 0.118698
-20.7684 -10.8784 -0.469967
-19.7119 -11.3905 -0.674358
-19.6179 -10.838 0.284004
-20.5166 -11.16 0.0869986
-20.2424 -10.3684 0.152475
-20.7918 -10.7868 -0.0581037
-18.8978 -10.0199 -0.567614
-18.8023 -10.6883 -0.586517
-19.1029 -10.0904 -1.73106
-16.9677 -10.2689 -0.345017
-19.216 -10.5433 1.04573
-15.9871 -11.5492 0.749523
-18.7196 -11.0794 0.531164
-19.7912 -11.1593 -0.826861
-20.2717 -10.9962 0.543934
-16.9355 -10.5844 -1.32968
-19.772 -11.8698 -0.950019
-17.0232 -10.6849 -0.458081
-17.6024 -10.54 0.611408
-18.9114 -10.9887 0.10532
-17.9064 -11.5774 0.691901
-17.4421 -10.6327 0.336165
-17.2871 -11.5379 1.25271
-17.6062 -11.581 -0.112957
-16.2829 -11.6064 -0.339307
-16.3207 -10.9638 -0.518186
-16.1876 -11.039 -0.502848
-16.6199 -11.5714 -0.409064
-16.6358 -11.7942 -0.832229
-18.9555 -11.0053 -0.90022
-15.8966 -11.2325 -1.12576
-16.5376 -11.2107 -0.690282
-16.9613 -11.311 0.405209
-17.2275 -11.0209 -0.53506
-19.5343 -10.5021 0.309659
-18.2796 -11.1936 -0.465482
-17.2946 -11.4872 -0.728468
-20.1352 -11.3156 -0.847741
-17.1735 -11.0665 -2.47876
-20.1554 -11.2356 -0.195142
-19.9116 -10.4908 -0.615587
-20.2848 -11.0362 -1.20065
-20.4928 -10.5728 -1.24758
-20.3542 -10.9622 0.00891192
-20.5819 -11.4243 -1.1967
-17.468 -11.9304 -0.106444
-20.0603 -10.8041 -1.7084
-19.8765 -10.9976 -1.52697
-21.1234 -11.241 -2.29556
-21.4676 -10.8197 -1.8399
-20.6937 -10.4516 -1.71576
-19.9488 -11.7368 -1.63649
-17.5217 -10.5966 -1.5856
-20.1252 -10.8082 -1.82253
-18.2042 -10.6456 -1.6429
-16.0342 -12.0389 -1.26312
-20.1505 -10.3456 -1.96901
-19.4381 -10.626 -2.63174
-17.3495 -11.9057 -2.23911
-19.4249 -11.8809 -2.66544
-18.387 -11.1297 -0.817721
-18.3749 -11.2495 -1.01204
-20.9344 -11.2477 -2.77242
-19.0487 -11.094 -2.15017
-20.5674 -10.8485 -2.33262
-19.6238 -10.3845 -2.10168
-18.4777 -10.6717 -2.32097
-18.6468 -11.4826 -2.64984
-20.1668 -10.4126 -2.82589
-20.8911 -9.63848 -2.3
-20.2979 -11.3287 -2.88477
-18.7011 -11.4596 -2.13876
-20.0353 -11.3536 -3.04895
-20.1608 -10.7278 -2.78961
-18.3567 -10.4451 -2.96409
-18.6203 -10.6477 -2.54945
-20.3407 -10.5784 -2.56929
-20.0031 -10.4785 -3.13449
-19.3631 -10.564 -2.90807
-18.8219 -11.5685 -2.561
-16.5676 -10.7451 -2.13216
-18.3642 -10.997 -2.49065
-16.9346 -10.3702 -3.04068
-19.7539 -10.0441 -3.27288
-17.9236 -11.8108 -2.41025
-20.0246 -11.3621 -3.07218
-15.125 -12.2097 -2.16482
-20.1714 -9.54319 -3.12328
-20.5994 -9.65419 -2.76371
-20.1975 -10.472 -2.71299
-19.6084 -10.5451 -2.80006
-19.85 -11.2553 -3.03871
-19.9956 -10.9887 -2.63255
-19.7321 -11.2112 -2.70458
-18.7278 -12.3864 -2.09418
-19.7141 -10.7718 -3.18916
-20.1359 -10.7364 -3.66514
-18.0925 -11.3458 -3.12227
-17.7747 -11.0721 -2.21768
-18.6191 -11.4038 -2.72585
-20.5913 -11.0824 -3.24081
-19.7944 -11.2376 -3.5981
-19.4787 -10.3073 -3.34513
-19.2625 -10.7929 -4.19363
-20.2464 -10.5872 -2.54723
-18.8452 -10.2884 -2.54981
-17.3966 -11.1384 -2.90134
-15.3328 -12.7169 -2.83986
-18.9118 -11.7681 -3.04267
-14.7874 -12.1163 -3.31201
-14.6047 -12.3874 -1.92995
-15.1019 -12.2046 -3.21973
-15.9155 -12.2181 -3.76606
-14.413 -12.804 -3.13901
-16.0172 -8.63595 0.899604
-15.943 -8.62964 1.71732
-19.8781 -9.12428 1.6333
-20.421 -10.6034 1.25024
-16.0142 -8.81778 0.717398
-19.7916 -10.3794 1.01148
-15.8859 -9.27981 0.776382
-19.8897 -9.73761 1.80367
-21.2275 -10.2652 -0.155906
-20.5738 -10.6105 -0.319552
-19.9146 -10.2297 0.609642
-21.0656 -11.0629 1.5134
-20.1618 -11.1146 0.824669
-19.9045 -10.4275 0.0514463
-17.7379 -10.98 1.01409
-16.6457 -11.8403 0.20776
-21.2934 -10.2176 -0.0542192
-19.8592 -10.8526 0.538044
-20.0782 -10.7654 -0.0343634
-19.2382 -10.5427 0.745404
-16.9975 -11.0693 0.103043
-20.1147 -11.1699 0.800412
-20.5416 -11.02 -0.00848313
-18.2685 -10.6729 -0.300184
-16.496 -11.801 -1.04238
-15.9103 -11.4063 0.17838
-19.2786 -11.0503 -0.554629
