-19.2289 -10.9073 -0.322025
-20.0986 -10.476 -1.27535
-16.3162 -11.5238 0.148919
-18.7443 -11.9422 -0.781639
-16.3241 -11.0964 -0.262004
-17.8589 -12.0427 -0.79976
-16.6754 -11.9291 -0.694289
-16.5694 -10.9548 -1.90696
-17.9909 -11.6414 -3.31892
-16.0044 -10.8779 -1.63182
-15.5732 -12.683 -3.07063
-14.6606 -11.5569 -2.68436
-17.6738 -10.9715 -0.275014
-18.59 -10.8726 -0.386919
-17.3955 -10.7416 -0.612732
-16.964 -11.3034 -1.70753
-16.4929 -11.7236 0.114965
-16.8413 -10.8221 0.168672
-16.4388 -12.6531 -0.408184
-16.7228 -11.6949 -1.72536
-17.7334 -11.1986 -1.97426
-16.2206 -11.2092 -1.72702
-18.7843 -11.8952 0.488892
-17.7647 -11.7025 0.368074
-17.3709 -11.6948 -0.117374
-21.0227 -10.8393 -2.38721
-16.0726 -11.0216 -1.36513
-15.7663 -10.8158 -2.05782
-15.776 -11.9155 -1.39061
-19.4391 -11.2531 0.354401
-19.4181 -11.566 -0.928275
-17.0703 -11.6254 0.797462
-17.4394 -11.7505 -1.80237
-15.7664 -11.8655 -2.05775
-16.1529 -11.1975 -1.42933
-15.7145 -11.7836 -3.00059
-16.4526 -11.0321 -0.829524
-17.4766 -11.0908 -1.16219
-16.4307 -8.92056 1.79117
-16.9476 -9.879 1.72428
-16.0133 -10.4272 2.23645
-15.683 -8.69543 0.947518
-14.9222 -9.00308 1.1109
-17.4658 -9.71605 1.53832
-16.0982 -9.37742 1.17269
-16.0613 -9.52922 1.50676
-16.4328 -9.71081 1.40821
-19.8006 -11.8464 1.88486
-17.3489 -10.2107 0.955485
-18.591 -11.3907 1.29503
-20.3008 -11.4257 0.669245
-19.47 -11.1786 1.00285
-17.6941 -10.7991 1.1811
-19.8383 -11.1426 0.134907
-20.316 -11.6677 1.26755
-20.5516 -10.7437 0.688092
-19.953 -11.2491 0.696088
-20.6229 -11.0664 -0.132971
-19.9141 -10.9623 1.27313
-20.0317 -10.8934 0.563055
-19.7117 -10.4904 1.49422
-19.911 -11.3394 0.461326
-21.0733 -11.0927 0.592415
-19.7469 -11.0832 -0.0246505
-19.9691 -12.1576 0.574033
-20.4425 -10.6331 1.48945
-18.9902 -10.3591 1.06327
-19.4773 -10.3541 0.982852
-17.7483 -11.9006 0.840566
-21.0935 -10.4237 0.274595
-16.2111 -10.1964 0.851561
-16.2879 -10.5887 0.529084
-20.6202 -10.591 -0.08961
-21.603 -10.8429 1.57933
-19.1242 -11.2795 -0.349425
-19.5793 -10.6661 -0.163965
-18.4505 -11.2166 0.377212
-18.5807 -11.2596 -0.396308
-17.7307 -11.3948 1.08029
-17.2871 -10.9167 0.161442
-19.1295 -10.3093 0.311672
-18.1863 -10.9166 1.22819
-17.4527 -10.8072 0.663659
-16.2148 -11.6469 0.0232782
-20.1415 -11.0329 0.0212801
-19.849 -10.4027 0.491278
-20.7184 -10.5028 -0.22894
-20.9813 -10.0948 -0.0647252
-19.4323 -10.2489 -0.327542
-19.0678 -11.2543 -0.793738
-21.5877 -10.9433 0.473255
-19.489 -10.6964 -0.352616
-17.0217 -11.7643 0.611671
-18.9518 -11.3865 -0.648294
-19.8241 -9.63924 -0.361152
-20.6196 -11.2003 -0.636248
-18.358 -11.6668 -0.233542
-17.5797 -11.146 -0.00365677
-18.3905 -10.8346 -0.947754
-16.4213 -11.1483 -0.701334
-17.6894 -11.5959 -0.594664
-16.7051 -10.6197 -0.032974
-17.638 -12.2377 -0.8131
-15.4674 -11.5499 -0.0816759
-16.1596 -10.3272 0.0721867
-18.9019 -11.2317 -0.273526
-16.8508 -11.0279 -1.07863
-17.1651 -11.3266 -0.639054
-16.914 -11.2624 0.126579
-15.7447 -12.762 0.451808
-19.6822 -10.61 -0.275957
-17.653 -11.2712 -0.846967
-15.3846 -12.2006 -0.180003
-19.2201 -11.459 -0.751112
-17.6799 -11.4638 -1.49691
-19.2129 -10.7433 -0.455828
-19.6311 -11.8302 -1.11045
-17.7211 -11.2921 -0.896101
-18.4956 -11.9565 0.379595
-19.8862 -10.5146 -0.180336
-19.0775 -11.3392 -1.47099
-16.7624 -9.8783 -0.622352
-18.3186 -10.9227 -0.578577
-17.0999 -11.9419 -1.40787
-16.5278 -10.9395 -1.39827
-16.258 -12.2044 -1.09402
-17.8454 -11.5436 -0.501958
-19.8312 -10.7219 -0.35522
-18.6734 -11.1147 -1.48831
-19.3908 -10.614 -1.11447
-20.2526 -10.7823 -1.01902
-20.7474 -11.7844 -1.35136
-19.5416 -10.7338 -1.34111
-18.8454 -11.1921 -0.819758
-20.2584 -10.4105 -0.578876
-18.1756 -11.8899 -0.62588
-17.4351 -11.7826 -1.08892
-16.2751 -11.8996 -1.27738
-18.0285 -11.6318 -0.517364
-18.6771 -10.8097 -1.63213
-19.507 -11.1459 -1.17875
-18.2755 -10.9506 -2.21712
-21.204 -10.534 -2.20187
-15.5059 -12.1998 -1.66564
-19.5768 -10.1052 -1.67262
-19.2957 -10.3947 -2.33297
-19.5028 -11.1542 -1.73149
-19.9003 -11.1792 -1.2219
-18.5414 -10.7124 -2.10602
-18.3711 -10.6897 -1.71339
-17.5653 -10.7222 -2.01967
-17.8085 -12.5312 -1.97385
-20.5531 -11.0313 -1.5874
-20.6461 -11.3803 -2.58288
-19.0802 -10.6939 -2.03774
-19.8978 -11.5042 -2.35192
-19.4729 -10.8979 -1.79353
-20.4897 -10.3929 -2.36556
-17.5746 -10.8821 -1.10695
-19.0267 -10.6475 -3.15262
-18.9393 -10.6667 -1.5796
-16.436 -12.0322 -1.07145
-15.7658 -10.569 -1.38084
-17.0957 -11.9531 -1.21142
-17.1383 -11.4861 -1.45706
-21.3895 -10.3816 -2.67571
-19.8012 -10.6641 -1.83356
-19.6257 -9.74546 -1.78087
-17.2824 -11.1238 -2.49249
-19.8358 -11.2535 -1.44398
-15.8685 -12.5448 -2.44199
-19.2985 -10.8801 -1.6879
-18.259 -11.5348 -2.45984
-16.9992 -10.7566 -1.48528
-19.8853 -10.0761 -2.65035
-20.5854 -10.6074 -3.82968
-19.802 -10.3854 -3.13658
-19.4838 -10.652 -3.41958
-16.2278 -10.3106 -2.14028
-17.8854 -11.0725 -2.51834
-20.2928 -10.9337 -2.79451
-16.7342 -9.94642 -2.40488
-17.0256 -11.5282 -2.04929
-17.9657 -11.0394 -2.14478
-17.0394 -10.4286 -1.95135
-16.898 -11.5347 -1.877
-17.1044 -11.9748 -2.71785
-17.2495 -11.795 -3.02408
-18.255 -10.3186 -2.48815
-19.8531 -11.0954 -2.49241
-16.6385 -11.4311 -2.74474
-15.8909 -10.3236 -2.75637
-19.0981 -10.1775 -2.12118
-19.7257 -10.4608 -3.09988
-17.6459 -11.1586 -3.21121
-20.3997 -10.9491 -3.94768
-20.0192 -11.0109 -3.69858
-18.1942 -10.699 -2.7236
-18.3341 -11.6742 -3.55691
-17.6676 -12.1187 -3.22934
-18.1192 -12.0739 -3.72391
-19.3403 -11.3071 -3.10019
-18.8084 -10.5744 -3.58341
-16.3681 -10.5945 -3.54673
-15.5283 -12.7529 -2.42713
-16.6231 -11.8708 -2.38057
-15.1956 -13.7452 -2.68494
-14.1035 -12.3956 -2.79242
-15.2197 -12.7334 -2.68011
-14.6293 -12.452 -2.73007
-15.9868 -12.7849 -2.50753
-16.8233 -11.503 -2.88416
-17.1615 -11.7482 -2.19041
-15.5336 -12.3646 -3.02559
-14.712 -11.89 -3.23157
-14.9572 -13.1262 -2.61025
-16.9261 -9.01827 1.045
-17.0721 -9.21756 1.19998
-20.4483 -11.3216 0.647269
-20.1152 -11.0093 1.05325
-19.4797 -10.3269 0.172064
-20.4267 -10.6034 0.467068
-20.9078 -10.4832 0.619648
-20.0825 -11.6552 0.244335
-19.6038 -11.6846 0.928037
-19.6566 -11.5832 1.42466
-19.8219 -11.5029 -0.268315
-19.4205 -11.1891 0.217173
-19.7529 -11.6854 0.825997
-17.5085 -11.2005 0.257813
-19.3496 -10.0013 0.649211
-20.2983 -10.0944 0.127198
-20.0946 -10.2922 0.327776
-19.7594 -11.8403 1.29878
-18.5537 -10.6284 0.884402
-17.3977 -10.5488 0.912373
-18.2682 -10.4114 0.583013
-16.5809 -11.1236 0.409207
-17.1594 -10.631 0.540811
-16.3351 -11.971 -0.122404
-16.8816 -11.5982 0.315303
-16.4047 -11.5296 0.908807
-20.3863 -10.7524 -0.19813
-15.2405 -11.1399 -0.192761
-18.9682 -10.2181 -0.259831
-20.4577 -11.3774 -0.220575
-19.2481 -11.2221 0.224176
-19.7008 -10.3777 -0.0158103
-19.8665 -10.6086 -0.163138
-18.6661 -10.8487 -0.334032
-19.2013 -10.572 0.655895
-20.2865 -10.741 -0.0663771
-19.5431 -11.1226 -0.0779511
-19.2528 -10.7687 -1.05237
-17.8913 -11.4558 -1.07118
-17.3781 -11.7667 0.629138
-18.8995 -11.0581 -0.456179
-17.0895 -11.5486 -0.0845698
-20.1411 -11.3687 -0.32521
-20.907 -10.5798 -0.684361
-17.4722 -11.4127 -0.510781
-16.4245 -12.1988 -0.326552
-16.8796 -10.8866 -0.497583
-19.7545 -10.1292 -0.967024
-19.3517 -10.9701 -0.928456
-16.3121 -10.8488 -0.871329
-16.536 -11.1267 -0.972183
-20.6816 -10.7668 -1.00641
-20.2822 -10.4704 -0.896026
-16.8286 -10.9671 -0.966386
-17.1743 -11.412 -1.81123
-19.0156 -11.6413 -0.492041
-20.2614 -10.194 -1.22056
-20.9684 -9.92835 -1.13222
-20.4999 -10.5095 -2.6268
-20.6964 -10.2582 -1.06424
-18.5662 -11.5173 -1.42189
-19.5887 -11.4268 -0.982715
-18.777 -10.9432 -1.78357
-18.2102 -12.0789 -1.27566
-15.5704 -12.294 -1.19068
-16.5286 -11.8289 -1.12085
-15.4696 -11.2619 -1.64265
-18.3298 -10.8364 -1.46542
-19.7657 -11.9788 -2.05708
-18.3625 -10.897 -2.26346
-18.9448 -12.0352 -1.82529
-17.4681 -11.6269 -0.96495
-18.0078 -11.8038 -2.17755
-20.2954 -10.4886 -1.73667
-18.7315 -10.1785 -2.61103
-19.4337 -11.406 -2.75333
-18.1673 -11.2098 -2.9566
-18.7422 -10.7184 -1.81095
-18.7898 -10.9002 -3.16965
-19.971 -11.1087 -2.57369
-16.3703 -11.0393 -2.51563
-19.11 -11.0098 -2.4501
-16.4283 -10.8792 -2.18698
-19.7102 -10.6609 -2.48324
-14.7622 -12.359 -1.94758
-17.3912 -9.81365 -2.15907
-17.8582 -11.1369 -3.43892
-19.8819 -10.8332 -2.07876
-15.7016 -11.2402 -2.253
-19.3343 -10.2096 -3.57533
-19.2408 -11.1545 -2.87486
-17.8546 -11.2405 -2.4004
-19.3925 -11.2496 -2.91507
-18.7916 -11.8376 -4.01274
-18.8721 -11.0293 -4.03726
-18.8624 -10.9307 -3.08534
-15.9406 -12.1654 -2.41519
-16.0789 -11.1058 -2.89796
-14.8942 -12.8338 -2.53487
-16.177 -11.0373 -3.21618
-14.7556 -11.7977 -2.88609
-15.0383 -11.7023 -3.57296
-15.026 -11.7161 -3.17859
-19.2644 -10.2204 1.42208
-18.6096 -11.3628 0.547083
-19.671 -10.9198 1.29322
-19.2074 -10.5877 -0.00336806
-18.697 -10.1182 1.33441
-18.4087 -10.5339 0.788533
-17.8111 -10.9953 0.889353
-18.6135 -10.7771 0.845999
-15.9903 -12.2613 0.128199
-15.7374 -11.5134 0.276105
-20.0237 -11.3953 -0.294521
-19.1062 -10.7714 0.683525
-19.2875 -11.4527 -0.139088
-19.2606 -10.7 -0.952393
-19.3056 -10.9441 -0.0545726
-20.1167 -11.359 -0.877136
-19.3112 -10.2648 -0.285747
-17.7303 -11.9226 -0.267677
-17.5633 -11.4897 -1.25591
-14.9297 -12.2641 -0.298888
-15.0261 -11.391 -0.240009
-18.1889 -11.031 -0.742912
-18.7119 -11.1471 -1.79816
-19.5058 -10.963 -1.01943
-19.1927 -11.3654 -1.71785
-17.4431 -11.3973 -1.87105
-15.7461 -11.5906 0.0604723
-17.1842 -10.0472 -0.400025
-17.8684 -10.5873 -1.04935
-19.9956 -11.7557 -2.16521
-20.1696 -11.2795 -2.83779
-16.5919 -11.7875 -2.89144
-18.3752 -10.9181 -2.28858
-15.0736 -11.9471 -2.97965
-15.8107 -11.4553 -1.79838
-18.3948 -11.0834 -3.82339
-18.3485 -12.2383 -2.97528
-16.7858 -11.2478 -2.82258
-16.2896 -11.0639 -3.78207
-17.7422 -9.39584 0.877037
-16.4712 -9.89264 0.286315
-18.9928 -10.9162 1.54291
-19.1488 -10.3817 1.43063
-18.3976 -9.68825 1.21238
-19.6368 -11.4562 0.828207
-18.283 -11.293 0.761142
-16.9424 -11.0064 -0.375119
-19.9467 -10.8226 0.296075
-18.7458 -11.0175 -0.544416
-18.9202 -11.6957 -1.18711
-17.7808 -10.582 -0.0939142
-16.3788 -10.5134 -0.511835
-19.8394 -10.4484 -0.953881
-17.0967 -11.0981 -0.0310797
-16.6238 -12.0161 -0.167545
-16.5931 -12.0652 -0.821585
-18.3583 -11.6711 -0.606714
-15.8265 -12.2093 0.123335
-19.5907 -11.9849 -0.764537
-15.8973 -12.2082 -0.785464
-17.2428 -11.7901 -1.55169
-18.805 -11.5262 -0.770686
-17.7795 -10.4336 -1.71604
-17.3446 -11.6474 -2.17741
-18.0702 -11.8018 -1.29539
-15.7013 -11.9855 -2.49426
-20.0254 -10.6755 -1.65679
-21.0514 -11.3323 -1.84323
-17.6282 -11.7245 -1.77033
-16.1582 -11.7658 -1.52095
-17.1654 -11.5189 -1.98903
-16.072 -10.8825 -2.11353
-17.1756 -10.926 -2.71394
-14.325 -12.1447 -2.74238
-17.5204 -11.9975 -3.33391
-16.175 -11.8513 -2.79739
-18.5373 -11.7232 -3.03235
-14.5158 -12.5617 -4.00475
-18.1245 -10.4207 1.56218
-19.3702 -11.0785 0.761264
-15.0816 -11.7778 0.874676
-17.3298 -11.8799 0.13976
-17.5273 -10.7388 -0.0359358
-19.7155 -10.2878 -1.30302
-17.1221 -11.5578 -1.40177
-21.2252 -11.0589 -0.282804
-19.0974 -10.2278 -0.401254
-14.4409 -11.5435 -1.08019
-18.06 -11.8106 -1.65071
-19.4505 -10.9091 -2.50375
-16.8533 -10.7199 -1.49045
-17.4238 -10.0584 -2.00163
-17.7576 -10.1872 -2.75769
-16.0961 -11.0776 -2.14813
-18.317 -10.7286 -2.51242
-15.2356 -12.1003 -2.98672
-14.4303 -11.6863 -2.44712
-15.3135 -11.3264 -2.83791
-18.7199 -11.0014 1.99356
-18.8173 -11.1868 0.812975
-15.8457 -12.0239 -0.605013
-17.7995 -10.4981 -0.364917
-15.638 -11.1119 -0.560901
-18.83 -10.9279 -0.352695
-17.157 -11.9511 -0.561477
-19.782 -10.6733 -1.76647
-15.3894 -11.8562 -1.01721
-18.0376 -10.919 -0.717065
-17.9305 -11.0356 -0.845444
-16.3208 -11.3329 -1.21375
-16.1815 -10.9724 -2.1382
-15.4249 -11.0544 -2.29951
-14.9195 -12.3146 -2.62187
-15.047 -12.7643 -2.34668
-15.0894 -9.87159 2.2512
-20.1893 -10.7743 -0.452787
-20.4558 -11.3987 0.398221
-16.1637 -11.6566 -1.18471
-16.7242 -11.1171 -1.86456
-17.211 -10.7698 -2.1659
-14.6435 -11.3686 -2.62643
-16.8373 -9.20402 0.832288
-18.6818 -8.53694 1.40569
-17.9373 -10.0453 0.373321
-16.4545 -11.5141 0.268865
-18.8241 -11.3211 -1.49244
-18.7331 -11.4951 -1.41419
-16.8935 -11.6948 -0.794264
-16.434 -10.6694 -1.0515
-15.8183 -11.1845 -1.63188
-18.2277 -11.76 -1.31421
-16.6669 -10.4688 -1.04411
-15.7539 -11.3267 0.333386
-16.4985 -11.2988 -1.64992
-16.8923 -11.4968 -0.868283
-17.3129 -11.1346 -1.36946
-16.5217 -11.2678 -1.80984
-14.8601 -12.7032 -2.40702
-16.342 -11.7198 -2.12535
-15.8977 -12.913 -3.0921
-15.5425 -12.0151 -2.70666
-15.2626 -11.3212 -2.50977
-18.8054 -11.183 -3.04239
-18.9836 -10.9827 -3.28538
-18.9983 -10.4862 -3.0601
-19.9543 -10.298 -3.2875
-20.5754 -10.7518 -2.59129
-15.5648 -11.5754 -2.44283
-16.5977 -11.0792 -2.01463
-17.9046 -12.0046 -2.26345
-19.9037 -9.86435 -2.86051
-16.7476 -10.9433 -2.64076
-17.2311 -11.0173 -1.70628
-18.8094 -10.719 -2.01921
-18.5048 -10.9029 -2.2402
-16.7413 -11.3936 -2.92811
-18.7661 -10.7487 -3.05527
-18.9995 -11.5602 -1.43953
-18.7706 -11.0584 -1.44261
-18.1472 -10.5936 -1.22225
-19.8432 -11.0311 -2.58123
-20.531 -11.0006 -1.7033
-16.4708 -11.6685 -0.583827
-21.1042 -11.1256 -1.22772
-18.7674 -10.334 -0.589201
-19.7787 -11.2054 -1.23259
-19.2159 -10.4794 0.105748
-18.9811 -11.1059 -1.30555
-19.7379 -11.1204 -0.824798
-18.5354 -10.4804 0.0522841
-16.0244 -11.1277 -0.508043
-16.2065 -11.9631 -0.606369
-16.6698 -11.6782 -0.0990041
-16.8874 -11.538 0.408227
-16.9128 -10.7456 -0.338265
-18.4081 -11.6962 -0.56648
-18.3925 -10.61 -0.302268
-19.6116 -10.9597 -0.027404
-19.6979 -11.2481 1.01417
-20.5182 -10.6974 -0.494929
-18.3865 -11.4905 -0.0678658
-18.4184 -10.9163 0.839603
-20.4757 -11.2659 0.453761
-20.0088 -10.0371 0.757018
-18.4847 -11.7413 0.750693
-18.6948 -11.2265 0.307663
-15.3659 -11.9723 0.0615026
-20.4248 -10.4079 0.760965
-15.3343 -12.1019 -0.217816
-17.524 -10.9171 -0.0388123
-18.4651 -10.4222 0.582237
-17.8207 -11.9429 0.486422
-16.2991 -11.4389 0.776186
-16.8958 -11.0338 0.146279
-17.2435 -11.2433 0.70003
-16.4119 -11.7779 0.51333
-18.3752 -10.7302 -0.252181
-16.895 -10.7541 0.44792
-19.4807 -11.5637 0.609139
-17.0969 -10.2925 -0.207873
-19.4021 -10.9698 1.00088
-19.8349 -11.7811 -0.119175
-20.7268 -9.70759 0.0459938
-19.7044 -10.8041 0.860982
-19.9361 -10.2886 0.393206
-16.9407 -10.09 0.767538
-20.1388 -10.7037 1.27702
-16.5526 -9.47963 0.998231
-16.6141 -9.55447 0.970209
-14.5493 -12.9775 -3.04965
-14.7642 -12.2252 -3.32013
-17.7205 -10.842 -2.61912
-18.9904 -10.7395 -3.95469
-20.018 -11.1778 -2.97856
-19.3464 -11.0788 -3.36191
-19.2317 -11.9284 -2.19618
-15.7389 -11.8866 -2.00357
-19.2425 -10.6666 -1.88007
-17.457 -11.8614 -1.94805
-20.4384 -11.1224 -2.25671
-16.4663 -12.0468 -1.2849
-17.2814 -11.9161 -1.70656
-19.4484 -10.8746 -2.42865
-19.7316 -11.003 -2.14053
-18.1568 -11.5303 -1.92239
-16.9443 -11.803 -0.979883
-15.6085 -12.2181 -0.158897
-15.2372 -11.4637 -0.742778
-17.6372 -11.2791 -0.417777
-20.4113 -10.4056 -0.801824
-15.9448 -12.2258 -1.2025
-15.5686 -12.0296 -0.825775
-17.7323 -11.2044 0.522125
-16.6087 -11.8349 -0.571303
-15.8218 -11.974 0.662287
-20.269 -11.0825 0.0673283
-16.7687 -12.1438 0.927596
-15.8932 -11.1037 0.956093
-19.497 -11.7427 0.645793
-19.2471 -11.2592 0.436818
-19.9654 -10.5402 0.680676
-18.0335 -11.4223 -3.35177
-17.8405 -11.7424 -2.49049
-18.1265 -10.952 -2.24502
-19.1852 -11.1118 -2.20194
-18.9121 -10.4903 -1.99679
-16.0271 -11.7851 -0.985587
-14.7233 -13.1126 -1.5211
-17.6208 -12.1214 -1.15278
-20.135 -11.224 -0.929484
-16.0019 -10.9965 -1.1307
-17.0769 -11.6415 -0.979062
-17.6714 -11.9529 -0.254211
-19.5773 -10.2636 -1.28764
-18.5577 -10.8628 0.045946
-19.1647 -10.6863 -0.922293
-20.5996 -9.79478 0.497741
-20.25 -10.4735 0.915142
-19.5026 -11.621 0.566269
-15.0376 -12.0671 -3.41562
-15.0653 -12.7159 -2.73809
-14.5288 -12.2929 -2.60805
-18.9117 -10.7034 -2.40012
-19.6494 -10.965 -3.38368
-18.9972 -11.081 -3.01122
-16.885 -11.3045 -1.00957
-14.5991 -11.9583 -1.40359
-15.5081 -11.9636 -0.399649
-19.3224 -10.5454 -1.51359
-19.0401 -10.8419 -0.786948
-16.8489 -11.6109 1.76282
-16.7887 -11.5032 0.560127
-19.7352 -12.6184 0.662525
-18.7811 -11.4467 -2.64663
-17.3522 -11.2418 -0.84466
-19.4546 -11.064 -0.877026
-16.9182 -10.4322 -0.973628
-16.2226 -10.9186 0.313877
-18.5698 -9.99758 0.353025
-19.4622 -11.0283 0.0487767
-16.3396 -10.9806 -2.63145
-15.6138 -11.7314 -0.927698
-16.1984 -11.824 -0.720603
-17.4253 -9.2873 0.43463
-15.0456 -12.6563 -3.4996
-18.4868 -11.1678 -0.682635
-17.2342 -11.4846 -0.208522
-16.2775 -10.281 -1.05451
-17.1612 -10.9012 0.185819
-18.3544 -11.1387 -0.0970181
-15.9298 -11.7295 -2.57148
-17.0023 -12.6214 -2.13937
-19.7098 -10.8332 -1.05329
-16.8987 -11.143 -0.80847
-19.6925 -10.9039 -0.573649
-17.3322 -11.097 0.78254
-16.8601 -9.14539 0.810688
-16.6019 -11.2836 -2.18927
-16.7205 -10.823 -0.104326
-18.4388 -10.9731 -1.07771
-20.1357 -10.758 -2.57863
-20.1697 -11.3098 -2.64859
-17.865 -11.4914 -2.74522
-18.8637 -11.0004 -1.2884
-16.8169 -10.7495 -2.55419
-19.0093 -10.9585 -1.31586
-21.0973 -11.504 -0.43908
-19.8879 -10.5014 -0.793342
-16.5164 -10.9597 -2.32297
-16.1581 -11.479 -2.18416
-17.6586 -10.9659 -0.502813
-20.4453 -10.979 -1.87155
-18.0839 -11.0341 -1.58162
-18.9048 -10.3417 -1.69622
-18.8081 -10.8454 -1.69158
-16.6064 -12.1575 -1.36933
-20.7818 -10.8744 -0.55057
-18.9106 -11.3427 -1.75123
-17.0795 -11.2339 -1.05734
-16.8269 -11.647 -1.06361
-21.2856 -10.7747 -0.680976
-18.3913 -10.7776 -0.297941
-21.2516 -11.7309 -0.291856
-21.1745 -10.4451 0.535505
-20.6705 -10.5192 -0.277418
-20.1114 -11.3428 0.160705
-17.3064 -11.594 -0.926422
-19.0875 -11.0837 -1.26824
-18.7615 -11.5376 0.294215
-17.1892 -11.2788 -0.140813
-17.783 -11.4907 -0.373797
-20.2489 -10.8606 0.457002
-19.2951 -10.7537 -0.628744
-16.1105 -11.7927 -0.977606
-20.0788 -10.1194 0.678786
-20.1732 -11.4189 0.799134
-15.6451 -11.7797 -0.582463
-19.5289 -10.4577 1.21495
-20.7659 -9.92628 0.948458
-20.1382 -10.5565 0.882806
-16.4513 -12.4528 -0.709764
-19.3952 -11.1246 0.0721965
-20.0883 -11.629 -0.121898
-20.0511 -11.0823 0.77786
-16.3559 -11.4158 0.00423521
-19.6248 -11.3283 1.00412
-19.4424 -10.1732 1.02767
-19.4691 -11.6654 1.16561
-17.34 -8.78833 0.396406
-18.9927 -10.688 2.48432
-18.9986 -10.3403 1.76447
-16.7889 -9.73658 0.629093
-17.7474 -9.08196 2.32041
-16.3842 -9.94493 0.308428
-15.9157 -10.2634 1.1171
-16.4619 -11.3219 -2.63787
-19.5371 -10.7294 -2.25214
-17.2209 -11.4545 -2.35323
-18.3434 -11.3322 -1.81337
-17.4173 -11.5254 -0.904609
-16.2469 -11.0872 -2.09785
-17.284 -11.0789 -1.15625
-18.781 -11.2232 -1.18991
-19.4726 -10.6345 -0.691464
-18.5057 -11.1938 -0.215596
-19.1573 -11.6459 -0.327868
-16.3807 -11.2697 -0.943465
-18.6424 -10.6386 -0.288102
-14.8812 -12.6739 -0.0883127
-19.708 -10.4013 1.19961
-19.9995 -11.1259 0.235923
-17.0264 -10.0842 1.24666
-16.5856 -9.54783 1.36106
-16.047 -12.3836 -2.00037
-17.4713 -11.7431 -1.46831
-19.2283 -10.8605 -1.20863
-15.7138 -11.1251 -0.961181
-18.7859 -11.5274 -0.486489
-19.5671 -10.6583 -0.658185
-15.1834 -11.7381 -1.22133
-14.7016 -11.1584 -1.10373
-20.8969 -10.8303 -0.0858057
-19.4186 -11.3289 0.19446
-16.041 -12.3954 -1.01221
-17.1533 -11.6619 -0.106924
-19.7495 -10.33 0.318079
-17.3645 -11.952 0.191466
-16.3987 -11.178 -0.701215
-18.5442 -10.1114 1.11207
-17.157 -10.3523 -2.51591
-17.3049 -11.3214 -2.69685
-15.5836 -10.5691 -1.52661
-15.0214 -11.8576 -2.71828
-18.9531 -10.5029 -1.05067
-19.3406 -11.1244 -0.986169
-19.7148 -11.3565 -0.89482
-19.0878 -11.5015 -0.225781
-19.7513 -11.1597 -0.165774
-17.3572 -11.222 -3.04185
-17.3007 -12.9301 -2.65804
-16.853 -11.1741 -1.53834
-15.5665 -11.6278 -1.17983
-19.3122 -10.5965 0.660346
-18.6551 -10.8368 0.348083
-16.4063 -11.8784 -0.865962
-17.2664 -11.7093 0.595854
-17.046 -11.1177 1.31149
-16.8001 -10.9484 -2.07483
-16.7895 -11.4964 -1.41527
-16.411 -8.26859 1.96125
-17.895 -11.105 -2.06134
-17.1315 -11.1045 0.0889793
-17.3119 -10.7445 0.390242
-16.5002 -11.624 -2.05282
-19.0215 -11.3185 0.297708
-17.5468 -11.5111 -0.986396
-15.8841 -11.8584 -1.48752
-19.2953 -10.8431 -3.37766
-20.285 -10.4785 -1.08807
-17.3923 -11.4442 -1.41007
-20.1724 -9.56804 0.419369
-19.7748 -11.3294 -0.676957
-19.4832 -10.7816 0.967623
-19.6072 -11.1766 -0.124258
-20.0386 -10.9982 -0.699509
-16.1375 -12.0285 -1.82236
-15.4477 -10.3226 -2.17283
-16.6884 -10.5953 -2.03994
-17.2472 -11.4674 -1.93081
-15.6188 -12.5246 -3.29362
-20.2318 -10.5397 1.03138
-19.9154 -10.4652 0.471331
-20.1665 -10.5063 1.72868
-17.3657 -11.8615 -1.23208
-17.806 -11.2149 -1.80645
-19.539 -11.6648 0.214519
-17.231 -11.8694 0.24389
-17.2065 -11.0418 -0.469297
-18.803 -11.3865 0.604267
-18.4411 -10.3536 1.89476
-16.5189 -12.1815 0.484722
-16.7616 -11.6603 0.353866
-17.0451 -8.82267 1.52529
-19.9234 -10.9363 -1.82609
-17.1968 -11.4209 -2.11874
-20.4851 -10.672 1.10461
-20.124 -10.7507 0.327746
-19.7329 -11.0144 0.0578442
-18.8712 -10.7677 0.125686
-16.049 -11.9205 -2.31722
-17.608 -11.8095 -2.39469
-16.9214 -11.0427 -2.02777
-21.792 -10.2499 0.689784
-19.827 -11.3046 0.35369
-18.6198 -11.1633 0.362349
-19.0703 -10.6436 -0.817464
-18.428 -10.3027 0.00416585
-19.5556 -10.6828 0.169081
-16.8823 -11.9245 -1.01887
-16.7935 -10.7413 -1.01231
-17.2232 -11.2794 -0.796594
-15.6268 -11.9944 -1.48629
-15.7896 -12.1006 0.12769
-15.7417 -11.5668 0.379514
-16.1138 -11.5 -1.21593
-19.9876 -10.9419 -0.606184
-18.0091 -10.6323 -1.7269
-21.0936 -10.7419 0.246356
-16.5706 -11.4201 -1.60073
-19.7917 -11.7496 -0.29901
-16.8928 -11.3174 -2.8196
-20.485 -10.0269 0.96516
-16.9252 -11.0884 -1.13637
-16.845 -11.3725 -0.196789
-18.1381 -10.3715 1.3453
-16.9553 -11.53 0.101002
-15.6923 -11.3362 -0.302792
-15.867 -11.1505 -1.72017
-16.6161 -11.9627 -0.972535
-15.6898 -11.772 0.165527
-17.3183 -9.60678 1.67753
-18.1813 -11.3717 -0.917293
-16.2437 -10.1396 -1.38196
-16.3391 -11.4181 -0.892972
-20.2401 -11.2371 1.49536
-18.9862 -10.6774 0.391779
-17.0752 -11.564 0.0855029
-16.0859 -10.9141 -0.592634
-16.297 -10.8091 -1.05668
-19.5209 -11.3609 -1.07496
-16.1042 -11.8186 -2.00174
-18.7424 -11.2634 -1.01704
-18.4365 -11.3985 -1.75255
-18.6392 -10.9749 -0.549313
-17.9738 -11.572 0.809614
-17.8953 -10.9458 -0.472962
-18.484 -11.7963 -0.753639
-17.6837 -11.1641 0.974713
-17.0048 -10.7964 0.537446
-16.4967 -11.4428 0.700771
-16.925 -10.8171 -1.95834
-19.8757 -11.7233 -0.336188
-15.1698 -13.0945 -2.84624
-17.4621 -10.8941 -1.33345
-17.8769 -10.7203 1.11093
-19.6419 -10.9292 -0.460562
-21.265 -11.1649 -1.22081
-19.7053 -10.6841 -2.38771
-20.8868 -11.2208 -0.0487493
-19.8302 -10.3606 -0.112988
-19.5147 -9.67905 -0.483211
-17.7147 -11.163 -0.381886
-16.7189 -12.0236 -1.8408
-18.2391 -11.0723 -0.563597
-16.8167 -11.9294 -0.922276
-16.6834 -11.0961 1.4049
-14.3568 -11.8375 -4.15474
-16.3651 -9.26569 1.27502
-17.0709 -11.6406 -0.267032
-15.7412 -11.0766 -0.877333
-18.5054 -11.555 -1.64825
-18.0868 -11.0468 -0.97302
-18.5695 -10.5018 0.647474
-18.0056 -11.3199 -1.29046
-16.8774 -12.1116 -0.98543
-17.0022 -11.9463 -1.33118
-17.504 -12.5398 -0.629117
-17.7952 -12.0304 0.522699
-16.8335 -11.0427 -0.878527
-17.2047 -11.0074 -0.0781673
-16.4684 -10.5492 0.0891397
-17.7131 -11.4314 0.271766
-16.6291 -12.4184 -0.353395
-15.6388 -12.0374 -1.01126
-16.846 -12.4673 -0.392858
-15.2536 -12.1025 -0.862989
-15.7819 -10.9353 0.0369189
-16.2937 -11.9697 0.738427
-18.5966 -10.7468 -2.37572
-18.6882 -11.2871 -2.42987
-18.8269 -11.211 -1.91605
-18.9018 -11.5381 -0.48285
-18.0298 -11.7457 -0.134413
-16.3078 -9.571 1.64736
-17.6007 -11.1048 -0.0577291
-15.7132 -12.6341 -2.43863
-16.153 -11.6538 -0.953205
-15.5136 -12.0609 -0.286635
-19.9985 -9.99481 -0.300236
-20.4012 -11.1196 -0.394307
-16.2746 -11.3707 -1.5759
-16.2601 -11.1795 -1.90697
-19.4328 -11.7595 0.60187
-16.9735 -11.9831 -0.615482
-16.3497 -11.369 -1.60332
-18.0478 -11.3668 -3.35668
-17.4675 -10.4726 -0.9478
-19.0401 -10.4569 0.826106
-16.8799 -11.3456 -0.0216862
-18.8445 -11.2479 -1.59276
-17.8468 -11.9022 0.572951
-14.7991 -11.1876 -2.16371
-16.0281 -11.4522 0.325084
-17.4101 -9.71247 -1.3214
-16.6145 -11.6346 -0.141119
-16.1266 -12.2919 -0.778317
-19.8417 -11.4015 -1.44608
-19.7554 -10.9396 -0.680689
-18.5372 -11.0299 -0.872878
-18.5923 -10.6817 0.698245
-18.3535 -11.4038 -0.540725
-18.5481 -10.9933 -1.79201
-16.3318 -10.0451 1.88522
-16.3021 -12.7813 -1.16961
-15.8863 -10.8736 -1.01635
-16.4 -9.43049 0.775915
-16.9602 -11.4819 -1.31134
-15.7411 -11.2495 1.11835
-14.5709 -12.6146 -2.31907
-20.4023 -10.2476 0.506966
-19.0704 -10.8123 -0.364445
-19.0956 -11.4541 -0.71303
-16.6103 -11.2025 -1.64562
-16.9792 -11.3521 -1.25681
-16.7607 -12.2016 -0.30424
-16.7188 -11.1276 -0.554495
-16.5336 -12.1259 -1.20394
-15.6547 -12.8228 -0.211958
-15.2364 -12.7538 -3.09985
-17.24 -10.278 -3.41609
-18.3112 -11.1223 0.214111
-16.5788 -11.7986 0.341827
-15.8875 -12.3456 -1.63075
-16.2134 -10.9744 -0.458197
-15.9742 -12.3272 -0.211531
-15.8534 -11.8634 -0.369746
-16.1439 -12.343 -0.174412
-15.6979 -11.6064 -1.43997
-16.0266 -11.0905 0.126889
-17.5918 -10.2314 0.030017
-16.3405 -10.6156 -2.70961
-15.0779 -12.1709 -2.76206
-15.8505 -13.1387 -0.402892
-17.3518 -11.2866 -2.20731
-15.5889 -10.8919 -2.40432
-14.2796 -12.2476 -0.514872
-17.5036 -11.2237 -2.11578
-17.3529 -10.6844 -0.302673
-16.6231 -11.8974 -0.581508
-14.7308 -11.6407 -0.430372
-20.9827 -9.49863 -2.92633
-20.571 -10.0668 -2.41311
-19.1774 -10.5669 -0.424809
-20.3453 -10.7239 0.0515593
-20.2509 -10.8557 0.0249361
-20.1662 -10.6023 -0.431137
-19.5228 -10.5267 -3.06661
-18.7876 -11.3356 -2.86577
-18.7895 -10.1984 -2.10807
-19.1873 -11.6116 -0.828485
-19.5817 -10.7695 -0.55926
-16.7243 -10.6158 -0.994058
-17.7591 -10.9569 -0.917801
-16.8388 -10.878 -0.449217
-16.796 -12.154 0.512581
-16.9716 -11.1519 -0.820014
-14.9585 -12.7027 -1.09459
-14.4488 -12.9453 -2.53299
-20.1836 -10.478 -0.231964
-20.0177 -11.107 -0.896492
-19.1596 -11.0639 -1.29671
-19.235 -10.7111 -1.86864
-19.3651 -11.1131 -0.452033
-19.7603 -11.4268 -1.39934
-19.6076 -11.2782 0.158682
-19.0968 -11.1713 -1.89925
-18.5234 -10.93 -2.92933
-17.5393 -11.1694 -3.17449
-18.9253 -10.9897 -2.38399
-17.3143 -11.7685 -1.13569
-16.0949 -12.0554 -0.903995
-20.1511 -11.4135 -1.74417
-20.2586 -10.5842 -2.19328
-19.487 -11.3287 -2.1781
-18.2069 -9.65126 -0.949956
-17.9285 -10.5004 -2.18956
-18.0412 -11.662 -2.91982
-17.089 -11.3359 -0.152105
-15.3732 -12.2454 -0.384798
-15.8875 -11.292 -0.647076
-15.4426 -11.3935 -1.15943
-19.8967 -9.63964 -2.58764
-20.4544 -9.97984 -2.13143
-19.0682 -9.74286 -1.27339
-19.1706 -10.6776 -1.59177
-16.9667 -11.5955 -0.570988
-15.3 -11.6301 -3.30682
-16.0586 -11.6874 0.578192
-19.7994 -10.7017 0.268229
-16.9836 -10.7932 -0.638287
-15.6884 -11.5941 -0.821886
-14.0814 -10.9981 -1.54493
-19.3197 -11.1957 0.298551
-19.9878 -11.1116 -2.71282
-19.9604 -10.3256 -3.02607
-19.8845 -10.7525 -3.13924
-20.9485 -11.396 -0.301702
-17.1006 -9.21979 1.71094
-19.259 -11.7269 -1.87279
-19.2137 -10.8312 -2.18526
-16.6413 -8.79148 1.53106
-19.6259 -10.7582 -3.83494
-19.4717 -11.1344 -2.0435
-19.5728 -10.7942 -3.09279
-19.5751 -11.1794 -3.47449
-16.3781 -9.21937 1.2076
-16.6545 -11.5285 -0.307862
-16.9406 -10.9867 -2.27168
-16.6825 -11.4262 0.72501
-16.3138 -12.3184 -0.975978
-16.4057 -11.2459 -0.0410418
-16.3463 -11.9488 -0.711937
-15.9686 -11.9591 -1.00907
-17.0582 -11.7728 -2.44492
-16.2361 -11.8711 -2.29476
-14.1397 -12.1663 -2.22686
-19.9726 -10.1831 -0.828958
-20.322 -10.7259 -0.75229
-20.3811 -11.0472 -1.58166
-19.2463 -10.2651 -1.27561
-20.2555 -10.3689 -0.0582481
-16.8812 -10.1736 1.39022
-19.3321 -10.9573 -1.51391
-18.0676 -10.6176 -0.886142
-19.2773 -11.4144 -2.33604
-17.0055 -10.2499 -2.15342
-16.7855 -10.5131 -0.0739817
-17.2131 -10.6115 -0.925819
-16.9535 -10.4658 -2.25086
-16.0201 -12.1632 -1.05807
-16.7892 -10.5148 -2.2874
-16.3435 -12.4093 -1.39273
-16.1225 -12.1002 -0.522904
-15.1658 -11.5687 -0.909867
-14.6589 -12.1984 -3.65083
-14.5674 -11.9867 -3.73196
-14.8301 -12.1783 -2.74234
-19.6675 -10.113 0.662038
-20.4274 -10.952 -1.21416
-19.4478 -10.7628 -1.44754
-20.5193 -10.2517 -1.64687
-17.2748 -10.4846 -1.72346
-17.0852 -10.5534 0.153008
-16.3034 -11.6206 0.364934
-16.3134 -12.3143 -0.772722
-15.4841 -11.8263 0.146944
-16.0325 -12.2626 -0.366217
-15.2952 -11.4599 -0.667702
-14.8834 -12.5788 -3.01209
-14.5368 -11.9048 -2.46905
-15.53 -12.2632 -3.48708
-19.3207 -11.3219 -3.14603
-19.2302 -10.9721 -0.642566
-18.045 -11.1894 0.372059
-16.9624 -10.9015 0.584225
-16.4919 -12.4999 -0.377693
-16.5788 -11.4075 0.0245243
-15.3454 -10.9831 0.423652
-16.1842 -11.738 -2.7159
-16.6033 -11.8171 -1.61323
-15.3754 -11.1177 -3.10346
-18.9546 -10.5284 -0.617663
-20.3229 -11.8123 0.342277
-18.6976 -11.1986 -0.588039
-19.2686 -11.1633 -3.26848
-17.6986 -11.3489 -3.03776
-16.042 -12.0513 -1.22746
-15.4212 -11.8855 -0.942673
-16.3542 -11.6622 0.0900459
-16.825 -10.9907 -1.06067
-19.6765 -10.5424 -0.0142636
-19.5601 -10.451 -0.0663237
-18.1807 -11.3985 0.57125
-16.2158 -9.53796 1.30186
-16.6689 -10.2434 1.12732
-19.4942 -11.5957 -1.57167
-18.2218 -10.7284 0.439679
-20.0189 -10.9443 -2.96568
-17.9753 -10.9771 0.899369
-18.5264 -10.7434 -2.56006
-17.4027 -11.3696 0.876317
-16.5867 -10.953 -1.19977
-17.4793 -11.636 -2.16592
-16.404 -11.9273 -0.00820497
-18.2194 -10.2893 -3.38838
-18.2029 -11.0102 -3.09405
-18.8305 -11.3997 -3.20019
-18.0894 -10.775 -2.62198
-16.4497 -11.03 -1.9324
-15.6653 -10.9966 -0.529546
-17.3691 -11.5306 -2.95139
-16.6804 -11.7579 -1.71841
-17.2565 -11.4564 -2.15431
-14.7889 -11.6691 -3.11641
-20.1847 -10.4375 0.555723
-18.389 -10.2746 -0.635754
-20.1303 -10.6064 -2.86141
-20.5838 -11.0763 -2.88255
-19.2074 -11.0963 -2.3182
-20.3604 -10.0737 -2.90815
-19.3498 -11.0441 -1.21378
-19.5579 -10.7877 -2.77504
-19.5606 -10.5751 -3.11084
-16.824 -11.3244 -0.248207
-18.9932 -11.3764 -1.9922
-16.5579 -10.7504 0.193336
-18.4281 -11.8319 -2.72766
-17.1374 -11.2033 -0.045054
-15.4235 -12.3042 0.120022
-18.4129 -11.34 -3.12214
-15.7704 -11.3491 -0.623765
-15.2965 -11.3852 -0.887715
-16.0221 -10.8832 -0.232046
-15.6232 -10.9961 0.341509
-17.0203 -11.384 -1.62384
-15.9122 -11.8569 -0.144147
-16.6489 -12.3125 -0.737069
-15.1326 -11.8082 -0.11068
-14.5027 -11.9566 -0.90758
-19.5988 -11.3254 0.00233283
-20.0299 -10.1661 0.108617
-18.5909 -10.2392 -0.588895
-19.5311 -11.6156 -2.75986
-18.9542 -11.4755 0.844428
-17.2824 -10.804 0.09791
-18.2186 -11.1071 0.384181
-17.0941 -11.4723 0.172231
-16.8051 -11.3909 0.537435
-17.6965 -11.6539 -0.909828
-16.5439 -12.158 -0.0968094
-18.3073 -10.3651 -0.685049
-18.7638 -10.1001 -3.31314
-16.0013 -12.6605 0.688551
-15.8331 -11.6713 -0.645646
-17.5629 -11.6984 0.0568239
-15.5297 -12.3758 -0.460945
-15.3566 -11.8533 -1.81581
-15.3284 -11.6331 -2.26521
-19.7282 -11.203 0.0730176
-16.152 -9.99932 1.40675
-17.0393 -10.2833 1.68307
-16.9374 -11.206 0.638737
-18.5083 -10.9623 -1.61841
-19.6994 -10.1449 -2.66295
-18.6034 -10.6305 -3.29268
-17.3402 -9.64817 -1.00239
-17.1428 -11.4213 -0.252306
-16.9222 -11.3645 -0.666203
-16.1308 -11.4495 -1.26626
-17.1446 -11.4207 -0.284523
-15.5825 -10.2291 0.488261
-16.0104 -11.0258 -0.839646
-16.4909 -11.6545 -0.926721
-15.0775 -12.9966 -2.78229
-14.966 -12.2344 -2.44831
-20.4042 -11.2069 -0.57875
-18.5789 -10.9029 1.1323
-17.878 -10.4166 0.179472
-16.6506 -11.0628 0.113836
-18.9452 -11.2817 -3.54389
-15.614 -11.2003 -1.88253
-15.9109 -11.4799 0.278388
-17.9689 -10.8014 -0.317018
-15.3751 -11.1344 -0.579091
-17.9359 -11.1398 -0.610608
-15.8258 -11.9214 -0.380944
-16.5793 -11.415 -0.681922
-15.2608 -10.3903 -0.931553
-15.0731 -11.6446 -1.22236
-17.0118 -11.3149 -1.07078
-16.0251 -11.215 -2.07414
-20.834 -11.3988 -0.0238988
-17.3623 -8.706 1.24473
-18.3161 -12.0616 0.708403
-16.3881 -8.92968 1.3641
-15.8219 -8.97202 0.793085
-16.1145 -9.84042 1.48016
-16.2941 -9.81516 0.95173
-18.0261 -11.5041 0.0991432
-18.1326 -10.4086 -0.655691
-19.7964 -11.252 -1.04064
-17.9288 -10.4271 0.00900992
-20.1845 -11.0698 0.0154948
-19.2767 -10.1598 -1.66773
-18.6645 -11.0555 -1.52865
-17.5263 -12.246 -1.14831
-19.3525 -11.1817 -2.12391
-19.5258 -10.541 -2.14164
-19.8043 -10.3297 -2.22422
-17.5565 -11.837 -0.632391
-15.2352 -11.1401 1.10836
-15.8666 -11.181 -0.481485
-16.4052 -10.0414 0.121661
-17.1919 -11.4218 -0.728234
-19.2304 -11.4073 -0.978648
-19.4599 -10.859 -3.48935
-19.9289 -10.8256 -2.1125
-20.7742 -10.5366 -3.6958
-16.9819 -11.6441 -0.960463
-19.7275 -10.1897 -2.50301
-18.7753 -10.9529 -2.46353
-19.8923 -10.4555 -2.08938
-19.6034 -10.6595 -1.79509
-20.083 -11.8607 -2.60887
-19.201 -12.1856 -2.54593
-18.4245 -10.4628 -3.0382
-17.5045 -9.75764 -1.38846
-17.6444 -10.9429 -0.145899
-18.1497 -10.1717 -2.06256
-18.8034 -11.4635 -2.32709
-19.0745 -11.0979 -3.33993
-18.9701 -10.963 -2.91401
-17.1706 -11.8841 -1.3498
-16.0371 -11.6689 -0.691574
-15.5597 -11.9217 -0.551195
-15.6813 -11.9584 -0.367855
-18.6365 -11.0724 -3.35196
-15.5014 -11.7574 -1.65699
-16.7141 -11.1701 -2.54975
-16.6882 -10.9646 -2.25163
-15.8905 -10.8261 -2.77062
-15.8727 -11.2367 -2.40663
-16.067 -9.75366 2.20384
-20.0306 -10.7746 -0.580105
-18.2841 -10.5205 0.870891
-18.2543 -10.8212 0.627322
-20.4918 -10.8966 -1.15949
-20.0611 -10.6066 -1.42819
-19.8302 -10.6339 -0.257798
-17.2066 -11.1961 0.674087
-18.7773 -11.1657 -0.94583
-18.0182 -10.6878 0.737477
-20.6227 -11.7643 -0.807345
-20.1608 -11.3418 -0.454515
-17.3811 -11.0803 -0.335946
-19.7989 -11.8752 -1.72405
-19.1835 -11.0501 -2.42517
-19.5213 -10.9367 -2.37375
-17.0132 -12.0437 -0.333319
-20.2115 -10.9988 -2.19881
-19.7825 -11.1578 -1.75078
-15.8167 -11.7505 -0.374042
-16.6152 -12.025 -0.148235
-20.0887 -10.9343 -3.21321
-19.2109 -10.5115 -2.74309
-17.8189 -10.768 -1.52425
-19.2233 -11.802 -2.44945
-18.9797 -10.7181 -3.4033
-15.7658 -12.4445 -0.667302
-15.7379 -11.7318 -0.681302
-15.8106 -11.0665 -0.971733
-19.2526 -11.1642 -2.87938
-15.3617 -12.9022 0.102769
-16.3528 -12.3709 -0.387158
-15.7734 -12.0626 -1.1091
-18.7281 -10.9232 -3.99483
-17.2458 -10.6683 -0.822143
-16.5805 -12.1994 -1.57482
-16.9305 -10.3806 -1.91852
-18.3448 -10.8248 -3.13762
-18.2033 -10.7353 -3.2262
-18.2762 -11.066 -3.07484
-15.7042 -10.947 -1.02496
-16.7339 -10.7586 -2.25699
-16.0496 -10.4533 -3.12564
-16.3939 -11.7673 -3.15494
-15.7582 -11.3406 -1.80783
-15.5254 -11.4919 -1.22485
-15.7571 -12.2763 -3.02612
-15.212 -12.1774 -3.53967
-14.8801 -12.4674 -4.07892
-16.9805 -9.21396 2.15042
-18.9833 -11.4116 1.45314
-21.5604 -9.56808 0.896035
-16.3286 -8.70938 2.53997
-20.288 -10.7994 -0.244312
-19.8847 -12.1399 -1.30182
-19.9985 -10.6659 -1.03925
-20.985 -11.0623 -1.62002
-19.8261 -10.646 -1.10001
-20.7242 -11.0158 -2.09809
-16.7935 -11.5873 -1.19524
-16.8087 -12.046 0.0704817
-16.8017 -10.4442 0.0830455
-16.9786 -11.1144 -0.160165
-17.7791 -11.08 -0.78706
-16.856 -10.8111 0.045119
-16.7555 -11.0984 -0.514887
-16.7249 -10.6255 -0.383161
-20.1501 -11.7669 -2.00366
-16.2595 -11.4394 -0.854027
-16.6171 -11.5984 0.239225
-16.5202 -12.1528 -0.36494
-16.0705 -11.7735 -0.255954
-16.8544 -11.5367 -0.000215802
-16.9123 -11.033 -0.857865
-18.9801 -10.6005 -2.33826
-17.6285 -11.6989 -0.459829
-16.0626 -12.05 -1.19909
-15.8755 -11.2648 -0.886139
-16.3711 -11.4619 -0.818644
-17.6814 -10.9925 -2.9889
-16.4296 -11.7605 -0.888228
-15.98 -11.9721 -1.67251
-16.1162 -11.8643 -1.93794
-15.0007 -11.3176 -1.31183
-17.2791 -8.46937 1.28331
-17.739 -11.0914 0.844311
-18.8502 -10.9068 0.369766
-19.8157 -10.8929 -0.209658
-15.7724 -10.5897 1.26879
-17.9626 -10.299 1.04895
-17.5909 -11.4861 1.02483
-17.689 -10.8084 -0.757942
-17.8808 -11.8752 -0.876707
-16.0061 -12.3448 -0.240965
-16.2144 -12.2336 -0.718012
-16.3163 -10.7994 -1.48234
-15.893 -11.7656 0.265487
-19.0908 -11.6373 -2.82568
-18.7569 -11.8565 -3.50482
-15.3565 -11.5628 -1.92489
-19.8304 -10.9674 0.590789
-18.899 -11.075 1.1871
-18.0307 -11.7475 0.671905
-17.5805 -10.8695 -0.256498
-16.9977 -11.4401 0.737439
-16.8796 -11.5687 0.121219
-16.4172 -11.6828 0.225659
-16.9898 -11.4433 -0.392992
-17.6584 -10.5732 -2.69691
-16.0649 -11.7033 -0.731142
-16.1679 -11.7028 -1.68205
-15.8306 -12.6396 -0.982174
-16.5323 -12.6415 0.379155
-17.0335 -10.8529 -1.99113
-17.4681 -11.0002 0.247835
-17.143 -11.5582 -1.41587
-16.0128 -10.4189 -1.291
-15.6946 -12.3364 -0.736142
-15.9417 -11.761 -1.82343
-17.1048 -11.1061 0.0750727
-15.4837 -11.4074 -1.13311
-16.3812 -11.1278 -0.637739
-17.2737 -8.43326 0.530027
-16.7001 -8.62843 2.74497
-19.4335 -11.2439 0.789168
-16.4191 -9.99929 1.51915
-19.717 -10.266 0.615208
-20.5787 -10.9165 0.394023
-19.9953 -11.2119 -0.0455977
-20.9517 -11.4683 0.198928
-20.4431 -11.5413 0.20659
-20.7324 -10.2263 -0.239344
-18.8992 -9.82724 0.823812
-19.7374 -10.8216 0.154717
-18.2087 -11.3128 0.252478
-19.1581 -11.1519 0.494355
-18.5358 -10.2559 -0.97526
-19.2049 -10.5847 0.124987
-20.8523 -10.2961 0.373258
-18.4959 -10.86 0.0797959
-17.9106 -10.7473 0.274968
-17.9146 -11.5003 -0.0522964
-20.2139 -9.88139 -0.117684
-19.5987 -11.1271 -0.673858
-16.8941 -11.2911 0.0463312
-19.2452 -11.7278 -0.708665
-19.485 -11.252 -0.309723
-18.6721 -11.0687 0.0778513
-19.2216 -10.6847 0.0145109
-16.2699 -11.2878 1.38426
-20.3432 -10.6632 -0.145501
-20.2261 -10.1865 -0.843253
-20.5161 -11.4352 -0.83319
-18.8716 -10.9845 -1.41898
-20.008 -10.7256 -2.03347
-16.5255 -11.3359 -0.992979
-18.3642 -11.8823 -0.216718
-17.3007 -11.9691 -1.20609
-19.1952 -10.3702 -1.84368
-16.3843 -10.7709 -0.668203
-20.3944 -10.1949 -1.40437
-15.8856 -11.237 -0.90071
-15.9863 -11.6148 0.0520131
-17.1274 -10.301 -0.214131
-15.0939 -11.8912 -0.0242699
-20.1579 -11.7137 -1.12487
-17.6979 -10.5467 -1.20722
-20.8797 -10.4471 -3.05604
-18.4722 -10.5573 -1.77599
-19.565 -10.7404 -1.79952
-19.9943 -10.7298 -2.37433
-19.1451 -11.0952 -1.43428
-19.1768 -11.0206 -2.08896
-19.8168 -10.6411 -1.30626
-18.3312 -12.121 -1.90644
-17.0392 -11.9044 -1.11536
-18.4146 -11.3798 -1.36003
-19.1879 -10.8881 -1.79639
-19.042 -10.895 -2.95248
-20.8887 -10.2856 -2.33141
-19.7518 -11.538 -2.42093
-17.5087 -10.8145 -2.64166
-19.8069 -10.1434 -2.87953
-19.8449 -10.6572 -2.48795
-18.7698 -10.8218 -2.53073
-19.6263 -11.0668 -1.83566
-20.4214 -10.7598 -2.86431
-19.3047 -11.4816 -3.57959
-18.3219 -10.8969 -3.07088
-18.6639 -10.3117 -2.71392
-16.6627 -11.7236 -1.54338
-16.8701 -11.1917 -0.759869
-16.0507 -10.7492 -2.35115
-18.3509 -11.8161 -3.21699
-18.8742 -11.5881 -3.9077
-16.7626 -11.7163 -1.70968
-16.534 -11.0106 -2.61276
-15.4103 -10.5216 -3.103
-16.5596 -9.56026 1.6494
-19.7675 -11.0178 0.839091
-21.1805 -10.2526 1.01111
-20.9261 -10.9309 0.180154
-18.4705 -11.4768 1.17776
-19.0364 -10.8846 0.440713
-16.0328 -9.55314 1.31896
-19.4042 -11.6351 0.735484
-16.3685 -10.3931 1.4183
-19.8725 -10.7353 -0.122749
-16.954 -10.3004 -0.233623
-18.5877 -10.3432 0.220967
-18.7372 -11.239 0.233405
-17.6764 -10.3227 0.444819
-19.2566 -10.5875 -0.671658
-19.1387 -10.5667 1.26929
-19.2864 -10.7495 0.390908
-17.7893 -9.98075 0.0671288
-20.3696 -10.2973 -0.564589
-20.8554 -10.9785 -0.961145
-16.6261 -12.0842 0.0575906
-19.9582 -11.4856 -1.7474
-20.4137 -11.1476 -2.23104
-18.2156 -10.8175 -1.01796
-20.633 -11.3678 -2.31679
-17.7456 -12.0886 -0.743201
-16.9611 -12.0882 0.699943
-17.9809 -12.1986 -0.905457
-17.9323 -11.0667 -0.26618
-18.111 -11.8269 -0.166281
-16.3452 -11.7672 -1.2347
-18.9901 -9.92046 -1.84247
-18.2875 -11.7962 -0.142294
-18.7997 -10.8172 -2.82972
-15.7256 -11.5568 -0.1983
-18.8921 -11.7743 -1.68872
-20.9097 -11.1317 -2.22189
-17.7345 -11.2863 -2.21102
-17.2848 -11.266 -2.52606
-17.4789 -10.6276 -1.62694
-20.1662 -10.4439 -4.06984
-18.8858 -11.9849 -2.138
-20.1768 -10.7746 -2.55282
-19.2873 -11.3945 -2.77872
-21.4412 -10.5094 -3.71006
-20.1768 -10.0809 -2.37933
-18.6626 -10.4968 -2.13154
-16.4827 -10.6033 -1.30549
-19.3885 -11.0103 -2.22746
-16.9346 -10.167 -1.65317
-18.8392 -11.254 -3.3922
-19.1147 -10.5234 -3.6648
-16.6714 -11.0234 -2.05028
-18.7838 -11.0656 -3.27906
-18.3602 -11.7217 -2.24036
-17.9634 -11.9948 -2.56249
-18.7759 -12.4615 -3.49702
-16.0054 -10.768 -2.96265
-14.9061 -13.1902 -2.59748
-15.672 -11.548 -2.98398
-14.4926 -12.4577 -3.05053
-19.5622 -10.6261 0.859628
-19.9818 -11.0098 0.405072
-19.0312 -10.9791 0.0251828
-19.3445 -11.1862 -0.182856
-18.1762 -10.1738 -0.317236
-17.1693 -11.4937 0.284698
-19.9502 -10.3574 -0.389808
-20.0516 -11.248 -0.847455
-16.7332 -11.9656 0.32348
-20.2984 -10.3984 -0.506447
-17.4822 -12.6876 0.373179
-18.3318 -10.9964 -0.784055
-17.7603 -10.3091 0.388284
-16.7028 -11.6663 -0.782446
-17.7119 -11.9235 -0.691338
-17.9102 -11.1896 -0.326605
-18.5875 -11.8894 -1.43794
-15.6623 -11.3854 -0.117895
-20.177 -10.492 -2.13875
-18.9319 -11.0697 -2.41195
-17.4916 -10.4166 -0.909451
-17.6687 -10.9629 -1.67628
-16.1403 -12.301 -1.15526
-20.0131 -11.0325 -3.28989
-18.7707 -11.0981 -1.30603
-17.7281 -11.7529 -1.94452
-17.3593 -10.6579 -2.00331
-17.0372 -11.3852 -3.22889
-16.5506 -11.6717 -3.26787
-18.5086 -12.135 -3.33398
-17.4828 -12.0334 -2.6469
-18.0951 -10.8529 -2.54154
-16.9793 -10.5763 -2.15884
-15.5041 -11.8661 -2.2836
-19.5322 -11.0272 1.84522
-16.8688 -10.1886 1.28946
-20.5345 -11.5866 0.476203
-19.4596 -10.4857 0.777427
-19.3695 -11.0231 -0.411516
-20.0809 -11.1262 -1.00023
-17.4894 -11.1279 0.442425
-17.6964 -10.7971 0.0554732
-16.6518 -11.7974 -0.417375
-15.7997 -11.2706 -0.15529
-18.5576 -11.4968 -2.57057
-20.0906 -11.3341 -2.44945
-15.5932 -11.4246 -2.94361
-17.1521 -9.39752 1.78282
-20.1543 -10.0291 0.9323
-20.3145 -11.3092 0.170767
-19.665 -11.9261 -0.402446
-19.0778 -11.1821 -0.627506
-16.8092 -11.1425 -0.0126291
-15.7893 -12.6407 -1.20058
-17.4855 -10.2545 -2.35549
-17.4957 -11.4449 0.289099
-19.2977 -11.9789 -0.830372
-16.9881 -10.4432 -1.3173
-16.8445 -10.4386 -1.75192
-17.0479 -11.1228 -0.769728
-17.4722 -11.8203 -0.617691
-16.3045 -10.4997 -1.30707
-16.9624 -9.36308 1.76571
-16.9992 -12.2304 -2.14051
-15.8061 -11.7564 -1.7415
-14.4247 -12.2471 -3.69516
-16.589 -11.3189 -3.81263
-15.9199 -11.1438 -2.3448
-15.6852 -12.0533 -1.77257
-17.3181 -12.1222 -1.69307
-18.5795 -12.2653 -3.78696
-20.5765 -11.058 -2.34065
-18.8016 -10.5499 -2.08259
-17.9146 -11.6498 -1.97876
-18.9408 -11.1085 -2.16114
-19.6765 -10.653 -1.96486
-18.1602 -11.4422 -1.88738
-18.7069 -11.1507 -1.60858
-19.8839 -11.309 -2.01346
-14.932 -11.4276 -0.877899
-19.8729 -11.2881 -0.783945
-18.7765 -12.0108 -0.777175
-19.4956 -10.2522 -1.44057
-16.2087 -12.036 -1.20722
-15.5696 -10.9124 -0.540541
-17.9954 -11.0662 -0.288271
-15.4234 -11.2599 -1.20381
-16.2108 -12.3553 -0.580775
-15.5768 -11.4289 -0.70968
-17.529 -11.7536 -0.911682
-20.2217 -11.4944 -0.417353
-19.5035 -10.3876 0.481836
-20.0106 -11.3175 -0.900796
-19.315 -12.7019 0.277651
-19.7198 -10.9572 -0.421954
-20.8628 -10.4415 -0.713212
-16.6272 -10.9389 -0.311657
-15.4208 -12.4232 -0.143365
-17.343 -11.0263 0.411408
-18.1461 -10.7058 0.181963
-18.1816 -10.9607 -1.21876
-17.554 -10.6572 0.286203
-18.8283 -9.96109 -0.140729
-17.8719 -11.1927 0.0197319
-20.0668 -11.4718 -0.488459
-18.1654 -10.8248 0.592401
-16.7373 -11.5656 1.36751
-20.7549 -11.0125 0.491328
-15.9886 -11.8498 -1.71946
-19.5697 -10.5725 -1.94912
-16.1141 -10.4028 -1.93125
-17.1202 -10.7529 -1.59899
-19.071 -10.221 -2.64275
-18.6795 -10.9535 -2.05671
-18.4596 -11.106 -1.95595
-17.6699 -11.8675 -1.55176
-19.4769 -11.5303 -1.796
-20.2642 -10.5198 -1.46073
-18.7468 -11.8058 -0.865066
-20.0065 -11.5532 -0.522309
-15.8955 -11.7627 -0.75878
-18.927 -11.0557 -0.67563
-20.2522 -9.88589 0.167621
-18.3174 -11.1902 -0.624047
-17.0854 -12.175 0.486014
-19.7234 -10.9033 -0.564772
-17.5582 -11.9103 -0.0718509
-19.8402 -9.90956 0.965658
-20.0318 -11.9537 0.464902
-16.39 -9.70744 1.13612
-16.132 -9.78192 1.79809
-17.6075 -11.9502 -3.37861
-19.6489 -10.2142 -2.68278
-18.3105 -10.9809 -2.42241
-16.6118 -11.8463 -1.17788
-18.4326 -11.3802 -0.822385
-18.5095 -11.5863 -0.861768
-20.1065 -11.2837 -0.417403
-19.6218 -10.7434 -1.83853
-18.8455 -11.4478 -0.142925
-17.8074 -10.9961 -0.600074
-15.9481 -12.5831 -0.779976
-19.3828 -10.6378 -1.82087
-16.2375 -11.464 0.513379
-18.9189 -10.1075 -0.240388
-19.8405 -11.3366 0.201877
-16.7804 -11.4104 1.14924
-20.6883 -11.1587 1.49233
-20.5242 -10.0053 -3.30257
-15.3956 -11.1647 -1.17557
-19.4142 -11.7257 -1.56113
-19.8566 -10.4693 -0.394288
-19.2495 -11.1663 -0.631286
-17.2353 -11.3703 -0.541328
-16.8651 -10.9565 0.363345
-19.038 -11.6137 1.01146
-19.9708 -11.8025 1.05316
-14.7291 -11.9243 -3.07429
-17.1379 -11.7073 -1.27084
-15.8795 -12.076 -1.92503
-16.7213 -10.9109 0.88442
-20.1597 -11.1673 -0.0961695
-20.2699 -11.1548 1.39657
-17.7231 -9.735 0.853859
-16.1685 -8.90248 1.74628
-17.8878 -11.8979 -0.503206
-16.4573 -10.8186 0.24842
-18.5949 -10.956 -0.60006
-15.8388 -11.3218 -2.01035
-18.8146 -11.2697 -1.88516
-17.5582 -9.57997 1.82891
-16.5698 -11.442 -1.25422
-17.6037 -10.7378 -0.696231
-18.9027 -11.1088 -0.262666
-15.6148 -11.3126 -2.26503
-18.5209 -11.4564 -1.79422
-20.0773 -11.0079 -1.3175
-18.3706 -11.2483 -1.11627
-20.1291 -10.8611 -1.21323
-16.8967 -10.736 -0.575096
-16.8225 -12.2239 -0.357024
-19.9683 -11.1094 -0.146867
-20.2238 -10.4638 0.202894
-18.7596 -11.3351 -1.4036
-18.4134 -10.5277 0.251596
-19.3437 -10.7013 -0.655727
-20.8484 -10.2224 0.151553
-20.2064 -10.857 -0.0703923
-17.9189 -10.8737 -0.496897
-20.6499 -10.4178 0.771952
-19.9449 -10.4492 0.623804
-20.1877 -11.0632 0.201618
-20.1015 -11.9469 0.116119
-21.1725 -11.267 1.02249
-19.8193 -11.0326 -0.254299
-18.0526 -11.1143 -0.0675065
-18.5644 -10.511 0.921737
-19.7237 -11.4526 0.530866
-19.827 -11.1175 0.965998
-19.4502 -11.6981 1.20825
-19.2501 -11.3569 0.825238
-16.8259 -10.4909 1.43672
-19.8329 -11.2212 0.722207
-19.496 -11.4944 1.52379
-19.5716 -9.45311 2.45979
-15.3137 -11.206 -2.42905
-18.4873 -12.0419 -2.64867
-16.9252 -10.9222 -1.39819
-18.7211 -11.7583 -1.52848
-16.2114 -11.7171 -0.323543
-19.1162 -10.5925 0.00504083
-18.4212 -11.6798 -0.175836
-17.7716 -10.1905 0.55326
-19.7054 -11.3732 0.169519
-18.9627 -10.7805 0.219738
-18.0202 -11.8256 0.856579
-21.0254 -10.8325 1.57051
-17.9203 -10.9493 0.501458
-20.0956 -10.5473 0.437105
-20.2502 -11.1173 1.70768
-17.9294 -12.0885 -2.8776
-18.7918 -11.1945 -2.70889
-16.0794 -11.5885 -1.16744
-17.2357 -11.2185 -2.08116
-19.652 -11.1343 -0.770474
-18.8705 -11.2966 -0.358523
-18.3506 -11.2022 -0.11141
-19.6205 -10.4597 -0.77742
-18.1636 -11.3553 -0.671342
-19.6431 -11.0467 1.88206
-18.9184 -9.58754 1.22996
-17.9757 -11.1893 -3.17023
-19.2449 -11.5394 -0.506409
-16.5054 -11.1552 0.265919
-16.8495 -10.612 0.662986
-15.0573 -11.1746 -2.51697
-19.4271 -11.1383 -1.58515
-14.3805 -12.0623 -1.07001
-20.5726 -10.7016 0.182911
-17.9937 -12.1201 -0.0344731
-16.2183 -10.9042 1.75466
-16.9112 -10.8795 -0.509464
-18.9844 -9.99302 0.385616
-19.7314 -9.63577 1.86508
-16.6628 -11.2219 -2.16448
-16.4764 -10.9443 -2.28634
-15.7519 -11.0292 -2.41461
-19.3932 -11.0397 -2.80564
-17.1683 -12.0582 -1.70151
-20.0855 -11.493 -0.75132
-15.3951 -12.0023 -1.79614
-20.6535 -10.9497 -0.107758
-20.3477 -10.1559 0.193071
-20.3014 -11.0839 0.259713
-17.3314 -11.3429 -1.36439
-20.9808 -10.6503 0.053662
-19.5842 -11.2322 0.0900769
-19.8757 -9.22113 0.427005
-18.3029 -10.7044 -0.529604
-19.1839 -10.7312 0.563925
-17.7981 -10.4869 0.825484
-17.1014 -11.3092 -0.424294
-16.0746 -11.5458 0.159816
-17.9253 -10.6407 0.484667
-16.3387 -11.1397 -2.58109
-15.455 -10.5638 -2.54439
-15.5599 -12.383 -3.12132
-15.5958 -11.641 -1.91008
-19.6979 -11.2302 -0.285294
-17.6881 -11.0399 -2.33933
-14.6067 -12.6413 -2.57824
-20.3769 -11.5908 0.193709
-16.2666 -11.8165 -1.6006
-19.8282 -9.9222 -0.69365
-19.9582 -10.3568 1.06646
-17.5077 -11.2886 0.581056
-16.9527 -11.2625 -0.362746
-19.6388 -10.7129 1.05336
-18.3887 -11.4002 0.25511
-17.1418 -11.0949 -0.309713
-15.4058 -11.9643 -0.132177
-19.8021 -11.508 -0.568775
-20.0118 -10.3043 -1.11889
-15.723 -12.5855 -2.6327
-19.663 -10.5055 -1.27583
-18.7571 -9.80727 -0.626368
-18.4193 -11.5333 -0.342003
-16.0914 -11.95 -0.33118
-16.4747 -10.7687 0.238335
-17.8341 -9.89414 0.259262
-16.5487 -11.0634 -0.963294
-18.5425 -11.4582 -2.12532
-16.4102 -11.4949 -0.87619
-17.1875 -11.1053 -0.822095
-19.682 -11.1002 -2.35343
-19.8491 -11.0172 -2.36406
-19.0019 -11.7774 -0.5969
-20.7021 -10.0796 -0.872566
-20.4044 -10.8369 0.00244123
-20.0376 -10.5613 0.164442
-14.8795 -12.0128 -2.40936
-16.9803 -11.0092 -1.57356
-19.9704 -11.0111 -0.0514855
-16.4612 -10.5949 -2.16091
-16.5467 -11.364 -1.1839
-18.31 -11.3947 0.733928
-18.5674 -11.0039 0.67871
-16.1377 -9.21496 1.22002
-18.9699 -10.9152 -2.04037
-20.536 -11.3813 0.543816
