-15.393 -11.7589 -2.29558
-16.6897 -11.584 -2.13128
-15.8323 -12.7904 -1.63041
-15.9315 -11.6083 -1.74722
-16.6049 -10.9701 -1.85095
-16.6572 -11.0988 -2.23987
-14.9821 -11.5685 -2.28416
-14.8821 -12.5725 -2.17174
-17.1995 -11.1638 0.70276
-15.7479 -11.681 -0.0514989
-16.2913 -12.0449 0.104222
-19.4994 -10.6366 -0.224469
-15.8251 -11.5638 0.504398
-16.661 -11.7181 0.0205379
-17.4929 -12.1941 -1.83668
-19.5737 -11.1604 -1.41397
-20.0822 -10.6906 -2.89659
-15.2653 -12.9257 -1.59737
-15.2027 -12.5336 -1.10607
-15.9782 -11.4221 -1.53492
-18.1891 -11.0549 -0.262286
-20.0729 -10.8457 0.270477
-20.7233 -10.4533 -0.263031
-16.2892 -11.886 -0.181643
-15.1358 -11.8929 -0.834012
-17.7332 -9.24273 0.411536
-19.6051 -10.5238 0.0555689
-16.0635 -12.2373 -0.127221
-20.9108 -10.9821 -0.369518
-16.1322 -12.7075 -0.939138
-16.4248 -11.7406 -3.49925
-14.667 -11.6619 -1.37901
-15.884 -11.6869 -2.7118
-16.7655 -11.4272 -2.95419
-17.6627 -11.1817 -1.43129
-15.6413 -11.5579 0.119643
-16.2196 -11.3719 -0.577077
-18.2512 -10.6401 0.358834
-15.625 -12.2488 0.9423
-17.2893 -12.4889 -0.734844
-16.0039 -12.2054 -2.66346
-16.4435 -11.6051 -2.64324
-18.6718 -10.957 -2.13299
-16.3595 -12.6038 -2.33217
-19.1795 -11.4436 -1.66205
-16.571 -11.5272 -0.948472
-16.3648 -11.8761 -0.612349
-16.9313 -10.5541 0.336114
-20.5306 -10.7679 0.864727
-17.7432 -11.1999 -0.0952945
-20.1412 -10.6045 -0.332189
-18.7241 -9.56813 0.959763
-17.4432 -11.4329 0.201037
-17.3287 -11.7275 -0.247245
-15.9174 -11.8545 0.615783
-21.4637 -11.0092 0.790502
-16.0881 -9.96828 1.37631
-16.0169 -12.2539 -3.47324
-14.8501 -12.9687 -2.90697
-15.1929 -11.6233 -3.37991
-16.7745 -12.0203 -0.888861
-15.7351 -12.2542 -0.644011
-17.3269 -11.8369 -0.564428
-16.7079 -11.0432 -0.293253
-16.1143 -12.0571 -0.279986
-16.3723 -10.5312 0.413841
-20.0506 -11.2473 0.976119
-18.2787 -11.7679 0.240695
-16.5557 -11.4567 1.34655
-16.3613 -11.6536 -1.27071
-15.3469 -12.3296 -0.499131
-16.9474 -11.4132 -1.0042
-15.9596 -11.8092 -1.00771
-17.5678 -11.6089 -0.647051
-15.7864 -11.2805 -0.692473
-16.7499 -11.8611 -0.475122
-18.1772 -11.5669 0.396015
-16.2021 -9.54624 1.26926
-19.146 -9.86887 1.31418
-16.5058 -11.7302 0.964095
-16.0101 -10.2523 0.521142
-15.2554 -11.5414 -0.199461
-15.7175 -11.7686 -1.06873
-16.0176 -12.3113 -1.2165
-17.9595 -11.3368 0.80589
-15.9209 -11.8838 -0.0841288
-18.7767 -10.8947 -3.58363
-19.1061 -11.2078 -2.59001
-15.9054 -11.3524 -1.61286
-14.2286 -13.4187 -1.19129
-17.5904 -11.141 -1.58671
-17.3501 -10.7332 -0.990625
-16.8964 -11.1083 -1.56819
-15.5056 -12.0574 -0.535577
-17.1752 -11.0918 -0.494884
-19.4181 -11.9061 0.218372
-17.7918 -10.9523 -1.26637
-17.169 -11.5563 -0.33282
-16.7279 -12.1959 -0.622397
-16.6761 -12.4252 0.675008
-20.5423 -11.9329 -1.01225
-18.3552 -10.5139 1.06499
-14.9339 -12.1067 0.48433
-15.2944 -11.0848 -3.22969
-16.1086 -12.054 -3.08758
-18.5536 -11.1433 -2.64897
-20.5403 -11.4651 -2.99136
-17.6991 -10.8166 -2.34987
-15.9075 -12.2328 -1.42001
-19.3509 -10.6842 -0.989121
-20.0832 -11.6661 -0.0680536
-18.5324 -10.7108 -0.48145
-20.2735 -11.0593 -0.00632452
-15.7825 -11.0965 -0.110914
-17.2468 -11.4827 0.457111
-19.3265 -10.1499 1.251
-17.6447 -11.6141 0.166127
-15.6594 -12.0009 -0.379644
-21.0279 -11.7119 1.61621
-19.436 -10.7015 1.84948
-15.6194 -9.90697 2.39379
-14.268 -13.401 -3.12129
-17.2212 -11.3909 -1.61983
-17.9087 -10.8524 -1.25701
-19.9301 -11.5599 -0.762326
-20.4706 -10.8273 0.310166
-17.5093 -11.2032 0.823497
-16.3898 -11.3933 0.246822
-20.9313 -10.1164 1.97373
-21.5598 -11.4023 2.08761
-16.1432 -10.6843 -1.64263
-18.4454 -11.0577 -0.779359
-19.4282 -10.8136 0.44813
-16.3335 -11.7694 -0.79778
-18.3852 -11.1438 -0.196738
-21.4291 -10.2712 1.39148
-17.8631 -10.7813 -0.318153
-20.3567 -11.1448 -3.60902
-16.8415 -11.2092 -3.02669
-20.652 -11.2239 -1.83287
-18.3517 -11.3416 -0.801391
-17.7037 -11.0182 -0.949156
-16.4987 -10.672 -0.62288
-18.5122 -10.8453 -0.480507
-17.3851 -12.0968 0.914784
-19.4317 -11.1354 -3.5172
-17.2844 -11.4389 -1.76197
-19.4502 -10.5905 -2.53939
-14.9256 -12.5629 -2.30807
-18.2321 -11.0345 0.481129
-16.7904 -12.4502 -0.370683
-17.7881 -10.9417 1.31373
-16.0304 -11.5493 0.122688
-18.9845 -12.4051 -3.62598
-15.093 -11.0712 -3.11494
-14.9782 -11.7501 -2.61796
-18.1366 -11.4985 -0.972704
-20.4638 -10.5783 1.67194
-16.4794 -9.47699 1.81913
-14.9704 -12.5042 -1.38796
-19.4302 -11.0766 0.134824
-18.5257 -9.91479 -0.170089
-17.8914 -11.0402 -0.699335
-15.3343 -12.1306 -2.6054
-16.1393 -11.2068 -3.1042
-15.3835 -12.9547 -3.29282
-18.3843 -11.6714 -0.774677
-16.3432 -11.5193 -1.20212
-17.7829 -11.9002 -0.860506
-15.5107 -12.209 -1.93616
-18.2747 -12.0562 -0.754263
-17.5916 -11.356 0.366937
-14.4447 -12.5041 -0.949201
-15.5457 -11.8371 0.983209
-17.1318 -11.2503 0.257328
-16.4254 -8.54999 1.14041
-16.1088 -11.1175 -0.206122
-19.5541 -11.6204 0.672377
-16.1022 -12.6721 -1.1652
-14.4976 -12.9853 -3.28093
-17.9041 -11.8721 -0.0906518
-14.9352 -11.731 -2.41293
-21.1644 -10.5517 1.0639
-15.5165 -11.1314 -2.61291
-20.6112 -10.3918 -0.298861
-17.71 -10.6383 -1.0333
-15.6556 -11.9296 -1.35983
-17.7015 -11.1156 -3.89379
-17.9195 -10.7637 -2.97562
-20.3188 -9.58987 0.240534
-19.7726 -10.8831 0.578227
-20.4768 -11.4175 0.754338
-20.7777 -11.4256 0.527982
-17.1556 -11.4187 -0.536621
-17.0216 -12.2246 0.31296
-15.2057 -13.3982 -0.68467
-16.6114 -12.3621 -0.192359
-15.8852 -11.9104 0.892046
-17.6731 -11.0144 -1.04953
-15.2235 -13.2755 -2.54767
-16.8385 -11.8258 -0.899463
-16.9587 -11.3194 -0.805868
-15.5863 -10.89 0.218971
-16.3491 -12.0078 -0.367148
-17.7478 -12.9288 0.226027
-15.9967 -11.3938 -0.820246
-16.7061 -11.259 -0.954301
-16.2256 -11.6795 -1.61551
-15.9869 -11.53 1.30505
-17.5936 -11.3199 -1.23635
-15.2488 -12.7751 -3.28449
-15.3912 -11.0146 -1.69968
-22.161 -10.493 1.25614
-21.6012 -10.5248 1.06973
-17.262 -11.6572 -1.12664
-17.1534 -12.0544 -2.3061
-17.2538 -11.4193 -2.56144
-16.0786 -11.1721 -0.886315
-20.9783 -11.6232 0.605235
-16.2743 -12.4768 -0.216635
-17.4072 -11.3252 -2.81809
-17.4076 -10.9774 -0.932968
-19.2822 -10.6685 1.06728
-17.3219 -10.8534 -1.02164
-15.9555 -8.84205 1.50251
-16.848 -11.1741 0.0815422
-17.2934 -11.518 -1.06477
-16.0626 -11.7084 -1.36383
-15.9981 -11.8037 -0.762379
-15.7777 -11.5385 0.0898936
-20.442 -11.0028 0.496738
-17.9493 -10.5914 -1.81656
-18.101 -10.3932 0.841456
-17.2696 -10.7848 -0.482125
-15.0148 -12.2369 -0.776021
-20.2886 -11.5429 -0.242166
-16.0896 -11.4335 -2.52583
-20.8534 -11.6708 0.762643
-20.9796 -10.4926 0.172096
-18.7389 -10.7804 0.621914
-16.6676 -11.0939 -1.36813
-17.1088 -12.3995 -0.582242
-21.1847 -9.79327 0.281656
-16.6338 -11.6834 -2.01057
-16.069 -11.4138 -2.29683
-18.9953 -10.6395 -0.284457
-16.6386 -11.6175 -2.02284
-16.7545 -12.6315 -1.03981
-17.5569 -10.5436 -0.0669965
-15.4145 -11.5634 -2.53003
-16.0736 -11.6689 0.0745089
-21.1409 -10.1965 1.16739
-17.941 -11.0403 -3.55937
-16.0449 -11.1599 -0.301797
-18.5254 -11.4092 -1.90448
-17.7125 -11.9704 -2.49339
-15.8689 -11.1513 -1.18912
-20.5514 -10.3611 1.38722
-16.5032 -11.2673 -1.38836
-17.4223 -11.1171 -2.13027
-16.592 -11.5032 -1.53383
-21.4388 -10.1748 -0.0887835
-19.5907 -9.99469 0.0866594
-20.8225 -11.0181 0.748795
-18.5529 -11.3328 -1.30366
-15.6006 -11.3498 -1.6145
-15.6172 -12.1565 -1.5716
-15.173 -12.6513 -1.62122
-16.9699 -12.2464 -1.26937
-16.7519 -12.4619 -0.115323
-20.5629 -11.0792 0.481047
-20.1906 -11.3204 0.287393
-19.7497 -11.8406 -1.46098
-18.8594 -11.3133 -3.14434
-17.6707 -12.4377 0.269522
-17.1648 -11.0451 -1.40212
-16.6305 -11.2182 -0.826681
-16.5512 -10.4245 -1.75729
-14.968 -11.4354 -1.67704
-15.6905 -12.4333 -2.15852
-20.6038 -10.8496 0.778955
-15.8702 -11.6986 -2.09755
-15.517 -11.4541 -2.65541
-15.079 -11.7903 -2.55989
-15.5377 -12.7836 -2.46871
-17.9565 -11.1657 -2.09537
-19.5506 -11.2812 -0.992238
-20.056 -11.6027 -1.46109
-16.3687 -12.8005 -0.29651
-16.2229 -11.3004 -1.68664
-15.4092 -11.9465 -0.883771
-16.558 -12.0296 -0.775783
-15.4506 -11.3122 -1.20289
-14.4 -12.2524 -3.54788
-20.0546 -11.87 0.555695
-20.1381 -11.1704 0.42806
-18.8712 -10.9123 -3.53172
-18.6477 -11.1762 -3.01526
-16.3986 -11.7076 -1.19832
-14.1996 -12.0692 -4.0713
-14.3311 -13.3091 -2.60333
-16.6982 -11.1545 -0.574272
-15.8507 -11.283 -1.07632
-17.2284 -10.7517 -1.37794
-15.9784 -11.5066 -1.57073
-19.5218 -10.2289 -0.951899
-19.1249 -10.4361 -2.50056
-17.5958 -12.5855 0.191857
-16.5585 -11.6277 0.343119
-18.4668 -11.4168 -3.23389
-14.3952 -10.8691 -0.789117
-17.6823 -11.8131 -3.61965
-14.689 -12.2321 -4.19291
-17.2886 -11.8179 0.388417
-15.3316 -11.5825 -0.679901
-16.0539 -10.9207 -0.544111
-16.4368 -11.2862 -1.88646
-14.561 -11.9405 -3.20134
-15.7295 -11.7871 0.184328
-16.6909 -11.6074 -1.27384
-15.5313 -12.8282 -0.420294
-14.6612 -10.8327 -1.48829
-16.2492 -11.5178 -1.86041
-20.2745 -11.5877 0.399501
-15.6737 -11.0615 0.344793
-16.5491 -11.231 0.955209
-15.7386 -11.8129 -0.0671715
-16.7825 -11.9222 -2.5139
-15.4249 -12.3877 -2.69095
-20.4394 -9.66159 1.34251
-17.1462 -11.9847 -0.395899
-19.7126 -10.9043 -1.89469
-16.5554 -11.8332 -0.450327
-16.3354 -12.0268 -0.683339
-15.6578 -13.3459 -0.714876
-16.2522 -11.1765 -2.47906
-15.0838 -11.405 0.364791
-14.8735 -12.992 -0.264373
-16.9301 -11.6241 -2.21263
-15.2967 -11.4448 -1.63669
-16.194 -11.5706 0.385855
-16.1432 -12.6923 -1.61112
-16.6165 -11.7686 -2.33564
-15.4565 -11.4031 -0.65028
-16.1641 -11.8109 -1.75786
-16.4555 -12.1356 -0.568068
-16.6583 -10.947 -0.833408
-16.3864 -11.3077 -1.35246
-18.685 -11.1927 -0.435452
-20.1437 -10.602 0.398455
-18.2589 -11.4048 -0.467838
-18.1703 -11.0968 -1.07202
-17.2995 -12.0386 -0.792819
-16.6297 -10.7786 0.153612
-15.6768 -12.0327 -0.025279
-17.2064 -10.7829 -1.91057
-19.7897 -10.7772 -2.35513
-16.5311 -11.3241 -1.74528
-16.7425 -11.3925 -2.44624
-15.7762 -12.4488 -1.00339
-15.9906 -11.1964 -1.76451
-16.3458 -11.3917 -2.07257
-20.568 -10.9989 1.96884
-17.4714 -11.2472 1.3827
-16.5159 -11.2218 0.496802
-16.7036 -10.8865 -0.426647
-18.9651 -11.065 -0.121108
-16.7064 -12.0412 0.623062
-16.4534 -11.1498 -0.124079
-15.9284 -11.8648 -1.44402
-18.0999 -10.6372 -1.43939
-16.1879 -10.9236 -1.88954
-15.4516 -11.7413 -2.10543
-14.6551 -11.5107 -2.92759
-20.3029 -10.7616 0.596248
-16.1086 -12.9652 -1.38611
-17.9709 -11.2948 0.425549
-16.7158 -11.7437 -0.229101
-14.6022 -11.5349 -3.68209
-15.7372 -10.9847 -3.50333
-14.8791 -11.884 -3.24426
-20.0855 -11.5531 0.744918
-16.3759 -10.3611 -1.21994
-16.2715 -11.6837 0.118485
-15.1927 -12.0896 -0.840265
-16.94 -12.2506 -1.79252
-15.9751 -11.8561 -2.07687
-17.5034 -10.9797 -1.21948
-15.9043 -11.4538 0.349576
-20.7418 -11.8522 0.128012
-16.8796 -11.5662 -2.17286
-17.2299 -10.7759 -0.931189
-17.5481 -11.4281 0.909667
-18.7863 -11.8794 -0.231784
-20.7145 -11.2947 -0.302146
-16.3184 -11.0888 -0.191442
-17.5299 -11.6031 -0.792658
-17.7193 -11.4856 -1.46458
-19.2518 -10.8624 -1.5183
-15.2651 -11.7224 -0.53487
-15.0378 -12.4155 -0.668172
-15.8328 -11.8839 -0.605124
-18.6238 -11.0732 -2.73676
-20.7354 -11.1422 -3.21782
-18.3891 -10.3499 -3.59642
-16.013 -11.89 -1.04815
-16.9944 -10.9351 -1.94254
-18.8351 -10.7487 1.2237
-17.2121 -11.3453 0.752091
-16.4725 -11.6177 0.558743
-16.6127 -11.3375 -0.713051
-16.0912 -11.3206 -0.205781
-16.1296 -11.9145 0.599047
-19.1319 -11.2508 -1.68554
-17.2 -10.503 -1.32171
-15.4517 -12.4476 -1.29267
-15.5429 -11.4553 -2.47044
-14.7336 -12.6753 -3.00082
-19.8914 -10.6325 -1.16848
-16.7013 -12.3259 -0.269519
-15.6767 -11.9197 -1.84927
-17.4696 -10.6976 -1.90132
-15.3201 -11.5045 -2.43682
-19.8485 -11.4765 0.219546
-17.2734 -12.3448 -0.188312
-15.4354 -12.0803 -1.06364
-16.3129 -11.5184 -2.42412
-16.352 -11.9551 0.604282
-15.8774 -12.495 -0.825419
-21.3702 -11.0405 0.705217
-15.6666 -12.2929 -1.35836
-15.4807 -12.7194 -0.731855
-20.2113 -9.8057 1.16796
-21.4392 -11.0056 0.815199
-18.1877 -10.3852 -0.135573
-20.3676 -10.4055 0.459198
-15.5315 -11.8318 0.546349
-17.133 -11.9588 0.044244
-18.434 -11.248 1.08193
-20.0087 -11.2273 -0.398407
-19.4556 -9.99903 -0.312371
-20.0121 -12.3478 0.140797
-19.3973 -10.7388 0.00695719
-16.605 -11.9539 -0.34042
-16.1326 -11.7617 0.521456
-16.8821 -11.8534 -0.126312
-19.319 -11.6104 -0.520302
-16.9483 -10.7018 -0.656585
-19.4298 -11.4244 -0.761409
-18.9189 -11.4666 -1.20916
-17.3905 -9.22554 -1.01117
-19.0382 -11.094 -1.69222
-16.1391 -12.1439 -1.20797
-16.0127 -11.9233 -0.822497
-17.3018 -11.8676 -0.85149
-16.6804 -12.0391 0.118385
-19.0231 -10.6311 -2.0352
-15.9168 -11.4523 -1.08012
-18.9112 -11.0791 -1.87322
-14.8625 -12.2153 -1.70081
-16.4919 -12.2472 -2.11273
-17.4199 -11.4419 -2.77313
-16.1864 -12.0046 -2.37201
-14.6392 -12.1874 -2.14458
-15.2985 -11.6804 -2.95174
-13.9734 -13.4222 -3.24107
-15.6147 -12.8336 -3.6342
-16.2084 -10.1725 1.93822
-16.3859 -9.81383 0.900551
-20.997 -10.5489 1.73389
-16.1815 -9.63581 1.56232
-19.6317 -12.0027 0.93587
-16.6174 -12.0498 0.479851
-15.9269 -11.8964 -0.0335686
-16.2215 -12.1443 -0.221883
-20.5316 -11.2222 -0.722339
-15.973 -11.7603 -0.466608
-16.463 -12.4208 -0.678495
-19.4129 -12.0869 -1.40028
-16.6788 -12.2865 -1.57239
-14.7361 -12.9615 -3.50106
-19.3202 -9.87117 1.6826
-19.7089 -11.7737 0.0876653
-16.04 -11.957 0.661526
-19.2551 -10.812 -0.429781
-17.2995 -10.3106 -0.952557
-16.1486 -12.8104 -0.337479
-14.8879 -12.0173 -0.905464
-16.2787 -11.0183 -1.78213
-19.4164 -11.9224 -3.2887
-16.0659 -10.9508 -3.65468
-15.0637 -12.057 -3.60003
-18.3345 -12.3315 1.68535
-20.1563 -11.239 -0.550225
-16.3501 -10.713 -0.400937
-16.7167 -12.6208 -0.779325
-17.6611 -11.1845 -0.101597
-16.5708 -11.4126 -0.37183
-15.5545 -12.5894 -2.2454
-15.9363 -11.9968 -0.699295
-14.6712 -12.4978 -2.67384
-16.8551 -11.7322 -0.804356
-15.5109 -12.3399 -2.09328
-16.0439 -11.8271 -1.17026
-16.0803 -11.1237 -2.41764
-16.2861 -11.6382 -3.84451
-15.9483 -12.819 -3.2393
-13.9981 -13.2539 -3.406
-15.0142 -12.6157 -2.46865
-14.6745 -11.7476 -2.00135
-16.514 -12.0113 -3.23348
-14.2147 -12.2121 -2.59063
-14.0799 -12.5046 -3.5377
-15.5361 -11.6023 -4.08785
-15.3972 -12.7643 -2.34758
-17.3416 -11.1395 -2.99904
-14.3841 -12.5735 -2.42934
-19.0021 -10.8721 -4.16137
-14.167 -12.4297 -3.37497
-15.2346 -12.1895 -3.22346
-16.8464 -10.4409 -2.26019
-15.4305 -12.0452 -2.98431
-18.6096 -10.3266 -3.17183
-19.2053 -10.4248 -4.02666
-15.3177 -13.1914 -2.34963
-15.8033 -13.0129 -2.43747
-20.475 -11.0209 -3.86985
-14.619 -12.7747 -1.88524
-15.1817 -12.9061 -3.29348
-14.3725 -12.5909 -1.87938
-15.7717 -13.2513 -2.92766
-14.213 -12.1898 -2.81122
-18.1937 -12.0892 -3.4187
-19.9296 -10.7101 -3.94518
-18.9021 -10.7127 -1.84421
-19.9369 -10.8246 -2.52194
-18.185 -12.0373 -3.21648
-18.7679 -12.2585 -2.38582
-17.796 -11.3299 -2.87019
-18.2771 -11.0562 -2.81876
-18.807 -10.3752 -2.59117
-19.2091 -10.5288 -2.79757
-18.9458 -10.1063 -2.57982
-20.1331 -10.7351 -1.50485
-18.2085 -11.7538 -1.80403
-18.9178 -10.563 -2.96926
-14.3003 -13.5257 -1.85377
-14.678 -11.962 -1.3057
-20.3424 -10.0738 -0.953618
-19.6206 -10.7662 -2.69334
-19.6668 -9.47843 -2.76387
-17.8312 -11.8122 -2.01476
-21.0162 -10.4734 -1.86879
-17.5319 -10.9138 -2.86907
-18.411 -10.396 -2.17042
-19.8398 -10.9928 -2.31838
-17.4811 -12.096 -2.12036
-17.5464 -11.7284 -0.561715
-17.4047 -10.5753 -1.90489
-20.7723 -10.5125 -1.2767
-15.0976 -12.3282 -1.51328
-14.8253 -12.3625 -1.7173
-18.5922 -11.071 -1.13818
-17.7157 -11.0836 -1.84076
-17.998 -11.6382 -1.36331
-17.1986 -12.2711 -1.53516
-16.5236 -11.2934 -1.61144
-18.1731 -11.375 -1.91303
-17.658 -11.6042 -1.25649
-16.7373 -11.1983 -0.6919
-16.5901 -12.0187 -0.831973
-18.2838 -11.6599 -1.48648
-20.1012 -11.1326 -1.26729
-16.2225 -10.9649 0.0638454
-18.1915 -11.5371 -0.902148
-16.6035 -10.8476 -1.1569
-15.5285 -12.3816 -0.344826
-17.4297 -11.1504 -1.43173
-20.5411 -10.777 -1.25872
-20.5689 -10.1229 -0.906511
-19.9295 -11.5759 -2.00603
-16.0591 -12.1799 -0.511031
-18.7994 -11.2433 0.327573
-16.7184 -11.6349 -0.813482
-17.3796 -11.0452 0.463683
-18.4533 -12.1036 -0.667466
-17.1845 -11.3534 -0.515334
-18.8192 -10.9777 0.015924
-17.1836 -11.4985 -0.49889
-18.3631 -11.9288 -0.720616
-19.056 -10.6055 -0.793517
-16.5649 -11.8465 -0.718482
-16.678 -11.3348 0.207174
-21.1334 -11.0823 -0.177762
-19.4774 -11.3427 -0.692975
-20.6068 -10.5074 -0.790879
-19.2673 -10.615 -0.607206
-18.6879 -11.6723 0.722147
-19.976 -11.0903 -0.527765
-19.7457 -10.9393 -0.157177
-19.5992 -11.3353 -0.412521
-20.2627 -11.4623 -0.665033
-19.7478 -11.918 0.365739
-17.8794 -11.665 -0.258007
-17.5633 -11.0818 0.618287
-17.6533 -10.8112 0.489383
-17.4423 -11.1353 0.656261
-17.42 -10.787 -0.149132
-17.9032 -11.1169 0.753728
-20.042 -11.8399 -0.298757
-19.7852 -10.8318 0.926022
-20.7592 -10.2361 0.352679
-20.0328 -11.6139 0.814491
-19.3198 -11.6011 0.649404
-19.7959 -11.2543 0.454962
-14.7824 -11.5458 -3.3121
-15.0884 -14.2387 -2.99549
-15.3865 -12.617 -3.51019
-16.1205 -11.4265 -3.37909
-15.192 -12.4101 -3.18384
-14.5076 -12.6763 -3.46062
-14.4695 -12.7642 -3.37067
-14.782 -12.2658 -3.21371
-14.3681 -12.0568 -2.50499
-15.2348 -12.0059 -3.19724
-15.0606 -12.9289 -2.93128
-14.8396 -10.6228 -2.13595
-14.4671 -12.9885 -2.63202
-15.2209 -11.8319 -3.32481
-15.1828 -12.4882 -3.03517
-16.5317 -11.9732 -3.15103
-15.2825 -12.3931 -3.1245
-14.8136 -12.5296 -2.75726
-19.0115 -11.3381 -3.21139
-19.1594 -11.1803 -3.24951
-19.635 -10.6653 -3.76978
-18.888 -10.8192 -3.45885
-19.3585 -10.6268 -3.55476
-14.7287 -12.1829 -3.08514
-17.5929 -10.9897 -3.02195
-18.1407 -11.9369 -3.08046
-19.5192 -11.6583 -3.15438
-18.2447 -10.287 -3.36686
-19.4777 -11.3148 -3.3503
-18.4733 -11.5372 -3.20915
-17.0299 -11.2472 -3.1205
-18.4958 -10.4745 -3.68193
-16.1809 -11.1257 -2.27374
-20.0056 -11.0516 -3.54504
-15.2054 -11.631 -2.54496
-20.6268 -10.9042 -2.92311
-19.1152 -11.2889 -1.37395
-19.7336 -11.2514 -3.9208
-17.7992 -11.7314 -2.6246
-18.6592 -10.9508 -2.9666
-20.083 -11.1856 -3.14162
-18.7433 -11.2572 -2.39877
-17.118 -11.1988 -1.17
-17.725 -11.8978 -1.85638
-19.7466 -10.6113 -2.92647
-19.2898 -9.75129 -2.72552
-17.605 -11.0362 -2.42706
-15.2414 -13.3073 -2.46138
-19.784 -10.5245 -2.9952
-19.4894 -10.827 -2.26797
-19.0808 -11.2831 -2.01941
-18.8727 -10.7392 -3.10301
-20.0361 -11.3157 -2.56238
-17.9928 -11.8259 -1.76363
-18.7365 -11.6348 -2.35146
-18.6535 -11.2286 -2.55495
-18.4279 -10.6782 -2.60428
-15.8869 -11.9331 -1.61935
-18.0604 -11.1016 -2.57874
-19.4293 -11.7626 -1.77172
-19.9272 -10.0582 -1.72414
-20.2386 -10.3264 -2.58615
-20.7911 -10.1818 -1.47142
-18.2129 -11.6058 -1.92925
-19.2407 -11.3319 -1.53278
-15.5896 -12.4023 -1.40931
-21.1282 -10.2525 -1.72031
-20.5432 -10.8856 -1.88171
-17.0308 -11.8755 -1.07064
-17.6428 -11.7785 -1.53562
-16.5318 -11.1325 -1.55868
-19.6373 -11.6194 -2.16345
-18.4092 -11.2799 -1.13796
-20.299 -10.7732 -1.27601
-19.4138 -10.1985 -2.20613
-20.4145 -10.6488 -0.582368
-16.5175 -11.6715 -0.300317
-19.9285 -10.8993 -2.05329
-15.7905 -11.0596 0.455387
-16.7052 -11.768 -0.634086
-16.6238 -12.2862 -1.27019
-15.6579 -12.8898 -0.320812
-17.956 -10.6183 -1.33473
-19.6288 -11.131 0.217078
-19.9965 -11.1045 -0.948011
-19.2514 -11.8913 -0.547702
-17.2074 -11.0755 -0.540635
-16.4288 -12.0532 -0.43571
-15.7433 -11.5512 -0.992271
-16.409 -11.8784 -0.313793
-16.0145 -11.6804 -1.07502
-16.0061 -11.6053 -0.542643
-16.1318 -12.2258 0.294321
-19.9416 -10.705 -0.542699
-16.4213 -12.009 -1.03469
-16.6723 -12.2509 0.319885
-16.6582 -12.3029 -1.25625
-16.8255 -10.7407 0.211676
-20.3626 -10.3343 0.0907162
-18.9066 -11.3693 -0.520665
-18.1659 -11.0212 -0.3856
-18.1612 -10.993 -0.0882767
-20.5255 -11.2914 -0.432728
-19.7818 -10.8168 -0.162031
-19.9728 -11.9096 -0.0633086
-19.7388 -11.97 -0.113136
-18.3609 -11.1152 -0.0621222
-18.2624 -11.0692 0.964414
-17.7908 -11.1141 0.313163
-18.3653 -10.7899 0.360884
-15.849 -12.2887 0.645278
-20.5331 -10.5254 -0.295615
-17.0306 -11.6013 0.690707
-19.6467 -10.9244 -0.745154
-16.7451 -11.4255 0.114175
-18.7606 -10.5067 0.331564
-18.2971 -11.0428 0.77065
-15.3575 -10.6075 0.251509
-16.6459 -11.6273 0.910148
-17.0311 -11.0706 -0.0322522
-16.011 -11.9779 1.08473
-15.1451 -11.2481 0.46008
-16.4998 -11.0628 0.960811
-17.3269 -10.5118 0.834935
-19.9187 -11.059 0.759511
-20.1102 -10.9846 0.633875
-20.6432 -11.2302 0.569214
-22.1034 -11.1951 0.185405
-20.5238 -11.4548 0.424136
-21.5111 -10.7296 1.75455
-19.6645 -11.4654 0.923853
-16.6903 -9.80323 1.13868
-15.8112 -10.0843 0.487957
-17.2818 -9.54934 1.27961
-15.9289 -11.2132 2.24672
-16.8199 -9.84866 0.786207
-16.8312 -9.07546 0.516131
-16.0027 -9.24003 1.16733
-16.6045 -8.85745 1.66279
-16.5798 -9.9408 0.586352
-16.3452 -9.59567 1.22269
-16.5191 -10.7593 1.11414
-16.1432 -9.15911 2.06821
-17.6474 -10.0905 2.27919
-15.6728 -9.35178 2.11911
-16.2359 -9.84649 1.16058
-16.7888 -9.99882 1.5017
-16.6938 -9.79357 1.1082
-16.7108 -10.0608 0.777775
-19.1527 -10.6618 3.1504
-16.4886 -8.91305 1.37434
-15.0364 -12.9008 -3.36454
-15.4486 -12.5414 -3.63494
-14.3843 -12.4301 -2.97971
-16.0438 -11.4247 -2.82591
-14.612 -12.8565 -2.72796
-17.2534 -10.8353 -2.42701
-14.7072 -12.1127 -1.83343
-14.0745 -11.8926 -3.08284
-19.2001 -10.8377 -3.25093
-15.9905 -11.6769 -2.71007
-18.2828 -12.0387 -3.75157
-20.0707 -10.1096 -2.76401
-14.6536 -10.6005 -2.2611
-17.5478 -10.4574 -1.95233
-19.1332 -10.8866 -2.54313
-14.2935 -11.8409 -1.95795
-18.9878 -11.0387 -2.93891
-19.4295 -10.9211 -2.77588
-19.6574 -10.1066 -3.08574
-20.1139 -11.1166 -2.65722
-17.0879 -11.4101 -2.91043
-15.5278 -12.4833 -1.70187
-16.6991 -11.8513 -1.71367
-17.0022 -11.5389 -2.2496
-19.6284 -10.7557 -2.04377
-18.4654 -11.7958 -2.62436
-16.044 -13.0614 -1.48573
-18.1389 -11.8019 -3.14022
-15.9566 -11.3847 -1.16238
-20.6743 -10.537 -1.94916
-18.4035 -11.2019 -1.4394
-17.3646 -10.9042 -2.36006
-19.546 -10.9572 -2.25224
-19.3326 -11.1785 -2.65852
-19.1034 -11.7175 -1.69055
-17.5079 -11.9171 -1.56825
-17.6113 -11.5706 -2.19834
-17.6007 -11.0388 -0.654442
-18.7116 -11.0983 -1.21017
-19.6114 -11.415 -1.99015
-21.0348 -10.312 -1.31401
-18.5066 -11.6942 -0.416417
-20.1551 -11.6849 -0.620109
-15.5618 -12.3835 -0.648227
-19.295 -10.5879 -1.0651
-17.3244 -11.6384 -1.39716
-18.9738 -11.8971 -1.57586
-16.7412 -11.0381 -0.605784
-17.7861 -11.5523 -0.140394
-16.384 -11.9318 -0.219971
-16.7567 -10.3596 -0.387165
-17.7175 -11.4313 -0.0870127
-15.6287 -11.1568 0.266909
-15.7142 -11.2812 -0.258983
-19.1822 -11.3566 -1.1932
-19.2497 -10.9453 0.385845
-16.8546 -11.4856 -0.600522
-19.7058 -11.0678 -0.209972
-19.9765 -12.0852 -0.123894
-18.5089 -11.7513 0.256992
-19.4525 -10.5129 -0.0304878
-20.0717 -10.9525 -0.799192
-18.0718 -10.2129 -0.191549
-18.8654 -11.2855 0.225744
-17.6079 -10.9088 0.788561
-20.3285 -11.321 0.316074
-16.7863 -10.7589 0.50638
-19.903 -11.166 1.03069
-19.0677 -11.4155 0.0627377
-16.099 -10.7436 1.0027
-19.0318 -11.1647 1.06192
-20.0515 -11.5657 1.07681
-16.7684 -11.618 0.0437286
-20.3076 -10.8227 0.990932
-20.3301 -11.2566 0.403585
-20.7129 -10.1856 0.925378
-20.973 -9.9378 0.610472
-19.6975 -11.8528 0.701331
-20.1468 -11.7243 0.533365
-18.8278 -11.0264 1.06904
-14.9794 -9.98592 1.25755
-16.529 -10.0494 1.45494
-14.7109 -12.7198 -4.1193
-17.4124 -10.5989 -3.42305
-16.5698 -11.5084 -3.20714
-15.9354 -11.4933 -3.73034
-16.5682 -12.2588 -2.6547
-15.0331 -12.5832 -3.38409
-18.484 -11.0331 -3.23913
-19.4113 -10.5591 -2.77914
-20.0265 -10.4596 -3.4076
-18.1843 -11.8323 -2.80689
-17.3747 -11.5032 -2.58376
-18.0973 -10.9917 -2.84105
-16.2159 -12.1934 -1.79308
-19.6627 -11.0073 -4.10296
-19.1787 -10.6652 -2.05836
-20.0662 -10.0959 -2.63995
-20.3585 -10.5877 -2.93225
-16.2994 -11.1087 -1.38369
-19.0308 -10.5403 -2.5582
-18.6008 -11.2353 -1.94638
-18.9197 -11.6565 -1.47016
-19.107 -11.5815 -1.28255
-18.5481 -11.8328 -1.39403
-19.9045 -10.9629 -1.84917
-15.7539 -11.6164 -0.861407
-17.7339 -11.6301 -1.41458
-20.4715 -10.9695 -0.92062
-19.6944 -10.6504 -1.02482
-16.1295 -11.8445 -0.713591
-15.7203 -12.3633 0.0482687
-16.4589 -11.3143 0.263718
-15.7439 -11.8223 -0.0238598
-16.5844 -12.0395 -0.217995
-20.0983 -9.96166 -0.025751
-20.4268 -11.3425 -0.75334
-20.2256 -11.1582 -0.335117
-16.8563 -11.7484 0.859496
-16.7809 -11.5167 0.492834
-17.4605 -11.4476 -0.593689
-18.5615 -10.2849 0.550075
-17.5166 -11.4063 0.737526
-18.2621 -11.6072 0.669389
-20.2004 -10.6401 1.02848
-20.297 -9.72168 1.3238
-16.2109 -9.16734 2.14873
-17.1791 -10.098 2.44985
-16.2819 -10.0894 1.22502
-16.1743 -10.5543 -2.97647
-14.8251 -12.2566 -2.74782
-17.3694 -11.5318 -3.65601
-17.8702 -11.7901 -2.58321
-14.2197 -12.7596 -1.92917
-16.0677 -12.1364 -1.46321
-15.4072 -11.439 -2.34567
-16.1402 -11.8924 -2.75604
-15.4372 -11.8555 -2.50206
-19.6287 -11.5447 -3.08523
-18.372 -10.7536 -3.15016
-18.6072 -10.7509 -2.33077
-19.212 -11.6186 -0.661598
-16.8272 -11.7781 -1.54394
-16.498 -11.8815 -0.989907
-17.5909 -11.3842 -1.61939
-16.5745 -11.2613 -0.659264
-16.7704 -11.6696 -0.506535
-17.3644 -11.7932 1.02925
-17.7088 -11.1798 -0.177245
-19.6638 -10.8935 -1.0788
-20.8626 -11.129 -0.593956
-20.052 -11.5028 0.520703
-16.2377 -12.11 0.137579
-15.7846 -11.7714 0.336333
-20.0861 -11.812 0.453678
-15.9263 -11.7537 0.469104
-20.3391 -11.0849 0.981878
-16.7404 -12.0634 -3.46425
-20.1087 -9.89376 -3.93399
-16.2588 -11.6947 -2.57713
-17.8966 -10.7848 -2.42473
-20.096 -11.0564 -2.64429
-17.0661 -11.0549 -1.75984
-17.2132 -11.6359 -1.7259
-15.9486 -12.0773 -1.49153
-16.2231 -11.1444 -1.117
-15.0904 -12.5988 -1.287
-17.6503 -10.7616 0.251349
-20.9136 -11.0328 1.01946
-20.1459 -11.0712 1.11907
-16.224 -11.8489 -2.4694
-17.3789 -11.556 -1.12205
-14.7541 -11.8973 -1.85209
-17.8948 -10.5055 -2.02087
-15.6013 -12.3484 -1.26945
-16.2725 -11.6827 -0.636321
-17.5785 -11.1922 0.407778
-18.4689 -10.767 0.241951
-16.2449 -11.2395 -0.0685918
-19.4186 -11.1041 0.0538952
-19.5261 -11.3371 0.426925
-15.0363 -11.6392 -2.58702
-18.6557 -11.1828 -3.12829
-14.7556 -12.6429 -2.56359
-17.1093 -11.4464 -1.54875
-16.2218 -12.9851 -0.284983
-19.6709 -11.7686 -0.51365
-18.8816 -11.5995 -0.673668
-18.4142 -10.548 0.570082
-16.832 -9.41356 1.98596
-16.1924 -11.7069 -1.5415
-15.8836 -12.1811 0.57866
-18.0984 -12.3223 -1.43467
-17.2738 -11.8232 -0.660674
-14.273 -12.7525 -0.465444
-19.1055 -10.6375 -0.648034
-16.3718 -11.1151 0.755255
-16.1054 -10.4769 -2.23008
-15.7081 -11.5187 -1.19527
-16.0418 -10.9912 -1.92048
-15.417 -12.9203 -1.72737
-16.7296 -11.2906 -1.00587
-17.0252 -11.9228 -1.06446
-15.7544 -11.5275 -1.78943
-16.3076 -10.8606 0.304353
-14.6267 -11.7211 -1.53223
-19.6422 -10.6787 -2.32239
-20.0546 -9.53732 -2.44644
-18.7318 -11.6895 -2.33668
-19.3626 -11.1539 -2.93112
-19.1577 -10.6454 -3.53334
-18.331 -10.8744 -2.46444
-18.7524 -11.3425 -3.06938
-19.0647 -10.3899 -3.59433
-19.5741 -11.9528 -1.95921
-19.3067 -10.2109 -3.72996
-20.2432 -10.9743 -0.0866766
-18.3524 -12.0111 -3.31914
-17.7725 -11.6282 -2.94319
-17.9587 -11.0036 -3.35825
-19.3935 -10.9242 -0.857957
-19.1538 -11.6002 -2.48498
-19.4714 -10.9204 -1.84327
-19.0866 -11.5516 -1.96881
-18.1453 -11.6689 -2.89689
-20.6518 -10.5201 -1.02426
-18.6657 -11.9518 -2.88263
-18.9114 -12.0175 -2.94662
-16.7297 -11.2246 -4.12245
-18.9646 -10.7169 -2.13147
-20.3945 -10.6294 -0.577598
-20.7113 -10.5154 -0.511112
-16.2334 -10.7535 -3.47374
-19.4965 -11.4424 -1.02652
-20.0079 -10.9848 -0.37108
-20.0691 -11.1893 0.117917
-19.3558 -11.4403 -0.709833
-20.8188 -10.8282 0.10647
-17.6328 -11.0467 -1.32606
-19.28 -11.164 -0.356301
-18.5433 -11.4229 -1.59922
-21.1576 -10.924 0.727554
-17.7906 -11.4415 -1.31512
-17.8617 -11.5156 -0.813152
-15.2741 -11.154 -3.20403
-16.777 -11.5829 -1.93389
-18.5282 -11.8162 -1.33565
-20.1188 -11.4266 1.20716
-18.0192 -11.575 -0.507201
-17.9314 -11.1418 0.55544
-18.3849 -11.2319 0.300989
-14.4812 -11.7938 -3.03126
-18.2736 -11.5693 0.37185
-15.4309 -10.978 -2.46664
-16.8684 -12.0909 -0.1371
-18.0121 -10.9428 0.768019
-18.0415 -10.9767 1.46581
-16.2161 -11.5048 -1.89615
-16.0519 -11.6839 -1.28681
-14.6137 -12.995 -2.95509
-17.6939 -10.9023 0.469241
-17.3481 -11.6132 -1.44623
-17.1287 -11.7197 -0.963489
-17.7919 -11.5032 0.115053
-17.1469 -11.7403 -0.87008
-17.0854 -9.5248 1.15783
-15.774 -11.9647 -0.705879
-15.8857 -9.60253 1.69666
-18.0999 -11.0513 -0.249961
-16.4996 -10.4989 -0.659596
-15.7624 -12.0329 0.0679236
-15.101 -12.5596 -2.81193
-17.1839 -11.5732 0.31238
-15.0933 -12.3515 -2.99058
-14.6155 -12.8337 -2.27864
-17.7174 -10.9914 -0.639432
-17.7785 -11.761 0.631867
-16.736 -12.1773 0.398944
-15.182 -12.2656 -3.55056
-15.7105 -11.1412 -1.47158
-14.5913 -12.6883 -2.72519
-14.7963 -12.5382 -2.82652
-15.7243 -11.5476 -0.133249
-14.4911 -12.7178 -2.6345
-16.0755 -12.3976 -1.45665
-17.0132 -12.1316 0.261487
-15.2491 -12.8783 -2.03088
-15.7342 -12.2543 -2.86326
-16.6142 -10.807 2.15352
-15.2446 -11.7854 -2.18933
-15.6888 -11.7171 -0.508944
-15.4429 -12.0286 -1.12864
-15.8935 -11.8842 0.438638
-14.8742 -12.5048 -0.175506
-15.3393 -11.186 0.523926
-20.4814 -10.9832 -3.01677
-20.722 -10.1951 -2.13198
-19.7893 -10.5717 -2.73861
-20.1817 -11.4728 -3.39234
-20.7346 -11.9722 -3.17092
-19.9668 -10.156 -1.52794
-18.9756 -12.1479 -4.43455
-19.8426 -11.046 -3.38356
-20.5226 -11.2944 -1.53774
-19.9935 -10.5138 -2.54263
-19.2917 -10.8261 -1.62612
-19.5379 -11.0273 -1.38327
-19.8001 -10.8236 -3.09388
-19.541 -12.4289 -1.85924
-18.5122 -11.3199 -3.06429
-18.1553 -10.67 -2.53559
-17.3501 -11.1534 -2.5755
-18.5348 -11.4044 -2.30658
-17.5248 -10.9495 -3.37987
-18.4212 -12.0315 -1.33567
-19.9523 -12.0005 -2.89157
-17.4893 -11.2977 -2.77681
-17.3052 -11.9043 -3.73608
-20.1159 -11.572 -2.24365
-15.9766 -10.5367 -2.34368
-20.9237 -10.7277 -0.0584234
-20.075 -11.7403 -0.211498
-20.138 -12.4047 0.226418
-19.8561 -10.7718 -0.143993
-21.5248 -11.2974 -0.93823
-20.8582 -10.8038 0.100975
-20.905 -11.6121 0.860329
-21.0196 -10.9849 0.282585
-20.1594 -10.7183 0.0403416
-16.8847 -10.726 -1.75755
-16.9982 -11.5633 -2.3753
-16.359 -11.5571 -2.72228
-16.2944 -10.9837 -2.9351
-20.5197 -11.278 0.7396
-20.5405 -10.86 1.02687
-19.5422 -10.7583 0.236069
-20.6976 -11.4565 0.916495
-19.7079 -11.5156 0.603079
-19.4765 -10.7732 1.00051
-19.7214 -11.1004 0.729447
-20.1209 -10.9697 0.346748
-20.8732 -11.0225 -0.0661566
-19.5783 -11.2223 0.31696
-16.8614 -11.8009 -0.678421
-18.2774 -10.7936 -0.309879
-15.3394 -11.8235 -2.43156
-17.9466 -11.8516 -0.413756
-16.7375 -11.6434 -0.633694
-16.5387 -11.5274 -0.953514
-17.5645 -10.7968 0.354915
-17.5986 -11.1238 -1.21818
-16.3922 -11.4009 -1.36871
-17.1563 -9.95669 1.80214
-16.4291 -11.4407 -0.600386
-17.5501 -11.4425 0.618675
-16.4843 -10.4549 1.00135
-16.2024 -9.8453 1.87572
-16.6948 -9.4866 -0.0419485
-14.4424 -11.9913 -3.6582
-14.6243 -12.0288 -3.89205
-15.0642 -11.7281 -3.73304
-14.6419 -12.9437 -2.70836
-16.9245 -10.4755 1.92769
-17.0135 -11.7929 0.184131
-15.1818 -12.8148 -3.44499
-16.6416 -9.34191 1.54388
-17.5705 -11.8746 -0.407675
-16.8994 -11.1904 -0.620613
-15.2012 -11.9751 -2.39184
-16.0593 -11.5393 -0.0236848
-17.0085 -11.5304 0.52081
-14.4145 -13.4206 -3.07535
-15.2845 -12.4309 -1.63857
-17.3918 -11.9099 -0.650981
-15.4138 -11.8207 -0.675969
-13.7344 -11.8294 -1.9034
-15.8604 -9.62744 1.70986
-17.2656 -11.7709 0.186261
-16.9611 -11.2381 1.15803
-14.9695 -12.1235 -0.785345
-14.7041 -10.5748 2.21062
-15.3574 -12.419 -2.68834
-16.4158 -11.61 -1.40308
-15.865 -10.1437 1.95661
-16.0204 -12.3293 0.405347
-15.9788 -9.87359 1.84373
-14.3427 -12.7241 -1.49976
-14.321 -12.597 -1.35084
-15.4226 -11.831 -0.308246
-14.7982 -11.9979 -2.40771
-15.9815 -9.55862 1.21462
-14.6866 -12.2254 -2.24381
-16.6121 -11.5932 -0.0939738
-16.4336 -12.676 -0.198778
-15.5444 -11.3498 -0.279328
-16.6193 -12.4525 -1.15704
-15.6969 -11.0325 0.0146459
-19.9252 -10.6687 -2.542
-19.2245 -10.8585 -2.61502
-18.999 -11.4222 -3.28239
-19.5724 -11.3631 -1.60341
-21.2075 -10.2487 -2.09313
-19.2667 -11.6396 -1.54891
-19.6905 -10.8288 -1.15999
-18.0738 -11.6712 -3.01766
-18.5565 -10.5974 -1.52977
-17.3515 -11.3059 -2.21572
-17.5617 -11.426 -2.95659
-19.3757 -10.7882 -1.05829
-20.6081 -10.8391 0.115423
-17.4984 -10.5277 -2.65122
-20.4152 -10.2104 0.985396
-19.9805 -10.5701 0.13707
-19.5257 -11.7545 0.362886
-19.8478 -11.5779 -0.333943
-17.1479 -11.1535 -1.30231
-19.3675 -10.7324 -0.987446
-19.2824 -12.3018 0.32617
-17.2313 -11.8495 -1.83373
-21.0127 -11.2735 0.496152
-17.5682 -11.7613 -2.03089
-19.208 -10.2978 0.124174
-19.6891 -10.7826 0.811827
-19.3401 -10.7955 0.997084
-18.2694 -10.9844 0.106319
-16.332 -11.0848 -0.537568
-17.5265 -11.133 -1.38187
-15.6611 -12.4052 -3.2029
-15.9221 -12.1245 -3.69248
-14.8833 -11.2696 -1.83887
-16.0873 -11.3466 -2.39213
-18.2778 -11.5151 -0.530743
-17.3809 -11.2282 -0.465974
-18.2796 -11.6063 -1.18536
-15.4622 -12.0378 -2.567
-14.2939 -12.645 -2.91885
-15.9755 -11.3167 -0.616037
-14.1817 -12.4432 -3.72076
-16.5927 -12.5319 -1.38413
-16.7237 -11.0144 1.2556
-15.637 -11.3979 0.300785
-16.0637 -11.5595 0.436431
-14.41 -12.2868 -0.898935
-16.1365 -9.51098 1.83506
-15.9817 -12.6094 -1.01548
-16.0573 -12.3329 -0.103361
-16.3531 -12.0819 0.0470448
-16.3729 -11.8144 0.589543
-15.7297 -11.6732 -0.00533948
-15.8589 -12.8898 -0.824967
-20.8093 -9.74851 -3.75179
-19.2112 -10.3504 -3.16359
-19.0968 -10.0082 -3.28583
-19.3669 -11.5107 -2.85421
-19.1579 -10.9089 -2.99894
-19.4879 -11.3049 -2.31542
-17.9249 -10.7004 -2.5111
-18.71 -11.0646 -3.22991
-18.2577 -11.1076 -2.94773
-18.6328 -11.6998 -2.44775
-17.5162 -10.4903 -3.09034
-17.8861 -10.7975 -1.12848
-16.9286 -10.4034 -2.19382
-15.8704 -10.6141 -2.16887
-20.5387 -10.7809 -1.26718
-18.1108 -10.858 -2.10625
-17.2838 -11.1123 -2.01355
-17.1102 -11.771 -2.52318
-17.1616 -11.3698 -2.46483
-17.1451 -11.5118 -1.3224
-19.2185 -10.5516 -1.14477
-19.1352 -11.8477 -0.680591
-20.3538 -10.5267 0.864946
-20.6575 -10.9366 0.938753
-19.1785 -10.8087 -0.332798
-19.9167 -11.2543 0.413459
-19.5953 -12.1821 -0.778893
-18.9857 -11.1573 0.252751
-18.8347 -9.90283 -0.0948318
-19.504 -12.3948 1.61521
-17.7731 -11.7247 -0.77914
-16.6895 -11.747 -1.20215
-16.4546 -11.947 -1.11097
-16.6075 -11.8017 -2.03107
-15.4886 -10.8556 -2.85381
-15.7336 -11.4532 -2.10082
-14.9118 -11.5233 -2.03995
-17.0082 -11.0106 -1.03812
-16.5285 -11.2551 -0.208693
-17.2688 -9.40652 1.25931
-16.2752 -11.1332 -1.29161
-16.2806 -11.7477 -0.774387
-16.2667 -11.0783 -0.405891
-15.979 -11.0654 0.423809
-16.3953 -11.2281 0.433786
-14.4383 -13.2776 -2.23158
-15.6439 -10.9156 -0.0382572
-17.0505 -11.3599 1.19848
-15.1307 -12.1042 0.427173
-15.9873 -11.2599 -0.547027
-15.6242 -11.4492 0.755834
-19.1198 -11.1885 -2.10766
-20.2373 -11.2181 -2.26674
-18.2694 -11.0562 -3.07772
-18.2381 -11.7518 -2.88642
-20.0571 -10.8893 -1.75498
-16.4507 -11.007 -3.35747
-18.9106 -11.1832 -1.23323
-18.809 -11.6079 -2.12523
-20.4434 -10.634 -0.720682
-18.7941 -10.9489 -0.28121
-20.8978 -11.0619 0.235508
-20.1157 -10.9706 0.00972626
-19.0241 -11.7363 -1.37059
-18.5137 -11.4111 -1.9013
-20.7531 -11.0847 0.233125
-19.738 -11.6803 -0.0874917
-16.3212 -12.4985 -0.959166
-14.9608 -11.3863 -2.64106
-16.5387 -11.1904 -1.80598
-15.8317 -12.5184 -1.22369
-15.4798 -11.4634 -1.82583
-17.1945 -11.0496 -1.3629
-17.5775 -11.2674 -1.46087
-16.4005 -10.5616 -0.899422
-17.2439 -11.8302 -0.579478
-17.6831 -11.2761 0.351463
-16.709 -11.5614 -0.486053
-16.7496 -12.3336 -0.702988
-16.8786 -10.9516 -0.77233
-14.2103 -11.8139 -1.63819
-16.6981 -12.5261 -0.784302
-16.3931 -11.3073 0.11622
-15.7223 -12.2458 0.0956087
-15.2494 -12.1357 0.442049
-15.9124 -11.3971 -0.368648
-19.9792 -11.0483 -1.82567
-18.0037 -12.7209 -2.00877
-17.1183 -11.3826 -2.80092
-16.9641 -10.47 -1.7704
-17.4016 -11.1741 -2.09723
-16.8188 -11.9976 -1.51175
-17.664 -11.2292 0.502485
-16.9467 -11.8142 -1.61155
-14.396 -12.4014 -3.18089
-16.9337 -12.2813 -1.69204
-14.8084 -12.2925 -2.50594
-16.168 -12.4406 -0.744802
-15.8955 -11.5951 -0.214657
-16.8 -10.4199 -1.38623
-17.6551 -11.4356 -2.32003
-16.8109 -11.5699 -2.78316
-17.5111 -10.9254 -1.2934
-17.6981 -10.9294 -0.580202
-16.4536 -11.7456 0.238111
-16.0002 -10.9419 -2.85122
-17.1713 -10.9394 -2.19981
-17.0201 -11.1326 -0.497466
-17.6709 -11.3025 -0.066536
-17.3618 -11.7618 1.33051
-15.6578 -11.5272 -1.00139
-15.5679 -11.3919 -0.170672
-16.5571 -11.6492 -1.74794
-20.6262 -10.4523 -2.05979
-17.6952 -11.7924 -0.958843
-15.9331 -11.5292 -1.77282
-16.5374 -12.2469 0.0515996
-17.9762 -11.6816 -1.2263
-16.8766 -11.0348 -0.395037
-20.8326 -11.4158 0.497155
-19.3436 -11.2628 0.300157
-20.7017 -10.8632 1.05023
-19.3159 -10.5351 0.640882
-20.8491 -11.8675 -2.79866
-19.9422 -11.3433 -1.86243
-20.8822 -10.3817 -1.76463
-16.5886 -10.1893 2.14615
-19.3487 -10.5624 -1.17099
-16.433 -10.5192 2.50132
-17.9284 -10.4762 -0.2445
-19.0556 -10.8309 0.384414
-18.3632 -10.1424 0.755529
-20.0317 -11.4217 -0.713664
-17.7553 -11.0959 0.518845
-18.0818 -10.9986 0.477371
-19.2965 -10.4752 -2.07572
-20.1946 -10.946 -2.01726
-18.1385 -11.2376 -0.0111967
-20.4638 -9.73284 -2.40852
-17.9949 -11.2354 0.355062
-19.4248 -11.8297 -2.17978
-19.662 -10.9636 -1.80058
-18.7947 -10.5769 -2.87933
-16.4811 -10.8813 1.12719
-19.353 -10.9512 -2.9902
-18.5296 -11.8791 -1.21446
-19.2244 -11.4239 -1.47447
-19.3851 -11.78 -3.6575
-17.0599 -10.4171 -0.0812585
-19.2139 -11.3164 -1.29728
-18.019 -11.2355 -0.707991
-17.1549 -11.7339 0.781043
-17.8508 -11.8889 -0.738757
-17.6081 -12.0214 -2.57494
-18.2072 -10.7878 -2.07513
-18.0703 -11.0471 -2.19175
-18.084 -12.0457 -2.02067
-16.5322 -11.7244 0.35102
-17.541 -10.5623 -1.622
-18.6487 -11.8613 -1.95074
-17.8081 -11.4423 -2.20847
-17.7959 -11.4893 -1.4119
-16.8414 -12.5025 0.136272
-17.2645 -12.0554 -0.976629
-16.024 -12.8729 -0.957627
-16.3776 -12.382 -0.747564
-16.0251 -10.8103 0.36097
-16.2298 -11.6383 -0.917244
-17.1199 -12.6809 -0.322161
-16.1421 -11.0807 0.422092
-17.3358 -12.2246 -1.10716
-16.7573 -12.0456 0.262196
-16.5837 -11.3649 -0.0908352
-17.5756 -11.4447 -0.174689
-16.6377 -11.6426 -2.86366
-14.9753 -11.8783 1.27405
-16.5369 -11.2176 -2.04328
-16.0509 -11.7323 -0.065423
-15.7689 -11.9745 -0.343978
-16.8589 -10.6344 -2.16229
-16.047 -11.4929 -0.293097
-16.6247 -11.6288 -4.01251
-16.2376 -12.4502 -1.80206
-15.8387 -12.5518 0.525922
-16.7243 -12.3924 -1.50046
-15.1822 -12.3832 -1.97619
-15.6104 -12.0668 -1.61809
-14.7383 -12.3054 -1.55641
-15.1653 -12.1136 -2.9097
-15.258 -12.9827 -3.47271
-14.3563 -11.9575 -2.89442
-14.6426 -11.8931 -2.63855
-15.464 -12.651 -1.86678
-14.6402 -13.0204 -3.23661
-15.5687 -12.3471 -3.6037
-14.1622 -12.6218 -3.42301
-20.3171 -10.5883 0.278729
-20.1334 -11.4964 1.16101
-20.6777 -11.2979 0.614513
-20.1539 -11.5716 -0.485778
-20.0476 -11.7409 0.863126
-20.5018 -10.7938 0.491454
-20.2398 -11.0798 -0.248714
-20.4373 -9.95218 -1.44759
-21.2739 -10.5286 -3.40139
-20.0408 -11.043 1.24881
-19.8425 -11.3557 -0.7691
-19.2652 -11.5511 -1.02579
-20.0523 -10.3461 -2.51758
-18.8731 -11.9247 0.146046
-16.7969 -10.6767 0.626013
-18.6086 -11.5598 -0.234962
-19.112 -9.77837 0.132757
-16.3544 -10.303 0.9862
-17.1893 -9.99643 1.28231
-19.2458 -10.9119 -2.158
-19.3979 -10.8166 -0.987448
-16.8607 -9.50874 1.53028
-19.0044 -10.8804 1.35178
-19.0256 -11.0266 -1.20947
-19.306 -10.5168 -3.44984
-19.1575 -10.3242 -2.99289
-18.1407 -11.7906 0.365566
-19.7673 -11.1862 -1.63881
-19.2265 -11.9311 -0.288523
-15.2733 -9.45742 1.00379
-16.2057 -9.39185 1.29741
-15.3398 -9.27924 1.5526
-16.7566 -9.75162 1.84831
-18.7882 -11.3432 -2.15381
-19.0068 -10.8401 -2.53266
-18.8207 -10.6544 -3.88881
-19.607 -10.8502 -3.35227
-18.4887 -11.5439 -1.9737
-19.1762 -11.0063 -3.50561
-18.6367 -11.3673 -1.31904
-18.4303 -11.2177 -2.43473
-18.4858 -11.4376 -2.76682
-18.9468 -11.5091 -2.07569
-18.1962 -11.1983 -1.24993
-17.9107 -11.1953 -0.895062
-18.4127 -10.8857 -2.52216
-17.4459 -11.2216 -0.304054
-18.1297 -11.9394 -3.74255
-17.2127 -12.648 0.0720829
-16.3023 -11.4106 0.517819
-17.198 -12.2249 -0.306115
-18.0964 -11.0151 -0.595132
-17.5291 -12.0963 -0.598652
-16.9987 -11.2962 -3.29898
-16.8091 -11.2228 -0.362384
-16.0825 -10.984 0.27673
-16.4457 -10.9173 -0.690297
-16.176 -10.27 -2.98591
-16.6658 -11.9538 -0.980863
-16.7198 -10.9446 -1.25976
-15.6363 -12.0102 1.32334
-15.9728 -11.7418 0.696048
-15.4102 -11.7694 -1.27393
-16.3987 -10.1586 -2.50146
-16.7781 -12.4025 -0.822163
-16.5776 -12.031 -2.45796
-16.0053 -12.5196 -0.335005
-15.3566 -11.7574 -2.5207
-15.275 -12.2068 -0.970691
-15.4231 -12.0496 -3.3219
-14.6782 -12.5439 -2.78708
-14.1618 -12.2813 -1.77106
-15.2839 -12.8163 -3.73068
-14.436 -12.0852 -3.27225
-15.4433 -12.8173 -3.11157
-14.5828 -12.5937 -2.55182
-13.9146 -12.5641 -3.21781
-15.0798 -13.0888 -3.47593
-13.7179 -12.1855 -2.66382
-20.0551 -10.8138 0.286989
-21.4353 -11.9732 0.419815
-19.8204 -11.6237 1.88934
-20.9176 -10.8 -1.23576
-20.9397 -11.796 0.849365
-19.4698 -11.4224 -0.83451
-19.2576 -11.3943 -0.766311
-15.5527 -10.7522 0.901068
-18.7637 -10.7924 -1.33446
-18.5811 -11.5824 -3.55712
-17.1787 -11.0531 -0.255899
-17.8643 -10.8041 -0.0274989
-18.3026 -11.3835 -3.66257
-17.3119 -11.4856 -0.376224
-18.0154 -11.4474 -3.90859
-17.2788 -11.6177 -0.297986
-18.2893 -12.189 -2.98776
-18.3723 -11.2743 -1.93891
-17.4474 -11.9157 -0.942121
-17.6318 -12.1553 0.332741
-17.1091 -11.8233 0.533169
-16.5917 -11.9677 0.735168
-16.0963 -12.37 0.0736249
-15.9673 -11.491 -0.50635
-16.1268 -11.8599 0.558801
-15.1492 -11.1554 0.250725
-15.7683 -11.9197 0.0448731
-15.7712 -11.6369 -0.849601
-15.9486 -11.4728 -1.13302
-16.3426 -12.3002 -0.488633
-15.6001 -12.5943 -2.9943
-15.6704 -12.0067 -1.86717
-14.6001 -13.2365 -1.22731
-14.4214 -12.6219 -3.77179
-14.3634 -12.7597 -2.81564
-15.2115 -12.2898 -3.13668
-20.4378 -11.131 1.35289
-20.5842 -11.4607 0.782631
-20.2613 -10.8254 0.247808
-16.9026 -9.19438 1.0768
-19.3471 -10.9 -0.717978
-19.3933 -11.4843 -0.389784
-19.5433 -10.6789 -0.334129
-20.0609 -11.6372 0.452637
-18.4018 -11.1712 0.183231
-18.4487 -10.8243 -1.0484
-18.8538 -10.0845 -2.84373
-20.406 -10.3801 -3.69799
-18.0194 -10.5725 0.77847
-17.1773 -11.6506 -2.71457
-18.5581 -10.8375 -3.39092
-17.7608 -11.7921 -3.36335
-17.2816 -10.9289 -3.347
-16.965 -11.6299 -0.813424
-16.2652 -11.1686 -0.742404
-17.4155 -10.6864 -0.892681
-16.6233 -11.8447 -0.00530799
-16.7681 -11.5876 -0.460871
-15.8078 -11.1875 -2.74243
-16.8023 -11.1379 -0.457608
-15.7767 -11.0205 0.264746
-16.4794 -11.6747 -1.50217
-16.1544 -10.7837 -2.19984
-15.5715 -11.5924 -1.90983
-16.3182 -10.7599 -1.07621
-15.505 -12.1617 -2.53024
-16.0305 -11.1654 -0.89425
-16.2739 -13.1274 -0.899691
-15.4662 -12.6217 0.111415
-15.1631 -12.4464 -0.134269
-15.0788 -12.573 -3.06499
-16.1375 -11.3358 -2.06923
-14.78 -12.0993 -3.19565
-15.0251 -13.6802 -2.08648
-20.7539 -11.3899 1.0664
-19.9751 -10.8745 0.36339
-21.3619 -10.7773 0.388325
-19.6553 -11.7497 -0.348231
-18.8601 -11.2507 -1.32647
-19.5577 -10.8809 -1.36513
-17.724 -11.1697 -0.459866
-18.3455 -11.0803 -1.18382
-17.0727 -11.6721 0.437311
-17.035 -11.6886 -0.9927
-17.7286 -10.6486 0.0871248
-17.8651 -12.0108 -0.30467
-16.7292 -11.0452 -1.0167
-17.4773 -12.6252 -0.61787
-17.1426 -11.7268 -0.220607
-15.0278 -11.3317 0.169541
-15.6917 -12.3487 -0.0439787
-15.7044 -11.8776 -1.60939
-15.6999 -11.5329 -2.0111
-15.451 -12.4878 -2.25861
-14.3158 -12.081 -3.26597
-18.6881 -10.303 0.901039
-18.4469 -11.1086 -0.246985
-19.1823 -11.131 -0.675506
-16.5748 -10.9161 -0.326582
-16.512 -10.4523 -2.3236
-16.345 -11.4748 -0.942622
-16.1024 -11.3742 -2.47135
-15.7694 -11.9622 -0.355068
-14.9687 -12.7844 -2.19039
-19.663 -10.6622 0.533111
-19.8166 -11.376 -2.10799
-19.7569 -11.6677 -0.485217
-19.6902 -10.7661 -0.173044
-17.8791 -11.7859 0.29359
-16.7065 -11.6009 -0.063188
-16.8145 -11.9455 0.00892013
-15.5512 -12.7413 -0.516738
-19.6001 -10.8553 -1.2911
-17.747 -11.7689 -3.35873
-16.6166 -12.3426 -1.6085
-20.0428 -10.9544 0.920092
-20.3003 -10.2749 -1.34813
-15.7191 -11.7621 -2.41378
-17.5303 -11.0062 -2.53522
-16.9517 -10.6665 -0.746816
-17.2847 -12.1015 -1.53883
-16.5261 -12.3784 -1.73015
-19.7348 -11.5692 -0.711461
-16.1274 -11.4106 -0.212122
-15.1457 -12.3601 -0.723899
-16.2773 -11.6639 -0.48225
-16.3006 -11.5067 0.549473
-15.564 -12.1803 -1.03642
-19.4879 -8.41371 1.71411
-20.6657 -11.5487 1.06347
-20.2045 -10.9405 0.117011
-16.0882 -9.09018 1.90402
-20.3355 -11.0659 0.678455
-20.7172 -10.7258 -0.105463
-18.9595 -10.8609 0.00914067
-19.7573 -11.3684 0.845695
-20.5677 -10.8302 -0.798999
-18.7982 -10.5594 0.523323
-17.8193 -11.2953 -0.170416
-20.2401 -10.9139 0.830772
-18.7448 -10.7133 0.604632
-20.1555 -11.1112 0.0283825
-19.31 -11.7649 0.265902
-18.0228 -11.4714 0.960291
-19.8034 -10.5876 -1.0499
-20.4599 -11.1336 -0.145231
-18.6938 -11.1613 -0.605183
-18.4721 -11.0877 0.119604
-18.4531 -10.2624 -0.657327
-18.7037 -11.3974 -0.899626
-15.6486 -10.9149 0.031655
-20.355 -10.9058 -0.509568
-17.875 -12.5387 1.28624
-21.0683 -10.8403 -0.808308
-18.3665 -10.5586 -2.52478
-18.6519 -11.6979 0.0706639
-18.9905 -11.9412 -0.965572
-18.5864 -11.4253 -0.4519
-19.3411 -11.2065 -1.87
-15.3401 -12.0324 -0.157006
-18.8883 -11.1844 -1.51184
-17.3461 -11.8461 -0.778789
-17.8908 -11.2218 -0.242391
-15.6364 -12.7431 -0.00941476
-17.9628 -11.401 -1.7704
-17.2098 -10.9514 -0.0906092
-20.255 -10.9881 -2.69222
-16.6886 -11.9357 -0.297231
-18.5911 -10.9878 -1.19331
-16.5046 -12.6909 0.112675
-19.0484 -12.1392 -1.31072
-16.1151 -12.2168 -0.096609
-20.4186 -12.0862 -1.61589
-16.6967 -10.8115 -0.571816
-16.3206 -12.4873 0.237306
-19.3653 -10.2837 -1.83202
-19.9164 -10.7895 -2.15752
-16.9963 -12.2467 -0.845309
-16.0078 -11.0693 -0.467938
-16.9001 -11.9457 -1.05284
-20.36 -11.7336 -2.50071
-17.8495 -12.0919 -1.33054
-18.4925 -11.7088 -1.47091
-17.7332 -11.5156 -1.47368
-17.7056 -11.7938 -1.20111
-16.3505 -11.3224 -0.609106
-18.6524 -10.731 -2.30775
-17.4775 -10.8867 -0.371253
-16.6949 -10.6764 -1.45966
-18.0865 -10.5134 -2.01732
-16.6928 -11.052 -1.6727
-19.7339 -11.3127 -1.37292
-16.8097 -11.3273 -0.934447
-16.2617 -12.326 -0.60725
-17.9255 -11.378 -0.00671014
-17.9363 -10.9259 -1.85209
-18.2731 -10.5833 -1.77874
-15.9149 -12.1783 -0.61261
-19.9615 -10.9444 -2.59198
-19.0227 -10.5712 -2.21942
-18.0677 -11.2087 -2.36075
-17.4061 -11.3523 -1.99355
-18.964 -11.9004 -3.36413
-19.087 -12.0431 -3.5674
-18.2253 -10.9475 -1.15779
-19.5553 -11.9401 -2.40055
-20.4997 -10.2923 -2.8581
-16.83 -11.4078 -1.67775
-15.4046 -11.1956 -0.862913
-16.3718 -11.6352 -0.476595
-17.176 -12.2126 -1.05902
-17.697 -11.8939 -2.30167
-17.2607 -11.6497 -1.09729
-17.119 -11.3866 -2.28077
-19.7081 -11.2986 -3.08694
-19.9142 -11.4983 -3.65328
-19.4046 -11.2465 -3.0005
-18.3823 -11.583 -2.31608
-18.9153 -11.8225 -2.43931
-18.1534 -11.0734 -2.88923
-18.1542 -10.9398 -2.14705
-18.8173 -10.9357 -4.1066
-15.6867 -11.0156 -1.0618
-18.4456 -10.7293 -4.73763
-17.3353 -11.0937 -1.97391
-16.9052 -11.4407 -1.74425
-17.9451 -10.9843 -2.74711
-18.3301 -11.3827 -2.7584
-15.5381 -11.8282 -0.670368
-15.7711 -12.3529 -1.03407
-17.7089 -11.3951 -3.17058
-18.406 -11.1218 -3.47963
-17.3199 -10.2191 -2.66498
-17.0203 -10.7326 -3.5041
-17.1943 -10.7999 -3.76715
-16.2339 -12.8216 -1.10973
-15.1401 -11.0866 -2.22487
-16.4142 -10.7665 -3.04717
-15.0407 -12.1215 -2.03782
-14.6765 -12.0996 -2.33147
-15.4522 -12.4625 -2.58915
-15.5623 -12.632 -2.84211
-14.4752 -11.9152 -3.28565
-14.2574 -13.0634 -2.49043
-14.8048 -12.8306 -2.97919
-15.2603 -12.3556 -3.22209
-14.6536 -12.2558 -2.77407
-15.018 -13.247 -3.24267
-15.3686 -12.7635 -3.22625
-14.8543 -11.8605 -2.61118
-15.2595 -12.574 -3.57976
-15.6247 -12.5513 -3.27916
-17.2398 -9.68018 2.0075
-16.7286 -10.1526 1.43182
-16.6545 -9.55031 1.74218
-20.9227 -10.8277 0.44061
-20.3242 -10.0938 1.1083
-21.0174 -11.0835 0.63086
-20.5005 -11.023 0.77684
-16.6425 -9.25235 1.24414
-20.6213 -10.7822 1.11335
-16.8885 -10.7825 1.49943
-20.0455 -11.2036 0.789688
-16.0391 -9.08535 1.95283
-20.3403 -11.1556 0.817261
-19.3083 -11.7919 1.60876
-19.638 -11.4177 -0.102097
-18.4562 -11.6923 0.217037
-18.7095 -11.6315 0.832168
-18.8852 -10.104 0.19846
-18.137 -10.6882 0.303008
-17.921 -10.9624 -0.385916
-19.3239 -10.7865 -1.21566
-19.5981 -10.8121 0.0179775
-20.5337 -10.4159 0.0683641
-19.5267 -11.379 0.0329796
-18.7576 -11.3826 -0.40624
-17.6304 -11.4657 1.11981
-19.6982 -11.2655 -1.60406
-17.7016 -10.8481 0.933015
-19.5613 -11.4303 0.0577423
-17.6964 -10.7543 1.28534
-16.8178 -12.3276 0.415042
-18.5655 -12.3446 -0.207787
-18.9777 -11.176 -0.986627
-20.6121 -10.7996 -1.18581
-16.6985 -11.5711 0.139707
-16.8182 -11.6939 1.51695
-18.299 -11.5796 -0.21077
-15.5508 -11.3881 0.557909
-18.0922 -10.5631 -0.489832
-18.7747 -10.3986 -1.24632
-18.3999 -10.8412 -1.45126
