-15.718 -10.5456 -0.157068
-16.0967 -10.6399 0.730455
-15.4616 -11.9491 1.72968
-19.4485 -10.823 -5.1734
-16.7278 -10.9534 -3.30569
-16.575 -10.6415 -3.33529
-17.853 -10.645 -2.48935
-15.7601 -11.8032 -3.43789
-19.6227 -11.0323 -0.242633
-16.1783 -11.3562 -2.59652
-16.1728 -10.647 -2.60787
-20.723 -9.90503 -0.52398
-18.0661 -11.6904 -0.411879
-17.2128 -9.84081 2.35137
-16.9287 -11.1075 -1.08626
-15.6321 -12.783 -2.15172
-15.5624 -11.7871 -0.815502
-16.222 -11.743 -0.135821
-15.7447 -10.6181 0.780841
-16.3469 -10.8944 0.626415
-18.2611 -9.6552 -3.1002
-17.3477 -10.7999 -2.71282
-16.6214 -10.6405 -2.31961
-15.9109 -11.3418 -3.03482
-16.4449 -11.5506 -2.68523
-18.3122 -10.2216 -0.938959
-16.2157 -11.2533 -1.7571
-19.06 -9.72409 0.158387
-16.0074 -10.9756 -2.52759
-17.5271 -11.062 -0.210492
-17.2321 -9.85475 0.297645
-16.6224 -10.7839 -1.90269
-18.2705 -9.75263 -0.0606977
-18.154 -10.6712 0.0290534
-16.9784 -10.0807 -1.0316
-17.7648 -10.3241 -2.63136
-17.4437 -10.5467 -2.99956
-16.7027 -11.3412 -2.01117
-16.9938 -10.9849 -2.00029
-19.7816 -9.5031 2.39735
-14.4478 -11.4303 -2.38227
-15.9208 -10.9712 -4.4093
-18.9767 -10.6363 -1.35571
-15.9924 -11.2667 -1.86347
-16.802 -10.6313 -2.18123
-18.6819 -11.6146 0.178333
-17.1725 -10.1106 -2.4619
-15.7054 -10.7281 -2.44055
-16.0505 -11.1722 -1.49508
-14.8065 -11.6677 -2.08188
-16.5092 -11.3964 -0.828243
-15.5168 -11.3995 -1.2541
-19.5636 -10.8012 -0.21433
-15.8563 -11.1525 -0.962124
-17.9939 -9.89261 -2.02555
-22.6004 -8.47081 1.17889
-18.6463 -9.83247 0.121154
-21.6357 -9.11129 1.43681
-22.2171 -9.93385 2.73791
-20.118 -9.58356 1.44794
-20.4636 -9.95388 1.65947
-21.0681 -9.69958 1.21241
-20.6327 -9.19141 0.353347
-17.3798 -9.22809 2.02599
-22.3367 -10.0609 0.76303
-16.6749 -9.60318 1.30629
-17.1945 -8.40335 1.91822
-16.4471 -9.59459 1.39667
-16.5702 -9.62911 1.26002
-21.1726 -10.1057 -0.656772
-21.4987 -9.45954 -2.54007
-16.0986 -9.52409 0.00734098
-19.9756 -9.85188 -0.0379086
-20.1315 -10.212 -1.33983
-21.4603 -9.99516 -5.00177
-20.3378 -10.2675 -0.11957
-20.0435 -10.6916 -1.67111
-20.7402 -10.0315 -1.95017
-19.0021 -10.0304 0.364695
-19.5109 -11.2877 0.0500355
-19.6428 -9.78206 -0.533848
-18.1135 -10.8341 -0.0352934
-19.9349 -10.4124 -1.4341
-18.3516 -9.21761 -0.696288
-19.8406 -10.4399 -4.78162
-20.6484 -10.2767 -3.71353
-18.2892 -11.1864 -1.35787
-17.1582 -10.3471 -0.33741
-19.1281 -11.2058 -2.26863
-19.1184 -11.4504 -0.493868
-19.2097 -9.58462 -3.36494
-18.1576 -10.615 -0.211328
-18.9973 -10.6632 -4.80397
-19.0033 -10.9035 -3.11788
-18.5553 -11.0246 -1.22339
-18.8501 -10.7753 -3.33575
-18.1635 -10.5738 -0.170526
-18.3674 -11.1523 -0.367841
-19.36 -11.1793 -3.41596
-19.5537 -11.5107 -4.54063
-19.572 -9.97866 -4.15949
-19.7253 -10.6813 -3.76855
-19.6394 -10.6037 -4.22088
-17.6588 -10.4421 -1.82492
-18.4225 -11.3436 -3.64892
-18.0604 -11.9151 -1.33899
-16.1047 -11.4904 -0.640591
-16.2111 -10.6419 0.32027
-17.4789 -10.5812 -1.26457
-16.874 -10.927 -1.61922
-18.3059 -11.6748 -3.0955
-16.5539 -11.5432 -0.300983
-16.7365 -10.1149 -0.508798
-16.8218 -9.79132 -0.808661
-16.346 -11.5254 -0.996375
-15.9908 -11.5274 -0.922039
-16.2343 -10.7849 -1.10615
-16.0431 -11.3303 -0.146051
-18.8536 -10.5458 -3.29893
-18.2791 -10.5561 -3.43666
-16.7989 -11.1622 -0.297274
-15.7867 -10.4394 -1.86842
-16.1157 -11.0779 -0.0264711
-15.8178 -10.8977 -2.14018
-15.3202 -10.5805 -1.54341
-16.2303 -10.6258 -3.38893
-17.3457 -10.8569 -4.09363
-15.6938 -10.7797 -1.78882
-15.9155 -11.2179 -1.13212
-15.6186 -10.8253 -0.303192
-15.2505 -11.4659 -2.74081
-16.4697 -10.7174 -4.0545
-16.2129 -12.2865 -3.80997
-14.9126 -11.1724 -4.11562
-15.874 -11.8199 -3.68327
-15.8233 -11.8794 -3.43478
-15.9883 -10.9927 -3.68711
-15.491 -11.6377 -3.23789
-15.1246 -11.8413 -3.88433
-14.7034 -12.1501 -1.47829
-15.3541 -11.5095 -3.73681
-14.6389 -12.0682 -3.18202
-14.1945 -12.155 -2.82282
-16.5489 -11.6057 -2.65226
-13.8877 -12.8221 -3.49812
-14.5932 -11.9251 -4.2116
-14.3789 -11.9775 -3.95384
-15.5687 -11.7037 -3.38839
-15.3344 -12.4209 -2.62861
-15.248 -11.8086 -3.90648
-15.2052 -12.3495 -4.1081
-13.9301 -12.4499 -4.44027
-20.5477 -10.7359 1.52485
-22.0157 -10.6655 1.99312
-22.1332 -10.6066 0.428698
-21.9389 -10.0397 -2.19821
-22.3466 -10.3363 -1.99671
-20.1228 -10.5478 0.0723348
-19.6036 -11.197 0.195567
-20.3232 -9.93307 -1.31213
-18.2258 -11.3186 -0.854224
-20.3749 -10.6479 -2.5301
-21.4405 -10.7507 -3.78856
-19.6233 -10.6022 -0.981507
-16.9665 -10.7267 0.510025
-20.6798 -10.1155 -3.49816
-19.9145 -10.2416 -5.61738
-19.7823 -10.7126 -5.52228
-18.4938 -11.5252 0.633659
-17.9871 -11.248 -1.6511
-17.5471 -11.4332 0.45856
-18.1677 -11.3672 -4.22659
-16.8919 -11.0851 -0.565323
-17.186 -11.2699 0.652665
-17.4607 -11.7962 -0.339573
-16.8474 -11.2919 -1.98629
-18.8005 -10.4928 -3.10473
-17.3116 -11.556 -0.589486
-17.2834 -11.7313 -0.595332
-17.1819 -10.8972 -0.222679
-16.3113 -11.0317 0.585248
-16.7071 -11.3387 -0.00810365
-17.494 -10.3388 -3.12279
-16.2981 -9.703 -2.3644
-17.0228 -10.4703 -2.94808
-15.9552 -10.5794 -0.245339
-18.2874 -10.3852 -4.34875
-15.9815 -10.9314 -1.62426
-15.9465 -11.2464 -0.0469148
-18.3779 -10.9008 -3.96896
-16.4914 -10.7902 -3.37726
-15.6668 -11.7129 -1.3549
-16.7912 -11.232 -0.176169
-16.0051 -11.8467 -1.0154
-16.4152 -11.3102 0.105133
-15.9465 -11.4036 -1.11693
-16.8516 -11.514 -1.15843
-16.3552 -10.7205 -0.453787
-16.5873 -11.6051 -0.345442
-15.8743 -12.2771 -0.657456
-16.6298 -10.7138 -1.81561
-17.6775 -11.1736 -3.77522
-16.0081 -10.8069 -1.20016
-15.4888 -11.3426 -2.75986
-16.2254 -10.4583 -1.92025
-15.7786 -12.0891 -1.39578
-15.7054 -11.7314 -3.78088
-15.4566 -11.9538 -4.23672
-15.184 -10.9782 -4.28861
-15.7313 -12.1954 -2.57439
-15.3845 -12.8518 -3.64428
-15.0263 -11.886 -2.57562
-15.6779 -13.5657 -3.26415
-14.9423 -11.691 -3.26959
-15.789 -11.4961 -3.99701
-13.9409 -12.4369 -3.03676
-14.081 -12.621 -3.58438
-22.527 -11.7945 0.00561226
-21.0981 -9.36599 1.08567
-22.0903 -9.7755 -1.74058
-19.6223 -9.39483 0.811997
-20.8173 -10.7119 -1.62945
-20.8197 -10.6061 -2.02305
-18.0302 -9.75235 0.0523651
-20.6692 -10.6861 -2.5503
-18.0348 -10.7077 0.139799
-18.4194 -10.0171 -0.943642
-20.3602 -10.0833 -2.87825
-18.9569 -11.0743 -2.19429
-19.2684 -11.5145 -2.5845
-17.0563 -10.4649 1.57793
-17.997 -11.077 -1.59763
-17.9902 -11.3206 -0.301693
-17.6065 -9.90782 -1.89727
-18.5434 -11.3541 -0.736897
-16.8886 -10.4162 -0.376323
-18.0641 -11.7988 -0.5288
-17.4634 -11.4287 0.332675
-18.9749 -10.637 -4.43768
-17.5902 -9.50248 -1.125
-17.205 -10.9032 -0.638717
-16.2852 -10.3637 -0.951556
-18.6501 -10.4465 -4.5171
-17.1696 -9.90573 -1.68833
-16.8269 -11.936 0.797435
-17.6112 -10.5156 -2.55571
-16.5524 -11.101 -0.60999
-16.419 -11.3757 -2.09322
-17.1381 -11.6241 -1.11552
-16.8435 -11.2892 0.151765
-16.8342 -10.8739 0.293355
-18.8274 -11.3455 -3.53331
-17.6254 -11.3311 -1.25909
-15.6361 -10.727 0.935787
-16.5761 -11.1329 -0.787525
-17.3464 -10.4635 -1.69231
-15.8286 -11.7613 -0.158325
-17.7013 -10.1979 -3.18064
-16.051 -11.4296 -2.17484
-17.1039 -10.4958 -4.4233
-16.3791 -10.7867 -1.22022
-16.7779 -10.5907 -2.41299
-17.0817 -11.858 -3.77042
-16.2033 -10.9292 -1.76637
-16.2563 -11.5832 -3.78056
-15.2869 -11.7426 -2.03694
-15.0022 -11.5724 -0.198097
-15.0704 -11.0855 -2.84058
-15.2041 -11.0247 -2.96083
-15.6134 -11.4295 -2.18685
-14.5266 -12.5757 -2.92762
-13.3279 -12.3703 -4.16068
-22.8825 -10.2702 2.22655
-21.9646 -9.597 1.2151
-20.6533 -9.41218 0.491722
-20.151 -10.2966 -1.4574
-20.0305 -10.0366 -2.40501
-19.9796 -11.3024 -2.06815
-18.1757 -10.8909 -1.39456
-16.7918 -11.1992 1.08803
-17.4453 -11.1866 -0.20311
-17.1813 -11.4386 0.509734
-19.0604 -10.845 -2.78011
-18.1737 -10.9173 -3.88489
-17.1359 -12.0777 -1.18182
-17.0908 -11.4305 -2.81388
-17.1949 -11.0775 -0.640383
-15.8549 -11.2707 -2.36704
-16.2476 -10.6208 -1.1078
-15.7946 -11.1279 -1.84832
-16.571 -11.9615 0.747933
-15.676 -11.3228 -0.553918
-17.4057 -11.4918 -4.11171
-15.295 -11.572 0.419862
-15.3881 -11.1185 -0.979783
-15.5001 -11.0879 -1.25369
-15.9145 -11.9257 -1.8713
-15.9996 -11.529 -3.20456
-16.0292 -11.4584 -4.12676
-16.0269 -11.9193 -2.97041
-15.7744 -10.8122 -3.0609
-15.831 -11.4056 -3.78664
-15.7359 -11.8549 -3.77461
-15.6675 -12.085 -2.27935
-15.6628 -11.6236 -2.95831
-15.2589 -12.448 -3.0555
-14.3547 -11.8562 -3.01152
-15.1562 -11.6976 -2.62789
-19.1437 -10.6206 -0.0593485
-20.2981 -11.5934 0.215587
-20.424 -11.0515 -1.06137
-18.6555 -10.7358 0.788496
-19.7179 -10.0857 -0.783791
-19.9216 -10.0018 -0.849042
-17.3558 -11.1468 -0.12199
-19.5966 -10.6934 -3.52093
-18.2519 -10.8348 -1.73629
-18.1857 -10.3319 -2.76668
-17.4424 -11.4773 -0.969578
-17.1171 -10.814 -0.946684
-16.0562 -11.0743 0.599853
-17.8575 -11.9311 -2.03902
-17.2911 -10.6432 -2.64814
-16.9503 -10.8927 0.315333
-18.0509 -11.2643 -4.74482
-16.3257 -10.982 -0.816394
-16.9221 -11.0742 -3.58106
-15.0887 -11.5946 -0.671988
-15.8717 -11.2708 -4.06675
-16.4998 -10.7403 -2.56447
-16.5925 -11.6628 -3.96949
-14.9529 -11.9248 -2.37187
-20.9279 -10.3476 0.499049
-16.7145 -9.32791 1.98437
-18.0482 -10.1009 0.273041
-17.7344 -10.776 -0.941979
-17.2027 -11.0519 -2.09266
-17.7843 -10.7977 -2.10632
-16.2165 -10.7525 -0.585088
-16.3908 -11.5889 -1.94011
-16.3049 -11.3075 -0.84054
-15.4619 -11.6327 -3.19726
-20.1128 -9.97055 0.28111
-19.5527 -10.5672 -0.38761
-19.5248 -10.7957 -1.24214
-18.7943 -9.83207 -0.529178
-19.2532 -9.48321 -0.0519963
-17.7791 -9.90457 -1.20882
-17.7185 -10.5809 -0.761186
-17.1415 -11.7469 -1.31651
-16.8387 -11.1662 -1.3285
-17.4341 -10.9595 -1.45676
-17.3151 -11.5522 -1.1891
-16.343 -11.3705 -2.58657
-15.6047 -11.115 -3.43675
-15.1955 -11.3181 -4.33185
-15.6283 -11.4864 -2.6609
-15.5765 -12.6991 -1.09816
-14.4622 -12.0236 -2.59593
-14.0622 -12.3361 -4.11042
-19.9799 -10.2341 -1.76272
-18.3156 -11.0056 -1.17275
-17.4688 -10.8932 -1.5727
-20.2077 -10.7115 -1.66337
-15.9837 -11.6898 -1.71677
-16.9078 -11.0519 -2.60347
-15.3697 -10.615 -0.587481
-15.0206 -11.7005 -1.55103
-16.6152 -10.9843 -2.43344
-15.6509 -11.5767 -0.427858
-17.0336 -11.3817 -1.37464
-17.1016 -11.0387 -1.78464
-16.8525 -12.1881 -0.46504
-15.3587 -11.9895 -2.14825
-15.3157 -11.7205 -1.94207
-15.2083 -11.8322 -2.74609
-15.3195 -10.7505 -2.48211
-15.2729 -11.1295 -2.4743
-16.6635 -10.8344 -0.218091
-15.3856 -11.3374 -2.10975
-17.1687 -10.0505 0.84446
-19.351 -8.63155 1.84641
-21.0717 -10.4166 2.61926
-22.0368 -9.92142 0.885043
-20.8141 -10.499 0.711395
-15.2754 -8.91734 1.33406
-16.2173 -9.50338 0.677419
-21.1174 -10.3991 0.212772
-20.3638 -11.232 -0.410028
-18.119 -10.4749 0.736847
-20.6589 -10.7514 0.466504
-18.7108 -10.5243 0.691092
-19.9934 -11.2042 -0.235033
-19.1718 -10.8239 0.499246
-20.1703 -10.551 0.156634
-20.2304 -10.7651 -0.0820043
-20.9324 -10.3915 -0.27484
-21.8557 -10.634 -0.733807
-20.4876 -10.8601 0.50549
-18.5038 -11.3462 -0.321747
-17.0446 -12.0774 0.593916
-15.712 -11.2156 0.671579
-16.4984 -11.7952 0.47332
-20.024 -10.3983 -1.64027
-20.5341 -10.276 -1.41018
-16.4171 -11.3527 -0.503735
-20.6314 -9.97467 -1.13134
-16.696 -10.7879 -0.954629
-16.8664 -10.0041 -0.47476
-21.586 -10.0616 -2.045
-15.9479 -10.8597 -0.10456
-19.1226 -11.1999 -1.65644
-17.3822 -10.9049 -1.31106
-18.1431 -9.92227 -0.791431
-17.7629 -10.2405 -1.02393
-17.5803 -10.8442 -0.20859
-19.6019 -10.4171 -1.00251
-15.9208 -11.7207 -0.441435
-16.0515 -11.3044 0.555097
-17.6739 -10.878 -0.807832
-16.6901 -11.6717 -0.701984
-17.141 -11.7639 -1.23292
-19.6836 -10.6138 -1.77371
-19.4917 -10.9076 -1.62269
-16.1166 -10.7449 0.259996
-15.9254 -11.1929 -0.141075
-17.0665 -11.47 -0.846839
-21.5436 -10.1308 -3.38456
-21.5759 -10.0101 -3.23297
-16.2268 -10.8905 -0.68964
-16.7249 -11.3433 -0.30906
-16.385 -10.3972 -1.14945
-17.4418 -11.0426 -1.17088
-18.7174 -10.7106 -2.29751
-16.3194 -10.4507 -0.484997
-19.7992 -10.6269 -2.4628
-19.7966 -11.0133 -3.46418
-16.917 -10.7845 0.224533
-16.548 -12.4302 -1.22318
-19.9724 -10.7804 -2.56068
-16.5141 -11.4402 -1.39316
-19.5639 -11.2191 -2.3282
-19.3299 -11.0108 -2.14462
-20.0921 -10.8278 -3.17217
-21.7849 -9.53562 -3.72641
-17.7813 -10.7793 -1.28712
-17.1141 -11.0834 -1.92689
-18.0914 -10.7293 -2.00273
-17.997 -9.90671 -1.13736
-16.3882 -11.5006 -3.73909
-18.278 -11.4406 -3.61403
-18.7321 -11.4246 -3.14068
-15.1581 -11.9089 -1.68002
-15.7157 -11.4405 -1.04705
-20.5686 -10.6222 -3.5716
-19.5447 -10.2386 -2.80866
-19.3533 -9.96415 -3.4954
-19.164 -11.2099 -4.19677
-19.0494 -11.0148 -3.22633
-20.4763 -10.3664 -3.98949
-20.618 -10.3021 -4.34611
-19.9628 -11.3998 -4.42889
-16.2147 -11.4586 -1.8092
-16.3383 -11.0511 -1.88308
-18.9881 -10.3087 -3.97992
-19.1734 -10.6325 -2.89494
-19.3326 -10.7858 -4.25357
-19.5477 -10.9518 -5.16113
-19.433 -11.4942 -4.00391
-15.3152 -12.4981 -1.34846
-18.924 -11.165 -4.1929
-17.9974 -11.2683 -3.51667
-14.2879 -12.5291 -1.81704
-15.3024 -11.3129 -2.26399
-18.0079 -10.6737 -4.78323
-17.5941 -10.9139 -3.91599
-15.0092 -12.6951 -1.57336
-15.8392 -11.7985 -3.06483
-14.9865 -11.4647 -2.45376
-17.5057 -11.6292 -3.53428
-18.3027 -10.8818 -3.25269
-16.5051 -11.0782 -3.29228
-15.3251 -12.4965 -2.91038
-15.9552 -11.9193 -2.561
-15.5294 -12.2975 -2.47298
-14.6506 -12.4509 -2.91158
-15.1731 -12.5646 -3.08793
-15.3292 -12.2662 -3.68213
-16.5703 -12.5787 -4.50199
-15.7208 -12.1356 -2.27902
-14.8924 -11.8491 -3.35854
-16.6121 -11.8678 -4.26014
-15.4708 -11.6418 -2.08872
-15.2519 -11.1029 -3.36281
-15.0246 -11.9308 -2.79456
-15.6432 -11.4893 -3.30461
-15.0836 -12.5583 -3.80545
-16.2759 -12.7875 -3.33833
-15.0203 -11.7226 -3.21522
-16.3445 -11.6402 -3.72913
-15.5347 -11.6042 -3.94
-15.6157 -11.8275 -3.69488
-15.094 -11.9753 -3.47399
-14.4977 -12.1639 -3.93131
-14.658 -12.5726 -3.78738
-15.1414 -11.6661 -4.93999
-14.6643 -12.4717 -3.76735
-14.3477 -12.2985 -3.11173
-13.987 -12.5744 -4.01611
-20.2207 -9.90575 1.80565
-21.6788 -10.2936 1.87946
-17.109 -8.9203 0.769521
-20.5837 -9.97421 0.573497
-21.2148 -10.3818 1.60733
-17.4674 -8.71787 1.12887
-16.7574 -9.55215 1.18919
-15.6596 -7.97625 1.28978
-22.4545 -9.2882 0.21769
-18.4821 -10.8154 -0.374374
-20.4523 -9.69748 -0.00123119
-18.0328 -11.2639 0.888988
-17.4495 -11.2182 0.0346846
-19.5208 -10.6122 0.787888
-17.8266 -10.2262 0.36718
-20.7831 -10.0799 -0.169869
-16.2244 -10.9491 0.587716
-16.2183 -11.7644 1.02187
-15.4974 -9.7907 0.99728
-17.6749 -10.7569 -0.48987
-17.9177 -10.0816 -0.468709
-16.4312 -11.0937 -0.688669
-17.4581 -12.1538 0.101566
-17.4236 -10.8915 -0.184239
-17.5752 -10.8185 -1.25074
-16.5854 -10.6905 -1.21777
-16.5141 -10.8548 -1.13608
-16.5923 -11.6204 -0.653484
-15.422 -10.998 0.104865
-15.7426 -11.0321 -0.491888
-16.0732 -11.6851 -0.0127743
-15.5609 -11.2829 -0.851261
-17.599 -10.2684 0.5294
-17.0154 -10.7074 -0.92631
-16.4654 -11.8115 -0.920084
-16.1703 -10.3643 -0.134376
-17.9016 -11.3008 -1.62213
-16.5136 -11.5638 0.153095
-17.381 -12.2092 -1.94754
-16.056 -11.6585 -0.217252
-17.1655 -9.46242 -0.635282
-17.4661 -11.4558 -0.345955
-16.9029 -10.6457 -0.895079
-16.9609 -11.5701 -1.77446
-18.1817 -9.54115 -1.55041
-19.486 -11.1918 -2.30618
-21.0067 -10.0911 -2.38644
-15.0057 -11.779 -0.918745
-16.3973 -10.6983 -1.02133
-17.9139 -11.0215 -1.52049
-20.2742 -9.9261 -2.74752
-16.0383 -11.8099 -1.2345
-16.2122 -11.3637 0.108285
-21.4266 -9.89596 -3.56169
-18.8301 -12.0838 -2.16188
-19.6181 -10.7456 -2.9125
-17.3529 -10.5125 -1.40282
-16.0063 -10.3562 -0.830968
-20.934 -11.2594 -1.39742
-16.6338 -11.0528 -0.702367
-15.8352 -10.3921 -0.685391
-15.6833 -11.1248 -1.57639
-20.1617 -10.945 -2.43805
-18.4192 -10.7434 -2.64124
-19.4673 -10.7469 -3.82358
-20.4621 -11.069 -2.52321
-17.181 -10.5201 -2.48058
-17.4823 -11.6887 -2.04345
-16.3119 -9.79821 -2.62493
-16.5633 -11.3165 -2.69214
-17.0971 -10.8589 -2.11834
-15.7532 -11.495 -1.38647
-16.834 -11.2303 -2.08125
-18.8682 -10.3484 -3.19654
-17.9402 -10.8176 -3.10593
-19.4963 -9.91176 -4.01766
-19.8733 -10.6519 -3.89789
-16.4467 -10.1451 -1.38493
-15.6709 -11.8053 -1.67015
-20.5285 -10.8936 -3.84284
-20.3462 -11.285 -4.92863
-16.6185 -11.0341 -2.02694
-19.5508 -10.4045 -4.25854
-21.0913 -10.9621 -4.03628
-17.3163 -11.5432 -2.65912
-16.9351 -10.7298 -1.79337
-18.8782 -9.81719 -3.1588
-15.6854 -11.0712 -1.56587
-16.557 -10.8981 -2.56021
-15.6563 -10.7352 -1.8518
-16.3288 -10.5298 -2.80527
-16.1183 -11.0509 -1.54589
-18.289 -11.1449 -4.09618
-16.8816 -10.968 -2.20462
-19.2725 -10.0202 -4.14978
-17.5218 -11.0701 -2.25363
-15.4782 -10.865 -2.79025
-18.897 -11.471 -5.45434
-15.1322 -11.8991 -1.29887
-16.4013 -11.4676 -3.50282
-18.0409 -11.146 -2.48811
-18.8383 -11.1967 -5.33899
-17.7486 -10.9914 -3.50256
-16.4568 -10.7939 -4.15916
-17.7187 -11.8254 -3.18273
-17.9881 -11.3321 -4.28097
-17.7256 -11.2882 -3.84754
-16.9959 -10.7293 -3.92749
-16.5773 -11.7284 -4.29881
-15.7351 -11.5973 -3.00177
-15.6364 -11.5939 -3.61359
-15.9584 -11.3556 -4.00415
-15.4843 -11.9179 -3.47616
-14.9846 -12.8404 -3.57317
-14.8392 -12.5566 -2.9954
-15.0403 -12.1813 -2.72752
-15.3505 -12.6432 -3.34213
-14.6897 -12.0858 -3.57512
-15.4903 -12.0041 -4.2038
-14.8436 -12.4289 -3.30513
-15.1383 -12.1573 -3.38549
-15.8096 -11.2263 -3.94284
-14.9621 -11.7928 -2.55141
-14.092 -11.6217 -3.64457
-14.7989 -12.8409 -3.89833
-14.0653 -12.5851 -3.84867
-14.8539 -12.2018 -3.66126
-14.6791 -12.0883 -3.30012
-15.2135 -12.2771 -3.21099
-15.8151 -8.28528 2.49396
-21.0212 -8.55001 1.16975
-20.6886 -10.8527 1.01681
-20.5422 -11.2934 0.179859
-19.0264 -9.64017 1.39009
-20.488 -11.4398 0.890387
-19.4129 -11.1931 -0.119504
-16.6239 -11.5294 0.945248
-15.0707 -11.7837 0.420892
-16.256 -10.5522 1.10593
-15.8772 -12.0543 -0.167152
-16.307 -11.0519 -0.055408
-20.1534 -10.5689 -1.1564
-20.2419 -10.0887 -0.3824
-18.5558 -10.6079 -0.708741
-19.035 -10.0159 -0.771928
-16.9754 -11.1571 0.45333
-17.9385 -10.7134 -0.446738
-17.6571 -11.0706 -0.855321
-17.0323 -10.7871 -0.183056
-17.6362 -11.4547 -0.0324633
-15.9975 -11.082 -0.443964
-16.9372 -10.3295 -0.518957
-20.3139 -10.1355 -1.93971
-18.3192 -11.6737 -1.1066
-19.7515 -10.8853 -2.32651
-16.1962 -11.2988 -0.138681
-15.9767 -9.87185 -0.075615
-18.1018 -10.5684 -1.34706
-16.1057 -11.0298 -1.20385
-21.711 -9.92947 -2.75483
-15.8415 -10.6228 -0.726113
-21.2092 -10.2774 -1.92958
-16.3267 -10.7441 -0.828092
-15.5656 -11.6097 -0.264966
-17.1474 -11.3897 -1.23638
-15.7188 -11.6645 -0.544248
-16.0865 -10.9241 -1.18619
-19.4102 -11.323 -2.58938
-15.0326 -11.4376 -0.783948
-16.7441 -10.8336 -0.406227
-19.8999 -10.5861 -1.12742
-19.2608 -11.0731 -1.72654
-18.2354 -11.6958 -2.0704
-17.5099 -10.8008 -2.53176
-19.8726 -11.1234 -2.897
-16.3529 -11.8335 -1.55829
-19.5177 -10.8394 -3.76376
-16.1978 -11.2639 -2.09525
-16.7462 -11.8325 -2.04573
-17.3243 -10.7788 -2.27651
-21.0174 -10.6559 -3.4613
-19.5468 -10.607 -3.49956
-15.6168 -10.9893 -2.22552
-16.6349 -11.611 -2.40421
-20.514 -11.121 -4.32638
-15.7405 -10.764 -2.18919
-16.2586 -10.7655 -2.46575
-18.9481 -10.6972 -3.60576
-19.9661 -11.0526 -5.16608
-15.268 -9.88502 -3.1852
-14.8368 -12.1379 -2.15795
-19.7769 -10.7066 -4.98297
-18.0048 -12.1638 -4.35841
-17.0057 -10.2883 -3.35595
-18.904 -11.608 -4.51944
-16.0865 -10.5371 -2.60034
-17.5965 -11.4225 -4.27972
-17.6401 -11.6804 -4.08007
-14.9133 -11.835 -2.94241
-16.0584 -12.1424 -3.3995
-15.2957 -12.0853 -2.96312
-15.5186 -12.2532 -4.49442
-14.4045 -11.6387 -3.1339
-15.1548 -12.5173 -3.0157
-15.0707 -11.9374 -3.73168
-14.642 -11.4999 -3.60347
-14.0579 -11.971 -3.75314
-14.7923 -11.917 -3.69091
-14.3583 -13.0672 -3.33163
-20.7892 -9.70787 1.77819
-20.8531 -10.7107 1.59062
-20.3851 -10.3815 1.20626
-19.5074 -10.1607 1.06149
-17.8744 -9.42537 0.218998
-20.3748 -11.6088 -0.466644
-17.017 -11.9439 0.940651
-17.6553 -10.9907 0.242488
-17.4242 -10.0544 0.806347
-20.5424 -10.9899 -1.44917
-20.8293 -11.0474 -0.851267
-14.7854 -10.8031 1.00098
-19.2346 -10.6882 -0.793266
-16.5134 -10.2523 -0.493368
-18.3673 -11.5305 -0.67637
-16.2735 -12.4369 -0.552286
-18.4918 -11.2908 -0.25183
-16.7142 -11.5 -0.276421
-18.3472 -11.779 -0.979203
-16.9347 -11.4628 -0.705978
-17.0812 -9.99895 -1.44025
-17.3208 -11.5777 -1.05392
-17.8225 -11.3704 -1.37147
-16.9396 -10.6765 -0.86588
-19.7802 -10.5655 -2.33366
-16.1593 -12.3912 -1.98119
-16.0731 -11.7069 -0.708941
-15.9358 -10.7643 -1.61884
-15.6791 -11.2072 -1.62174
-17.8156 -10.9608 -1.00104
-17.1267 -10.8193 -1.96468
-16.8092 -10.9292 -2.05346
-17.1931 -11.1278 -1.50227
-16.3062 -12.1604 -1.17862
-16.0428 -11.0401 -1.51212
-15.459 -11.4716 -2.55315
-16.8333 -10.3969 -2.51831
-16.0209 -10.7533 -2.5166
-15.9252 -11.4039 -1.43881
-18.0299 -9.98267 -3.79278
-18.9532 -11.278 -4.62084
-15.7084 -11.1299 -1.92369
-15.5613 -10.6908 -2.55448
-15.2764 -11.4594 -1.65695
-16.1948 -10.4996 -2.79469
-19.0661 -10.9874 -3.02493
-17.2861 -9.79994 -3.42061
-18.0203 -10.2672 -4.55299
-17.7688 -10.1692 -4.13708
-15.0826 -12.0629 -2.92286
-16.1463 -11.5108 -4.45262
-14.5017 -12.522 -2.95332
-15.9717 -11.7152 -4.60348
-15.3122 -12.3708 -3.45624
-14.7642 -12.3197 -3.4136
-14.8345 -12.1596 -4.3968
-13.6079 -12.7697 -3.48401
-22.1335 -9.09941 0.657688
-17.3344 -11.2494 0.391036
-19.4933 -11.2833 -0.626014
-16.7374 -11.185 0.41426
-15.7422 -11.1697 0.426396
-15.6734 -11.7934 -0.21982
-15.7499 -11.7729 0.0737592
-17.3689 -10.457 -1.45266
-15.7724 -10.9465 -1.86974
-15.3804 -11.7077 -1.6731
-15.8872 -11.3092 -1.33393
-16.1618 -11.4118 -1.18942
-14.8062 -11.2351 -0.998944
-16.9808 -10.7728 -1.14178
-16.0075 -11.1378 -0.589509
-16.2381 -12.2417 -0.696377
-15.9903 -10.9233 -1.68049
-15.989 -10.2956 -3.01427
-16.4591 -10.4394 -2.21741
-15.0075 -12.5845 -1.52765
-19.843 -10.9477 -4.42901
-15.0078 -11.6914 -2.1796
-17.2525 -11.4865 -3.92364
-18.1866 -11.6823 -4.50081
-18.3361 -11.3887 -4.08011
-16.0907 -10.026 -2.43521
-18.1871 -10.4265 -4.03009
-15.8514 -11.1436 -3.2267
-15.4153 -12.2615 -2.26696
-14.6376 -11.432 -2.68831
-18.2301 -11.9802 -4.98786
-15.8677 -11.0383 -3.79132
-15.9327 -11.0541 -3.76143
-15.1735 -10.9805 -3.76758
-16.5621 -11.9802 -4.04109
-15.8083 -11.8178 -3.40865
-20.9017 -11.0536 1.74285
-20.0827 -10.9004 0.353961
-19.0022 -10.2132 -1.27709
-19.4711 -10.2837 -0.352137
-19.8097 -10.1135 -0.0900757
-16.0693 -10.642 0.496017
-17.0759 -11.649 -0.0473086
-17.4087 -10.8503 -0.517684
-17.3071 -11.0928 0.171048
-17.6249 -10.2454 -1.24121
-20.3011 -9.73938 -2.61204
-16.8316 -11.2007 -1.49702
-15.6246 -11.9278 -2.40739
-15.7297 -11.5076 -1.38838
-16.3496 -11.0473 -2.27314
-15.4089 -11.8383 -2.46748
-17.0382 -10.6351 -2.90445
-16.4021 -10.6882 -3.76322
-16.0993 -10.7177 -2.84609
-17.1144 -11.1637 -2.69149
-15.8057 -11.4868 -2.67854
-17.3735 -12.0315 -4.57507
-15.7913 -12.4164 -4.25601
-15.4928 -12.4295 -3.14016
-22.214 -9.57762 2.06449
-20.8448 -11.4807 -0.340825
-19.0016 -10.1641 -0.23124
-20.0828 -10.4881 -0.392002
-18.416 -10.9495 -0.114096
-19.6848 -10.8328 -1.0145
-17.8916 -9.45185 -0.0731054
-15.96 -10.3076 -0.660898
-17.9506 -10.5853 -1.58632
-16.8999 -10.6605 -1.21921
-16.1874 -11.7373 -0.644846
-16.0175 -11.822 -0.773117
-15.9403 -11.555 -2.09007
-16.0768 -10.2913 -3.12852
-17.5958 -10.1737 -3.33882
-15.8063 -11.4074 -1.72053
-15.855 -11.543 -2.7829
-16.1947 -10.8561 -4.00836
-14.4336 -11.2505 -3.12438
-16.5502 -11.1127 -1.59675
-16.3062 -11.1234 -1.53132
-17.2386 -11.3061 -1.60772
-17.2428 -11.2054 -2.18966
-14.0063 -12.3485 -2.85351
-19.8058 -10.8172 -0.296404
-17.4175 -12.2902 -1.91262
-16.3203 -10.834 -1.42134
-16.7684 -10.8298 -1.66914
-16.0042 -11.3583 -1.85818
-16.6446 -11.7089 -1.64308
-15.9102 -11.5734 -1.81698
-17.7299 -11.0212 -1.43441
-16.4763 -11.5402 -0.904878
-15.164 -11.096 -0.570903
-16.7124 -10.6528 -2.44741
-15.6187 -11.9172 -2.06292
-22.0337 -10.5659 0.810034
-15.6275 -11.2547 0.753614
-15.8976 -11.8409 -2.76091
-14.9518 -12.2967 -3.38485
-13.9698 -11.579 -2.91905
-14.1413 -13.3755 -4.04145
-17.4836 -12.2418 -4.41465
-16.9875 -11.0107 -4.38328
-17.7862 -11.1213 -4.13523
-15.5132 -12.2822 -3.5562
-14.2591 -12.1968 -3.40713
-17.5285 -10.9782 -4.46416
-18.1798 -10.4882 -3.60724
-14.8843 -11.4796 -3.28293
-20.4235 -9.34125 -4.40853
-15.8497 -12.4581 -3.3852
-15.3767 -12.0071 -2.68845
-20.3055 -10.1443 -4.64965
-19.1872 -10.0769 -4.24524
-19.2599 -11.3559 -3.85637
-15.947 -11.9016 -3.51876
-19.0504 -10.7261 -3.68137
-21.0636 -10.759 -4.42863
-15.9405 -11.7415 -3.01473
-15.2288 -12.2039 -2.59201
-20.0663 -10.0621 -4.3043
-16.1664 -12.3679 -2.20757
-20.6638 -10.4855 -4.15841
-19.94 -10.8167 -4.34423
-15.5291 -11.7953 -2.44864
-16.8295 -11.323 -3.18795
-20.1499 -11.4754 -3.25724
-19.5571 -11.0867 -3.69078
-18.948 -11.5248 -3.54956
-21.8449 -10.2004 -3.55562
-19.2776 -11.5722 -4.02749
-19.419 -10.9808 -3.67241
-16.5449 -10.955 -2.81623
-16.6119 -11.5054 -1.9719
-18.6895 -11.4524 -2.18282
-20.3424 -10.3945 -2.39498
-19.9734 -11.1389 -2.92714
-18.8156 -11.8445 -3.1394
-20.2831 -10.957 -2.68375
-20.5191 -11.225 -2.92625
-20.2327 -10.3404 -2.64021
-19.8005 -9.49257 -2.60238
-19.4532 -10.1457 -2.41824
-19.0855 -10.5841 -2.71543
-19.1663 -10.1165 -1.96517
-20.2017 -11.1085 -1.19904
-21.3851 -10.2727 -1.45422
-19.1726 -11.2186 -2.26223
-18.7739 -11.722 -1.32858
-20.3221 -9.63002 -1.48873
-19.2537 -9.83701 -0.693199
-20.105 -9.74147 -0.973823
-16.1624 -11.449 -0.507957
-18.1627 -11.239 -1.712
-18.204 -10.5117 -0.834152
-16.7219 -11.0767 -0.711587
-18.7671 -10.7556 -1.15869
-16.7566 -10.8613 -1.13888
-16.4145 -11.4555 -0.833951
-14.9619 -10.8035 -1.57925
-19.6882 -10.7822 -0.985893
-17.5235 -11.2189 -0.292891
-19.2878 -10.5058 -0.882418
-15.8846 -11.9119 -1.31394
-17.1509 -10.9676 0.104688
-16.7475 -11.8245 0.494359
-16.686 -11.4133 -0.366505
-16.2392 -10.8231 0.131698
-16.7076 -10.9614 0.0107609
-16.9706 -10.4355 0.934475
-15.8269 -10.8887 -0.71379
-16.7753 -10.7495 -0.516579
-20.6024 -9.61023 0.458596
-19.98 -10.2369 0.0668298
-18.8977 -11.0286 0.880096
-21.4683 -10.6549 0.0615013
-20.5752 -10.9252 0.327364
-16.8791 -10.5484 -0.452851
-17.2156 -10.0629 1.5187
-20.867 -10.0663 1.06406
-20.6466 -10.932 1.12128
-13.9642 -11.7826 -2.49046
-15.9674 -11.1212 -3.16702
-19.3858 -10.9557 -4.5355
-16.8199 -12.214 -3.4655
-14.5089 -12.0327 -2.6825
-18.9256 -11.3686 -3.99961
-20.4183 -10.984 -4.79759
-14.3167 -12.8227 -3.20959
-15.2853 -12.2553 -3.6577
-19.495 -9.90941 -3.79612
-19.2679 -10.3894 -3.45581
-15.9207 -12.4837 -2.16861
-18.551 -11.7978 -3.49435
-13.8192 -12.4637 -3.1222
-14.6869 -12.3378 -2.82041
-19.5588 -11.0042 -3.31228
-18.4694 -12.4108 -2.82108
-15.8143 -11.0489 -2.79279
-15.7504 -11.5273 -2.67797
-16.0755 -11.5867 -2.68313
-19.5964 -10.5087 -3.51557
-15.3077 -11.7509 -1.75011
-19.5011 -11.0307 -2.55832
-18.7867 -11.118 -2.67871
-19.8532 -10.9069 -2.53954
-15.6075 -11.3034 -1.92079
-16.4406 -10.7465 -2.77077
-15.7686 -12.3431 -1.46535
-15.9231 -10.3122 -2.17423
-16.295 -10.3107 -2.5518
-15.8713 -11.5635 -1.70549
-15.3837 -11.8904 -1.03223
-20.4385 -10.081 -1.43179
-15.5693 -10.817 -1.003
-15.8019 -12.4128 -0.949638
-17.855 -10.7205 -0.901801
-14.9998 -11.8023 -0.848987
-18.6197 -10.7711 -0.724834
-16.015 -11.1707 -0.202179
-16.4318 -12.3273 -1.6413
-17.5601 -11.0122 0.0132306
-20.3076 -10.5216 -1.00998
-17.4528 -10.0681 -1.13937
-16.8899 -10.4445 -0.183386
-15.8754 -11.0885 0.263441
-16.2547 -10.2767 0.0186436
-16.8695 -10.199 -0.721884
-16.1352 -11.0001 -0.736151
-20.2052 -10.2791 -0.133672
-16.4084 -11.7945 0.0122366
-20.2957 -10.836 -1.06062
-18.4824 -10.554 -0.0172479
-20.571 -10.3696 -0.489166
-19.0647 -11.1608 0.0975569
-16.27 -11.2884 1.19859
-17.737 -10.445 0.599394
-17.5511 -10.8085 -0.13527
-16.8895 -10.9571 0.932082
-18.1651 -11.149 0.519423
-16.2572 -10.4956 1.20552
-16.8792 -9.25087 1.888
-16.6267 -9.5042 0.919376
-19.3868 -10.0781 1.79851
-16.1706 -9.47506 2.15433
-17.6018 -10.1405 -4.89666
-18.9513 -11.0069 -3.59128
-15.0713 -12.473 -2.6114
-18.378 -10.5266 -4.52713
-19.9666 -10.8922 -4.22919
-16.174 -12.2093 -2.78126
-14.5703 -11.356 -3.24966
-15.1032 -12.5134 -1.26163
-19.225 -10.1804 -3.41059
-15.5356 -12.224 -2.03688
-19.1969 -10.3393 -3.03068
-14.5153 -11.2962 -2.20553
-16.601 -10.0558 -1.59961
-19.1505 -10.5798 -3.14528
-19.7063 -11.1667 -2.84601
-17.5715 -10.9766 -1.07546
-15.5481 -11.8722 -1.23838
-21.1091 -10.7794 -2.20389
-16.0584 -11.6752 -1.44707
-19.8938 -9.35645 -2.44869
-15.6395 -11.4651 -0.96883
-16.5461 -10.7946 -0.73314
-16.5116 -11.1895 -0.589748
-21.184 -11.2858 -0.663853
-16.43 -10.7965 -0.415722
-18.4639 -10.1813 0.97497
-19.8512 -10.1067 0.439939
-21.3879 -9.4566 0.352281
-20.7938 -10.9663 0.231745
-13.9884 -12.2755 -3.27226
-14.9181 -12.0105 -3.89133
-16.1928 -11.932 -3.68461
-14.2896 -12.2029 -3.90377
-15.8926 -11.8015 -3.92138
-15.0502 -12.9689 -2.92503
-17.5429 -11.0447 -3.90232
-18.7154 -10.8514 -3.91451
-16.4425 -10.9177 -3.09947
-15.8108 -12.5671 -3.3515
-17.6797 -10.2986 -2.62067
-19.0227 -10.4553 -3.38835
-19.824 -10.6775 -3.28851
-15.774 -12.9148 -1.72971
-14.8211 -10.9446 -1.96095
-16.6628 -10.4832 -2.0886
-16.4987 -10.135 -0.878255
-16.3049 -11.7513 -0.937864
-16.7778 -10.8595 -0.512178
-16.0969 -10.4765 -1.16934
-19.9265 -10.1095 0.29834
-17.7582 -10.725 0.428172
-17.5366 -11.0553 -3.00522
-15.4962 -12.7958 -4.32545
-16.5141 -10.8592 -4.93234
-15.3625 -12.9602 -3.48217
-16.2817 -11.116 -3.83696
-17.4667 -11.106 -3.70076
-18.7858 -11.8786 -4.85108
-15.0463 -12.0759 -2.79743
-16.8926 -10.2937 -2.20276
-16.1311 -11.7044 -2.04941
-19.7568 -11.0043 -3.32042
-16.9822 -11.8461 -0.950507
-16.9381 -11.1449 -1.41878
-16.3409 -11.6545 -0.248887
-17.4462 -11.9858 -0.786885
-16.0555 -11.7175 -0.231048
-17.0138 -10.7218 -0.008121
-16.1056 -10.7258 -0.920559
-16.708 -11.3059 0.602914
-16.3682 -11.2605 -0.00810266
-15.5054 -10.5244 -0.249092
-16.7918 -11.1041 0.488589
-18.8102 -9.72116 0.00171729
-15.7463 -9.24927 1.87445
-15.3753 -11.0118 -3.21271
-15.4389 -11.3015 -1.86328
-16.0231 -11.1681 -1.72882
-17.0477 -11.5031 -1.05449
-16.4973 -11.7214 -0.862631
-17.1655 -10.8539 -0.489653
-15.9757 -12.0874 -1.69219
-16.862 -11.2958 -1.22754
-16.7145 -11.1366 -0.463824
-16.7527 -10.0505 0.20092
-15.0527 -11.1699 -2.52725
-17.2406 -10.9982 -0.979529
-17.0344 -11.4185 -2.50919
-18.6774 -9.61422 -0.32079
-14.8427 -11.7115 0.460208
-16.9634 -10.5148 -3.79247
-14.9306 -11.2843 -1.32807
-18.0359 -10.3201 -0.535169
-15.8349 -11.8249 -0.797437
-18.0561 -12.2411 -0.0065835
-16.4099 -11.2697 -1.18072
-16.8343 -10.4687 0.0318589
-17.1044 -10.7253 -0.300223
-20.3945 -9.91022 -5.15124
-20.7942 -9.99164 -4.56957
-20.2122 -10.3946 -5.10082
-19.9734 -10.4214 -4.50816
-18.3248 -10.803 -3.67427
-18.935 -10.3111 -4.96082
-19.8853 -10.7481 -3.81726
-18.6651 -10.3922 -4.39717
-20.0247 -10.982 -3.45252
-19.4802 -10.8163 -3.50584
-18.7198 -11.8343 -4.45716
-18.7068 -11.1329 -3.60293
-18.7768 -11.9442 -3.73618
-19.574 -10.7933 -4.28086
-17.1363 -11.2679 -4.07123
-21.3206 -10.5999 -2.99643
-17.381 -11.1137 -3.7395
-19.7642 -10.5328 -3.67649
-19.3559 -10.4645 -2.99254
-19.7488 -11.0737 -2.4939
-19.7419 -10.9689 -3.44086
-19.4377 -10.1247 -3.53112
-19.5586 -10.8658 -2.42222
-20.4096 -10.8701 -2.4211
-18.4821 -11.5979 -3.76578
-16.2654 -12.3224 -3.16492
-20.4487 -10.7249 -2.03504
-16.4641 -10.8578 -3.09058
-20.2352 -10.3823 -2.14679
-15.8333 -11.0677 -3.16503
-17.1743 -11.3887 -2.37052
-17.3528 -9.90068 -3.03768
-17.0784 -10.9424 -1.87305
-15.3183 -12.4101 -4.13332
-15.2285 -12.4709 -2.69879
-15.1612 -11.7366 -3.13399
-17.3917 -11.1962 -2.51227
-15.119 -12.0751 -3.12374
-17.1717 -11.2214 -2.21565
-14.6023 -11.9488 -3.42894
-20.574 -10.1621 -1.06144
-15.7749 -12.2853 -4.10442
-15.454 -11.7035 -1.93393
-21.8282 -11.0249 -1.80617
-21.0485 -11.4355 -0.572336
-14.6788 -12.5554 -2.95202
-14.2762 -11.6899 -3.05477
-15.5093 -11.9307 -3.32881
-15.4502 -12.6283 -3.13196
-17.2156 -10.7654 -1.31115
-17.1069 -10.9363 -2.9455
-16.688 -10.616 -2.38269
-14.3186 -12.0393 -2.45915
-17.9474 -11.5068 -2.41023
-17.4008 -10.8697 -1.79012
-15.9079 -11.9552 -4.01048
-16.7455 -11.2261 -2.13445
-14.8659 -11.7527 -2.70006
-20.1348 -10.4192 -1.29345
-20.4905 -11.4865 0.341269
-20.4607 -10.5555 -0.409285
-18.7262 -10.8736 -0.908424
-16.9905 -10.8831 -1.72868
-20.5957 -11.5819 -0.34367
-15.0059 -11.7613 -3.01896
-17.4447 -10.4495 -0.573954
-14.7446 -13.4605 -2.37972
-17.2806 -11.0133 -0.435566
-18.3859 -10.6852 -0.55146
-16.4418 -10.6539 -0.826403
-13.8388 -12.2414 -1.25048
-14.5627 -12.0948 -2.59173
-15.5284 -11.322 -1.98061
-15.6749 -11.991 -1.89083
-20.0859 -10.4876 0.194529
-20.2702 -11.8066 0.639753
-19.0981 -10.3167 -0.479086
-18.0119 -10.78 0.453351
-17.6488 -10.4702 0.596292
-15.5186 -11.3337 -1.1388
-17.9822 -11.9026 -0.631975
-18.3465 -10.8682 -0.67
-14.9182 -12.4029 -2.06608
-21.2752 -10.366 1.52755
-16.9143 -9.73666 0.919373
-16.4188 -10.9556 -0.740124
-16.6165 -9.03249 1.26589
-15.8471 -11.3988 -1.02799
-18.0533 -8.67392 0.190281
-18.154 -11.1652 0.0522329
-17.2123 -10.7631 -0.346763
-15.6935 -9.58592 0.902512
-17.7769 -10.5491 -0.451155
-16.3626 -9.56378 1.50047
-16.0168 -11.4921 -1.3607
-15.9981 -9.3293 1.59154
-17.0985 -9.18066 0.710985
-16.0987 -11.2221 0.609839
-16.8027 -8.86477 2.45284
-17.3532 -10.5239 -0.256876
-16.1183 -10.8798 -0.599623
-16.5071 -11.3418 -0.640417
-16.1264 -9.73753 1.40581
-16.7172 -11.1074 1.33778
-16.1096 -11.3274 0.761554
-19.8934 -10.2977 -5.67698
-19.6191 -10.8827 -4.62275
-20.2686 -10.0025 -5.14906
-19.922 -10.376 -3.45875
-20.9239 -10.283 -4.99993
-20.3607 -10.3531 -4.45898
-19.8079 -11.269 -4.59445
-20.177 -10.0504 -4.08788
-18.3 -11.3699 -4.25783
-19.1928 -11.1968 -4.01371
-19.6208 -11.2989 -3.90771
-18.9792 -10.4243 -4.11894
-18.3145 -11.416 -3.44912
-20.2905 -10.7777 -4.35082
-19.328 -10.6461 -3.66255
-17.2546 -11.6236 -3.95152
-18.6187 -11.0727 -4.75402
-18.1152 -11.8879 -4.01437
-19.9785 -10.1368 -3.69922
-19.1232 -10.4988 -2.96839
-16.5456 -11.5039 -3.70198
-20.6608 -9.37925 -2.85492
-18.5868 -11.6256 -4.04102
-20.0218 -10.0069 -3.81441
-20.4144 -10.2575 -2.76813
-16.1561 -11.2079 -3.31854
-18.3282 -10.1617 -2.59355
-19.7078 -11.1598 -3.73015
-20.003 -10.9618 -2.31037
-19.806 -10.4238 -1.33874
-15.8908 -10.4661 -3.33077
-16.4155 -10.6213 -3.14152
-18.6357 -10.9161 -2.88534
-18.8446 -11.053 -2.31573
-16.2204 -11.7193 -3.51563
-15.2871 -12.3005 -3.15745
-15.9983 -12.5834 -2.75897
-16.0532 -12.075 -2.78425
-16.3357 -11.8941 -3.19016
-19.6246 -10.575 -1.73783
-15.6725 -11.6175 -3.16346
-15.4391 -12.0638 -2.62232
-16.9457 -10.9912 -2.2192
-19.7634 -10.9638 -1.51957
-20.3892 -9.73329 -0.168227
-21.7517 -9.66776 -1.55335
-15.2421 -10.9024 -3.00135
-15.0027 -11.2757 -2.56252
-16.4887 -11.307 -1.18242
-18.9159 -10.5997 -0.885505
-19.5652 -10.9723 -1.14944
-14.8075 -11.8542 -2.67421
-17.434 -10.7577 -2.76614
-15.3488 -11.4446 -2.2488
-16.4867 -11.5317 -3.0921
-14.0997 -12.5602 -2.57455
-15.158 -12.1467 -1.95247
-15.1405 -11.8339 -3.80495
-15.6921 -12.0403 -3.15833
-16.6759 -10.2733 -1.58341
-16.186 -11.2947 -1.88522
-17.0643 -11.2061 -1.13676
-15.6741 -12.3493 -1.98217
-18.11 -10.6657 -0.942423
-19.9819 -10.4162 1.03773
-15.3225 -13.3818 -3.60325
-14.1787 -11.6791 -1.95866
-18.2674 -10.3312 -0.265673
-20.3302 -10.2707 0.279088
-20.1559 -10.3688 1.33772
-17.6597 -11.2147 -0.112329
-15.9559 -11.2983 -1.29503
-18.7991 -11.6434 -1.40865
-16.2083 -11.0324 -1.60524
-16.4528 -11.3117 0.133749
-18.1914 -9.98956 0.114172
-15.259 -11.1263 0.21312
-18.6767 -10.7501 1.35621
-17.6037 -11.1398 0.492561
-17.9362 -10.7114 -0.580347
-16.8038 -11.5188 -0.26874
-16.2833 -11.5648 -0.839616
-15.9332 -11.6394 -0.00239244
-17.3913 -8.27862 1.20601
-16.1681 -11.1176 0.39884
-15.7961 -8.64607 1.88801
-15.6923 -11.9191 -0.507626
-15.0154 -11.3634 0.0794448
-16.1677 -11.8063 -1.47975
-17.868 -10.7417 0.543557
-16.4751 -11.1723 0.846431
-16.1286 -11.5606 -1.53001
-15.5054 -11.5357 -0.934241
-16.3856 -11.6508 -0.368327
-16.0174 -11.3833 -0.0452657
-16.6746 -11.3681 -0.456422
-15.7952 -11.9809 -0.775468
-16.6632 -11.5004 1.24797
-19.0946 -10.057 -3.79419
-20.8295 -9.80852 -4.14381
-18.8291 -11.0144 -4.14999
-18.4622 -10.899 -4.42595
-18.4309 -11.3087 -4.58989
-18.0113 -10.5358 -4.62732
-17.8293 -11.3539 -4.30703
-18.9347 -10.8934 -4.12169
-16.2551 -11.4483 -4.30619
-18.9035 -11.1853 -3.74192
-16.469 -11.5899 -4.21225
-18.2353 -11.2766 -2.90894
-18.9881 -10.9232 -3.16014
-19.9519 -10.9583 -3.46776
-16.3554 -12.0436 -4.76826
-19.4917 -9.8353 -3.47458
-20.5748 -11.4444 -2.78739
-19.7101 -10.7522 -3.30654
-19.9834 -10.498 -2.81427
-16.1607 -11.4456 -2.88267
-20.3654 -11.4748 -2.65356
-19.0228 -11.153 -1.81401
-15.9772 -11.1278 -3.00032
-15.4135 -10.5656 -3.81566
-16.2017 -11.2073 -1.98203
-15.3811 -11.0025 -3.39219
-14.7717 -11.4379 -3.96131
-16.715 -11.2133 -1.17032
-15.979 -11.634 -2.27193
-20.757 -10.183 -1.20909
-16.5217 -11.0443 -1.42545
-14.4788 -13.3328 -3.56543
-15.8568 -10.658 -2.54107
-17.0342 -10.5985 -2.24211
-15.3926 -12.1106 -2.62681
-15.9359 -11.4794 -2.12502
-19.0027 -10.6137 -2.22678
-15.13 -11.4358 -2.35269
-17.2371 -11.1652 -1.34911
-17.7177 -11.1861 -1.0592
-17.1507 -11.1258 -1.42835
-20.5591 -10.0727 0.431914
-17.5369 -10.7418 -0.685595
-15.5359 -11.3115 -1.58125
-15.1217 -11.9542 -3.32924
-21.5829 -9.87951 -0.305773
-15.1418 -12.2129 -1.98882
-17.9091 -11.7445 -0.523828
-18.4834 -10.147 0.698545
-16.9834 -10.9568 -0.366218
-16.3927 -10.4986 -1.22065
-16.4389 -11.9659 -0.568138
-19.1055 -10.6829 0.0825026
-16.4322 -11.6675 -1.42488
-18.1861 -10.3227 0.104263
-16.9538 -10.2373 -0.29541
-18.2638 -9.6336 -0.589846
-15.8281 -12.3227 -0.316673
-16.2597 -11.0946 -0.677385
-15.9761 -11.1982 0.596155
-16.8008 -11.1244 0.243828
-15.8026 -12.0419 0.407167
-20.1385 -10.5883 -3.69946
-20.999 -10.3305 -4.15406
-18.2347 -11.5951 -3.46173
-17.9865 -11.5822 -4.45794
-20.028 -9.72543 -3.46265
-17.6312 -12.3243 -3.16101
-17.5036 -10.6041 -2.77156
-17.0139 -11.7095 -2.9903
-16.3818 -12.2742 -2.97722
-15.6303 -10.9404 -2.3168
-19.4019 -10.3992 -2.16316
-16.1997 -11.507 -3.76708
-15.7825 -11.3182 -2.73098
-15.0805 -11.3794 -3.8185
-14.2248 -11.6313 -3.07218
-16.9657 -10.8902 -2.57387
-15.3228 -12.7243 -3.43925
-14.5833 -11.6571 -3.06463
-15.0045 -12.1145 -3.39872
-14.2137 -11.5555 -3.68745
-20.5255 -11.1016 -1.74575
-15.7813 -12.0207 -3.90962
-14.4467 -12.6187 -2.71361
-15.2679 -12.6888 -4.34525
-16.4139 -11.5775 -2.01657
-17.265 -10.618 -1.98667
-16.3442 -11.4958 -1.15069
-16.0769 -10.4814 -2.11629
-21.1766 -10.7866 0.689184
-20.4814 -10.5719 0.845412
-16.228 -11.1902 -0.943166
-16.7207 -11.1823 -0.968504
-17.69 -10.6443 -0.151278
-15.2269 -10.8153 -1.23134
-15.4913 -10.679 -0.205722
-17.7633 -10.9276 -0.495303
-17.4076 -10.885 -0.489026
-18.0965 -10.3311 0.825203
-15.5295 -12.0455 -0.481644
-16.3871 -11.7911 -0.391842
-17.7875 -11.3349 0.581658
-16.4261 -10.2505 -0.0924009
-16.301 -10.7039 0.486631
-20.7334 -10.5515 -4.47144
-18.6663 -11.5249 -4.51811
-18.2157 -10.9177 -3.45165
-18.2661 -12.1873 -4.01451
-20.7188 -10.6968 -2.95821
-16.4971 -10.3281 -3.58641
-16.9058 -11.518 -3.84723
-16.4952 -10.9359 -2.81894
-17.0479 -10.6508 -2.36844
-16.7418 -11.8072 -2.41044
-15.3593 -12.0012 -2.86324
-15.768 -11.3115 -3.96628
-16.7811 -11.1121 -2.47558
-15.0816 -12.0858 -3.17752
-14.0612 -12.6264 -4.10606
-16.1312 -11.0822 -2.75208
-18.3897 -10.7343 -0.769278
-19.967 -11.2121 -0.79722
-14.5486 -11.9959 -2.27276
-17.8303 -10.5291 -0.754797
-13.5562 -11.91 -2.41187
-19.7875 -10.6206 0.433343
-17.923 -11.2949 -0.570407
-15.9269 -11.2755 -2.31185
-18.4567 -10.5534 -0.260296
-17.4324 -10.8904 -0.199719
-16.2459 -10.5928 -0.238275
-16.5515 -11.0016 -0.980112
-17.8792 -11.1185 0.490566
-15.5615 -11.3301 -0.560789
-16.5869 -11.0928 -0.79119
-17.3826 -10.1731 -0.503248
-16.7923 -10.6803 0.376035
-18.7715 -11.7373 -3.3573
-15.3984 -10.3616 -3.30843
-16.2322 -10.8725 -2.07567
-15.5217 -11.2337 -2.94799
-14.8356 -12.324 -3.36297
-19.5443 -11.0283 -1.13019
-18.6256 -10.4472 -1.25823
-17.8255 -10.9543 -1.62618
-15.9707 -11.4569 -0.336775
-16.6992 -10.8904 0.0737145
-16.4615 -11.7166 0.0555161
-16.6371 -10.7867 -2.3587
-15.9493 -12.0804 -2.88544
-18.2689 -10.7252 0.0577705
-15.5945 -11.5799 -0.376717
-16.3448 -10.6631 -1.16555
-16.2209 -11.6986 -0.523576
-16.9561 -11.119 -1.35594
-17.3978 -11.5857 -0.516183
-19.2774 -10.3536 -0.0276773
-17.5664 -11.4385 -1.72777
-17.3997 -11.5038 -3.20119
-16.9436 -10.5636 -1.65143
-17.3938 -11.1126 -1.98499
-15.2727 -11.1643 -0.959366
-16.924 -10.4142 -2.4011
-16.9199 -10.6361 -1.44216
-18.2232 -11.2453 -0.640316
-15.327 -12.2077 -2.45369
-17.4206 -11.0661 -1.01944
-15.7946 -11.1066 -1.03579
-17.9791 -10.7 -0.340401
-19.2697 -10.8158 -4.83263
-21.0663 -10.2619 -5.45392
-20.8469 -9.5992 -3.66568
-20.3521 -10.8401 -3.69513
-21.5349 -9.5149 -0.239862
-19.6051 -11.03 -3.49318
-21.2453 -10.9707 -2.18351
-20.8883 -10.5584 -2.48233
-19.6689 -11.2272 -4.21525
-20.5768 -11.3588 -3.31995
-18.6687 -10.9469 -3.74695
-21.7263 -10.3186 0.45179
-20.0633 -10.7134 -3.5182
-19.6729 -11.0063 -3.21059
-21.0112 -10.4532 -1.11271
-21.7149 -10.0563 1.82883
-20.8997 -10.0736 1.64231
-19.4113 -11.1407 -1.15619
-18.3558 -11.6342 -4.52962
-17.8983 -9.48408 1.3547
-20.555 -10.1424 0.525431
-17.5459 -10.2527 -3.04793
-17.3313 -9.76847 -3.0592
-17.0099 -8.69802 1.06232
-20.1791 -11.1223 0.398094
-18.0904 -10.5027 -2.99681
-18.1547 -10.648 -4.39443
-17.9395 -11.1035 -2.15228
-17.6252 -9.87844 -1.93851
-16.0285 -8.82207 1.27422
-17.1274 -11.2376 -3.93037
-18.0412 -11.0242 -4.69463
-18.4842 -11.5335 -1.83081
-17.2262 -10.8912 -3.06448
-18.2376 -11.5666 -1.21556
-18.5292 -10.0843 -0.27484
-17.2013 -10.4541 -0.154729
-16.9971 -11.7397 -3.7643
-16.7802 -10.3813 0.396688
-16.2478 -10.9852 -2.54423
-17.1724 -11.4907 -2.19166
-16.583 -10.5277 -1.55596
-17.7213 -10.5671 -2.12593
-17.4618 -10.8444 0.0816525
-16.8257 -11.3318 -1.85902
-17.4675 -10.6482 -0.647061
-15.9145 -11.3614 -1.44916
-16.2579 -11.4036 -1.1387
-16.4756 -11.6023 -3.32549
-16.6799 -11.0882 -2.00337
-15.6454 -11.6466 -1.65582
-15.2539 -11.5306 -2.13158
-16.7142 -11.2096 -0.184879
-15.7544 -10.8771 -1.0363
-15.9292 -11.9716 0.021449
-16.1105 -11.4339 -3.36369
-16.7015 -11.062 -0.77633
-16.3388 -11.4222 -1.41431
-16.9065 -11.6332 0.393487
-16.8062 -11.0567 0.396324
-16.1951 -10.6938 -1.84994
-15.8612 -10.516 0.36148
-15.4166 -11.3709 -0.780713
-14.6913 -11.442 -3.47386
-15.1597 -12.5853 -3.05738
-15.1617 -12.2852 -2.62769
-15.0732 -12.7422 -4.31512
-15.7486 -11.9457 -4.09213
-14.8438 -11.083 -4.44501
-14.8416 -11.9738 -4.53801
-15.1556 -11.9188 -2.65646
-16.2093 -11.7952 -3.2717
-14.8631 -11.9787 -3.06274
-15.8683 -11.2275 -0.855732
-14.3257 -11.4641 -2.78764
-14.8176 -12.8461 -4.07298
-19.0707 -10.5825 -4.2108
-19.7878 -10.3065 -3.3995
-21.6699 -10.8991 -0.871056
-19.5677 -10.8149 -4.08063
-21.9287 -10.0562 0.456082
-20.6974 -8.99021 0.843195
-19.5011 -10.6403 -4.21575
-20.3047 -11.0104 -0.607634
-18.156 -12.0703 -3.99314
-18.6293 -10.5252 -4.19968
-18.2721 -10.0074 0.858296
-17.8726 -9.20725 0.861187
-17.9475 -11.2906 -1.32537
-16.2831 -10.3201 -1.03336
-16.4009 -10.2885 -2.73345
-18.0853 -10.5292 -1.81395
-17.5395 -10.2024 -2.0018
-17.5232 -10.6703 -1.36453
-15.6109 -11.3617 -2.6184
-17.8577 -11.0467 -0.973563
-15.7093 -11.3103 -2.87364
-17.6602 -10.959 -0.122272
-16.7901 -11.568 0.762719
-15.6601 -11.1358 -3.06743
-16.3287 -11.0331 -2.53304
-15.6843 -10.5934 -2.11375
-15.6089 -11.2164 -1.94407
-16.2304 -10.8566 -0.0891457
-17.0186 -10.7655 -1.75571
-16.9206 -11.353 -0.737435
-16.3529 -11.4588 -3.15508
-15.4166 -10.4476 -0.446314
-15.4292 -11.7691 -3.99374
-16.6028 -11.0997 0.60865
-15.002 -11.6238 -1.27276
-16.155 -11.3912 -0.147267
-16.0788 -10.8197 -0.819529
-15.0347 -11.4812 -3.1745
-21.1366 -9.9696 -0.0774072
-20.1188 -10.7542 -2.97024
-19.75 -11.1346 -4.28799
-18.9007 -11.1619 -2.16517
-20.2164 -11.3549 -1.13929
-19.1519 -10.2266 -0.222684
-17.6734 -10.3968 -2.10821
-16.1571 -10.3804 -2.0735
-18.7623 -10.9243 0.298074
-16.3072 -11.3589 -3.11502
-17.6088 -10.7479 -0.503078
-17.2594 -11.4628 -1.05939
-17.8565 -10.7488 -0.0363918
-16.0748 -12.8306 -3.99
-17.5149 -11.7708 0.192783
-16.0583 -10.9878 -2.4703
-16.9993 -12.0637 -2.08659
-17.2035 -11.1053 0.101078
-16.6612 -11.9949 -0.194337
-16.9202 -11.2423 0.464164
-15.8505 -11.9774 -2.45572
-15.6652 -10.4034 0.115781
-15.845 -12.2042 -0.832195
-16.0206 -11.7316 -1.22206
-16.8685 -10.9804 -0.756281
-16.7505 -11.028 0.590546
-16.6017 -11.021 -0.0762968
-15.8419 -11.7164 -0.562304
-16.5589 -10.7242 -0.645231
-15.7588 -11.3393 -0.452174
-19.0931 -11.539 -3.37538
-17.9095 -10.9585 -0.236542
-17.5848 -10.5909 -1.58885
-17.669 -10.9096 0.528057
-16.2752 -10.9273 -0.630932
-16.6704 -11.8273 -0.704863
-16.6631 -10.4309 -1.82108
-16.7389 -10.8842 -1.93401
-17.5744 -10.6993 -0.83246
-15.1692 -10.9531 -1.75912
-16.68 -11.3132 -0.492429
-15.9956 -10.8273 -0.62342
-15.3858 -11.3664 0.0813227
-14.8605 -12.4984 -3.30642
-16.9831 -12.0893 -0.482171
-16.2054 -12.8644 -3.82599
-15.6642 -11.9231 -1.32708
-15.1696 -12.1664 -2.91204
-14.6346 -11.9998 -4.38749
-15.0041 -11.497 -2.09933
-14.5046 -13.1513 -3.63027
-15.4431 -11.7791 -3.05484
-13.8273 -12.9326 -4.09364
-20.3685 -10.1494 -1.30674
-19.4565 -10.365 0.281965
-17.3927 -10.2349 -1.9566
-15.7039 -11.2586 -3.45252
-17.5344 -10.5139 0.395437
-17.4422 -10.3981 -1.54615
-17.6046 -10.429 -0.3452
-15.2079 -11.77 -3.23566
-17.0919 -11.0382 -1.05184
-15.4907 -11.4176 -2.14812
-16.329 -11.7618 -2.22357
-15.8406 -11.3955 -0.885858
-15.9666 -11.477 -0.0545537
-14.545 -11.565 0.317444
-15.1938 -10.8146 -0.0337043
-19.5199 -10.7663 -0.847298
-18.7009 -11.0091 -1.08964
-19.3994 -11.2758 0.939041
-17.8282 -11.1442 -2.26758
-17.3756 -10.5847 -1.17259
-16.6639 -10.7405 -2.06111
-17.6278 -11.0322 -1.5828
-17.4367 -11.3144 -0.722894
-16.3016 -10.688 -1.84149
-17.1525 -10.7155 -0.459587
-18.1268 -11.028 -3.36056
-18.5638 -11.5069 -0.910069
-16.0341 -11.0881 -1.63025
-16.5816 -12.3804 -0.868134
-15.1696 -12.9203 -3.96374
-18.8099 -10.9279 -1.12197
-17.8938 -11.1363 -3.48007
-18.4329 -11.7041 -2.17171
-17.168 -9.73799 -0.169447
-16.2779 -11.5862 -1.35189
-15.2731 -11.607 -1.44236
-17.1078 -10.6293 -2.06843
-15.2588 -12.3348 -1.75225
-16.1627 -10.7504 -0.851712
-21.3855 -9.69416 1.69147
-17.9718 -11.5923 -1.7841
-17.7894 -10.1431 -2.31494
-18.8523 -11.5202 -0.557158
-15.3358 -11.7484 -1.92389
-21.4996 -9.73212 1.76935
-20.9962 -9.84558 1.18744
-20.8356 -9.56356 1.28507
-16.6152 -9.22894 0.582121
-22.3297 -10.3473 0.684176
-17.1474 -8.53224 2.05732
-22.1028 -10.3297 -2.17615
-19.6857 -10.539 0.428518
-21.2806 -9.89471 -3.18046
-18.4502 -9.94574 0.268713
-21.4946 -9.82671 -3.48396
-21.1462 -10.6168 -3.409
-17.9892 -10.8039 -0.429414
-19.9866 -11.4107 -1.19883
-19.5147 -9.88931 -2.84456
-18.0104 -10.9662 -1.31558
-19.5764 -10.7799 -2.68641
-17.8795 -11.107 -0.299974
-16.7483 -10.7967 -0.0102527
-16.4232 -11.1138 -2.17479
-18.3685 -11.8437 -4.70027
-15.8871 -11.8177 -1.70629
-16.2352 -10.8211 -0.762435
-16.7419 -11.0667 -1.81518
-16.1844 -10.7949 -3.48638
-17.6836 -11.1272 -3.89202
-15.704 -10.8491 -2.0466
-16.0921 -10.8172 -3.13809
-15.5844 -11.1008 -0.412287
-17.1765 -11.8915 -3.86968
-15.6264 -12.5716 -4.59263
-15.6421 -11.016 -4.29785
-15.3541 -11.7971 -2.8468
-16.4991 -11.6344 -3.92667
-14.8604 -12.1869 -1.80101
-14.5627 -12.7339 -2.98268
-14.744 -11.9261 -3.42676
-15.034 -12.9418 -4.01114
-14.5176 -12.0921 -3.91232
-14.2338 -12.0428 -3.85488
-21.6258 -9.88829 0.521046
-21.456 -10.0603 0.166818
-21.4492 -10.982 -0.233653
-21.9929 -8.98413 -0.00649703
-21.3392 -10.3129 -1.01546
-20.7571 -10.394 -0.226232
-17.9772 -10.0626 -0.518537
-19.5558 -11.3156 -1.40016
-20.0316 -9.98894 -1.54905
-19.6904 -10.9653 -1.44525
-19.3589 -10.7686 -3.11927
-16.6496 -10.6218 -1.02654
-18.354 -10.943 -0.389641
-17.6082 -9.40558 -0.735268
-17.9691 -10.9827 -1.2314
-16.3752 -10.0078 -0.141169
-16.3932 -10.8117 0.934123
-16.1396 -11.0961 0.618006
-19.5422 -10.6752 -4.47219
-15.9144 -10.6271 -1.62324
-16.2538 -11.4006 -1.67599
-16.8415 -11.4495 -1.21151
-16.2421 -11.2194 -1.41181
-15.6857 -11.4117 -0.280179
-16.7456 -10.6516 -2.12597
-16.1468 -11.5224 0.0240315
-16.3892 -12.0334 -0.69376
-17.4986 -10.9584 -4.4156
-16.3773 -12.085 -0.277235
-16.7516 -10.6462 -0.582327
-15.899 -11.2884 -1.62363
-16.0097 -11.042 -2.07624
-15.7274 -11.1988 -1.74736
-15.6569 -12.2279 -1.17273
-15.5982 -12.2682 -3.4055
-14.3691 -12.3833 -1.69487
-15.4142 -11.8088 -2.58947
-14.6095 -12.4409 -3.4652
-21.8427 -9.95772 -1.62981
-17.9708 -10.5264 0.944322
-18.1143 -10.7859 0.718608
-18.9389 -11.3867 -2.50728
-17.8557 -11.1048 -2.82121
