-16.9345 -12.264 -0.487702
-16.4563 -11.5553 -3.10699
-16.2194 -11.3048 -3.80623
-16.482 -12.3707 0.483241
-16.5808 -12.0436 -1.19499
-16.1701 -11.4942 -3.53896
-16.2047 -12.2795 -0.846835
-16.3034 -12.2886 -0.731144
-16.1605 -12.2758 -0.802022
-15.6791 -12.8019 0.0320984
-15.6524 -13.0225 0.668177
-15.6283 -12.8214 0.0165578
-15.7579 -12.9397 -0.0296482
-15.5795 -12.987 0.625701
-15.5938 -13.0789 0.705902
-15.6377 -13.004 -0.049741
-15.3455 -13.0368 -0.370047
-14.8002 -12.678 -1.46694
-15.2683 -13.0998 -0.365584
-14.542 -12.7933 -1.55347
-15.0431 -13.0785 -0.569216
-14.5356 -12.7276 -1.71395
-14.4812 -12.6407 -1.73538
-14.5698 -12.6627 -1.60508
-14.6536 -12.8703 -1.37301
-15.2497 -13.4064 -0.210325
-14.2367 -13.0543 -1.62252
-14.6996 -13.4668 -1.04042
-14.4861 -13.3741 -1.05857
-14.1728 -13.3379 -2.67386
-14.0228 -13.2417 -2.88939
-13.9611 -13.2316 -2.92574
-13.9594 -13.3744 -2.82442
-14.0562 -13.5215 -2.29129
-14.1778 -13.9423 -1.26044
-14.1725 -13.9261 -1.37134
-13.6393 -13.6623 -2.63185
-13.6759 -13.7725 -2.27969
-13.7781 -13.9841 -1.89381
-13.6363 -13.8544 -2.36528
-13.0295 -14.2078 -2.61696
-19.8302 -10.6054 -0.470357
-19.5756 -10.5867 -0.852884
-19.1509 -10.9107 -1.03298
-15.9324 -11.0401 1.69707
-18.9821 -11.0325 -0.732983
-18.2935 -10.0704 -3.78141
-18.9045 -11.1834 -0.42168
-19.0079 -11.0826 -0.851608
-18.9573 -11.0636 -0.917292
-17.7544 -11.1997 -0.21833
-17.4991 -11.5463 -0.619255
-17.3432 -11.7016 0.214492
-17.744 -11.2495 -2.02602
-17.1788 -11.7066 0.154549
-17.3448 -11.5494 -1.82087
-16.8896 -12.0427 -1.12588
-16.49 -12.3326 -0.358633
-16.3866 -12.4051 -0.253171
-15.4591 -11.8078 -1.95779
-15.4784 -11.9223 -2.06721
-15.5516 -11.9947 -1.92637
-15.7969 -12.6156 -0.132636
-16.0448 -12.8139 0.791371
-15.6473 -12.5903 -0.152196
-15.5953 -12.4563 -1.30707
-15.3322 -12.4458 -1.75848
-15.4633 -12.523 -1.08074
-15.7264 -12.9949 0.065088
-15.6525 -13.1643 0.149686
-15.2641 -13.0204 -0.546235
-15.2389 -13.3438 -0.306327
-14.1293 -12.6402 -2.61665
-15.0251 -13.5184 -0.408003
-14.2265 -13.9632 -1.27389
-13.5737 -13.7229 -2.32269
-13.7456 -13.7824 -2.22725
-15.7395 -11.0605 2.37226
-18.6883 -11.2067 -1.15004
-18.0222 -10.433 -3.33916
-17.9842 -10.4722 -3.39427
-17.6 -10.1087 -4.53827
-17.4658 -11.4703 0.188684
-17.8064 -10.9871 -2.63289
-17.3294 -10.9731 -3.27454
-17.2698 -11.134 -3.18361
-16.8744 -11.5238 -2.73673
-16.5022 -11.6083 -3.04868
-16.573 -12.2722 -0.330739
-16.2657 -11.5988 -3.30205
-16.4043 -12.2999 -0.530404
-16.1358 -11.5758 -3.59594
-16.3557 -12.3327 -0.578889
-16.0934 -12.191 -1.00594
-16.355 -12.603 -0.245461
-16.3507 -12.4955 -0.201442
-15.5547 -11.898 -1.96518
-15.4604 -12.0865 -1.87546
-15.9902 -12.9683 0.859438
-15.219 -12.6122 -1.37652
-14.3668 -12.03 -2.63094
-15.3372 -13.0887 -0.376134
-15.0924 -12.7684 -1.08759
-14.7152 -12.6786 -1.48954
-14.7359 -12.7081 -1.51297
-14.2162 -12.5875 -2.70149
-13.9184 -12.57 -2.03655
-14.3122 -13.0375 -1.68703
-14.2741 -13.9363 -1.32207
-20.2072 -10.4071 -0.189739
-20.1851 -10.452 -0.158209
-20.0047 -10.3322 -0.525648
-19.7064 -10.4481 -0.737568
-18.8511 -11.0261 -1.09779
-18.2668 -11.349 -1.11422
-18.1114 -11.4057 -1.43592
-17.3554 -11.5782 -0.877295
-17.1792 -10.8521 -3.43871
-17.0842 -12.0639 0.309723
-16.3035 -12.43 -0.151921
-16.0263 -12.3094 -0.980701
-15.5961 -12.6415 -1.12633
-15.6495 -13.1437 0.0971205
-14.5475 -12.6189 -1.70986
-15.2223 -13.0833 -0.596377
-14.1435 -13.5638 -2.23015
-18.9216 -11.1466 -0.693879
-15.9686 -12.6207 0.507815
-14.4379 -12.0802 -2.65103
-15.4329 -12.9837 -0.261075
-15.0139 -12.6039 -1.51104
-15.523 -13.3034 0.139213
-15.3058 -12.9451 -0.432807
-13.8536 -13.7346 -2.10864
-18.9367 -10.9679 -0.743333
-17.8391 -11.1896 -0.0396403
-14.9096 -13.4949 -0.574014
-20.2143 -10.5133 0.050268
-16.98 -11.7998 0.111081
-16.5742 -11.0296 -4.07319
-15.6493 -12.3115 -1.42342
-13.0623 -14.2918 -2.39309
-14.7628 -13.5482 -0.660851
-14.7465 -12.9965 -0.974519
-16.2812 -11.559 -2.30705
-15.6416 -11.2879 2.34197
-16.4317 -11.7888 -1.62908
-16.5093 -12.4826 -0.248131
-16.5324 -9.5811 2.17936
-16.1773 -11.0434 2.18296
-16.1727 -11.0389 2.21545
-16.1987 -10.9881 2.28597
-16.4184 -10.7406 1.79224
-20.2639 -10.3975 0.193543
-20.0543 -10.6108 0.0715872
-20.0643 -10.4873 0.0255902
-20.0372 -10.5848 -0.388868
-16.1415 -10.7206 1.39201
-16.0096 -10.8141 1.44698
-15.851 -10.9704 1.5013
-19.9122 -10.5404 -0.516404
-19.9515 -10.5188 -0.634771
-19.8527 -10.6032 -0.483432
-15.7162 -11.155 1.56204
-19.4966 -10.6759 -0.88407
-19.4679 -10.5574 -1.12871
-19.2653 -10.5495 -1.17815
-18.8712 -11.1624 -0.8484
-17.6466 -11.2782 -0.0993119
-17.3774 -11.6089 0.169173
-19.4265 -10.5131 -1.55827
-17.1023 -11.7954 0.155432
-19.1019 -10.5286 -1.65389
-18.9012 -10.7566 -1.39196
-16.7222 -12.1297 0.373888
-16.6489 -12.189 0.274294
-18.9522 -10.6493 -1.81538
-17.479 -11.4703 -0.550717
-16.3057 -12.5697 0.544032
-18.4602 -10.9867 -1.59455
-18.1087 -11.4175 -1.19719
-16.1569 -12.4476 0.395663
-16.1903 -12.7017 0.430486
-18.7812 -10.4201 -2.15291
-15.8117 -12.931 0.603564
-17.0052 -12.0865 -0.525054
-17.2332 -11.7156 -0.833389
-15.5957 -13.0113 0.671334
-16.8141 -12.0738 -0.778654
-17.1575 -11.8 -1.02301
-16.7879 -12.0159 -0.725327
-16.2973 -12.4606 -0.237039
-17.0322 -11.8658 -1.02961
-17.0678 -11.7829 -1.00917
-15.9464 -12.6684 -0.0772867
-16.914 -11.8038 -1.1336
-15.6553 -12.876 -0.0102743
-15.7235 -12.6457 -0.233558
-16.8509 -11.8248 -1.43133
-17.862 -10.8152 -2.66907
-16.866 -11.8406 -1.46947
-18.0352 -10.4958 -3.19756
-17.61 -11.0541 -2.61594
-17.9671 -10.5578 -3.05453
-17.9352 -10.5904 -3.14977
-17.3 -11.4364 -2.18481
-16.529 -11.8989 -1.53775
-15.7656 -12.7749 -0.422049
-16.5491 -11.8917 -1.5829
-15.9079 -12.4731 -0.70205
-15.6853 -12.6255 -0.446801
-15.6547 -12.7089 -0.422829
-15.6302 -12.6846 -0.615905
-15.6777 -12.6992 -0.471249
-16.2765 -11.8373 -1.58907
-16.2942 -11.9901 -1.46594
-17.7602 -10.5491 -3.36432
-15.7035 -12.5299 -0.75596
-15.4277 -12.9492 -0.43616
-17.7791 -10.539 -3.4042
-16.2589 -12.032 -1.69956
-17.6548 -10.7055 -3.38378
-16.2659 -12.0189 -1.71036
-16.2725 -12.0429 -1.7602
-16.2267 -11.9975 -1.7389
-17.1908 -11.2439 -2.96267
-17.287 -10.9763 -3.23393
-15.6065 -12.5679 -1.15395
-15.3105 -12.9555 -0.652514
-17.7083 -10.519 -3.82483
-16.2297 -11.7835 -1.96762
-17.6271 -10.3864 -3.95893
-17.6565 -10.3925 -3.95865
-15.1067 -13.1342 -0.579313
-17.0892 -10.9925 -3.52647
-17.4412 -10.2402 -4.1988
-14.8804 -13.5347 -0.416547
-17.326 -10.402 -4.19035
-14.9237 -13.501 -0.605649
-17.1678 -10.5569 -4.16211
-16.9937 -10.8483 -3.74763
-15.4247 -11.9652 -1.89375
-16.8159 -10.9942 -3.78714
-16.5971 -11.4231 -3.24613
-16.7944 -11.1322 -3.6113
-17.1024 -10.6759 -4.21139
-16.8896 -11.0576 -3.77725
-15.4665 -11.9645 -2.0076
-16.3809 -11.5894 -3.14078
-15.2805 -12.0277 -1.86309
-16.6099 -11.0118 -3.85917
-16.4948 -11.0552 -4.01309
-16.5743 -10.952 -4.11071
-15.1752 -11.6059 -2.61031
-15.9167 -11.6146 -3.74095
-15.7895 -11.7993 -3.56137
-14.2076 -13.9351 -1.40109
-14.1493 -14.0513 -1.25837
-13.923 -14.0092 -1.57743
-14.1013 -13.5391 -2.251
-14.026 -13.5193 -2.21599
-14.1032 -13.7244 -2.15483
-14.0591 -13.6083 -2.20972
-13.9601 -13.674 -2.04239
-14.052 -13.6645 -2.1093
-13.9287 -13.5691 -2.30631
-13.826 -13.861 -1.86778
-13.8247 -13.9237 -1.92845
-13.916 -12.629 -2.48235
-14.2069 -13.2483 -2.73991
-14.0436 -13.397 -2.85161
-13.6387 -13.8121 -2.29532
-13.7548 -13.7684 -2.33168
-13.6534 -13.9165 -2.28725
-13.5101 -14.0085 -2.17849
-13.5225 -13.8418 -2.33777
-13.4953 -13.7957 -2.36804
-20.2712 -10.3802 0.132366
-20.1545 -10.4321 0.110242
-20.0591 -10.5891 -0.115274
-16.2409 -10.9862 1.71236
-15.6369 -11.4318 1.92884
-20.0286 -10.5511 -0.336166
-20.0241 -10.4471 -0.507809
-15.4399 -11.4698 1.88209
-15.6845 -11.1935 1.60603
-15.189 -11.6036 1.76162
-19.1742 -11.02 -0.43488
-17.8207 -11.1244 -0.206746
-18.9402 -10.9765 -0.901403
-18.7008 -11.2814 -0.840682
-17.1796 -11.7412 0.126112
-18.6837 -11.1554 -0.940598
-17.7161 -11.4239 -0.370272
-16.7807 -12.051 0.371964
-18.7076 -11.0133 -1.30541
-18.3952 -11.4402 -1.00284
-16.1197 -12.7065 0.522555
-16.1268 -12.7586 0.774803
-18.9539 -10.4825 -2.23668
-15.9026 -12.8184 0.715617
-18.6548 -10.7234 -1.92087
-16.9129 -12.2927 -0.396556
-18.3116 -10.976 -1.87945
-16.8752 -12.31 -0.442695
-16.9715 -12.2248 -0.556109
-16.4764 -12.3417 -0.26102
-16.3698 -12.512 -0.157942
-16.3272 -12.459 -0.23655
-16.3806 -12.3585 -0.27469
-18.0929 -11.0097 -2.16411
-15.8599 -12.6198 -0.0355467
-16.6971 -12.1395 -0.837374
-15.8599 -12.6457 0.0246648
-15.7928 -12.8499 -0.0139327
-16.5737 -12.2021 -0.972971
-15.6824 -13.0332 0.0797595
-15.715 -12.5814 -0.199648
-15.6435 -12.8363 -0.042009
-16.2385 -12.2557 -0.755117
-15.7321 -12.5898 -0.23544
-15.6151 -13.0212 0.0270956
-16.2343 -12.3061 -0.738291
-16.6103 -12.1003 -1.10913
-16.1693 -12.2945 -0.725721
-15.4932 -13.2551 0.0789872
-16.1591 -12.3745 -0.661381
-16.087 -12.3716 -0.810894
-16.0671 -12.3983 -0.726441
-18.1808 -10.36 -3.17176
-17.9368 -10.6761 -2.90131
-17.189 -11.4745 -2.47707
-17.6995 -10.6981 -3.22923
-17.329 -11.3588 -2.62858
-15.2897 -13.3926 -0.094385
-15.3603 -13.4289 -0.131461
-15.3709 -13.0928 -0.225501
-15.2276 -13.4559 -0.195405
-15.5005 -12.884 -0.443288
-15.2905 -12.8907 -0.364635
-15.631 -12.7418 -0.759037
-15.2969 -13.1523 -0.461593
-17.8825 -10.2369 -4.0321
-17.6321 -10.3759 -4.06933
-16.6765 -11.4383 -2.88787
-16.8431 -11.4145 -2.94167
-17.1991 -10.84 -3.70006
-17.1291 -10.7685 -3.78185
-15.0643 -12.8105 -1.19443
-15.3715 -12.036 -1.67825
-17.2482 -10.5379 -4.12661
-16.4548 -11.5132 -3.09586
-15.3441 -12.06 -1.8982
-15.4376 -11.9932 -1.87505
-15.1804 -12.0111 -2.00531
-16.0201 -11.5318 -3.77259
-15.9421 -11.6172 -3.76963
-14.4993 -12.6567 -1.66102
-15.7803 -11.6926 -3.64595
-14.4493 -12.8025 -1.68773
-14.2306 -13.3905 -1.31844
-13.9956 -14.0851 -1.34608
-13.9569 -14.086 -1.49141
-13.9545 -13.64 -2.0335
-13.6616 -13.7752 -2.23293
-14.1075 -13.3168 -2.91306
-14.0771 -13.3561 -2.9086
-13.5244 -14.0203 -2.15239
-13.7032 -13.6602 -2.48965
-13.6884 -13.757 -2.46408
-13.5239 -14.006 -2.1035
-13.2816 -14.1824 -2.24914
-13.13 -14.1766 -2.3178
-20.1589 -10.4549 0.0511381
-16.0237 -10.9123 1.64711
-15.8459 -11.1449 1.75025
-20.0315 -10.471 -0.622004
-19.9508 -10.5171 -0.570573
-19.8428 -10.6341 -0.453512
-19.595 -10.584 -0.834825
-18.9751 -11.1325 -0.643449
-18.9268 -11.1273 -0.805684
-17.5256 -11.4264 0.0774142
-18.9366 -10.8541 -0.927958
-17.3704 -11.6143 0.13894
-17.2936 -11.7033 0.0683792
-17.2677 -11.6824 -0.0139922
-18.4074 -11.2043 -1.2305
-16.149 -12.5424 0.570415
-16.0759 -12.583 0.566031
-17.2946 -11.9224 -0.705848
-16.554 -12.4002 -0.172611
-18.2187 -10.9083 -2.18917
-18.1703 -10.8363 -2.19276
-15.7428 -12.7224 0.00787155
-17.4459 -11.5365 -1.82955
-16.2366 -12.4258 -0.470773
-15.8029 -13.013 0.0660592
-16.5442 -12.1515 -1.21973
-16.202 -12.1709 -0.815025
-18.0009 -10.4123 -3.34236
-15.6575 -12.7054 -0.515762
-15.5674 -12.7429 -0.518342
-17.6726 -10.5399 -3.58485
-16.8213 -11.7258 -2.33105
-15.0521 -13.5867 -0.234634
-17.3539 -10.8167 -3.59903
-16.0677 -11.5962 -2.17542
-15.0623 -13.5446 -0.393869
-14.8969 -13.5914 -0.324221
-15.4961 -11.7483 -2.09443
-15.4492 -11.8502 -1.98548
-15.14 -12.7423 -1.23194
-16.2031 -11.6958 -3.09474
-16.3163 -11.7297 -3.1687
-16.286 -11.6426 -3.14311
-16.307 -11.6392 -3.22489
-14.5752 -12.8427 -1.34861
-14.5975 -12.7332 -1.49163
-14.8607 -12.3559 -2.23335
-14.444 -12.8261 -1.65712
-14.5438 -12.7679 -1.68322
-15.8494 -11.693 -3.75971
-14.4119 -13.8953 -1.08811
-14.843 -12.0182 -2.60745
-14.7939 -12.036 -2.56608
-14.2778 -13.0944 -1.72287
-14.2426 -13.9301 -1.30267
-14.0582 -13.9274 -1.45318
-14.2892 -13.5143 -2.12184
-14.0775 -13.347 -2.82561
-13.7368 -13.8425 -2.23928
-13.6152 -13.8535 -2.17162
-13.6288 -13.9523 -2.07546
-14.0666 -13.3185 -2.90528
-13.6187 -13.8431 -2.18563
-13.5841 -13.9062 -2.27926
-13.4795 -13.8712 -2.4443
-13.331 -13.9921 -2.23418
-13.074 -14.1227 -2.45956
-20.1267 -10.4293 0.0544012
-20.2527 -10.4187 -0.22288
-20.0349 -10.4592 -0.595687
-16.859 -12.0704 0.244463
-18.2958 -11.2724 -1.23315
-18.4233 -11.0533 -1.47368
-18.5013 -10.8188 -1.84408
-18.7129 -10.5198 -2.29484
-16.3985 -12.4558 -0.132088
-16.3309 -12.5141 -0.179243
-16.003 -12.5478 -0.0704648
-16.7457 -12.1036 -0.884109
-16.2397 -12.4215 -0.485814
-15.5723 -13.2164 0.136878
-17.7188 -10.9263 -2.61491
-16.5282 -12.0325 -1.32469
-18.0211 -10.625 -2.97806
-15.4452 -13.2576 0.0287525
-16.0814 -12.2578 -0.932127
-17.8913 -10.4626 -3.34272
-15.6335 -12.682 -0.519439
-17.0129 -11.4599 -2.51167
-17.2349 -11.0715 -3.14673
-17.2009 -11.0013 -3.19964
-16.1169 -11.5864 -2.04073
-15.1422 -13.0296 -0.685005
-15.0881 -12.7178 -0.970083
-16.6391 -11.3375 -3.21913
-15.3367 -12.5815 -1.31749
-16.5 -11.6188 -2.90677
-15.255 -11.9972 -1.94227
-15.2903 -12.0425 -1.88782
-14.9968 -12.6268 -1.48046
-14.6942 -12.6708 -1.51177
-16.095 -11.6213 -3.76285
-14.6766 -12.7267 -1.66391
-14.7872 -12.3567 -2.18412
-14.5334 -12.6621 -1.58397
-14.3087 -13.854 -1.28759
-14.6283 -12.1964 -2.50753
-13.8408 -14.1003 -1.64788
-14.0619 -13.7708 -2.16753
-13.8874 -13.6444 -2.31077
-13.6969 -13.7687 -2.31614
-13.4153 -13.9881 -2.29586
-13.0408 -14.1295 -2.56007
-17.6679 -11.3546 -0.199773
-18.7605 -11.0087 -1.09459
-17.2765 -11.5964 -0.0274512
-16.7377 -12.1881 0.115694
-15.9807 -12.824 0.756681
-16.0072 -12.7922 0.643287
-18.0463 -11.048 -1.83455
-17.1701 -11.7587 -0.954157
-15.7423 -12.9206 0.558895
-16.8116 -12.171 -0.659758
-16.2269 -12.3717 -0.475242
-15.6377 -12.601 -0.0646955
-15.6246 -13.2166 0.13121
-18.0168 -10.4393 -3.2924
-15.9435 -12.3465 -0.920713
-15.4105 -13.2481 -0.178359
-15.7681 -12.5926 -0.692641
-15.4513 -13.1128 -0.204035
-16.0302 -11.8669 -1.91705
-17.4484 -10.5252 -3.96158
-15.4291 -12.0328 -1.67934
-15.538 -12.176 -1.82421
-16.4583 -11.3524 -3.39663
-16.8476 -10.8783 -3.98255
-14.7694 -13.4839 -0.69417
-15.2966 -11.9979 -2.02163
-15.6074 -11.5935 -2.71028
-14.6138 -12.7802 -1.46727
-14.2141 -14.0301 -1.39645
-14.5402 -12.299 -2.38195
-14.3896 -12.0071 -2.61771
-14.0512 -13.3435 -2.80377
-13.4263 -14.1657 -1.89777
-13.6935 -13.7082 -2.46517
-20.2464 -10.4174 -0.118461
-18.9912 -11.1345 -0.832552
-19.0284 -10.8787 -1.14656
-17.7287 -11.204 -0.235021
-16.8276 -12.1457 0.0395297
-15.7052 -12.7323 0.00562695
-17.9329 -10.5679 -3.24388
-16.3377 -12.0209 -1.62147
-15.4298 -12.0152 -1.65685
-14.8361 -13.4838 -0.629035
-14.8962 -13.3269 -0.996479
-14.5332 -12.6174 -1.60291
-14.5424 -12.9402 -1.53334
-13.6686 -13.749 -2.49971
-20.2153 -10.5752 -0.196569
-16.8608 -11.8405 0.169193
-18.2679 -11.2846 -1.25287
-17.2508 -12.0037 -0.680961
-18.115 -11.1828 -1.47952
-17.3078 -11.9831 -0.620609
-15.6517 -12.6254 -0.551603
-15.7295 -12.6268 -0.718859
-15.6583 -12.5876 -0.862872
-15.2502 -13.0655 -0.590829
-15.2266 -12.9633 -0.655624
-15.5276 -11.923 -1.77596
-15.4071 -12.1543 -1.84873
-14.7156 -13.4997 -0.579346
-14.7391 -12.7145 -1.56944
-13.9974 -13.4761 -2.3081
-13.4972 -13.7696 -2.58708
-20.2891 -10.4064 0.148464
-18.2303 -11.2875 -1.42521
-15.6564 -13.0457 0.556915
-15.4734 -12.8344 -1.20088
-15.6113 -11.9334 -2.00385
-16.6061 -10.9923 -4.07526
-17.5874 -11.3994 -0.0685622
-15.8067 -12.8506 0.0965602
-20.109 -10.6172 0.149063
-15.4418 -12.6775 -1.12935
-15.4654 -12.4942 -1.22547
-15.4295 -12.2912 -1.73133
-15.6109 -12.9814 -0.207757
-15.9907 -12.6633 -0.512961
-15.8546 -12.7333 -0.427021
-15.3128 -12.7969 -1.19193
-15.1466 -12.428 -1.73866
-14.2255 -13.625 -1.49758
-13.8726 -13.5452 -2.70458
-13.2908 -14.0335 -2.31088
-13.6206 -13.6303 -2.65471
-13.5593 -13.8948 -2.42035
-13.5187 -13.9004 -2.53888
-13.7189 -13.6295 -2.58455
-13.7175 -13.6788 -2.61544
-13.6624 -13.7422 -2.618
-15.935 -11.6017 -3.83542
-16.0867 -11.5726 -3.7212
-13.9327 -13.6 -2.2325
-13.9827 -13.6053 -2.18915
-16.3553 -11.4893 -3.80512
-14.0139 -13.6073 -2.01558
-13.8223 -13.9246 -1.82572
-13.8119 -13.855 -1.85009
-16.807 -10.9529 -3.73104
-17.6707 -10.3035 -4.04832
-17.6062 -10.44 -3.88419
-16.667 -11.3907 -3.2912
-14.5841 -12.6312 -1.60503
-17.1032 -11.0729 -3.46065
-17.7936 -10.4582 -3.7401
-17.8254 -10.5203 -3.51916
-14.1527 -13.9942 -1.29834
-17.6709 -10.4737 -3.41698
-17.6084 -10.6895 -3.32039
-17.279 -11.2756 -2.75582
-17.889 -10.6227 -2.9992
-16.9472 -11.5581 -2.30635
-16.2834 -11.9531 -1.73055
-17.5778 -11.056 -2.50465
-17.7163 -11.0281 -2.69836
-18.29 -10.5467 -2.9082
-18.5099 -10.3637 -2.90393
-16.3934 -11.723 -1.60012
-18.239 -10.6254 -2.6915
-17.5988 -11.2091 -2.15858
-18.3184 -10.4945 -2.58651
-15.1598 -12.9225 -0.701502
-18.6551 -10.5008 -2.42779
-15.2982 -13.0825 -0.335811
-18.7482 -10.6235 -2.12532
-18.3908 -10.817 -1.90769
-17.1265 -11.2461 -1.1503
-16.1665 -12.3128 -0.693261
-15.8245 -12.702 -0.349666
-19.2147 -10.3062 -1.927
-15.6572 -12.8153 -0.0507931
-15.3981 -13.137 0.104527
-16.3894 -12.3921 -0.271049
-18.2569 -11.2485 -1.24152
-17.0914 -12.1273 -0.526838
-18.6156 -11.0445 -1.22646
-19.3262 -10.6211 -1.3013
-19.3676 -10.5699 -1.13632
-19.3338 -10.5948 -1.23535
-18.9691 -10.9866 -0.965033
-18.5977 -11.3055 -0.760505
-17.6738 -11.2076 -0.0400957
-15.6635 -13.0327 0.662815
-18.9073 -11.1042 -0.713412
-18.9964 -11.0717 -0.661322
-17.3093 -11.7706 0.123712
-16.7674 -12.1121 0.476586
-17.319 -11.6935 0.1934
-16.3422 -12.4768 0.527547
-16.361 -12.4384 0.586909
-16.5517 -12.3714 0.560631
-16.3851 -12.5404 0.494958
-20.2597 -10.6052 -0.162505
-15.1004 -11.6609 1.84745
-16.2297 -10.8652 1.69296
-16.4133 -10.8333 2.15219
-13.4905 -13.8934 -2.32937
-13.6942 -13.7881 -2.50256
-13.7614 -13.792 -2.34197
-13.5329 -13.9686 -2.16485
-13.9094 -13.6704 -2.25653
-14.8506 -12.0196 -2.49096
-14.031 -13.7337 -1.91172
-14.0666 -13.8853 -1.86912
-16.7484 -11.1282 -3.65743
-16.2497 -11.522 -3.12899
-16.3231 -11.6367 -3.17393
-16.3824 -11.7817 -2.80905
-15.9996 -11.612 -2.28845
-17.0897 -11.2871 -3.02642
-18.1719 -10.2973 -3.3659
-17.1497 -11.3044 -2.67034
-15.2173 -12.5193 -1.42252
-15.1473 -12.6129 -1.43809
-18.3251 -10.3027 -3.15407
-17.0796 -11.6469 -2.2917
-18.6941 -10.153 -3.07343
-15.7068 -12.4628 -1.08475
-15.0926 -13.0762 -0.635759
-14.7802 -13.6579 -0.58185
-17.639 -11.3551 -2.04709
-17.3975 -11.4894 -1.86813
-15.9086 -12.4173 -0.97269
-15.0636 -13.4176 -0.469386
-15.1083 -13.4952 -0.35884
-15.2378 -13.0421 -0.367341
-18.5935 -10.64 -1.98232
-16.6267 -12.0866 -0.942533
-15.2882 -13.3599 -0.358557
-15.2118 -13.4271 -0.336523
-16.8746 -12.0041 -1.12292
-15.7079 -12.575 -0.184508
-15.7905 -12.4389 -0.195413
-18.0951 -11.256 -1.43982
-18.4002 -11.1129 -1.17227
-16.4637 -12.3221 -0.279807
-17.5463 -11.5646 -0.51133
-18.6807 -11.18 -0.995016
-19.0432 -10.8465 -1.06518
-18.969 -10.9382 -1.01402
-19.4574 -10.6251 -1.09572
-19.0345 -11.0702 -0.821974
-17.2758 -11.6133 0.0229447
-15.583 -13.0449 0.772941
-17.1463 -11.7777 0.170733
-17.5048 -11.4242 -0.0579341
-19.0433 -11.1125 -0.760028
-19.5057 -10.684 -0.845561
-17.8182 -11.2458 0.0112441
-17.8163 -11.2245 -0.0030632
-19.9617 -10.5403 -0.464213
-13.6096 -13.8634 -2.3541
-16.2479 -11.4537 -3.85193
-13.813 -13.915 -1.9802
-13.8286 -13.7787 -2.13896
-13.8676 -13.9145 -1.87776
-16.827 -11.0258 -3.73945
-16.851 -11.005 -3.64132
-14.5806 -12.8793 -1.3978
-17.716 -10.5911 -3.425
-17.9188 -10.6392 -3.17703
-15.1397 -12.7894 -1.2677
-17.1239 -11.5343 -2.13313
-16.7038 -12.0812 -0.984368
-16.5976 -12.1009 -0.826825
-15.4084 -13.1084 -0.232353
-16.7778 -12.2066 -0.694141
-17.4659 -11.5537 -0.619248
-18.893 -10.9246 -1.18391
-17.7303 -11.3884 0.0921613
-20.1287 -10.467 -0.0204593
-15.6999 -11.2203 1.82217
-15.7785 -11.2848 1.86964
-15.6547 -11.3606 2.11427
-13.6257 -13.8321 -2.49256
-15.9894 -11.4817 -3.71001
-15.3478 -12.0351 -1.93412
-17.2998 -10.9585 -3.21158
-16.3571 -11.5057 -2.4371
-17.0397 -11.6091 -2.3108
-17.8206 -10.8469 -2.53706
-15.4035 -12.9339 -0.590562
-15 -13.5422 -0.390896
-18.1915 -11.1274 -1.85683
-16.2877 -12.5144 -0.275892
-17.6269 -11.4405 -0.632482
-19.017 -10.9521 -0.771504
-20.2413 -10.4499 -0.112311
-13.135 -14.2546 -2.36067
-13.32 -14.0061 -2.3308
-15.9471 -11.6614 -3.7691
-17.8042 -11.2881 -1.25786
-18.535 -11.2858 -0.726233
-17.6401 -11.2801 -0.120929
-18.2629 -10.8396 -1.97776
-18.0966 -11.2559 -1.4526
-18.3805 -11.3142 -1.27562
-16.5848 -11.5001 -3.30189
-16.1906 -12.4994 -0.544119
-17.387 -11.4668 -1.02087
-18.9655 -11.0254 -0.761102
-14.903 -12.5297 -1.46646
-15.614 -12.6845 -0.555406
-14.4697 -12.7406 -1.81062
-15.0007 -12.7251 -1.16829
-15.6361 -12.3465 -1.40167
-14.7692 -13.3107 -0.807326
-15.53 -12.9219 -0.648476
-17.7891 -10.1725 -4.06699
-17.0213 -10.9272 -3.75191
-16.9885 -10.9873 -3.79731
-17.2466 -10.6972 -3.76905
-17.6618 -10.5421 -3.59554
-15.7787 -11.8146 -3.58333
-16.5607 -11.3718 -3.20977
-17.2877 -11.1394 -3.28251
-16.4372 -11.6197 -3.11148
-18.1906 -10.6347 -2.63576
-14.0197 -13.339 -2.83589
-17.3485 -11.441 -2.46722
-17.5925 -11.2322 -2.28137
-13.5808 -13.531 -2.68218
-13.7175 -13.5903 -2.62914
-17.5969 -11.2872 -1.97505
-13.6581 -13.6625 -2.57816
-13.8304 -13.6767 -2.4703
-17.5879 -11.4274 -1.93061
-16.2537 -12.0091 -1.80452
-16.4853 -11.7807 -1.67934
-16.2767 -11.8824 -1.66444
-13.695 -13.7579 -2.29331
-14.4528 -12.7337 -1.61556
-13.6502 -13.7673 -2.42058
-13.9655 -13.6703 -2.1498
-16.7414 -11.7426 -1.42341
-18.3651 -11.0647 -1.3985
-19.2928 -10.6508 -1.30244
-13.4893 -14.0846 -2.17719
-18.6421 -11.0473 -1.30325
-16.5448 -12.1737 -1.21726
-17.0624 -11.8304 -1.01272
-18.3411 -11.2448 -1.15289
-13.821 -14.0741 -1.74459
-19.153 -10.8782 -0.858503
-18.6201 -11.2214 -1.00606
-19.5289 -10.7782 -0.851193
-18.87 -10.9817 -0.86977
-15.1724 -12.9388 -1.07377
-19.1173 -10.9109 -0.916789
-17.2089 -11.8683 -0.706107
-19.0598 -11.0719 -0.725146
-19.8155 -10.695 -0.48694
-17.835 -11.1789 -0.217998
-20.0176 -10.5773 -0.28316
-17.377 -11.9635 -0.619275
-20.3086 -10.4864 -0.291819
-19.8792 -10.7363 -0.185016
-20.2189 -10.2604 0.228518
-16.4808 -12.3003 -0.27897
-16.4546 -12.2792 -0.1758
-15.787 -12.5558 -0.148992
-17.4741 -11.5691 0.118231
-16.3473 -12.3856 -0.138859
-15.322 -12.9584 -0.519641
-15.3537 -12.9677 -0.429508
-17.2921 -11.7331 0.136549
-15.145 -13.1875 -0.457375
-15.2693 -13.0855 -0.380649
-15.97 -10.8942 1.42383
-16.0119 -12.5231 -0.0778802
-15.9508 -10.9682 1.58523
-15.575 -12.9919 -0.251159
-15.5193 -12.9444 -0.282092
-16.1621 -10.8606 1.63633
-15.8137 -11.1158 1.58007
-14.8816 -13.7049 -0.469178
-15.6572 -12.8422 -0.0789769
-16.1671 -10.8865 1.58004
-15.0158 -13.5615 -0.293641
-15.7098 -11.1799 1.61998
-15.2871 -13.511 -0.40218
-16.2899 -10.9496 1.66992
-15.788 -11.135 1.58804
-15.638 -13.0284 0.00660902
-15.5778 -13.0233 0.019359
-15.2455 -13.4012 -0.128045
-16.5244 -12.3236 0.485491
-15.4174 -13.2701 0.0564956
-15.6356 -11.3137 1.80726
-15.4931 -11.4613 1.93506
-15.96 -12.828 0.69889
-15.6016 -13.1473 0.798635
-17.6153 -10.4039 -3.95298
-16.1658 -11.479 -3.79956
-17.5293 -10.7524 -3.50001
-17.1202 -11.0038 -3.41958
-17.832 -10.5183 -3.25332
-18.0337 -10.4359 -3.2696
-17.999 -10.7238 -2.65075
-16.8312 -11.4742 -2.7157
-18.7466 -10.462 -2.25927
-17.6514 -11.207 -2.42052
-16.7857 -11.6781 -2.28026
-18.5058 -10.9043 -1.88732
-14.0096 -13.6476 -2.26391
-13.3459 -14.0172 -2.40758
-14.02 -13.7153 -2.22015
-14.0029 -13.8295 -2.14996
-15.2604 -12.4847 -1.33188
-16.692 -12.0014 -1.19767
-16.9602 -12.001 -1.06827
-13.5463 -14.1055 -1.89509
-14.6781 -13.245 -1.29881
-20.0516 -10.3721 -0.511267
-17.5434 -11.4947 -0.537809
-19.1125 -11.016 -0.677357
-16.6715 -12.2967 -0.708318
-13.9581 -14.0743 -1.47274
-14.0335 -13.9978 -1.4566
-15.3052 -12.9186 -0.713986
-16.1474 -12.4477 -0.517475
-15.8678 -12.7021 -0.514286
-14.6886 -13.4401 -0.88441
-20.0719 -10.6029 -0.0689088
-15.1249 -13.1448 -0.623122
-15.1174 -13.1015 -0.586734
-15.3446 -12.9384 -0.454736
-15.2958 -13.0001 -0.409735
-15.3157 -13.1317 -0.300332
-16.2126 -12.4896 -0.193281
-15.7347 -12.7607 -0.00813714
-14.9399 -13.5825 -0.432415
-15.2221 -13.2717 -0.298229
-15.2383 -13.4016 -0.309098
-15.0878 -13.5463 -0.273256
-14.9819 -13.5573 -0.252239
-15.4231 -13.5116 -0.178632
-15.7832 -11.2968 1.81251
-15.9756 -12.7875 0.734761
-16.0235 -12.9648 0.718615
-15.7005 -13.0683 0.706339
-14.1835 -12.5073 -2.26093
-16.893 -11.4096 -2.86415
-18.7467 -10.5188 -2.4654
-18.8309 -10.5604 -2.33574
-15.5753 -11.9424 -1.94549
-15.5688 -11.9646 -1.85262
-16.3636 -11.8091 -1.75013
-14.6041 -12.6575 -1.71155
-13.844 -13.6851 -2.24028
-15.0999 -12.6585 -1.60639
-14.0213 -13.7434 -2.07436
-18.4499 -11.1605 -1.18215
-18.1885 -11.4355 -1.21751
-16.1523 -12.2815 -1.03054
-18.9799 -10.9215 -1.03546
-16.1037 -12.1715 -1.00988
-19.5152 -10.676 -0.849519
-16.7084 -12.1113 -0.867981
-16.7985 -12.16 -0.94029
-16.7546 -12.1856 -0.909238
-14.001 -14.0315 -1.47063
-16.7044 -12.1516 -0.684673
-15.6072 -12.8652 -0.520991
-20.173 -10.3805 0.0740079
-15.6996 -12.5584 -0.130139
-16.0317 -12.5744 0.0267688
-15.0158 -13.5369 -0.246885
-15.3091 -13.4537 -0.082175
-15.9188 -12.9372 0.822583
-16.6725 -11.3905 -3.3543
-16.5201 -11.6618 -3.02264
-16.0692 -11.652 -2.01675
-13.8439 -12.8369 -2.1317
-18.4863 -10.5451 -2.23298
-15.1804 -12.1294 -1.96947
-17.7178 -11.3137 -2.03829
-13.7081 -13.6792 -2.52393
-14.7044 -12.6645 -1.71074
-13.3999 -13.8738 -2.44828
-14.6759 -12.7994 -1.51056
-19.0143 -10.9239 -0.792549
-20.1943 -10.2032 0.268494
-17.4654 -11.5864 0.107959
-16.3029 -12.4497 -0.453077
-15.4292 -13.0737 -0.407257
-15.395 -13.003 -0.292135
-15.4891 -13.0365 -0.235837
-15.8413 -13.0478 0.0259649
-15.5581 -13.1881 0.111659
-15.6431 -13.0761 0.652545
-15.1886 -11.6343 -2.5673
-15.28 -11.9042 -2.20019
-17.0682 -11.4653 -2.48074
-13.8734 -12.8402 -2.05922
-14.5314 -13.008 -1.68416
-14.5057 -12.943 -1.65114
-15.5248 -12.5698 -1.07342
-13.888 -13.9269 -1.88319
-20.2386 -10.482 -0.341708
-20.268 -10.4384 0.0948448
-15.4312 -13.0592 -0.226783
-15.4253 -13.0681 -0.306119
-15.5183 -13.1431 0.032534
-14.0644 -12.7697 -2.54205
-14.2442 -12.541 -2.03541
-16.3765 -12.0047 -1.55389
-14.2964 -13.1929 -1.70326
-18.9348 -10.9496 -0.943807
-17.0945 -11.8392 -0.72884
-15.8742 -12.7615 -0.363827
-15.8159 -12.9263 -0.508928
-15.7554 -12.8445 0.0136643
-15.4353 -12.1955 -1.65299
-15.0612 -12.4811 -1.55622
-17.4346 -11.6984 -0.988149
-15.3605 -12.708 -1.05857
-15.2638 -13.0708 -0.536217
-17.0322 -11.8971 0.00577795
-17.8708 -10.5386 -3.12761
-20.2346 -10.4059 -0.162941
-15.1188 -11.8578 -2.23309
-16.5014 -11.675 -1.58585
-15.0562 -12.4726 -1.60861
-15.5161 -12.6485 -0.902117
-14.5194 -12.8515 -1.53752
-13.978 -13.3329 -1.50925
-17.551 -10.5249 -3.95217
-18.107 -10.4497 -3.21449
-16.7371 -10.8619 -4.24928
-17.2523 -10.7768 -3.76103
-16.9481 -10.8828 -3.88072
-18.7572 -10.5111 -2.17832
-18.8457 -10.6202 -2.12274
-16.909 -11.0093 -3.62226
-20.2193 -10.4059 -0.301119
-17.7801 -10.8458 -2.62632
-20.1569 -10.5779 -0.435064
-20.1423 -10.6755 -0.0915036
-19.6698 -10.7728 -0.546001
-19.847 -10.8662 -0.252278
-19.1853 -11.0679 -0.467417
-15.9695 -11.4915 -2.18131
-16.2245 -10.8998 1.72907
-17.7544 -11.2302 -0.122497
-17.1965 -11.4895 -2.15199
-17.8274 -11.2107 -0.0370547
-15.9321 -11.0578 1.50037
-16.0903 -11.6866 -2.02671
-17.5488 -11.4846 -0.0621628
-15.4967 -11.841 -2.12933
-15.766 -11.1656 1.53806
-15.9212 -11.0931 1.67805
-15.6319 -11.798 -2.04156
-16.7383 -11.849 -1.41011
-15.6841 -11.2267 1.58101
-16.1012 -11.0728 2.15958
-15.6395 -11.1436 1.51286
-15.3793 -11.9243 -1.98791
-17.3756 -11.9044 -0.470466
-15.609 -11.2645 1.72237
-17.0239 -11.9941 -0.847516
-17.2129 -12.0374 -0.542985
-16.9711 -12.1716 -0.552738
-16.1304 -12.2166 -1.00823
-16.1599 -12.3119 -0.59416
-15.6736 -12.5035 -1.10289
-16.404 -12.4152 -0.261989
-14.6657 -12.5816 -1.56479
-15.7135 -12.5571 -0.161814
-15.8114 -12.8264 -0.40876
-15.5967 -12.7307 -0.475076
-16.0854 -12.6395 0.510508
-15.254 -12.9106 -0.718842
-15.7254 -12.857 0.0250956
-15.6689 -12.8446 -0.0411601
-15.7077 -12.8765 0.0275539
-15.4948 -13.034 -0.170692
-13.6344 -13.573 -2.67138
-15.6288 -13.0938 0.0556367
-15.4634 -13.1598 0.0209234
-15.4845 -13.1973 0.0998515
-13.6122 -13.7246 -2.48706
-15.5746 -12.9832 0.692551
-13.6658 -13.7367 -2.39837
-13.6164 -13.8523 -2.45266
-13.8069 -13.7968 -2.23902
-13.8076 -13.6578 -2.05971
-15.3741 -13.3589 -0.0976748
-15.2643 -13.4053 -0.202804
-15.3811 -13.45 -0.0843004
-13.836 -13.928 -1.76546
-13.9414 -14.0005 -1.54387
-14.0293 -14.0917 -1.43058
-17.02 -10.5779 -4.26891
-18.4292 -10.426 -2.79325
-18.1099 -10.6982 -2.42037
-18.1753 -10.7179 -2.52706
-20.1221 -10.3485 -0.548546
-17.2629 -10.9616 -3.21141
-20.2943 -10.5525 -0.165597
-20.1974 -10.514 0.00151256
-19.8767 -10.7088 -0.410371
-18.6414 -11.0454 -1.21317
-18.6811 -11.2075 -1.10331
-18.7423 -11.2837 -0.843208
-17.7095 -11.3178 0.01664
-16.1277 -11.6743 -2.02699
-15.4962 -11.9275 -1.99875
-16.7293 -12.3212 -0.823009
-16.715 -12.133 -0.795132
-16.4293 -12.3372 -0.221853
-15.4031 -12.5912 -1.39251
-16.5084 -12.3247 0.300119
-14.5352 -12.6435 -1.6983
-15.2332 -12.7516 -1.17399
-15.6678 -12.5502 -0.481579
-15.7098 -12.585 -0.143006
-15.6946 -12.5967 -0.0869095
-15.1635 -13.1275 -0.34499
-13.6203 -13.5571 -2.72028
-15.2557 -13.1021 -0.291096
-15.5157 -13.0573 0.710702
-15.2533 -13.3865 -0.352706
-15.3052 -13.4593 -0.124941
-14.81 -13.6287 -0.544507
-14.9248 -13.5457 -0.253007
-15.0359 -13.6508 -0.162515
-14.2165 -13.9126 -1.29181
-14.2552 -13.9776 -1.31078
-14.0054 -14.0687 -1.34511
-18.2936 -10.5484 -2.87225
-18.7408 -10.47 -2.25964
-20.1708 -10.3353 -0.592639
-20.0203 -10.5039 -0.571828
-19.1937 -10.8479 -1.04672
-16.7594 -11.2801 -3.23592
-19.0899 -11.0606 -0.864741
-18.8241 -10.9568 -1.03324
-16.1072 -11.5487 -3.6863
-18.8312 -11.06 -0.833573
-18.9411 -11.2282 -0.604683
-17.6452 -11.2445 -0.0526971
-15.7149 -11.8196 -2.1972
-15.5016 -11.9046 -1.97069
-16.4612 -12.2753 -0.579908
-15.4986 -12.5217 -1.34492
-14.0108 -12.7134 -2.42524
-14.6374 -12.603 -1.71806
-14.4879 -12.6586 -1.58428
-15.6044 -12.8142 -0.635281
-14.0507 -13.2878 -2.78943
-15.4535 -12.985 -0.28952
-15.8997 -12.8532 0.730661
-14.0254 -13.639 -2.25639
-13.73 -13.7124 -2.59482
-13.984 -13.6371 -2.26136
-13.4718 -13.7983 -2.58338
-17.3958 -11.5606 -1.83348
-15.8091 -11.7449 -2.142
-17.4526 -11.4832 0.146961
-17.5267 -11.5557 -0.144091
-17.3851 -11.5228 0.113095
-17.305 -11.652 0.0171406
-15.4191 -12.3693 -1.68522
-16.0917 -12.2674 -0.694773
-16.3137 -12.3395 -0.515441
-16.415 -12.4642 -0.239942
-13.9678 -12.6901 -2.07135
-15.1595 -12.9835 -0.745195
-15.85 -12.7693 0.549007
-15.2226 -12.9869 -0.643713
-15.8625 -12.9902 0.744683
-15.6559 -13.2163 0.123935
-13.6081 -13.7753 -2.57108
-14.8904 -13.6222 -0.443651
-14.4121 -13.8985 -1.09858
-17.8604 -11.2262 -1.99493
-17.6535 -11.3346 -0.101099
-17.2268 -11.8907 -0.796779
-16.3803 -12.3694 -0.214093
-15.5194 -12.6732 -0.980509
-16.0495 -12.6599 0.76029
-13.6534 -13.8382 -2.4623
-13.9096 -13.7205 -2.11729
-15.4779 -13.4342 0.122067
-20.3158 -10.4407 -0.281873
-17.4358 -11.5253 -0.605727
-16.8072 -12.0155 0.234365
-15.6489 -12.7026 -0.680255
-15.7192 -12.6323 -0.171677
-15.662 -12.7308 -0.0823134
-17.2285 -11.548 -1.06785
-15.695 -12.6469 -0.756212
-15.495 -12.9243 -0.547275
-15.5998 -13.0028 0.688269
-20.1887 -10.5396 -0.0815345
-19.049 -11.1082 -0.753075
-15.67 -12.7667 -0.684702
-15.1134 -13.3934 -0.481064
-15.0708 -12.8097 -1.16317
-15.8916 -12.8071 -0.247967
-15.5755 -12.1719 -1.46423
-15.9003 -12.6699 -0.330356
-14.1741 -13.3917 -1.3763
-20.4802 -10.5994 -1.02536
-20.1184 -10.6221 0.0359251
-19.9493 -10.4865 -0.494418
-16.0949 -11.0638 2.20173
-16.1885 -10.9103 1.74504
-16.0064 -11.1114 1.7022
-15.846 -11.1937 1.77656
-17.2656 -11.7241 0.162344
-16.9882 -10.8191 -3.81981
-16.4548 -12.3397 -0.234532
-15.6832 -12.5646 -0.165594
-15.6657 -12.5312 -0.607551
-15.3924 -12.0239 -1.88117
-15.5442 -13.0489 0.781446
-14.6298 -12.6051 -1.67444
-19.7916 -10.6621 -0.3028
-15.6262 -11.3842 2.53813
-18.0801 -10.2263 -3.39094
-17.3467 -11.5698 0.0222395
-16.7005 -11.5274 -2.91207
-16.3192 -12.4731 -0.285355
-15.862 -12.4527 -0.750843
-15.3707 -11.966 -1.93231
-15.4886 -11.8221 -1.94567
-15.8256 -12.9646 0.716512
-15.6633 -13.0569 0.0999111
-14.6587 -12.6759 -1.60353
-14.5002 -12.6028 -1.60453
-14.495 -12.7155 -1.62587
-14.737 -13.5703 -0.516764
-14.0433 -13.4805 -2.60261
-13.5075 -14.0142 -2.15153
-20.0074 -10.4203 -0.399812
-17.4778 -11.4977 0.16225
-17.4342 -11.4294 -0.00818729
-16.7032 -12.1055 -0.898895
-16.3384 -12.3138 -0.380018
-16.3095 -12.3483 -0.550077
-16.0946 -12.1915 -0.99186
-15.5575 -12.0159 -1.83764
-15.6298 -12.6139 -0.0624347
-15.6582 -12.9967 0.681665
-15.7333 -12.8199 -0.119214
-15.448 -12.9649 -0.292155
-15.26 -13.0832 -0.423843
-14.0304 -12.7627 -2.50312
-14.0271 -13.359 -2.79174
-13.7515 -13.9802 -1.63806
-20.2028 -10.5382 0.0703387
-20.2637 -10.4237 -0.241794
-18.9328 -11.1074 -0.745795
-18.7758 -11.0312 -1.07817
-18.3242 -10.3974 -2.72294
-17.5232 -11.4612 -0.00630956
-17.3053 -11.6609 0.0208226
-16.551 -12.3137 -0.288644
-16.4956 -12.4743 -0.318145
-16.4287 -11.6757 -3.07643
-16.3012 -11.5109 -3.27551
-15.6594 -13.1432 0.191674
-15.6157 -13.1341 -0.060602
-14.7263 -13.5954 -0.695868
-14.6309 -13.4638 -0.845291
-13.4633 -14.1392 -1.84551
-19.6782 -10.5449 -0.738985
-17.8801 -11.2376 -0.115531
-16.4011 -12.4155 -0.0894747
-15.9021 -12.9487 0.778103
-15.5814 -12.4117 -1.36188
-15.3756 -13.0981 -0.159484
-13.88 -13.7922 -2.18978
-17.0379 -11.3617 -1.27688
-16.2856 -12.4049 -0.204933
-15.6026 -12.6183 -0.756434
-15.6201 -13.0124 0.778501
-14.4896 -13.4677 -0.928513
-13.8318 -13.8221 -2.24761
-20.1999 -10.4527 0.0888875
-20.376 -10.4449 -0.286963
-13.0487 -14.2328 -2.33924
-20.1699 -10.5019 -0.348922
-15.8599 -12.1631 -1.3931
-15.9912 -11.06 2.16789
-20.0964 -10.6096 0.0719864
-20.0913 -10.6388 0.00774021
-15.9006 -11.1787 1.84688
-16.0861 -10.8655 1.60164
-16.0466 -11.1584 1.81323
-15.938 -11.0857 1.73492
-19.9267 -10.557 -0.629295
-15.6302 -11.2861 1.81175
-15.6244 -11.3083 1.94223
-15.2755 -11.4731 1.75844
-18.9632 -11.0829 -0.635506
-17.6525 -11.2639 0.0973159
-17.7278 -11.3355 0.191125
-18.6379 -11.0052 -1.29118
-18.3906 -10.8463 -2.02563
-16.2262 -12.6363 0.628377
-16.2034 -12.5934 0.368367
-16.8977 -12.3604 -0.407756
-15.7307 -12.9176 0.699499
-16.4837 -12.4267 -0.181135
-16.4357 -12.3352 -0.28528
-16.6814 -12.0361 -0.74176
-16.5344 -12.3049 -0.198951
-16.4058 -12.373 -0.204489
-16.2165 -12.6666 -0.0852368
-16.8022 -11.9081 -1.32378
-17.5309 -11.2146 -2.20934
-17.899 -10.4708 -3.12952
-16.7018 -12.1315 -1.05749
-15.827 -12.6366 -0.0413331
-18.2438 -10.0519 -3.67577
-15.6979 -12.5457 -0.130094
-15.7277 -12.5247 -0.146963
-16.1697 -12.4004 -0.705075
-17.7404 -10.7942 -3.16009
-15.7181 -13.062 0.021898
-15.6166 -13.1658 -0.00162824
-15.6083 -12.9828 -0.0253037
-16.153 -12.2311 -1.06064
-15.4896 -13.1565 0.0839206
-15.5146 -13.2161 0.0993404
-15.9041 -12.3555 -0.988292
-17.4293 -10.9909 -3.22909
-17.3661 -10.9608 -3.23077
-17.2669 -10.9203 -3.20909
-17.1899 -11.2306 -2.94177
-17.0008 -11.2912 -2.88889
-17.6825 -10.137 -4.41622
-15.3507 -13.2679 -0.121951
-15.4364 -12.9123 -0.385442
-17.47 -10.3521 -4.27112
-15.3137 -13.4867 -0.15908
-15.2701 -13.4292 -0.210674
-15.2552 -12.9685 -0.36707
-17.0269 -10.8169 -3.74156
-16.851 -11.031 -3.69465
-15.0872 -12.975 -0.617384
-16.7924 -10.7558 -4.29568
-15.3539 -12.0799 -1.92194
-15.2161 -12.6374 -1.27008
-16.6938 -10.7997 -4.26197
-16.4985 -10.968 -4.09001
-15.9156 -11.6264 -3.78669
-15.7611 -11.8191 -3.51837
-13.9177 -13.6678 -2.21661
-14.0846 -13.238 -2.91242
-13.9075 -13.2534 -2.91278
-13.684 -13.8297 -2.15426
-13.5809 -14.0571 -2.00242
-13.6638 -13.7545 -2.32592
-13.6378 -13.7836 -2.48143
-13.165 -14.2059 -2.26299
-15.8581 -11.049 1.68019
-15.5885 -11.3743 1.96208
-19.9157 -10.5369 -0.524713
-19.7243 -10.6916 -0.451951
-19.3108 -10.8691 -0.777244
-19.1246 -11.0827 -0.704512
-17.8647 -11.1733 0.0382741
-17.3567 -11.6328 0.274477
-17.3466 -11.482 0.0436753
-16.9758 -11.9913 0.308117
-16.8262 -12.0824 0.359447
-16.7193 -12.0885 0.398847
-18.7674 -10.4145 -2.18439
-16.6925 -12.2913 0.258072
-18.4306 -10.8621 -1.93283
-17.2643 -12.0016 -0.554249
-17.0956 -11.3135 -1.18024
-18.4482 -10.3396 -2.93114
-15.6887 -13.1097 0.722659
-16.3748 -12.4852 -0.231771
-16.911 -11.9667 -1.05048
-16.7902 -12.0014 -1.03621
-16.745 -11.9476 -1.08505
-15.7331 -12.7281 -0.0999264
-15.6761 -12.5029 -0.198187
-15.5727 -13.0556 -0.0371726
-15.9871 -12.1921 -0.983468
-15.585 -13.1146 0.0152474
-16.3015 -11.8869 -1.53479
-17.3926 -10.8011 -3.50506
-15.2741 -13.0744 -0.12805
-16.7352 -11.3613 -3.33031
-15.2526 -12.9224 -0.713544
-16.9639 -10.9552 -3.68362
-15.3481 -12.019 -1.9614
-15.3256 -11.9916 -1.90041
-16.3159 -11.6439 -3.13128
-15.225 -12.0404 -1.92594
-16.2592 -11.3905 -3.76897
-16.2584 -11.3757 -3.76615
-14.9717 -12.6515 -1.54947
-14.8204 -13.3974 -0.974523
-15.9228 -11.7099 -3.69093
-14.5542 -12.6578 -1.72071
-14.6104 -12.1419 -2.425
-13.6951 -13.874 -2.06375
-13.5907 -13.8338 -2.34301
-20.3399 -10.6205 -0.115863
-17.4448 -11.5387 0.144775
-18.8517 -11.0583 -1.09593
-18.4648 -11.0978 -1.46393
-18.4798 -11.1128 -1.49193
-18.8048 -10.517 -2.1402
-16.4062 -12.2728 0.447087
-17.1333 -11.7879 -0.915152
-18.1675 -10.728 -2.60951
-16.2125 -12.505 -0.203369
-16.4421 -12.2837 -0.494435
-16.7098 -11.9967 -1.03382
-16.004 -12.4756 0.0282197
-17.9982 -10.4641 -3.24475
-15.8383 -12.5222 -0.00306697
-15.7619 -12.7863 -0.0352655
-15.6962 -12.8965 0.058589
-15.6033 -13.0614 0.0764972
-16.4019 -12.0698 -1.41331
-16.0077 -12.299 -1.05399
-15.9032 -12.3618 -0.886831
-15.3532 -13.0871 -0.174191
-17.4639 -10.4939 -3.88183
-17.37 -10.5497 -3.92841
-15.1844 -13.4455 -0.385769
-16.4205 -11.6151 -3.1052
-15.4949 -11.9325 -1.94074
-15.5056 -11.9202 -2.01216
-15.4786 -11.8758 -1.97249
-14.9426 -12.7231 -1.55827
-14.5693 -13.3279 -1.23877
-14.6044 -12.6236 -1.69935
-14.5137 -12.6653 -1.66258
-14.5785 -12.7251 -1.58214
-14.4705 -12.2419 -2.28452
-13.4641 -13.7637 -2.63414
-13.0595 -14.0332 -2.60844
-20.2222 -10.509 -0.043507
-17.7928 -11.1959 -0.0223088
-16.0267 -12.8403 0.774929
-16.0745 -12.6534 0.425841
-17.0892 -11.6331 -0.942239
-15.6716 -13.1203 0.632077
-15.6316 -13.0441 0.754404
-15.7857 -12.7286 -0.00834893
-15.759 -12.6309 -0.0419512
-15.7639 -12.7429 -0.0949157
-15.6209 -13.1348 0.193172
-15.6662 -13.0944 0.122453
-16.4788 -12.036 -1.31413
-17.5293 -10.4627 -3.69171
-16.152 -11.7086 -2.05868
-15.3872 -12.9497 -0.367491
-16.7064 -11.5124 -2.9171
-15.8947 -11.5157 -2.2057
-15.2312 -13.0842 -0.76212
-16.4664 -11.5396 -3.22891
-16.3656 -11.5785 -3.1681
-15.1628 -12.8478 -1.09034
-15.3422 -12.5986 -1.44544
-16.2712 -11.6735 -3.31383
-14.4869 -12.6713 -1.62887
-14.3276 -12.1405 -2.60246
-14.2422 -13.9234 -1.34921
-14.2538 -13.1544 -1.75157
-13.8803 -13.2856 -1.43976
-14.2319 -13.514 -2.10851
-13.8188 -13.9932 -1.73325
-13.988 -13.371 -2.74675
-13.7409 -13.7761 -2.29037
-13.6302 -13.7339 -2.61722
-15.8448 -11.1186 1.7354
-19.6584 -10.5657 -0.826663
-17.8124 -11.2672 0.00842118
-18.956 -11.117 -0.766031
-17.0347 -11.7626 0.162777
-16.765 -12.1025 0.36904
-18.1119 -11.0754 -1.81435
-18.0998 -11.1899 -1.8242
-17.0582 -12.1361 -0.547199
-17.145 -11.2173 -1.1843
-15.8798 -12.7538 0.581786
-17.9087 -10.8499 -2.51613
-16.1424 -12.2744 -0.769821
-16.1035 -12.3046 -0.729256
-17.4252 -10.9967 -3.05609
-15.27 -13.502 -0.0632557
-15.2874 -13.0313 -0.492686
-15.1577 -13.0607 -0.654165
-14.881 -13.533 -0.516684
-15.0336 -12.5825 -1.52363
-14.8139 -12.3914 -2.12426
-14.5389 -12.6148 -1.67867
-20.2261 -10.4337 -0.279062
-17.3733 -11.6521 0.0946495
-18.248 -11.3043 -1.18707
-18.2728 -11.1584 -1.54484
-15.6538 -13.0793 0.045313
-15.2275 -12.9204 -0.630756
-14.8141 -13.3748 -1.063
-14.2676 -12.7879 -1.9861
-18.9562 -10.9211 -1.10234
-17.0857 -11.7717 0.237787
-17.1566 -11.8241 -0.0125961
-18.1977 -11.2768 -1.40652
-16.1085 -12.6792 0.479765
-16.4816 -12.4077 -0.253468
-15.3172 -12.9097 -0.665983
-15.2915 -12.1639 -1.94294
-15.2113 -12.4502 -1.62409
-14.1941 -12.994 -1.85473
-14.1265 -13.9166 -1.34115
-13.9199 -12.7579 -2.16784
-15.7755 -13.0046 0.704231
-12.8369 -14.2088 -2.56937
-15.744 -12.8583 -0.167317
-15.7687 -12.6781 -0.560455
-14.4712 -13.1023 -1.6272
-16.0066 -12.5869 -0.598043
-15.2288 -12.611 -1.47801
-14.3441 -12.9286 -1.95614
-15.8019 -12.6546 -0.527263
-15.0688 -12.9553 -0.951962
-14.4333 -13.6251 -0.792215
-14.4985 -13.3738 -1.04046
-13.1224 -14.1295 -2.28774
-13.3519 -13.9347 -2.43761
-13.5509 -13.9081 -2.34072
-13.5466 -13.9808 -2.3043
-13.7974 -13.6727 -2.43829
-15.9065 -11.7121 -3.64395
-15.9054 -11.5785 -3.75909
-16.0828 -11.5394 -3.71096
-17.3523 -10.3615 -4.13662
-13.9171 -13.9696 -1.74044
-16.1994 -11.6854 -3.20367
-17.6423 -10.3 -4.01854
-16.5419 -11.4115 -3.29979
-16.518 -11.5447 -3.22751
-17.2048 -11.141 -3.21211
-15.4047 -12.3313 -1.76658
-17.6641 -10.8563 -3.25734
-15.407 -12.3567 -1.67718
-17.3198 -11.1052 -2.8307
-15.323 -12.5971 -1.34564
-14.7252 -13.2833 -1.1841
-15.1574 -12.7154 -1.31319
-18.168 -10.5289 -3.1177
-16.2248 -11.9409 -1.81094
-15.6249 -12.4979 -1.13012
-18.8238 -10.4169 -2.41794
-17.2748 -11.2363 -1.12104
-16.2582 -12.3039 -0.605203
-15.3645 -13.4593 -0.215323
-18.9319 -10.5691 -1.89688
-17.0675 -11.8922 -0.7655
-17.4035 -11.7962 -0.756549
-15.4424 -13.2364 0.0719756
-18.3284 -11.3495 -1.22706
-15.5191 -13.1693 -0.0160445
-17.3997 -11.5359 -0.596701
-19.298 -10.6553 -1.26776
-19.1984 -10.6215 -1.18319
-19.0481 -11.0823 -0.762775
-19.1425 -10.8949 -0.856898
-16.1025 -12.7392 0.587651
-17.4948 -11.4374 0.0947272
-19.4249 -10.5978 -0.888472
-19.0769 -11.0583 -0.752757
-19.5725 -10.6493 -0.820493
-16.4124 -12.4487 0.431338
-16.9806 -11.9087 0.335467
-16.4519 -12.3999 0.524292
-17.3355 -11.7026 0.26355
-16.6062 -12.2565 0.630666
-19.953 -10.6356 -0.443533
-15.5437 -11.4598 1.79703
-13.9061 -13.6429 -2.28152
-13.8384 -13.7476 -2.1454
-13.9431 -13.9149 -1.78292
-16.2966 -11.5786 -3.0708
-15.3602 -11.9485 -1.8565
-16.9229 -11.3402 -3.05539
-14.3057 -13.9436 -1.28112
-17.0555 -11.3142 -2.96075
-15.1881 -12.5831 -1.35056
-15.3336 -12.5695 -1.53064
-15.215 -12.6091 -1.45642
-17.6441 -11.0183 -2.64666
-15.2361 -12.9146 -0.694421
-14.7985 -13.4895 -0.566767
-15.2395 -13.4343 -0.353272
-15.1078 -13.5092 -0.256637
-15.536 -13.026 -0.150745
-15.7168 -12.6289 -0.277966
-17.142 -11.9248 -0.91151
-16.8231 -12.218 -0.714186
-18.5816 -11.1713 -1.21647
-17.5322 -11.5436 -0.500324
-15.6246 -13.0134 0.74295
-19.0519 -11.0686 -0.628297
-20.2912 -10.4574 -0.0370802
-13.6932 -13.7776 -2.2962
-15.3288 -11.5064 -2.57477
-13.9075 -14.0706 -1.45055
-15.1609 -12.4322 -1.6507
-14.2865 -13.8627 -1.28461
-15.576 -12.4671 -1.42608
-15.9996 -12.3354 -0.909084
-18.6055 -10.6439 -1.98319
-15.7389 -12.9022 0.000122674
-18.9025 -11.0008 -1.21266
-18.744 -11.1477 -0.865903
-17.5462 -11.5586 -0.303854
-16.8602 -12.2171 0.107419
-15.8534 -12.7657 0.509528
-19.2125 -10.9636 -0.721549
-17.807 -11.3152 0.160961
-18.6128 -10.4001 1.0111
-13.1102 -14.2569 -2.33784
-16.0614 -11.6275 -3.7877
-13.5166 -14.1247 -1.86778
-15.262 -11.623 -2.45466
-14.3259 -13.8517 -1.35492
-17.7586 -10.9697 -2.60497
-14.8068 -13.1093 -0.750201
-18.2478 -10.5304 -2.69599
-16.1467 -12.4339 -0.566088
-15.7242 -12.9004 0.548766
-16.9244 -11.9052 0.124866
-16.3319 -12.5753 0.625459
-16.1725 -10.8105 1.64438
-14.089 -13.3156 -2.7939
-16.154 -11.5014 -3.8191
-14.6252 -12.6917 -1.5817
-17.1572 -11.0723 -3.10993
-15.1273 -12.6258 -1.32357
-17.8507 -11.012 -2.60381
-15.5572 -12.8563 -0.776214
-15.4821 -12.9875 -0.169289
-19.0963 -10.7091 -1.2447
-17.482 -11.3761 -0.0785992
-15.6401 -13.0741 0.699187
-13.703 -13.7794 -2.5012
-15.5251 -11.9672 -1.83525
-15.4817 -11.976 -1.88667
-15.5469 -12.5176 -0.93874
-15.3222 -13.457 -0.0960371
-17.5723 -11.3306 -1.0729
-15.7547 -12.8773 -0.0230743
-15.3871 -12.9759 -0.490497
-15.8514 -12.6991 0.0283344
-16.95 -12.0408 0.364898
-15.9542 -10.9222 1.6679
-15.4987 -12.1453 -1.80101
-15.5461 -13.1436 0.0705337
-15.117 -12.9593 -0.844529
-17.5236 -11.3595 -0.00440405
-14.4141 -12.9832 -1.68695
-14.3592 -13.1147 -1.47615
-15.5676 -12.9263 -0.655769
-16.2733 -12.5149 -0.638966
-15.5717 -13.0313 -0.278422
-17.5282 -10.2459 -4.29409
-16.5701 -11.0782 -4.05489
-17.3514 -10.7287 -3.72275
-17.475 -10.5674 -3.6775
-17.5125 -10.5744 -3.6813
-14.0856 -12.5703 -2.63435
-17.8246 -10.6086 -3.35702
-17.3449 -10.9723 -3.1639
-17.7246 -10.8022 -3.07662
-15.0825 -12.1318 -2.13749
-14.85 -12.361 -2.14697
-13.4295 -13.9348 -2.39309
-18.4097 -10.4216 -2.86582
-18.0076 -10.7631 -2.80452
-15.2744 -12.0457 -1.94157
-13.9289 -13.6443 -2.25954
-13.549 -13.9435 -2.37679
-13.814 -13.6919 -2.24863
-16.0661 -11.8889 -1.9765
-17.8687 -10.9754 -2.48905
-14.6057 -12.6898 -1.68081
-17.7398 -10.9955 -2.47416
-14.7075 -12.4952 -1.58225
-13.8456 -13.802 -2.2033
-15.4318 -12.2736 -1.81058
-17.5454 -11.2822 -2.32111
-15.3164 -12.4283 -1.76435
-13.5819 -13.9875 -1.90386
-15.3005 -12.3726 -1.76306
-18.8648 -10.446 -2.31562
-18.6609 -10.4509 -2.25136
-15.0639 -12.5746 -1.50578
-15.0014 -12.6347 -1.53661
-13.9858 -13.8749 -1.84688
-18.8144 -10.5284 -2.22941
-16.3463 -11.7559 -1.4924
-16.3423 -12.0409 -1.53909
-15.189 -12.6714 -1.3803
-15.3001 -12.6702 -1.33573
-16.6829 -11.9755 -1.31176
-14.0211 -13.9837 -1.49627
-15.9095 -12.2754 -1.01322
-17.2549 -11.71 -0.960984
-18.9348 -10.9684 -1.08691
-18.9711 -11.0118 -0.903054
-19.6031 -10.5893 -0.919877
-15.5967 -12.7926 -0.530211
-17.3112 -12.0431 -0.552208
-15.6803 -12.6829 -0.247949
-15.3916 -13.0308 -0.33363
-14.8821 -13.6221 -0.437284
-16.356 -12.4671 -0.272011
-16.2208 -12.5026 -0.192762
-15.3189 -13.2448 -0.127122
-15.655 -12.8554 -0.0583301
-15.5118 -13.1285 0.104969
-15.505 -13.2016 0.0968651
-15.8784 -10.8985 1.50188
-15.8655 -11.0588 1.63557
-16.4184 -12.5336 0.598343
-15.7381 -12.9412 0.68466
-15.7567 -13.0125 0.64965
-15.5209 -11.341 1.77971
-16.0177 -11.0459 1.94979
-15.5905 -11.4051 1.76029
-16.8211 -10.9827 -3.71551
-16.9177 -11.0655 -3.61378
-16.7281 -11.0739 -3.59258
-16.3055 -11.4066 -3.50528
-17.1693 -10.8247 -3.42753
-14.4789 -12.1916 -2.4525
-16.68 -11.3158 -3.40332
-17.9352 -10.4609 -3.48367
-13.773 -13.707 -2.48616
-16.8614 -11.3048 -2.7941
-17.3967 -11.1734 -2.73786
-13.3703 -14.0135 -2.35677
-13.4192 -13.9207 -2.34001
-15.5618 -11.8743 -2.07415
-13.3296 -13.8883 -2.28574
-14.5331 -12.7972 -1.60537
-13.7151 -13.9303 -2.06284
-15.2276 -12.5274 -1.48519
-16.6972 -11.8086 -1.38224
-18.4032 -11.055 -1.65794
-16.0302 -12.344 -1.04642
-18.3271 -11.0517 -1.43279
-16.1073 -12.2534 -1.01525
-16.6595 -12.1244 -0.712213
-16.8354 -12.2679 -0.675224
-16.2778 -12.4399 -0.410886
-15.2607 -13.0477 -0.470029
-15.237 -13.2095 -0.275925
-15.303 -13.0454 -0.393731
-16.3839 -12.4461 -0.167776
-16.8225 -12.0236 0.340048
-15.6445 -13.174 0.183319
-16.5619 -12.3879 0.576426
-15.6046 -12.979 0.671801
-17.971 -10.4312 -3.17956
-14.0454 -13.1816 -2.73124
-14.5976 -12.5565 -1.83021
-14.6042 -12.8614 -1.48997
-15.4008 -12.4216 -1.67726
-17.0957 -11.1755 -1.25998
-18.308 -11.2006 -1.2264
-16.6222 -12.1704 -1.05947
-16.5829 -12.1656 -1.0278
-16.2733 -12.3939 -0.679351
-15.2269 -13.1509 -0.257667
-15.9891 -12.6037 -0.0143318
-20.2643 -10.3084 0.118358
-16.0837 -10.8433 1.40544
-18.5384 -10.3661 0.973261
-16.0154 -10.891 1.64669
-15.5667 -11.0799 2.39331
-17.3579 -10.2089 -4.43453
-17.3678 -10.9566 -3.10309
-13.8699 -12.7771 -2.08453
-15.3436 -11.833 -2.14669
-18.3404 -10.4439 -2.76415
-15.949 -12.0894 -1.16557
-15.4963 -12.5655 -1.03667
-18.5626 -11.0618 -1.12882
-18.3489 -11.3399 -1.14253
-19.0795 -10.967 -0.870871
-18.8372 -11.1488 -0.926837
-17.8305 -11.217 -0.0543143
-20.1531 -10.4371 0.065442
-15.9935 -12.8287 0.660866
-14.071 -12.7434 -2.46208
-15.6813 -12.4856 -1.091
-18.3712 -11.2487 -1.36331
-16.0655 -12.3211 -0.959606
-17.832 -11.2903 -0.288953
-15.7577 -12.8085 0.0806856
-20.2344 -10.4157 0.0856078
-15.7656 -11.132 1.69045
-14.559 -12.2389 -2.41669
-15.5239 -12.242 -1.78008
-16.3581 -11.7189 -1.72424
-18.2185 -11.15 -1.79685
-15.1919 -12.8483 -1.02713
-14.4014 -13.4015 -1.01225
-20.1852 -10.246 0.150789
-15.0122 -13.1759 -0.693268
-15.5819 -12.6322 -0.854089
-15.9038 -12.867 0.88126
-15.8232 -12.7055 -0.312483
-14.5913 -12.0038 -2.64356
-14.2026 -13.1739 -1.888
-17.2031 -10.7681 -3.7281
-17.236 -10.8147 -3.70099
-17.7982 -10.9911 -2.44006
-14.6992 -12.1016 -2.62425
-15.4616 -11.7555 -2.28467
-15.3288 -12.0465 -1.97145
-19.8979 -10.571 -0.475607
-16.7042 -11.8104 -1.43055
-15.54 -12.3577 -1.55311
-20.0626 -10.5232 0.0313421
