-17.109 -11.4041 -2.30902
-17.8748 -11.0662 -1.76916
-17.3433 -11.4193 -2.02978
-14.9964 -12.2561 -3.79987
-16.5207 -11.58 -0.950579
-15.8433 -12.0092 -2.92805
-18.3033 -11.167 -0.777652
-17.1559 -11.5695 -1.75949
-14.6535 -12.6287 -3.84073
-14.5805 -12.6136 -3.72592
-14.8998 -12.281 -1.69794
-15.7471 -12.1381 -1.36898
-16.8282 -11.6584 0.318156
-14.6516 -12.4021 -1.64762
-14.8827 -12.38 -1.54469
-14.6717 -12.5249 -1.63302
-14.7766 -12.4158 -1.68475
-14.0791 -12.8621 -3.51375
-14.5753 -12.631 -1.94726
-14.8107 -12.4465 -1.47308
-14.8795 -12.4546 -1.41461
-16.6413 -11.8795 0.476116
-14.3329 -12.6944 -1.80389
-16.525 -11.9289 0.424832
-13.4733 -13.0255 -2.50746
-13.5122 -13.0477 -2.40678
-16.6267 -11.8194 0.513874
-13.9165 -13.1706 -3.36632
-13.6637 -13.2057 -3.3591
-16.4316 -12.2214 -0.619821
-16.4925 -12.152 -0.392977
-13.6939 -13.1347 -2.32717
-16.1028 -12.396 -0.757354
-14.0357 -13.0592 -1.54704
-15.4282 -12.5717 -0.696494
-14.0273 -12.9749 -1.5266
-15.6381 -12.5408 -0.449927
-15.6336 -12.5883 -0.39946
-14.7764 -12.8948 -1.0793
-14.0594 -13.0282 -1.3254
-14.7143 -12.8425 -1.12792
-15.3759 -12.6056 -0.590162
-15.6786 -12.5941 -0.207031
-14.8035 -12.8751 -1.04822
-15.5551 -12.6746 -0.345914
-13.4775 -13.297 -2.19273
-14.0781 -13.0922 -1.19379
-13.9404 -13.114 -1.22943
-14.6203 -12.9827 -1.04216
-14.0378 -13.2182 -1.22308
-14.5596 -12.9059 -0.980004
-15.8837 -12.3283 1.06156
-15.0858 -12.7519 0.173781
-15.9338 -12.6482 0.211848
-15.7495 -12.5668 0.0952539
-13.461 -13.7759 -3.04915
-15.7101 -12.6029 0.284274
-14.0282 -13.346 -1.31864
-13.9418 -13.3532 -1.21515
-15.0228 -12.8564 0.173171
-15.1583 -12.7996 0.142268
-15.0687 -12.9295 -0.153841
-14.0156 -13.2284 -0.999137
-15.0706 -12.8671 0.182197
-13.8166 -13.3112 -1.31034
-13.9909 -13.3187 -1.16341
-15.1329 -12.95 0.17233
-15.619 -12.6732 0.787527
-14.987 -12.9394 0.224084
-15.0936 -12.9968 0.268119
-15.1191 -12.9987 0.33789
-14.592 -13.1983 -0.358419
-14.5218 -13.2909 -0.31414
-14.9383 -13.2256 -0.143668
-14.4981 -13.3246 -0.2118
-15.2562 -12.9797 1.0296
-14.6847 -13.4187 -0.143977
-15.0192 -13.2159 0.348623
-15.096 -13.1272 1.1027
-14.9039 -13.2312 0.382065
-13.5259 -14.0515 -2.04212
-15.0082 -13.1948 1.06662
-13.1736 -14.0777 -2.30193
-14.3041 -13.7199 -0.510613
-14.7805 -13.3288 0.233178
-14.9817 -13.3772 0.498121
-12.9719 -14.329 -2.35823
-14.8445 -13.3632 0.479861
-13.3643 -14.2698 -1.71041
-12.8578 -14.4095 -2.20836
-14.6115 -13.6341 0.0286281
-13.5226 -14.2646 -1.26223
-14.3818 -13.8173 0.121059
-13.6236 -14.31 -1.13001
-14.8063 -13.7584 0.499762
-12.5228 -14.6679 -2.1275
-13.4453 -14.3403 -1.2569
-13.0106 -14.5606 -1.71334
-13.3629 -14.3543 -1.21988
-12.3724 -14.8205 -2.26854
-17.1061 -11.0467 -3.40415
-17.6852 -10.9884 -2.5387
-15.4697 -11.8636 -4.32337
-17.9562 -10.9736 -2.02891
-16.8076 -11.5258 -2.81434
-15.4115 -12.0022 -3.98254
-15.4267 -12.0698 -3.90382
-14.94 -12.2472 -4.31017
-18.1023 -11.1084 -1.44243
-15.1858 -12.2337 -2.1527
-16.9639 -11.5087 0.141645
-14.7363 -12.3711 -1.70024
-14.7873 -12.481 -1.54431
-13.8087 -12.9784 -2.51749
-13.7862 -13.13 -3.26618
-13.7924 -13.1398 -3.42916
-14.8342 -12.6635 -1.48942
-16.5602 -11.8031 0.581788
-14.1815 -12.863 -1.71645
-13.6649 -13.2981 -3.32489
-14.7845 -12.7948 -1.36989
-13.761 -13.4942 -3.27151
-15.3076 -12.611 -0.706826
-15.2599 -12.7029 -0.768513
-15.576 -12.6996 -0.443889
-16.1531 -12.282 0.354516
-15.3845 -12.7405 -0.578822
-15.4234 -12.6765 -0.488333
-16.0919 -12.2598 0.727945
-13.8094 -13.2724 -1.61131
-15.6111 -12.6394 -0.271368
-15.4598 -12.6579 -0.364437
-15.7821 -12.4857 -0.191277
-15.7877 -12.663 -0.1861
-14.0528 -13.1015 -1.24244
-15.568 -12.6472 -0.163476
-15.4247 -12.6568 -0.341542
-13.9614 -13.1931 -1.24523
-15.8458 -12.6601 -0.00859451
-13.7825 -13.2521 -1.24264
-13.9051 -13.2136 -1.23299
-15.7523 -12.5838 -0.00741385
-15.8201 -12.6227 0.203935
-13.9064 -13.3364 -1.38445
-15.1618 -12.8336 0.226998
-15.0747 -12.9145 0.25538
-14.564 -13.1731 -0.770187
-15.6437 -12.5721 0.785005
-15.0634 -12.9945 0.157415
-13.6017 -13.8764 -2.35893
-14.2908 -13.3127 -0.492712
-14.7496 -13.2774 0.0361529
-14.6862 -13.2959 0.0136825
-14.4889 -13.3085 -0.198428
-14.5453 -13.327 -0.233268
-13.4739 -13.9829 -2.15706
-14.8741 -13.2157 0.150925
-14.8151 -13.319 0.0389063
-14.7452 -13.3697 0.0255126
-14.8177 -13.3014 0.113862
-14.7146 -13.3908 0.198707
-15.0728 -13.0482 1.1448
-15.0707 -13.2474 0.889843
-13.4945 -14.0746 -1.90885
-14.7737 -13.1816 1.01323
-14.9427 -13.4098 0.546417
-14.8379 -13.3697 0.498212
-12.9532 -14.2729 -2.24908
-13.4186 -14.2079 -1.69036
-14.126 -13.8007 -0.212915
-12.6396 -14.5184 -2.32887
-14.3066 -13.8322 0.0214323
-14.2265 -13.8077 -0.196048
-14.7784 -13.8407 0.482787
-18.2119 -9.00736 -5.80729
-15.5464 -11.8924 -4.0114
-13.9181 -12.494 -2.41281
-14.0419 -12.6685 -2.29735
-14.8604 -12.3558 -1.70481
-14.9138 -12.3359 -1.56393
-13.9951 -12.7896 -2.25009
-16.7385 -11.7019 0.330261
-16.429 -11.8352 0.401156
-13.9091 -12.9847 -2.52283
-13.9145 -13.1629 -3.33904
-13.7319 -13.0873 -3.33843
-15.997 -12.258 -0.799166
-15.4347 -12.5909 -0.63412
-15.0636 -12.7207 -1.02742
-13.384 -13.2561 -1.79314
-13.6024 -13.6452 -3.05064
-15.0575 -12.8632 0.39075
-15.2818 -12.8058 0.832789
-14.6437 -13.3452 -0.286865
-13.3551 -13.7127 -1.05892
-14.6473 -13.4216 -0.095899
-14.8731 -13.3773 0.184791
-14.6608 -13.3819 -0.0115855
-13.5476 -13.9601 -1.88787
-15.1578 -13.1351 1.04006
-14.8608 -13.334 0.329157
-14.2181 -13.6424 -0.718047
-14.9775 -13.4207 0.559217
-12.9083 -14.3788 -2.28162
-13.2459 -14.227 -1.80174
-13.2816 -14.2173 -1.77581
-12.7371 -14.3978 -2.41663
-14.7382 -13.7148 0.236918
-14.1016 -13.9441 -0.117241
-12.397 -14.7381 -2.05441
-15.4047 -12.0149 -4.1689
-15.4837 -12.0106 -2.0241
-16.9366 -11.7843 -0.285831
-16.7649 -11.8274 -0.113443
-16.4788 -11.9338 0.321501
-13.6811 -12.9963 -2.64569
-13.9005 -13.0968 -3.37545
-16.5508 -12.2572 -0.235732
-16.227 -12.0946 0.666053
-13.3393 -13.292 -2.13297
-15.3633 -12.8272 0.812519
-14.6627 -13.2741 0.0910775
-15.0246 -13.1483 0.887725
-12.9239 -14.2655 -2.36896
-12.8276 -14.3417 -2.35741
-12.7962 -14.5017 -2.35448
-18.1707 -11.1496 -0.883394
-15.5311 -12.088 -1.80401
-13.9319 -12.6402 -2.41727
-13.9676 -12.7351 -2.89499
-15.4433 -12.646 -0.559976
-14.9779 -12.9012 -0.63158
-15.0487 -12.8801 -0.268882
-14.8142 -13.1355 -0.17545
-14.5339 -13.2598 -0.268433
-14.6418 -13.3437 -0.257803
-13.3443 -13.7618 -1.03877
-14.2981 -13.927 -0.112351
-12.5351 -14.6456 -2.03909
-18.2184 -8.83475 -5.51792
-18.2095 -9.02364 -5.6683
-14.9974 -12.547 -1.38161
-14.9857 -12.8225 -0.381938
-15.1011 -12.7753 0.120379
-13.6879 -13.7835 -0.915811
-15.0301 -12.9099 -0.517259
-13.7559 -13.4045 -1.42388
-14.2982 -13.6191 -0.629824
-12.3052 -14.819 -2.27543
-13.9885 -13.2719 -1.09078
-14.3408 -12.1986 -2.68251
-14.8808 -12.4199 -1.49709
-14.9362 -12.4719 -1.48286
-14.9184 -13.0773 -0.684315
-14.5391 -13.2644 -0.566632
-14.1967 -13.3194 -0.675072
-14.4078 -13.629 -0.439357
-14.4648 -13.5186 -0.254127
-14.698 -12.6003 -1.65499
-13.6394 -14.0853 -1.93875
-16.8465 -11.7892 -0.755116
-16.1462 -11.9157 -0.999319
-19.603 -10.1815 -0.958568
-18.3332 -11.125 -0.753869
-16.7548 -11.689 0.247195
-18.0618 -10.8742 -2.07867
-18.0477 -10.8895 -2.1456
-17.9458 -10.6712 -2.89634
-16.7072 -10.9008 -4.54307
-16.7114 -11.2391 -3.47946
-16.7046 -10.9339 -4.77337
-15.9121 -12.3505 -1.07654
-16.3145 -10.7861 -5.6429
-15.1955 -13.0586 1.0817
-15.5427 -12.5621 -0.43189
-16.1913 -11.1313 -4.65889
-15.0557 -12.7448 0.175183
-15.0446 -12.7988 0.0842422
-15.0734 -13.0056 0.247122
-14.9017 -12.3619 -1.67977
-14.9915 -13.1263 0.262718
-15.1114 -12.9642 0.154261
-15.0132 -13.1756 0.349876
-15.0396 -13.1721 0.418149
-15.1778 -13.158 -0.0220451
-14.6614 -12.4327 -1.64277
-15.1573 -13.1104 -0.15414
-15.0666 -13.1263 -0.223383
-14.8975 -12.9162 -0.675501
-15.0133 -13.3686 0.454289
-14.9343 -13.1637 -0.340532
-14.9788 -13.3119 0.411482
-14.6637 -13.0179 -1.00448
-14.9074 -12.4383 -3.8287
-13.998 -13.1045 -1.35981
-14.7353 -12.5308 -3.75906
-14.0504 -13.3636 -0.987902
-14.6879 -12.607 -3.93467
-13.8125 -13.1164 -1.32163
-14.4465 -13.863 0.242956
-13.6874 -12.8744 -2.73247
-14.03 -12.9999 -3.39346
-13.8752 -13.0526 -3.43994
-13.4314 -13.6609 -3.24456
-12.9061 -14.3789 -2.50571
-12.9417 -14.2683 -2.609
-12.6221 -14.5126 -2.38157
-19.5762 -10.2072 -0.977242
-19.3563 -10.1158 -1.19091
-18.2293 -8.91794 -5.47094
-18.204 -8.96708 -5.61309
-17.9317 -10.9114 -2.18234
-15.9168 -12.3894 0.997833
-16.5847 -11.805 -2.16791
-15.7228 -12.5659 -0.00973294
-15.3549 -12.5009 -0.697578
-15.4467 -12.5523 -0.478618
-15.1343 -12.741 0.292064
-15.3167 -12.4767 -1.17873
-15.0702 -12.8914 0.192207
-15.1344 -12.9323 0.20434
-15.1718 -12.9145 0.0183869
-15.0934 -12.8602 0.259884
-15.7312 -11.6854 -4.51922
-14.7734 -12.4549 -1.55035
-14.7164 -12.4619 -1.6575
-15.5807 -11.501 -4.95067
-14.6509 -12.4376 -1.71434
-14.9478 -13.2792 0.217039
-14.7286 -13.3453 0.436422
-14.8151 -13.3793 0.408527
-14.7333 -13.2369 0.0217302
-14.7647 -13.4118 0.100351
-14.6436 -13.4859 0.0261991
-14.076 -13.0932 -1.34405
-13.9922 -13.0707 -1.19567
-14.6876 -12.609 -3.90265
-13.8483 -13.2348 -1.30502
-14.28 -13.9496 -0.115199
-13.6545 -13.2109 -2.37545
-13.6488 -13.1776 -2.3117
-14.0299 -13.0623 -3.52316
-13.5599 -14.2103 -1.21728
-13.5851 -14.2733 -1.29945
-12.7246 -14.5603 -2.2989
-12.3557 -14.6706 -2.21395
-18.6904 -10.8601 -0.827172
-18.1258 -8.87229 -5.60543
-16.7342 -11.7515 0.415995
-16.0001 -12.3737 0.730651
-16.1239 -12.4177 -0.712788
-15.5366 -11.9945 -1.89461
-15.6822 -12.6553 -0.169674
-15.4607 -11.9869 -1.80033
-15.4483 -12.5461 -0.705554
-14.9879 -12.8287 0.153478
-15.145 -12.8627 0.300179
-15.1657 -12.9572 0.284492
-15.6849 -11.3636 -5.0154
-15.0762 -12.9631 -0.385225
-15.5735 -11.7872 -4.26689
-14.7428 -13.4064 0.394725
-14.7385 -13.5173 0.305489
-13.8968 -12.5989 -2.33833
-13.8877 -12.7479 -2.27753
-14.0263 -13.1825 -1.12243
-14.3007 -13.6687 -0.546812
-14.3964 -13.7858 0.0076005
-13.8044 -12.9957 -2.51009
-13.6177 -13.1749 -2.19264
-13.5301 -13.2259 -2.08407
-13.9108 -13.1711 -3.3654
-13.6422 -13.388 -3.22582
-13.6745 -13.5349 -3.27191
-13.5156 -13.918 -2.11164
-13.0039 -14.4511 -1.90152
-12.8732 -14.332 -2.31439
-16.7326 -11.7809 0.157975
-16.4054 -11.6607 -0.962267
-15.6438 -12.6958 0.796563
-15.4854 -12.6965 0.780292
-15.2764 -12.8776 0.843166
-15.0648 -13.0556 1.09788
-14.8902 -12.4826 -1.366
-14.7771 -12.4623 -1.6421
-14.0461 -12.5576 -2.27954
-13.9567 -12.7547 -2.27965
-13.9776 -12.6303 -2.76533
-13.7934 -13.1898 -3.38006
-13.6291 -14.0092 -1.84658
-13.6127 -14.0377 -1.92508
-13.1622 -14.1778 -2.43794
-12.8558 -14.3863 -2.44418
-16.6546 -11.7643 0.548561
-16.5511 -11.8492 0.360294
-16.182 -12.0418 0.513156
-16.5602 -11.558 -0.776191
-15.4046 -12.7676 0.916883
-14.0242 -12.6142 -2.26411
-14.0363 -13.0475 -1.4475
-14.0652 -13.1688 -1.088
-13.8756 -13.1027 -1.28539
-13.6213 -13.7781 -0.900654
-13.0529 -14.4178 -1.47283
-15.4881 -12.7734 0.838139
-15.8102 -12.2613 -1.04569
-14.8527 -13.1664 0.00168298
-14.7616 -13.6856 0.516356
-13.87 -13.1209 -1.22078
-14.189 -13.8427 -0.165016
-13.4364 -13.6712 -1.02175
-13.2829 -14.2042 -1.93538
-15.7016 -12.0977 -1.38192
-15.1924 -13.1293 -0.0321339
-14.4297 -12.9514 -1.38139
-14.2697 -13.3947 -0.843798
-12.5894 -14.6296 -2.06562
-14.6553 -12.5141 -1.69034
-14.9432 -12.7916 -1.1942
-14.8464 -13.0029 -0.464622
-14.7651 -13.0254 -0.760636
-14.1539 -12.8823 -1.36479
-13.8642 -13.5202 -1.33096
-14.3003 -13.286 -0.666055
-14.1823 -13.3149 -0.982055
-13.8832 -13.5556 -1.12642
-14.9272 -13.0892 -0.609337
-15.8868 -12.167 -1.21817
-15.0055 -13.2764 0.370566
-13.5922 -14.0679 -1.88735
-16.7452 -11.7427 -0.900105
-16.303 -12.102 -0.884312
-15.4878 -10.9674 1.99216
-15.0903 -11.2193 1.95279
-19.4123 -10.1719 -1.19141
-19.4594 -10.1151 -1.2537
-16.9286 -11.6179 0.270456
-16.2949 -12.0811 0.521771
-15.7076 -12.6064 0.851317
-16.8902 -11.813 -0.202363
-15.5374 -12.6164 0.909166
-15.5239 -12.7719 0.970687
-15.3701 -12.7732 0.873233
-17.9698 -11.1767 -1.61293
-16.376 -12.1807 -0.333351
-15.9521 -12.6869 0.375851
-15.7345 -12.6113 0.0477156
-16.0778 -12.4558 -0.440111
-15.7298 -12.5866 -0.183575
-15.0137 -12.7742 0.203976
-15.6733 -12.5924 -0.26384
-15.007 -13.3567 0.556181
-17.0071 -11.8241 -1.66138
-15.0697 -13.1613 0.368759
-15.0037 -12.9998 0.272157
-15.0424 -12.9485 0.227771
-15.0057 -12.9795 0.173772
-16.125 -12.331 -0.754448
-15.0025 -13.0976 0.390104
-14.9584 -13.0986 0.358956
-15.6695 -12.493 -0.458723
-15.0954 -12.8728 0.209763
-14.9899 -13.1833 0.310585
-15.0159 -12.9905 0.172924
-14.9223 -13.272 0.348278
-15.451 -12.6183 -0.424412
-14.8165 -13.3459 0.352158
-15.8933 -12.2881 -1.1223
-17.4462 -10.9148 -3.10136
-15.0399 -12.9197 -0.226798
-15.1051 -13.0569 -0.141304
-14.809 -13.2728 0.243975
-14.7676 -13.4384 0.109503
-15.0606 -12.9485 -0.479229
-16.5969 -11.8491 -2.19939
-14.7677 -13.3615 0.00550306
-14.758 -13.292 -0.063843
-15.0246 -12.9949 -0.537093
-16.7469 -11.5876 -2.8359
-14.6844 -13.3807 -0.184618
-16.7111 -11.5599 -2.85783
-15.0125 -12.6886 -1.28667
-14.2896 -13.8532 0.0658271
-14.2519 -13.8692 0.0802807
-14.887 -12.282 -1.57129
-14.6389 -12.854 -1.16612
-14.8084 -12.7185 -1.52139
-14.7059 -12.4816 -1.64238
-14.6549 -12.4092 -1.66303
-16.8612 -10.6827 -4.8185
-16.6514 -10.9339 -4.39647
-16.4289 -11.2284 -4.4193
-14.0693 -13.0844 -1.17836
-13.9595 -13.1232 -1.21808
-16.2124 -11.1874 -4.65358
-14.1677 -12.7548 -1.90146
-13.9241 -13.1927 -1.26824
-13.7907 -13.1577 -1.31689
-13.9064 -13.316 -1.33146
-13.8456 -13.2612 -1.30726
-13.8688 -13.3399 -1.31631
-15.9194 -11.2855 -4.75846
-15.9328 -11.2802 -4.73526
-13.8457 -13.0012 -1.75978
-14.0011 -12.7449 -2.19975
-13.3865 -13.5878 -1.05749
-14.8627 -12.3503 -4.08942
-14.8791 -12.5266 -3.66011
-14.9466 -12.3212 -4.04045
-13.6721 -14.3322 -1.24459
-13.5553 -14.2501 -1.22582
-13.6415 -13.0926 -2.21729
-14.5893 -12.4261 -3.967
-14.655 -12.5328 -3.84082
-13.6952 -13.7062 -2.48016
-13.6719 -13.8476 -2.36985
-14.0215 -13.0821 -3.28858
-13.5441 -13.8344 -2.33298
-13.3779 -14.1823 -1.81725
-13.3173 -14.1988 -1.80892
-13.671 -13.063 -3.45625
-13.4603 -13.6894 -3.22117
-13.2243 -13.9943 -2.74971
-12.5795 -14.6556 -2.18729
-12.4184 -14.8167 -2.06811
-18.366 -11.2486 -0.669514
-15.5188 -12.7201 0.886133
-15.5035 -12.673 0.783158
-15.8212 -12.6596 0.150924
-18.1106 -10.8387 -2.06223
-15.2107 -12.7763 0.227613
-15.7048 -12.5584 -0.201968
-15.1121 -12.9349 0.274296
-15.0407 -12.9105 0.217568
-15.0822 -12.7935 0.131844
-15.6692 -12.6904 -0.321304
-15.0965 -13.3023 0.347338
-15.0367 -12.884 0.118381
-14.9858 -13.4158 0.656259
-17.4773 -10.9412 -2.81535
-14.691 -13.5817 0.640297
-14.6208 -13.3948 0.0985721
-18.1394 -8.55595 -5.88986
-18.0978 -8.56031 -5.81615
-14.7258 -13.3515 -0.149237
-14.5928 -13.2728 -0.303958
-14.5255 -13.3693 -0.273717
-14.9169 -12.3784 -1.56202
-14.5918 -13.0593 -0.766431
-14.8303 -12.4593 -1.48833
-14.8521 -12.4914 -1.53056
-14.8101 -12.3448 -1.72913
-14.5887 -12.4421 -1.80817
-14.8631 -12.295 -1.9809
-14.0164 -13.0558 -1.24188
-13.9316 -13.1253 -1.35753
-16.0928 -11.3263 -4.67463
-13.8545 -13.1419 -1.23486
-16.223 -10.9473 -5.56306
-15.2062 -12.143 -4.00041
-15.1065 -12.2288 -4.1086
-13.7454 -14.388 -0.878193
-13.6173 -13.5882 -1.66816
-13.6414 -14.2121 -1.24796
-13.6827 -13.0507 -2.30097
-13.649 -13.0455 -2.35426
-13.6099 -13.2205 -2.39437
-13.7721 -12.9156 -2.67125
-14.5693 -12.5283 -4.00765
-14.5751 -12.4814 -4.03834
-13.4122 -14.247 -1.76209
-13.9834 -13.1046 -3.51604
-13.9444 -12.9905 -3.40689
-13.3907 -14.1408 -1.9374
-13.8236 -13.2028 -3.33774
-13.7712 -13.1815 -3.40719
-13.7637 -13.3166 -3.24156
-13.6769 -13.6019 -2.93264
-13.1449 -14.4361 -1.57002
-13.1896 -14.4811 -1.56749
-13.5052 -13.6273 -3.14163
-12.9217 -14.478 -1.75582
-13.1461 -14.0014 -2.77088
-12.9054 -14.5162 -2.0116
-12.8924 -14.3723 -2.21517
-12.9211 -14.2812 -2.45567
-12.8806 -14.2769 -2.32696
-12.7503 -14.3925 -2.29633
-12.5216 -14.7083 -2.0867
-16.7061 -11.6844 0.432438
-16.6993 -11.8633 0.365954
-16.5119 -11.825 0.387312
-16.4693 -11.9345 0.506107
-16.503 -12.0355 -0.361782
-15.2405 -12.6193 0.117861
-15.1724 -12.7428 0.207203
-15.0637 -12.8952 0.273923
-15.0682 -13.1493 0.365523
-14.9379 -13.4008 0.611221
-14.8635 -13.2214 0.127053
-15.4413 -12.5975 -0.774207
-17.1175 -11.2974 -2.71048
-14.7477 -13.3448 0.143802
-18.293 -8.84388 -5.45399
-15.0671 -12.5476 -0.825339
-15.009 -12.6807 -0.756437
-16.8008 -11.4569 -2.84344
-14.5418 -13.3773 -0.269688
-14.3698 -13.8294 -0.0264454
-14.7805 -12.5252 -1.46846
-14.7908 -12.8084 -1.34904
-14.8665 -12.3579 -1.63915
-14.8058 -12.4732 -1.62121
-14.8269 -12.4228 -1.61474
-15.0274 -11.807 -2.49382
-14.2898 -13.6162 -0.665301
-14.0747 -13.2184 -1.00832
-14.0442 -13.2464 -0.98761
-14.0186 -13.0151 -1.3397
-14.1011 -12.933 -1.44069
-14.134 -13.0151 -1.35662
-14.0091 -13.187 -1.30124
-14.028 -13.2322 -1.26108
-13.9373 -13.1073 -1.24957
-13.9337 -13.2406 -1.26558
-15.3424 -12.0699 -3.88123
-14.0185 -12.6414 -2.27804
-13.3585 -13.7604 -1.01427
-14.673 -12.6171 -3.70798
-13.4902 -14.2619 -1.26013
-14.6409 -12.5893 -3.82399
-13.4568 -14.3571 -1.18756
-14.5597 -12.5394 -3.87967
-13.4649 -14.3823 -1.24331
-13.4753 -13.3662 -2.08321
-13.9847 -12.9766 -3.42522
-13.5364 -13.8647 -2.06493
-13.3093 -14.1649 -1.73136
-13.6228 -13.5709 -2.9846
-13.7467 -13.3684 -3.37858
-13.1804 -14.2778 -1.91705
-13.3769 -13.899 -2.78124
-12.9551 -14.2906 -2.42239
-12.3538 -14.6461 -2.16234
-12.3436 -14.7633 -2.09527
-12.1891 -14.7958 -2.4088
-16.9516 -11.3286 0.282798
-16.693 -11.7871 0.5031
-16.5033 -11.7967 0.380735
-15.3343 -12.7239 0.770989
-15.056 -13.1986 0.830171
-16.0865 -12.4775 -0.347509
-15.0776 -12.9304 0.363489
-15.1377 -12.8794 0.349726
-16.1452 -12.3392 -0.783504
-15.0324 -12.9103 0.0694423
-15.5418 -12.6591 -0.283352
-15.4601 -11.9866 -1.91666
-14.3511 -13.9242 0.0210664
-14.7609 -12.8477 -1.16575
-14.6463 -12.5089 -1.66327
-14.1005 -13.8943 -0.268909
-14.0352 -12.9789 -1.28765
-13.9807 -13.276 -1.13408
-13.9772 -13.1123 -1.38362
-13.8121 -13.1273 -1.27326
-15.5962 -11.9045 -4.02775
-13.7663 -14.4153 -0.640728
-13.9446 -12.5921 -2.31035
-15.261 -12.1121 -3.94868
-13.9491 -12.7813 -2.18233
-13.5189 -13.2324 -1.73549
-13.6069 -14.262 -1.49232
-14.5588 -12.636 -3.82052
-13.4328 -14.131 -1.96846
-14.0458 -13.1289 -3.40818
-13.9795 -13.0815 -3.40218
-13.5426 -13.8572 -2.18407
-13.3194 -14.218 -1.97934
-13.4641 -13.7655 -2.90787
-13.3463 -13.7904 -2.77365
-13.2054 -14.099 -2.47676
-12.8316 -14.4565 -2.39456
-12.3438 -14.7243 -2.12124
-16.6442 -11.8835 0.366873
-16.1624 -12.1278 0.475537
-15.1646 -13.0133 0.387486
-15.0539 -13.0864 0.360953
-14.9594 -12.9939 0.336985
-15.0417 -13.3927 0.673948
-15.1124 -13.0046 0.117875
-15.4579 -12.5447 -0.661324
-14.6921 -13.3931 -0.0205603
-18.2043 -8.89104 -5.5665
-16.7034 -11.4762 -2.94031
-14.2857 -13.6195 -0.577357
-14.3448 -13.6014 -0.708129
-14.1313 -13.7922 -0.465495
-14.0378 -13.3521 -0.969779
-15.8648 -11.4699 -4.85222
-13.6451 -13.514 -1.3098
-13.3605 -13.8291 -1.09104
-13.9742 -13.0922 -3.54864
-13.071 -14.1541 -2.16024
-16.2667 -12.1125 0.382279
-15.1755 -13.2377 0.0592437
-14.8965 -13.2929 0.303527
-14.9061 -12.9965 -0.536232
-18.0508 -8.67842 -5.61802
-14.7938 -12.8962 -0.804634
-14.8676 -12.7932 -1.23571
-14.1509 -13.8439 -0.293872
-14.0775 -12.8732 -1.69777
-13.8717 -13.4297 -1.32253
-13.8446 -14.3012 -0.736698
-13.4006 -13.1678 -1.78305
-13.6591 -14.2169 -1.18188
-13.6433 -13.08 -2.33267
-13.4821 -13.1619 -2.2636
-13.3756 -14.1853 -1.82325
-13.8365 -13.2447 -3.36973
-16.3021 -12.3242 -0.398893
-15.1535 -13.054 -0.00654644
-15.6332 -12.3602 -1.14144
-14.9449 -12.958 -0.6968
-14.9869 -12.4897 -1.33179
-14.0942 -13.3034 -0.910651
-13.5148 -14.0957 -1.83175
-14.9977 -12.8954 -0.316173
-14.475 -13.7832 0.230116
-14.5487 -13.055 -1.12982
-14.6478 -12.5081 -1.67617
-13.7433 -13.8308 -1.82448
-15.1346 -13.0062 0.35223
-14.4194 -13.1672 -0.917498
-14.2581 -13.3715 -0.544983
-14.6635 -12.5504 -1.62018
-14.1606 -13.1482 -0.843814
-13.9818 -13.29 -0.939548
-13.4892 -13.627 -1.05572
-14.365 -13.7204 -0.349361
-14.2978 -12.9724 -1.36095
-14.0859 -13.078 -1.19998
-14.8163 -12.3659 -2.03141
-13.3776 -14.044 -1.69626
-12.9139 -14.3319 -2.57664
-15.7134 -11.442 -4.92737
-12.9363 -14.4286 -2.05835
-13.2683 -14.3402 -1.96936
-16.5348 -10.9854 -4.74176
-13.3962 -14.2181 -1.83541
-13.2801 -14.2229 -1.81914
-16.658 -10.954 -4.38514
-17.0199 -10.6134 -4.32599
-13.3221 -14.3751 -1.34111
-13.3732 -13.9342 -1.07797
-13.8338 -13.1358 -1.3758
-17.2361 -10.7775 -3.75279
-14.0136 -13.1009 -1.28752
-13.6785 -14.3878 -0.853253
-17.3898 -10.8326 -3.43977
-17.1619 -11.0733 -3.19786
-17.516 -10.8139 -3.44688
-17.3984 -10.9701 -3.07156
-17.4702 -10.7715 -3.22829
-14.2554 -13.618 -0.54916
-17.3338 -11.1566 -2.46227
-14.5881 -12.9677 -0.532884
-17.1967 -11.3448 -2.15292
-17.3152 -11.4074 -2.05276
-15.9415 -12.3317 -1.13795
-14.5533 -13.5959 -0.17729
-17.4697 -11.3616 -1.90819
-14.6047 -13.3647 -0.105592
-15.9986 -12.4244 -0.723892
-14.4279 -13.788 0.24412
-18.0285 -11.0147 -1.82322
-15.1777 -13.1144 -0.104308
-15.066 -12.8711 0.111614
-14.7885 -13.7232 0.19313
-15.0818 -12.7744 0.0910845
-15.1692 -12.81 0.0898725
-15.1014 -12.8077 0.0842527
-15.0547 -12.8497 0.0988715
-15.125 -12.7426 0.206642
-15.1037 -12.7639 0.231401
-15.1701 -12.7646 0.259532
-16.5752 -12.1809 -0.154417
-16.9375 -11.527 0.0790141
-15.3475 -12.968 1.05662
-14.9558 -11.2605 2.58163
-14.7226 -11.1192 2.61847
-12.5366 -14.538 -2.30504
-12.8056 -14.3753 -2.21263
-14.1058 -13.1931 -3.30858
-13.4417 -13.9092 -2.67649
-13.5233 -12.9349 -2.4845
-16.0843 -11.3015 -4.78531
-13.9276 -12.5331 -2.69447
-15.5178 -11.8414 -4.18209
-15.2182 -12.0819 -3.94503
-16.2668 -11.2461 -4.72511
-16.5258 -10.8458 -4.86864
-16.8364 -10.7216 -4.85229
-16.8272 -10.6027 -4.73288
-13.105 -14.4133 -1.59951
-16.512 -11.0738 -4.4382
-16.7276 -10.9452 -4.5691
-16.6191 -11.2657 -3.92349
-14.6443 -12.1643 -2.2209
-13.5199 -14.3412 -1.19302
-14.0178 -12.9168 -1.36074
-14.104 -13.0124 -1.38475
-14.8033 -12.4026 -1.67456
-13.6986 -14.2576 -0.919309
-14.8957 -12.8188 -1.35603
-14.3364 -13.8385 0.0201179
-14.4863 -13.7373 0.00378494
-15.0513 -12.8586 0.223097
-15.0782 -12.8094 0.236729
-15.0305 -13.0739 0.448944
-15.0688 -13.2004 0.818262
-15.054 -13.2125 0.914425
-16.8458 -11.5963 0.179088
-18.6692 -9.31989 0.8953
-18.2594 -9.47744 0.988731
-13.7621 -13.1823 -3.2991
-14.7749 -12.416 -4.06561
-15.9789 -11.2784 -4.91839
-15.4368 -11.7791 -4.24812
-15.3889 -12.0831 -3.90957
-13.0074 -14.4971 -1.51852
-13.7319 -12.8924 -1.82933
-13.9458 -12.5825 -1.91419
-14.0679 -12.5398 -1.95707
-13.5043 -14.2653 -1.37993
-13.5821 -14.3291 -1.50228
-13.9782 -13.1219 -1.3021
-13.9067 -13.2782 -1.35344
-16.6914 -11.4453 -3.32583
-14.0113 -13.1959 -1.08844
-14.0375 -13.2975 -1.19602
-14.6829 -12.48 -1.71759
-17.1193 -11.049 -3.33661
-17.3229 -10.9785 -3.37402
-17.3452 -10.8316 -3.36922
-14.2378 -13.289 -0.567342
-14.5374 -13.2767 -0.2948
-18.3449 -10.9682 -1.4869
-15.0431 -12.9073 0.238029
-15.1137 -13.13 0.333866
-16.8596 -11.7452 0.00664972
-18.4387 -11.3062 -0.653787
-18.4917 -11.0737 -0.578545
-16.7942 -11.7046 0.321638
-15.3702 -12.8305 0.852216
-16.9291 -11.5355 0.191235
-12.3802 -14.7992 -2.134
-14.0108 -12.9955 -3.52481
-13.2566 -14.004 -2.67037
-13.4377 -13.3325 -2.23959
-13.3955 -13.255 -1.76283
-13.141 -14.4693 -1.57006
-13.2987 -14.3126 -1.64431
-13.8982 -13.3911 -1.42425
-13.9911 -13.1842 -1.09341
-13.9479 -13.201 -1.1053
-14.0288 -13.2236 -1.06827
-14.4997 -12.9445 -1.46141
-14.8581 -12.6911 -1.19562
-14.3036 -13.6911 -0.600644
-14.1321 -13.3131 -0.402861
-14.2592 -13.2938 -0.495415
-14.7209 -13.3896 0.069694
-15.0539 -12.8896 0.0962227
-15.1513 -13.1426 0.392918
-14.9682 -13.4302 0.71288
-16.9797 -11.8675 -0.0399774
-16.1106 -12.162 0.504725
-15.2057 -13.0663 0.997695
-13.7487 -13.1111 -1.55275
-13.9137 -13.6042 -1.53683
-14.8508 -12.6293 -1.66005
-17.2572 -10.9952 -3.17605
-15.0102 -12.987 -0.255725
-14.9306 -13.2719 0.184284
-15.2642 -13.1473 0.0627839
-13.5221 -13.8408 -2.61078
-13.3037 -14.1517 -1.87385
-13.2407 -14.5 -1.30783
-14.3083 -12.9894 -1.22848
-14.6983 -12.8013 -1.19426
-14.9712 -12.6863 -1.10367
-14.5099 -13.2713 -0.41258
-18.3108 -11.1184 -0.600284
-15.5218 -12.6621 0.782205
-13.7535 -13.3741 -1.62383
-15.4044 -12.615 -0.556405
-14.9531 -12.499 -1.29508
-16.2452 -12.3831 -0.386272
-13.8547 -13.074 -1.38121
-14.952 -12.9079 -0.266823
-14.0133 -12.6317 -2.35988
-13.6363 -13.7034 -1.53509
-16.1128 -11.0804 -5.2632
-15.7196 -11.3778 -5.0124
-14.8179 -12.2704 -4.40151
-14.86 -12.2824 -4.39361
-16.2989 -11.0023 -4.94579
-14.8737 -12.2417 -4.21185
-16.5856 -10.8546 -4.83833
-16.4731 -10.9617 -4.70826
-14.4816 -12.693 -3.85215
-16.4538 -11.0011 -4.69893
-14.3035 -12.8177 -3.86533
-14.3593 -12.6682 -3.77531
-15.3944 -11.9643 -4.11591
-14.6808 -12.6088 -3.87151
-15.379 -11.9122 -4.12499
-15.0213 -12.4472 -3.88428
-16.4059 -11.1204 -4.3808
-13.5391 -13.5749 -3.2202
-15.1003 -12.3231 -3.79444
-13.8136 -13.3292 -3.20999
-13.5975 -13.642 -2.89443
-12.9589 -14.2517 -2.57538
-12.6392 -14.5787 -2.31264
-12.5044 -14.5746 -2.41763
-17.1562 -10.7211 -3.77439
-13.5604 -13.741 -2.53105
-17.3847 -10.6137 -3.91672
-12.4806 -14.6397 -2.16253
-13.7332 -13.7781 -2.35567
-13.5189 -13.8211 -2.33989
-12.6224 -14.4096 -2.02366
-12.9499 -14.3739 -1.99796
-16.2312 -11.7852 -2.96893
-14.3573 -12.711 -1.88138
-14.1808 -12.8721 -1.77994
-12.9193 -14.4287 -1.9064
-13.8243 -13.1374 -1.55597
-13.3394 -14.228 -1.74648
-13.3938 -14.1084 -1.81365
-14.8495 -12.2994 -1.79682
-14.6926 -12.3105 -1.67934
-14.029 -12.9764 -1.39896
-15.0828 -12.3334 -1.71085
-13.4876 -14.2037 -1.73909
-13.8713 -13.1309 -1.33508
-14.8627 -12.4551 -1.57164
-14.0793 -13.0673 -1.40154
-13.685 -13.4977 -1.42018
-14.0719 -13.019 -1.32028
-18.0083 -10.6418 -2.74393
-13.8526 -13.285 -1.25113
-14.0843 -13.1258 -1.27987
-17.8942 -10.7107 -2.66425
-15.5077 -12.146 -1.64669
-13.2842 -14.4875 -1.48099
-13.1224 -14.5432 -1.36732
-13.487 -14.2966 -1.43613
-13.4875 -14.265 -1.22708
-13.5511 -14.3629 -1.23979
-14.0976 -13.3091 -0.944174
-14.9605 -12.8374 -1.21332
-18.1051 -10.7696 -2.05964
-15.4112 -12.4798 -0.589064
-17.7533 -11.3372 -1.06047
-14.564 -13.3318 -0.228404
-14.5169 -13.3627 -0.40604
-17.9893 -11.3771 -1.02845
-15.5018 -12.6309 -0.343662
-18.0519 -11.3738 -0.893982
-16.408 -12.1765 -0.486194
-14.6831 -13.3378 -0.153102
-18.6751 -10.9634 -0.757497
-15.059 -12.8172 0.165048
-15.0113 -12.8249 0.158555
-15.1064 -12.7233 0.278637
-18.8279 -10.8903 -0.489155
-14.5847 -13.6433 0.140467
-15.7688 -12.6395 0.0857293
-14.3621 -13.7658 0.208287
-15.0696 -13.0739 0.342124
-15.0063 -13.1363 0.419142
-14.9113 -13.122 0.427749
-14.9651 -13.2086 0.497668
-16.6256 -11.7552 0.465065
-15.4317 -12.86 0.917004
-15.8265 -12.4962 0.87564
-15.2749 -13.063 1.2282
-15.7614 -11.4581 -5.06414
-16.017 -11.2399 -4.80394
-14.6724 -12.5181 -4.06473
-15.4819 -11.7828 -4.15066
-16.7776 -10.8808 -4.59812
-13.9821 -13.092 -3.26252
-13.8895 -13.1259 -3.26011
-16.1939 -11.387 -4.3157
-16.6691 -11.013 -4.50095
-16.655 -11.0302 -4.47702
-13.4325 -12.9667 -2.49043
-15.8725 -11.7534 -3.84618
-13.6826 -13.595 -2.95434
-13.9058 -12.5956 -2.40943
-13.1684 -14.0945 -2.61967
-17.2266 -10.709 -3.99375
-12.7964 -14.4566 -2.33303
-16.9587 -11.033 -3.74213
-17.0126 -11.0438 -3.75154
-12.8929 -14.3103 -2.37424
-17.0584 -10.8775 -3.65069
-12.4597 -14.6911 -2.14531
-12.4883 -14.5806 -2.22263
-12.6031 -14.6083 -2.19128
-13.6885 -12.8905 -1.85724
-16.795 -11.1598 -3.31615
-13.2131 -14.2786 -2.18471
-17.1069 -11.0936 -3.32422
-17.2288 -10.9736 -3.32989
-17.4122 -10.819 -3.1824
-17.2241 -11.0439 -3.17408
-13.253 -14.178 -1.85906
-16.7685 -11.4617 -2.77643
-14.7022 -12.4675 -1.67574
-13.9003 -13.0054 -1.35575
-13.6056 -13.5529 -1.33511
-16.7714 -11.6419 -2.54464
-13.8052 -13.231 -1.38947
-13.9122 -13.1194 -1.1076
-17.6747 -10.8148 -2.57104
-13.9877 -13.2189 -0.991262
-13.1703 -14.4869 -1.28226
-13.4903 -14.3211 -1.26224
-16.8151 -11.7728 -1.93705
-15.0747 -12.6234 -0.87971
-14.2438 -13.6773 -0.621634
-14.1739 -13.7613 -0.423882
-16.2985 -12.3212 -0.74295
-14.5765 -13.2559 -0.3657
-14.9954 -13.0676 -0.246298
-15.7477 -12.5944 -0.0900861
-14.1755 -13.9186 -0.0583139
-16.7637 -11.8145 -0.377027
-15.1148 -12.9324 0.16267
-15.0337 -12.9641 0.116746
-16.9607 -11.5984 0.20515
-14.9944 -13.31 0.366173
-15.1074 -13.2697 0.451537
-16.7984 -11.7238 0.58758
-15.3823 -11.094 1.87996
-15.7446 -12.6254 0.858152
-14.99 -13.207 0.8329
-15.3721 -12.95 1.07719
-15.8156 -11.3711 -5.13954
-15.2859 -11.9435 -4.51729
-16.0159 -11.2248 -4.94899
-15.378 -12.0013 -4.14963
-14.9218 -12.4134 -3.97599
-13.9837 -13.0189 -3.57516
-13.7591 -13.2639 -3.34934
-15.6607 -11.767 -4.19615
-13.9449 -12.9993 -3.45349
-13.8226 -13.2554 -3.2857
-13.9784 -13.0641 -3.40008
-13.8205 -13.1085 -3.31205
-13.7943 -13.2231 -3.33585
-13.9009 -13.1498 -3.26623
-16.3791 -11.1434 -4.24462
-16.8757 -10.7307 -4.50717
-17.0839 -10.7551 -4.4075
-17.1081 -10.7676 -4.3273
-13.9565 -12.489 -2.34994
-13.8048 -12.9938 -2.5441
-13.4539 -13.2902 -2.27261
-14.4476 -12.1436 -2.30077
-12.3357 -14.7797 -2.17908
-13.7886 -12.8876 -1.85568
-13.6641 -12.9469 -1.77748
-13.5338 -13.0224 -1.72559
-13.4708 -13.0559 -1.84609
-17.5494 -10.8025 -3.51642
-16.641 -11.5054 -3.11917
-17.2467 -10.8526 -3.40944
-17.2174 -10.8882 -3.31883
-14.8424 -12.4486 -1.51378
-15.3861 -12.0219 -1.79303
-13.8107 -13.2585 -1.26425
-13.4711 -13.6025 -1.25414
-14.8381 -12.5337 -1.49933
-13.962 -13.2691 -1.15196
-13.1976 -14.609 -1.31135
-13.5753 -14.2548 -1.2328
-13.602 -14.3636 -1.13134
-15.246 -12.5193 -0.896018
-15.0859 -12.5516 -0.743598
-13.7403 -14.2721 -0.941614
-14.3306 -13.1972 -0.380295
-14.2107 -13.3653 -0.460371
-15.3069 -12.6981 -0.668879
-14.348 -13.4453 -0.275391
-15.0307 -12.9603 -0.151858
-14.993 -13.011 -0.107594
-15.5875 -12.7096 -0.273214
-18.3901 -11.0909 -0.806384
-14.859 -13.2843 0.156444
-15.0499 -12.8894 0.167048
-14.6676 -13.3435 0.0844447
-14.9156 -13.3686 0.0990637
-14.9036 -13.3922 0.205974
-15.7503 -12.6449 0.170402
-16.4569 -11.9395 0.449536
-15.0443 -13.1023 0.436594
-14.9668 -13.1938 0.321474
-15.0539 -13.2249 0.450175
-14.8632 -13.4428 0.576207
-15.4709 -11.6867 -4.73505
-14.8403 -12.2748 -4.0993
-16.312 -11.2589 -4.48368
-15.4784 -11.9477 -3.99225
-15.3914 -12.0446 -3.96312
-15.2288 -12.1864 -3.96263
-13.5494 -13.7999 -2.64207
-14.7427 -12.0814 -2.39061
-12.7101 -14.473 -2.24526
-13.574 -13.9088 -2.33901
-13.4538 -13.2383 -1.82734
-13.4139 -13.237 -1.67251
-13.3045 -13.2378 -1.73822
-17.4844 -10.8161 -3.25201
-14.8518 -12.3926 -1.63701
-13.8682 -13.3359 -1.37358
-14.0948 -13.121 -1.1752
-13.4446 -14.2641 -1.45818
-13.2521 -14.4857 -1.289
-15.105 -12.9044 -0.651701
-14.1751 -13.7079 -0.551458
-14.9781 -12.9922 -0.572027
-16.1586 -12.3236 -0.597901
-15.0574 -12.9232 -0.320516
-18.1105 -8.92129 -5.72253
-13.886 -13.2266 -3.28418
-13.2753 -13.9674 -2.7375
-13.9568 -12.6341 -2.40185
-14.7771 -12.3617 -1.72265
-13.8075 -13.3658 -1.5582
-13.6895 -13.4715 -1.53442
-13.1743 -14.3684 -1.68489
-17.5637 -11.0987 -2.59518
-16.3914 -11.6419 -1.1504
-16.4007 -11.7146 -0.978922
-13.884 -14.1445 -0.669897
-15.0785 -12.9573 -0.439439
-16.7816 -11.8482 -0.710242
-15.123 -13.089 -0.102416
-15.0428 -13.0851 0.36452
-15.9583 -12.2913 0.695651
-15.503 -12.8562 0.773777
-13.269 -13.1653 -1.83803
-17.3685 -10.8675 -3.22469
-13.8647 -13.1732 -1.51026
-14.9171 -12.6492 -1.49572
-14.8527 -12.7149 -1.44534
-15.8983 -12.0811 -1.31882
-14.8637 -12.8852 -0.946605
-14.8235 -12.9586 -0.802137
-14.8587 -12.9375 -0.716286
-15.0079 -12.9997 -0.488452
-14.0692 -13.019 -3.59347
-14.7819 -12.7754 -1.41105
-15.2375 -12.6173 -0.544511
-15.8614 -12.6489 0.150573
-14.9517 -13.494 0.478632
-14.857 -12.6198 -1.43942
-14.3475 -13.5761 -0.491838
-14.9573 -13.1796 -0.265042
-13.8516 -13.1215 -1.6526
-14.9338 -12.4376 -1.50946
-14.4222 -13.0158 -1.07004
-13.822 -14.1556 -0.920107
-14.6009 -13.1092 -0.658659
-13.3746 -14.0969 -1.92955
-15.5563 -12.2641 -1.20912
-13.8551 -14.2732 -1.03793
-14.0788 -12.4765 -2.41991
-14.5321 -12.281 -2.32897
-14.6859 -12.3047 -2.28405
-13.1918 -13.9039 -1.84072
-15.1981 -12.8844 0.150093
-14.7986 -11.4688 2.57023
-18.1961 -8.5918 -5.8447
-16.326 -11.0003 -5.08793
-16.8065 -10.7183 -4.93063
-16.4059 -10.9666 -4.77445
-16.4306 -10.9643 -4.75756
-16.7579 -10.8431 -4.56144
-16.5391 -11.0779 -4.40288
-16.498 -11.1205 -4.31761
-16.8738 -10.8765 -4.35081
-16.9489 -10.8709 -4.32245
-17.1872 -10.7615 -3.81743
-16.1752 -11.4427 -3.90711
-14.7765 -12.5297 -4.15711
-14.771 -12.3705 -4.03509
-14.6354 -12.5473 -3.98211
-17.6779 -10.4879 -3.57501
-15.3766 -11.9873 -3.91836
-13.9568 -12.9121 -3.54962
-17.2487 -10.9405 -3.26878
-14.4097 -12.1751 -2.35048
-13.8715 -13.2078 -3.29142
-14.3532 -12.4244 -2.28002
-15.9174 -12.0578 -3.01107
-15.4782 -11.9983 -1.97983
-15.4522 -12.0246 -2.04901
-13.5615 -13.536 -3.09809
-14.4742 -12.5296 -1.99244
-18.0779 -10.9757 -1.99987
-13.3627 -13.8599 -3.12816
-14.7256 -12.5343 -1.71978
-14.2216 -12.9345 -1.83022
-13.6984 -13.7185 -2.86316
-17.0628 -11.5943 -2.01355
-14.0445 -12.8966 -1.80003
-19.3944 -10.0299 -1.27281
-14.0563 -13.0683 -1.77462
-13.6496 -13.76 -2.62473
-18.066 -11.0895 -1.47459
-13.1361 -14.1206 -2.52036
-12.8803 -14.1226 -2.61689
-13.0552 -14.0763 -2.5387
-13.8521 -13.1842 -1.33192
-12.6112 -14.4986 -2.28881
-13.9041 -13.3071 -1.32529
-18.849 -10.8603 -0.501955
-18.3694 -11.2193 -0.594335
-15.4598 -10.9514 1.85738
-12.6315 -14.5928 -2.09245
-12.5138 -14.7533 -2.22772
-12.5316 -14.6623 -2.11564
-12.4449 -14.689 -2.1653
-12.3115 -14.7501 -2.21124
-16.973 -11.4524 0.238193
-13.1986 -14.304 -1.87884
-13.1709 -14.3483 -1.7378
-15.3921 -12.6042 -0.429755
-16.5231 -11.8648 0.425361
-16.5774 -11.7837 0.576845
-15.0358 -12.856 -0.163848
-13.4661 -14.3625 -1.3254
-15.0407 -12.7818 0.081759
-13.4851 -14.2449 -1.32159
-15.1063 -12.9011 0.179582
-14.6048 -13.3261 -0.176424
-16.0509 -12.2603 0.611423
-14.6157 -13.3051 -0.21325
-15.86 -12.592 0.177833
-15.838 -12.4241 0.580556
-13.3829 -14.427 -1.0719
-15.761 -12.5278 0.904111
-15.13 -13.1647 0.386409
-15.0511 -13.243 0.458827
-15.1756 -13.2459 0.489082
-14.9908 -13.2758 0.412009
-14.9349 -13.4053 0.316785
-14.984 -13.3782 0.456266
-14.8007 -13.7648 0.539288
-16.5323 -10.9209 -4.83069
-16.6443 -10.92 -4.49994
-15.0261 -12.0371 -4.39832
-16.4735 -11.1127 -4.04808
-17.228 -10.6704 -4.00193
-16.3539 -11.3039 -4.05785
-16.073 -11.5634 -3.94071
-14.4485 -12.7803 -3.80531
-14.7473 -12.0324 -2.37559
-14.5296 -12.6627 -3.67763
-13.8506 -13.0953 -3.34865
-14.0907 -12.5768 -2.3239
-13.456 -13.0866 -2.46427
-13.4085 -13.1567 -2.44274
-13.8136 -13.3881 -3.28278
-14.545 -12.5899 -1.87471
-14.7209 -12.3236 -1.59522
-16.5475 -11.8319 -2.16903
-14.8367 -12.5311 -1.63115
-14.7254 -12.4965 -1.5614
-13.9721 -13.0344 -1.69051
-13.6268 -13.794 -2.71052
-13.4915 -13.8598 -2.52702
-14.0302 -12.9588 -1.42668
-13.6296 -13.8377 -2.40159
-13.8663 -13.2048 -1.3026
-13.9337 -13.1759 -1.30711
-14.7957 -12.8207 -1.32998
-13.8795 -13.1121 -1.22023
-18.0862 -11.2055 -1.0243
-18.276 -11.2988 -0.71009
-13.4718 -14.1661 -1.80507
-12.5564 -14.6204 -2.16061
-16.0374 -12.3771 -0.735673
-16.4499 -12.1792 -0.665043
-15.9792 -12.3984 -0.690978
-16.4915 -12.3348 -0.529536
-14.9635 -13.0249 -0.554915
-15.6184 -12.5605 -0.275868
-14.7362 -11.4838 2.17213
-16.6244 -11.8446 0.48352
-13.1434 -14.5235 -1.62637
-16.6342 -11.8723 0.515223
-15.0585 -12.9771 -0.169084
-13.5972 -14.2965 -1.20778
-15.7936 -12.6625 0.233834
-15.0528 -12.9024 0.269806
-14.6421 -13.382 -0.0457401
-14.8178 -13.3587 0.00220729
-14.8931 -13.2621 0.170309
-15.5097 -12.6977 0.850664
-15.0192 -13.1892 0.328777
-15.1406 -13.1966 0.577624
-14.2569 -13.884 -0.0470555
-14.8602 -13.4549 0.480674
-14.7998 -13.4859 0.444394
-14.3575 -13.9619 -0.0210492
-14.8652 -13.6733 0.538502
-18.1269 -8.88395 -5.60493
-16.7083 -10.7273 -4.69469
-16.7084 -10.8767 -4.53379
-13.8864 -13.1483 -3.29033
-14.2913 -12.6179 -1.79654
-13.4213 -13.2425 -1.74349
-13.3283 -14.0175 -2.53002
-12.7483 -14.3745 -2.70581
-13.927 -13.2178 -1.21652
-17.8126 -11.3983 -1.18788
-12.893 -14.2702 -2.32716
-12.9457 -14.2156 -2.49565
-14.101 -13.2219 -1.13358
-12.8769 -14.3304 -2.29607
-12.8914 -14.3313 -2.37935
-12.8771 -14.3961 -2.3947
-12.8912 -14.3618 -2.26188
-18.306 -11.1246 -0.649351
-17.0474 -11.4791 0.261719
-13.3103 -14.2246 -1.88065
-15.5253 -12.5461 -0.574836
-15.3461 -12.5788 -0.51247
-16.5131 -11.8403 0.444352
-16.2875 -12.0935 0.425654
-15.1165 -12.9092 0.209151
-14.7919 -13.369 0.164347
-15.0066 -13.2409 0.416235
-14.398 -13.8016 0.0280465
-14.5248 -13.7113 0.0678339
-15.0304 -13.2979 0.590851
-14.7985 -13.5663 0.524815
-16.1096 -11.6708 -3.73934
-14.4333 -12.2084 -2.36698
-13.9413 -13.1812 -1.23524
-16.8344 -11.7043 -0.224884
-13.3983 -14.2798 -1.85225
-16.8118 -11.7838 -0.216967
-16.5102 -11.8235 0.402846
-16.7048 -11.7291 0.606515
-15.1675 -12.8297 0.129391
-16.02 -12.2881 0.576073
-15.3659 -12.8765 0.801847
-15.3265 -12.9036 0.912002
-15.1172 -13.0506 0.932391
-15.3739 -12.9819 1.04678
-15.0774 -13.2357 0.934858
-15.093 -13.0726 1.11344
-14.9991 -13.2241 1.08937
-14.9681 -12.6949 -1.36824
-15.0841 -13.005 -0.382542
-15.0591 -13.0728 0.922118
-18.2223 -8.87646 -5.54936
-14.9879 -12.6478 -1.28002
-15.8826 -12.1753 -1.29945
-13.6236 -13.6676 -1.01369
-13.7542 -13.6472 -0.954665
-15.0329 -12.9938 -0.521191
-15.0113 -12.8969 -0.377122
-14.1925 -13.8755 -0.215041
-14.843 -13.3647 0.343778
-14.2117 -13.9501 -0.0519841
-14.663 -12.5069 -1.6065
-14.5063 -12.7735 -1.37532
-14.997 -13.2887 0.137372
-14.2677 -13.879 -0.279005
-15.0412 -12.381 -1.44744
-16.5412 -11.6123 -1.08914
-15.8904 -12.0346 -1.30485
-14.8537 -12.9016 -0.760125
-14.466 -13.5842 -0.494355
-16.0837 -11.8961 -1.09312
-14.9536 -13.1394 -0.251827
-15.5954 -12.6366 -0.551994
-14.24 -13.3324 -0.693448
-15.0316 -12.9425 -0.350907
-13.9743 -12.9657 -3.03919
-16.3047 -11.9619 -1.12766
-13.8088 -14.1269 -1.02598
-16.6148 -10.7937 -4.77186
-16.6022 -10.8768 -4.73585
-19.4539 -10.1696 -1.16067
-19.5417 -10.1458 -0.985875
-19.5832 -10.1152 -0.974786
-16.1564 -11.385 -4.64766
-16.3178 -11.366 -3.9591
-15.6776 -11.6307 -4.52987
-16.8046 -11.3845 -3.01164
-18.3932 -11.1419 -0.820243
-16.5401 -11.5483 -0.861717
-15.4695 -12.0821 -3.84819
-18.1814 -11.3594 -0.732636
-14.8014 -12.2793 -2.02174
-14.4459 -12.5647 -3.95997
-16.543 -11.7888 0.37275
-14.648 -12.4206 -1.5631
-14.0228 -12.7185 -2.27823
-13.9671 -13.1914 -3.26238
-15.3893 -12.6526 -0.648777
-14.8073 -12.8963 -1.11531
-13.3842 -13.3321 -2.27546
-15.7844 -12.6273 0.270675
-14.116 -13.1246 -1.22661
-13.6421 -13.4317 -3.2155
-15.133 -12.8661 0.173182
-15.0452 -12.8206 0.173313
-15.0196 -12.8009 0.125493
-15.0894 -12.9222 0.202161
-15.0206 -12.9737 0.109426
-13.9149 -13.3414 -1.37377
-13.6849 -13.7479 -0.907473
-14.4243 -13.7322 -0.0683309
-14.752 -11.921 -2.21406
-15.0194 -12.0467 -2.49129
-15.4231 -12.0819 -3.87815
-14.349 -12.3939 -2.75003
-14.1692 -12.4137 -2.85609
-15.0715 -12.2166 -2.08082
-14.5332 -12.6047 -3.8177
-15.7757 -12.1972 -1.41233
-16.5979 -11.8206 0.555119
-13.933 -12.7842 -2.22312
-15.4999 -12.4338 -1.13745
-14.3041 -12.686 -1.80848
-14.183 -12.8837 -1.76144
-13.8247 -13.1931 -3.37261
-16.0322 -12.3191 0.674206
-15.7123 -12.5503 -0.289613
-15.594 -12.6392 -0.19202
-15.4264 -12.6975 -0.326386
-15.6951 -12.6133 0.070164
-14.1145 -13.1522 -1.17683
-13.4258 -13.4393 -2.09347
-14.0384 -13.1826 -1.17576
-15.5658 -12.7141 0.847827
-13.3017 -13.7279 -3.10109
-15.686 -11.4764 -4.82072
-15.1065 -11.1712 1.92676
-16.4516 -11.8102 -0.866097
-15.4182 -12.1216 -1.88442
-16.8107 -11.5561 0.311392
-14.7858 -12.4832 -1.69266
-13.9235 -13.071 -3.28869
-13.966 -13.2213 -3.37341
-13.7875 -13.2359 -3.31396
-15.2637 -12.6342 -0.615842
-13.5971 -13.1867 -2.22583
-15.827 -12.5965 0.222741
-15.4252 -12.868 0.831741
-13.3795 -13.9218 -2.54863
-15.1016 -13.3175 0.401812
-14.9176 -13.3453 0.659411
-15.0162 -13.3493 0.601578
-13.4261 -14.2324 -1.74877
-16.3138 -11.9517 0.494268
-13.7618 -12.9741 -2.60765
-14.9255 -13.0168 -0.705146
-15.42 -12.8021 1.00235
-13.4221 -14.4465 -1.18373
-16.1162 -11.5507 -3.84642
-16.6489 -12.1487 -0.327509
-16.6233 -12.2039 -0.150438
-13.9031 -13.1344 -1.36827
-14.9952 -13.0309 -0.563704
-14.9488 -12.9529 -0.679612
-13.6753 -13.6346 -2.81684
-14.8876 -13.2383 -0.0896064
-13.8145 -13.4844 -1.25834
-13.5712 -13.6872 -0.879753
-18.164 -8.59314 -5.81437
-15.3907 -10.9243 1.90662
-14.6457 -13.3839 -0.223525
-15.4409 -12.0301 -1.92157
-15.165 -12.6497 -0.991901
-14.9551 -12.9865 -0.532405
-14.2864 -13.6697 -0.566828
-16.8728 -11.6108 0.250782
-16.042 -11.9823 -1.30649
-15.693 -12.1688 -1.41621
-14.773 -12.4305 -1.65939
-15.1754 -12.8663 -0.451962
-14.9518 -13.0728 -0.369453
-14.0673 -13.3667 -1.02782
-14.0193 -13.4486 -1.28696
-15.3186 -12.633 -0.938485
-13.9046 -13.4695 -1.26595
-13.7211 -13.3635 -1.4413
-19.4496 -10.0243 -0.985305
-19.4998 -10.1116 -0.97536
-19.36 -10.0378 -1.14243
-19.4538 -10.1466 -1.2636
-17.8794 -11.06 -1.75748
-17.4008 -10.943 -3.02124
-15.8598 -12.5226 0.05283
-15.8342 -12.6296 0.0369196
-15.7386 -12.5381 -0.263382
-15.6994 -11.6748 -4.59682
-15.2869 -12.8783 0.22492
-15.6561 -11.7451 -4.50287
-15.0239 -12.3105 -1.68874
-15.0758 -12.8681 0.226074
-15.0699 -12.873 0.188521
-14.6944 -12.5128 -1.67244
-15.4157 -12.0328 -3.93325
-14.9913 -12.7379 -0.907081
-14.7182 -12.9511 -1.13958
-14.9537 -13.4321 0.429116
-14.9689 -13.4607 0.475636
-14.6846 -13.3186 -0.0842472
-14.6739 -12.498 -3.91106
-14.6542 -12.6172 -3.83936
-14.7235 -13.7217 0.320394
-13.8529 -13.2164 -1.31568
-13.8347 -13.2444 -1.30009
-13.9047 -13.221 -1.32971
-14.8029 -13.7417 0.240468
-14.6354 -13.6761 0.0365266
-13.9158 -13.27 -1.44234
-13.6221 -13.1004 -2.34864
-13.4088 -13.0929 -2.52266
-13.7426 -13.1383 -2.33605
-14.2201 -13.7319 -0.544348
-13.8458 -13.1318 -3.26355
-13.833 -13.1251 -3.39483
-13.2889 -13.934 -2.707
-13.0683 -14.2877 -2.47755
-12.3414 -14.7632 -2.19278
-14.8575 -11.201 2.53554
-18.234 -8.94613 -5.58176
-18.208 -8.87853 -5.58935
-17.8298 -10.7982 -2.50766
-16.6021 -11.84 0.514908
-16.5301 -11.8176 0.39663
-16.1396 -12.3286 0.479225
-16.592 -11.886 -2.24254
-14.7181 -12.0132 -2.29401
-15.6843 -12.5818 -0.240515
-15.5592 -12.6667 -0.203125
-15.5695 -11.8079 -4.26565
-15.1 -12.8656 0.123393
-14.6931 -12.3624 -1.7115
-15.3087 -11.8372 -4.62112
-14.9484 -13.2779 0.567873
-14.9174 -13.2862 0.422261
-14.841 -13.199 0.0142004
-14.755 -13.3108 0.0868948
-14.5758 -13.2817 -0.307955
-14.7283 -13.3231 0.0193286
-14.599 -12.5471 -3.91632
-14.5888 -12.6532 -3.96976
-13.7256 -12.876 -2.70109
-13.418 -13.0152 -2.51828
-13.5487 -13.213 -2.35425
-13.9455 -13.0467 -3.38914
-14.0005 -13.0815 -3.39514
-13.8852 -13.2107 -3.3913
-13.8558 -13.146 -3.33421
-13.5832 -13.9014 -1.88538
-13.3206 -14.3112 -1.30028
-18.0777 -8.92451 -5.66282
-18.1403 -8.88439 -5.75378
-15.3445 -12.005 -1.94279
-15.3973 -12.0764 -1.8702
-15.3855 -12.8287 0.815662
-15.4586 -12.6163 -0.594722
-15.0685 -13.0784 1.11216
-14.8974 -13.4237 0.355077
-14.869 -13.3395 -0.0246026
-14.7299 -13.3385 0.0454861
-14.7387 -13.4299 0.0809326
-14.3624 -13.8024 -0.0666563
-13.6573 -13.8459 -0.844304
-14.7337 -12.4386 -1.74192
-15.0363 -13.0411 1.04149
-15.0344 -12.962 -0.673221
-15.1231 -13.2501 0.449961
-14.9602 -13.4224 0.4429
-13.645 -13.6821 -2.9177
-18.2215 -8.99636 -5.47338
-18.1806 -8.9985 -5.55498
-18.1275 -8.9482 -5.58942
-17.4152 -10.9148 -3.03839
-16.2143 -11.4932 -3.80045
-15.2382 -12.9246 0.105014
-14.9675 -13.1922 1.12851
-13.8543 -13.0565 -1.39718
-13.762 -12.8783 -2.61956
-14.1228 -13.9309 -0.322282
-13.6023 -13.9733 -1.97648
-12.6325 -14.6378 -2.06692
-12.5304 -14.7322 -1.99727
-14.2339 -12.4192 -2.97025
-12.9636 -14.3849 -2.36644
-15.2051 -12.831 -0.452636
-14.9982 -12.5704 -1.27277
-14.8836 -13.0247 -0.689112
-15.041 -12.9591 -0.461836
-14.466 -13.4738 -0.252798
-15.5232 -11.8372 -2.00572
-14.9255 -13.0144 -0.5831
-13.9466 -13.378 -1.4448
-14.0743 -13.7991 -0.384044
-13.963 -13.8012 -0.492385
-13.4577 -14.1367 -2.03645
-15.0306 -12.7851 -0.811986
-15.022 -13.1843 0.130377
-13.6796 -13.6517 -0.8922
-16.3895 -11.838 -1.20364
-14.8425 -11.1846 2.61686
-19.8816 -9.36816 0.32128
-18.2643 -11.2758 -0.589746
-18.0072 -11.4151 -0.996122
-17.9303 -10.8028 -2.0692
-16.4923 -11.4821 -0.989661
-18.1858 -8.94705 -5.5591
-15.1902 -13.0466 1.07683
-15.8394 -12.6843 0.208274
-15.7895 -12.6036 0.185213
-15.7024 -12.6452 0.141983
-15.0218 -13.1574 1.10731
-15.7054 -12.5458 -0.286166
-15.6151 -12.6561 -0.180254
-15.0241 -12.8738 0.198756
-14.976 -12.8815 0.345649
-15.6715 -12.4613 -0.426791
-15.1484 -12.901 0.295688
-16.7349 -11.4297 -2.98928
-14.9244 -13.3461 0.385114
-15.1178 -13.1255 0.0888729
-14.9028 -13.3611 0.320955
-14.8877 -13.3373 0.197386
-15.3922 -12.0395 -1.88589
-14.831 -13.3379 -0.0169248
-14.7185 -13.3403 -0.0434115
-14.9717 -12.6457 -1.04497
-14.667 -13.3219 -0.0553914
-14.8817 -12.7054 -1.17814
-14.9394 -12.3858 -1.64254
-14.8104 -12.3677 -1.74004
-14.6051 -13.2433 -0.29718
-14.7977 -12.95 -1.13649
-16.2463 -11.1313 -4.69027
-14.6599 -13.0105 -1.06973
-15.9031 -11.5965 -3.84014
-14.5633 -12.9885 -1.03341
-14.582 -12.9655 -1.04698
-14.4986 -13.1028 -0.900379
-15.7253 -11.552 -4.51879
-14.0545 -13.0591 -1.46346
-13.9033 -13.1366 -1.3332
-15.1729 -12.1444 -4.08597
-13.8937 -13.2396 -1.37769
-13.7595 -13.2425 -1.30938
-13.9139 -13.3524 -1.20496
-13.835 -13.3165 -1.25664
-13.8586 -13.3028 -1.25441
-14.6257 -12.6044 -3.81337
-13.4137 -13.5763 -1.10542
-14.5897 -12.587 -3.81824
-13.5824 -13.608 -1.30796
-13.6483 -13.0719 -2.24944
-13.5714 -13.1966 -2.28068
-13.6616 -13.0918 -2.36693
-13.7073 -13.238 -2.25309
-13.7175 -13.162 -2.30897
-13.5113 -13.2332 -2.20789
-13.5401 -13.236 -2.20989
-14.0264 -12.9633 -3.50017
-13.9625 -13.0425 -3.43894
-13.8806 -12.9423 -3.44498
-13.9133 -12.9614 -3.30827
-14.1647 -13.0121 -3.41413
-13.6125 -14.2937 -1.09869
-13.8877 -13.1664 -3.46291
-13.2902 -14.3788 -1.84363
-12.9907 -14.5037 -1.69975
-12.967 -14.2512 -2.4714
-12.8726 -14.3189 -2.36714
-12.6047 -14.4541 -2.39985
-12.5508 -14.6569 -2.23807
-18.3722 -11.1761 -0.740476
-18.2718 -11.2442 -0.657281
-15.2326 -12.9601 0.914346
-15.6924 -12.4944 -0.23301
-16.0949 -12.3503 -0.739893
-15.0953 -12.7625 0.350935
-15.5352 -12.5798 -0.292912
-15.0621 -12.9003 0.200345
-15.0245 -12.9309 0.173542
-15.1254 -13.0789 0.318755
-17.1066 -11.1449 -3.48843
-16.8836 -11.482 -2.71962
-16.7458 -11.4762 -2.83822
-14.949 -13.4217 0.54129
-14.7066 -13.5118 0.492945
-14.8462 -12.4597 -1.53658
-14.5201 -13.2918 -0.327086
-14.7307 -12.704 -1.43331
-15.9749 -11.4043 -4.56683
-14.3078 -13.9425 0.0327746
-14.0346 -13.0154 -1.35978
-13.9923 -12.9466 -1.3271
-13.9914 -13.8828 -0.253904
-13.8124 -13.0757 -1.23859
-13.8405 -13.0613 -1.33346
-14.0935 -13.5064 -1.08435
-13.6771 -13.6425 -0.880474
-13.7133 -13.7751 -0.889457
-14.562 -12.5644 -3.8615
-14.7088 -12.5952 -3.80826
-14.5864 -12.5738 -3.7858
-14.7073 -12.5762 -3.8607
-13.4836 -13.7202 -1.09006
-13.4647 -13.0823 -2.45969
-14.0494 -13.0183 -3.53385
-13.9862 -13.0745 -3.50613
-13.9716 -13.1743 -3.33331
-13.6103 -14.2431 -1.39227
-13.789 -13.4626 -3.22306
-13.1313 -14.2327 -2.22383
-15.0066 -11.2151 1.88478
-16.6943 -11.7921 0.499705
-16.7751 -11.6813 0.281769
-16.4851 -11.849 0.450289
-16.5783 -11.9697 0.335581
-17.7745 -11.5409 -0.857525
-15.1733 -12.9164 0.361091
-15.0887 -12.8826 0.295087
-15.0619 -12.984 0.279955
-15.1409 -12.9265 0.179227
-14.8439 -13.4612 0.197645
-15.4086 -12.1613 -1.82572
-14.3604 -13.67 -0.594331
-13.994 -12.9391 -1.433
-14.0173 -13.2368 -1.1392
-13.4259 -13.6144 -1.07361
-13.674 -13.0638 -2.32035
-13.098 -14.5923 -1.57808
-16.6383 -11.8099 0.376624
-15.8396 -12.6949 0.0632957
-15.073 -12.8606 0.312434
-15.0153 -12.7453 -0.968491
-14.4485 -13.8446 0.0229768
-13.8318 -13.8762 -0.526284
-14.6038 -12.6369 -3.93217
-13.6607 -13.2375 -2.31925
-13.8767 -13.0808 -3.54394
-13.3411 -14.2565 -1.74943
-12.5514 -14.6995 -1.98615
-16.2425 -12.0356 0.437376
-14.7259 -12.7773 -1.3766
-14.6811 -12.8435 -1.30104
-13.7121 -13.0217 -2.53835
-13.5265 -13.2931 -2.15955
-13.558 -14.3307 -1.20026
-12.8758 -14.4073 -2.45928
-15.1196 -12.7902 -1.00257
-13.4932 -13.1722 -2.33207
-15.0968 -12.8081 -0.317377
-14.8355 -12.3616 -1.32062
-15.0224 -12.2755 -1.32854
