-14.4138 -13.8785 -1.61381
-14.3342 -13.6134 -2.31517
-14.0962 -13.7196 -2.49476
-13.9369 -13.7363 -2.56037
-13.8526 -13.8437 -2.49904
-19.9678 -10.5854 -0.529678
-19.9042 -10.5971 -0.517086
-19.5141 -10.9661 -0.344353
-19.8443 -10.4207 -0.881247
-15.9376 -11.2604 1.7058
-15.8158 -11.4708 1.92224
-19.2537 -11.0365 -0.57422
-15.8834 -11.2784 1.50113
-17.9597 -11.1807 0.00332564
-15.4327 -11.6555 1.78388
-17.6468 -11.4752 -0.0467316
-17.3975 -11.6619 0.0717744
-17.3927 -11.5313 -0.128024
-18.6111 -10.9184 -1.69374
-18.282 -11.3195 -1.24778
-18.2227 -11.1916 -1.60917
-16.3592 -12.6092 0.349602
-17.2621 -12.1772 -0.589957
-16.4213 -12.5487 0.351642
-18.0879 -11.0314 -2.12573
-18.0036 -11.0645 -2.06366
-17.0552 -12.0347 -0.969536
-17.0599 -12.0096 -0.994063
-16.4772 -12.4537 -0.597087
-17.7878 -10.8019 -2.8791
-18.1926 -10.057 -3.81557
-17.4235 -11.5748 -2.18372
-16.5778 -12.232 -0.954152
-17.5635 -11.2213 -2.49726
-17.7373 -10.5457 -3.37349
-15.8292 -13.1855 0.139202
-17.481 -11.1459 -2.86526
-15.9297 -12.6132 -0.58317
-15.6182 -12.9362 -0.678134
-16.6177 -11.5 -3.14028
-16.8628 -11.0767 -3.64664
-16.6309 -11.4612 -3.24037
-15.7464 -11.9704 -1.92031
-16.6189 -11.5262 -3.32605
-15.6084 -11.7721 -2.08038
-16.5486 -11.2397 -3.49811
-15.2003 -13.5108 -0.486663
-14.9128 -13.5012 -0.962618
-14.878 -12.7116 -1.60346
-14.8428 -12.673 -1.61632
-14.7041 -12.5831 -2.04395
-14.5829 -13.9125 -1.45555
-14.5304 -13.4813 -2.34193
-14.1988 -13.8206 -2.2735
-14.0547 -13.7863 -2.50611
-13.9108 -13.7884 -2.73153
-13.6882 -14.102 -2.4077
-13.4224 -14.2227 -2.4079
-19.5545 -11.3407 0.183456
-16.0763 -11.1402 1.63208
-15.9933 -11.4253 1.77852
-15.7399 -11.4797 1.88828
-19.2583 -10.9003 -0.886576
-17.7471 -11.3992 0.0332595
-18.3826 -11.1842 -1.64946
-18.1839 -11.2147 -1.59779
-18.4504 -10.7113 -2.26096
-17.3414 -11.9075 -0.834134
-16.1259 -12.9908 0.690089
-16.7432 -12.2204 -0.43778
-16.8378 -12.2933 -0.338419
-16.6351 -12.474 -0.403645
-15.9774 -13.0826 0.567024
-18.3507 -10.145 -3.62533
-17.5466 -11.457 -1.93849
-17.9539 -10.88 -2.71113
-17.5254 -11.6484 -1.96733
-16.766 -12.0006 -1.10908
-18.2674 -10.1179 -3.76648
-18.079 -10.239 -3.45038
-17.2137 -10.8234 -3.5359
-15.8992 -12.6019 -0.939039
-16.7891 -11.4842 -2.99575
-16.9928 -11.2142 -3.4069
-15.2835 -13.5659 -0.394952
-15.4137 -12.9916 -0.738942
-15.3045 -13.4933 -0.478375
-15.732 -12.0863 -1.95704
-15.726 -11.9095 -2.02381
-16.337 -11.6443 -3.22831
-15.6413 -11.8373 -2.21814
-16.4612 -11.4473 -3.57178
-14.9104 -12.673 -1.64707
-14.8027 -12.8034 -1.66489
-14.993 -12.0036 -2.66338
-14.7445 -13.9194 -1.28073
-14.303 -13.2549 -2.87938
-16.5904 -10.7949 1.80636
-19.0899 -10.9528 -1.09228
-17.6664 -11.5547 -0.0383921
-18.5823 -11.3093 -1.14393
-16.6314 -12.3451 0.331408
-18.6273 -10.5101 -2.53421
-16.0884 -12.9202 0.559705
-17.4307 -11.1998 -2.83196
-17.5073 -10.8981 -3.16627
-15.8912 -12.6924 -0.705174
-17.3223 -11.1427 -2.96758
-17.377 -10.8276 -3.55211
-15.6253 -12.9915 -0.598848
-16.862 -11.4045 -2.9634
-15.5741 -13.0324 -0.723005
-16.0797 -11.832 -2.20433
-15.2719 -13.5051 -0.735642
-15.705 -11.7337 -2.20382
-16.5415 -11.5714 -3.19064
-15.4575 -12.8 -1.29612
-15.6774 -11.829 -2.02671
-14.5442 -13.9328 -1.49016
-19.902 -10.8507 -0.287663
-18.6816 -11.0599 -1.3089
-17.233 -11.905 0.0291129
-17.0582 -12.1045 0.0134899
-18.6034 -10.791 -2.01267
-18.2766 -11.2783 -1.64875
-18.3142 -11.1082 -1.65953
-16.568 -12.2663 -0.853081
-15.8576 -13.0478 -0.266508
-15.9105 -13.0076 -0.227286
-16.5468 -11.531 -3.27181
-15.2772 -12.559 -1.61829
-14.5311 -13.9764 -1.44688
-13.8916 -13.72 -2.6123
-19.7834 -10.862 -0.0783304
-17.9467 -11.2111 -0.110775
-18.8863 -11.0836 -0.939654
-18.0149 -11.2092 -0.141701
-17.6122 -11.4593 -0.10015
-15.9317 -12.507 -0.190069
-15.6134 -13.391 -0.132482
-15.6559 -11.8839 -2.12271
-14.6383 -12.5007 -1.94568
-14.817 -12.0478 -2.63258
-14.0582 -13.7497 -2.35079
-17.2232 -11.7416 0.180729
-18.4709 -11.3483 -1.24032
-17.3712 -11.891 -0.854009
-16.1553 -12.8426 0.725303
-18.554 -11.2212 -1.03565
-18.3203 -11.2935 -1.41441
-15.4247 -12.3521 -1.78881
-14.5971 -13.3508 -0.921713
-14.7787 -12.7945 -1.74323
-15.8914 -11.9047 -1.90992
-13.8297 -13.7278 -2.76929
-14.0192 -13.6069 -2.64315
-13.9921 -13.7272 -2.60414
-13.7421 -13.8607 -2.34944
-13.66 -14.153 -2.28006
-14.5968 -12.1817 -2.46732
-14.0996 -13.5831 -2.34182
-16.4517 -11.3442 -3.68842
-14.0152 -13.8762 -2.26053
-17.0532 -10.9205 -3.74195
-14.8907 -12.3564 -2.09887
-15.419 -11.9778 -2.28067
-16.6605 -11.5063 -3.19767
-17.0289 -11.2013 -3.44826
-16.8965 -11.2052 -3.2841
-17.7588 -10.3988 -3.70209
-17.7633 -10.4128 -3.67536
-14.1088 -14.032 -1.84311
-16.7337 -11.6238 -2.91804
-18.1008 -10.4005 -3.6091
-14.2543 -14.0346 -1.67666
-17.9541 -10.3532 -3.5066
-14.5816 -13.2655 -1.42261
-15.5793 -12.3049 -1.82555
-18.0698 -10.427 -3.09837
-17.4686 -11.1349 -2.88466
-17.3086 -11.1524 -2.75153
-18.3557 -10.3241 -3.17784
-17.5458 -11.2389 -2.47117
-18.2382 -10.6225 -2.71824
-16.4977 -11.6598 -1.64004
-17.3519 -11.5962 -2.23622
-18.4347 -10.6358 -2.58512
-15.3626 -12.7437 -1.02473
-15.1093 -13.5917 -0.651474
-17.0653 -11.7311 -1.43574
-19.021 -10.3215 -2.2435
-18.5818 -10.6725 -1.9622
-15.5254 -13.1177 -0.485206
-17.2289 -11.664 -1.27073
-17.0877 -11.8539 -1.13412
-15.7522 -13.0241 -0.511354
-17.0674 -11.9078 -1.10589
-16.53 -12.2119 -0.782732
-18.7038 -10.9188 -1.47726
-16.0554 -12.5696 -0.285731
-15.9037 -13.1007 -0.108482
-18.3282 -11.3154 -1.19408
-16.6792 -12.4933 -0.280472
-16.2591 -12.5814 -0.167845
-18.5681 -11.297 -1.20214
-17.7386 -11.3962 -0.769128
-19.0498 -10.7293 -1.27118
-17.8734 -11.3173 -0.64876
-16.8343 -12.3356 0.112429
-16.7723 -12.1756 0.153003
-19.2726 -11.0555 -0.799902
-17.2654 -11.7543 0.135952
-17.5415 -11.669 0.16581
-16.9746 -12.2608 0.393114
-17.0758 -11.9837 0.296888
-15.9442 -13.0891 0.607889
-19.1773 -11.2321 -0.464401
-19.8309 -10.9287 -0.162989
-15.9974 -11.2124 1.64028
-16.0386 -11.1989 1.63824
-16.2953 -11.2252 1.7958
-13.6496 -13.9113 -2.53782
-13.7958 -13.8789 -2.59076
-13.984 -13.7806 -2.67707
-13.8456 -13.8059 -2.43344
-14.0614 -13.6855 -2.48536
-14.9341 -12.0716 -2.60079
-17.5574 -10.4445 -3.90962
-14.4071 -13.535 -2.18492
-15.156 -12.2237 -2.17314
-16.4221 -11.4995 -3.23014
-16.7361 -11.4273 -3.2922
-14.8772 -12.6062 -1.82683
-16.628 -11.6944 -2.84439
-16.6255 -11.6898 -2.94101
-16.8866 -11.3516 -3.00624
-15.7468 -11.8675 -2.00328
-15.7151 -11.967 -1.98347
-18.3559 -10.1749 -3.52425
-17.3524 -11.2726 -2.80133
-15.3634 -12.6003 -1.5192
-15.5693 -12.4846 -1.62496
-16.4835 -11.9025 -1.95734
-17.5291 -11.458 -2.23676
-17.5927 -11.6268 -1.93759
-17.9485 -11.0918 -2.1057
-16.2498 -12.1818 -1.03571
-16.3853 -12.1221 -1.06926
-16.8077 -12.0603 -1.19972
-18.3057 -10.9573 -1.94092
-18.2567 -11.1685 -1.94404
-17.3404 -11.1977 -1.36077
-17.4667 -11.0974 -1.25261
-16.9067 -12.1214 -1.11422
-17.0717 -11.9538 -1.15236
-15.4577 -13.4259 -0.480797
-18.9264 -10.6955 -1.83189
-15.745 -12.9945 -0.362798
-16.9226 -12.1007 -0.780251
-16.4572 -12.3352 -0.506279
-16.0499 -12.9913 0.0676201
-18.8629 -11.151 -1.07072
-18.9252 -10.962 -1.14006
-19.713 -10.5526 -1.18826
-16.8608 -12.0876 0.13113
-19.1956 -10.9649 -0.709536
-16.7567 -12.2256 0.288507
-17.3328 -11.766 -0.0438747
-17.3215 -11.8395 0.0392058
-19.1387 -11.2487 -0.5197
-19.6082 -11.0179 -0.28496
-16.0922 -11.174 1.67538
-15.8745 -11.299 2.53654
-13.7952 -13.6596 -2.63441
-15.0089 -12.0879 -2.72332
-14.2338 -13.5915 -2.43598
-13.9247 -14.0905 -2.07672
-14.8005 -12.5887 -1.83347
-14.7812 -12.534 -1.85494
-14.8277 -12.7845 -1.58988
-14.8272 -12.8386 -1.64498
-18.0056 -10.4216 -3.36787
-17.0393 -11.433 -2.80722
-15.7146 -12.0794 -1.87569
-17.1852 -11.4395 -2.65426
-17.6092 -10.9617 -2.91626
-18.0525 -10.9484 -2.38887
-15.472 -12.9416 -0.815304
-16.3676 -12.1536 -1.18892
-16.7475 -11.9394 -1.39164
-18.413 -11.1487 -1.52264
-18.9543 -10.5155 -1.85012
-18.3933 -11.2192 -1.11443
-19.1856 -10.9215 -0.954567
-19.8319 -10.5232 -0.492102
-19.8271 -10.6549 -0.455472
-15.9105 -11.433 1.90377
-13.9516 -13.717 -2.64511
-14.8847 -12.0438 -2.52008
-17.4345 -10.6243 -3.87181
-17.5001 -10.5655 -3.90759
-14.199 -13.9466 -1.8832
-14.8859 -12.5686 -1.77858
-15.5565 -11.9897 -2.06632
-16.5203 -11.8146 -2.82366
-15.457 -12.4197 -1.82431
-15.6157 -12.2825 -1.79504
-15.6262 -12.2863 -1.73261
-15.6076 -12.5282 -1.17262
-14.9537 -13.4781 -0.888443
-15.055 -13.4766 -0.890084
-15.1021 -13.5353 -0.864602
-15.2138 -13.505 -0.589472
-18.5012 -10.8238 -1.95803
-15.2377 -13.6657 -0.572651
-15.8113 -13.0951 -0.0479001
-18.0435 -11.1232 -0.197944
-16.1866 -12.7296 0.443095
-17.6125 -11.4622 0.0986052
-19.7463 -10.7783 -0.447921
-16.2987 -10.9329 1.38653
-17.674 -10.3478 -3.99653
-14.2386 -13.3978 -1.60958
-15.7791 -11.8811 -1.97464
-16.701 -11.7197 -1.69471
-16.5833 -11.7735 -1.57883
-17.288 -11.9463 -0.784914
-17.3162 -11.8092 0.0234155
-19.5575 -11.2461 0.152523
-15.8114 -11.1967 2.44816
-15.7302 -11.9756 -1.94584
-18.2648 -11.2614 -1.28733
-18.5568 -11.1043 -1.27295
-14.6175 -12.7867 -2.05689
-15.654 -12.5423 -1.18164
-18.6148 -10.9539 -1.96187
-18.2813 -11.281 -1.39262
-16.5593 -12.2952 -0.540911
-14.4433 -13.0333 -2.06338
-15.9498 -12.4814 -1.20707
-18.3847 -11.1752 -1.30254
-15.9176 -13.0382 -0.00914524
-17.757 -11.2459 -0.234876
-16.1479 -12.1647 -1.40759
-16.0532 -12.7387 -0.557842
-18.9488 -11.1152 -0.940094
-14.9377 -12.9675 -1.45823
-15.612 -13.0269 -1.21048
-17.4747 -10.5422 -3.77968
-17.3627 -10.5537 -3.76712
-17.5751 -10.6915 -3.85139
-17.5305 -10.6619 -3.82071
-16.2682 -11.4843 -3.67322
-16.3133 -11.657 -3.5282
-15.0579 -11.9136 -2.67287
-15.076 -11.9969 -2.72279
-16.675 -11.5732 -3.32747
-17.4921 -10.8508 -3.1635
-17.5427 -10.8346 -3.14732
-16.9563 -11.4691 -2.96445
-18.56 -10.467 -2.70445
-17.9513 -10.8007 -2.65169
-15.5767 -11.9285 -2.04306
-13.9524 -13.7578 -2.63984
-18.9703 -10.3617 -2.24383
-14.7284 -12.5944 -1.82599
-18.7055 -10.7406 -2.03783
-14.4723 -13.5806 -2.1224
-13.7921 -14.0224 -2.27219
-18.1298 -11.084 -1.92676
-16.8701 -11.8139 -1.53508
-16.5701 -12.0692 -1.59036
-15.8018 -12.4271 -1.54234
-18.2978 -11.1061 -1.58211
-16.8448 -12.0405 -1.17989
-17.235 -11.8437 -1.32978
-15.899 -12.4593 -1.18587
-17.0016 -11.9992 -1.23287
-18.5908 -11.1288 -1.06514
-18.8018 -11.1326 -1.09268
-19.7549 -10.5114 -0.863232
-19.2057 -10.8966 -0.991842
-19.6541 -10.6756 -0.904991
-17.0783 -11.9181 -0.805143
-16.4069 -12.3217 -0.878342
-19.1846 -10.9566 -0.945923
-16.5635 -12.3049 -0.734039
-15.3185 -13.0417 -0.772007
-19.2823 -10.9612 -0.705389
-19.2373 -11.0827 -0.735543
-17.5599 -11.827 -0.615743
-19.8471 -10.631 -0.465213
-19.7586 -10.7593 -0.406349
-15.5927 -13.0972 -0.501853
-19.4462 -11.143 -0.277975
-16.7058 -12.3713 -0.224407
-16.0515 -12.6147 -0.0652841
-17.7208 -11.6011 0.115468
-17.5352 -11.7358 0.145388
-19.7321 -10.9338 -0.157932
-15.7565 -13.1054 -0.0978319
-16.2436 -12.5893 0.282748
-16.6133 -12.6207 0.475125
-16.4703 -10.9774 1.47233
-16.0614 -11.1893 1.60386
-16.4116 -10.8656 1.53896
-15.8948 -11.212 1.53656
-15.7696 -11.3695 1.85422
-17.2546 -10.7996 -3.52242
-17.3349 -10.7541 -3.56299
-18.178 -10.3265 -3.30267
-18.1834 -10.3942 -3.28143
-18.0942 -10.3677 -3.03753
-18.6431 -10.2427 -2.92776
-17.0588 -11.4159 -2.90768
-15.7891 -11.829 -2.04352
-18.0977 -10.8693 -2.37383
-15.7584 -11.9066 -2.00159
-19.0303 -10.3372 -2.23692
-17.903 -11.1303 -2.18407
-14.1232 -13.6631 -2.33988
-14.1312 -13.6951 -2.28421
-18.8457 -10.6917 -1.98183
-17.5369 -11.3964 -2.10381
-14.2536 -13.9709 -1.54426
-15.9202 -12.509 -1.07015
-17.6708 -11.4068 -0.644102
-18.005 -11.2486 -0.440437
-16.6485 -12.2281 -0.566854
-19.8145 -10.6578 -0.53373
-19.0547 -11.1094 -0.62914
-17.049 -12.1954 -0.635132
-19.9551 -10.6457 -0.452647
-16.0755 -12.6488 -0.648848
-19.9132 -10.6258 -0.419997
-19.8414 -10.7593 -0.455528
-19.6188 -10.911 -0.381246
-19.6124 -10.8101 -0.342325
-19.4948 -11.095 -0.35395
-15.2693 -13.498 -0.555714
-17.9406 -11.4217 0.00223343
-15.2934 -13.5741 -0.320011
-16.0414 -12.8962 -0.00883419
-19.3124 -10.672 0.670117
-16.4771 -10.8879 1.61571
-15.9542 -13.09 0.438245
-15.7789 -11.4656 1.74969
-16.5478 -11.4765 -3.28367
-15.1664 -12.2653 -2.20217
-17.148 -11.5379 -2.40242
-17.0585 -11.6607 -2.30998
-14.7652 -12.5772 -1.75277
-14.0373 -13.6956 -2.29656
-14.4545 -13.5129 -2.2558
-17.6576 -11.4212 -1.97103
-15.3778 -12.5668 -1.73398
-16.5924 -11.929 -1.69249
-15.5937 -12.5235 -1.54756
-18.5448 -11.2453 -1.33312
-19.268 -10.7145 -1.20813
-19.2567 -10.7605 -1.00996
-17.07 -11.9641 -0.946105
-17.8717 -11.2087 -0.181736
-17.9029 -11.2265 -0.131806
-16.5711 -12.2348 -0.508347
-19.1848 -11.0807 -0.479466
-19.6191 -10.7547 -0.312617
-15.6343 -12.9974 -0.558643
-19.5956 -11.0266 -0.402544
-17.5947 -11.4852 -0.10168
-16.3063 -12.5588 -0.220403
-16.801 -12.33 -0.163154
-17.2864 -11.8781 0.0565275
-19.5022 -11.1431 -0.101789
-16.9473 -12.1027 0.189562
-15.9294 -13.0677 -0.0212909
-16.8283 -12.2174 0.592969
-15.8845 -11.3274 2.52646
-16.422 -11.411 -3.6499
-15.7147 -12.2839 -1.77748
-15.6926 -12.3448 -1.63828
-18.7044 -11.0129 -1.44208
-18.6211 -11.1861 -1.28402
-18.4262 -11.3506 -1.23826
-19.1939 -10.8799 -0.934637
-15.4785 -12.9969 -0.647736
-16.642 -12.4003 -0.253407
-16.3741 -12.4551 -0.295807
-16.8379 -12.2819 -0.234173
-15.6072 -13.3651 -0.275038
-15.7716 -13.1247 -0.0815947
-15.962 -13.0047 0.536765
-14.9096 -12.1411 -2.6974
-14.8183 -12.0676 -2.44309
-15.7044 -11.7511 -2.4001
-16.4234 -11.9673 -1.99558
-16.9625 -11.9781 -1.31431
-17.1354 -11.8903 -1.18642
-18.3031 -11.4091 -1.25897
-18.3299 -11.304 -1.18052
-15.8995 -12.5172 -0.986322
-17.8494 -11.4742 -0.732206
-17.9411 -11.0838 -0.162472
-16.1428 -12.737 -0.644515
-15.5872 -13.101 -0.489213
-15.5689 -13.0471 -0.581679
-15.9148 -13.0806 -0.0599302
-15.905 -13.144 0.0687786
-15.639 -11.8372 -2.3007
-16.1908 -11.6611 -2.09371
-15.1192 -12.5886 -1.56448
-18.1405 -11.1194 -0.133496
-17.9358 -11.3036 -0.154219
-17.7735 -11.3129 -0.128532
-17.3326 -11.7357 -0.0243326
-16.7567 -12.5055 -0.237082
-15.354 -13.4127 -0.552223
-17.008 -12.1348 -0.714475
-17.716 -11.4105 -0.121469
-15.5305 -12.7588 -1.23744
-16.8425 -12.3046 -0.2457
-16.0324 -11.3406 2.32891
-16.4657 -10.7629 1.84061
-15.0951 -13.3195 -1.06249
-15.6262 -12.3001 -1.53112
-17.8424 -10.4059 -3.74608
-17.3758 -10.9228 -3.52609
-17.9504 -11.1301 -2.03192
-17.9904 -11.1577 -2.0288
-16.4437 -11.7493 -2.70328
-14.988 -12.0122 -2.63449
-17.103 -11.6591 -2.43553
-20.0636 -10.535 -0.224309
-19.4235 -11.0354 -0.779514
-18.6799 -11.2955 -0.825054
-18.6132 -11.4793 -0.883233
-19.0341 -11.248 -0.534449
-19.6369 -10.9932 -0.0708124
-17.0353 -12.0164 -1.09662
-17.6269 -11.3782 -0.0576095
-15.8211 -12.3308 -1.51283
-17.0219 -11.9769 -0.861803
-16.5462 -12.2601 -0.640933
-16.4539 -10.9079 1.56453
-15.9999 -12.4094 -0.897927
-14.389 -13.4717 -2.24093
-14.1011 -13.8125 -2.40723
-16.821 -12.3197 -0.25883
-16.1343 -11.0765 1.55846
-13.7452 -13.9162 -2.55451
-16.3186 -11.187 1.78738
-15.865 -12.7533 -0.379351
-15.7695 -11.4175 1.64538
-15.9091 -13.0182 -0.298227
-15.7793 -11.3919 1.72379
-18.0814 -10.6643 -2.63076
-16.0557 -11.8394 -2.28962
-17.3627 -11.0649 -1.31843
-18.8172 -11.1085 -0.990773
-19.8108 -10.7182 -0.458722
-18.3889 -11.3685 -1.20386
-18.663 -11.3345 -0.827499
-18.5709 -11.3575 -0.864342
-18.5915 -11.2872 -0.912757
-19.3277 -11.0196 -0.418541
-14.7716 -12.6086 -1.74463
-15.637 -12.4776 -1.49467
-14.7381 -12.6118 -1.84732
-14.7264 -12.7532 -1.81951
-16.575 -12.1903 -0.926181
-16.8032 -12.3899 -0.337417
-17.0337 -12.0722 0.305284
-15.7667 -12.9907 -0.553195
-15.6037 -13.1274 -0.276366
-15.9776 -13.1258 0.0396003
-16.0941 -12.9515 0.650161
-15.3386 -13.5466 -0.359349
-19.8369 -10.6916 -0.496746
-18.7628 -10.294 0.958269
-15.5655 -12.4393 -1.58854
-17.0443 -12.1575 -0.992387
-14.7885 -12.6506 -1.69851
-16.6091 -12.3306 -0.384311
-17.0855 -12.062 -0.0176649
-16.2573 -11.1792 1.62696
-15.5359 -12.9403 -0.734514
-15.8309 -13.0517 -0.191647
-15.3001 -13.5917 -0.346829
-19.2802 -10.7136 -1.08329
-19.3533 -10.8463 -0.879326
-15.2377 -12.5712 -1.74621
-15.5785 -12.9753 -0.660096
-15.68 -12.9587 -0.494388
-15.8231 -13.022 -0.192371
-16.0275 -12.9958 0.6062
-18.4287 -11.3237 -1.13272
-19.7495 -10.684 -0.518543
-17.884 -11.2034 -0.171852
-17.177 -11.9295 -1.06894
-17.7374 -11.5096 0.0376243
-15.7521 -12.4547 -1.18226
-13.3949 -14.092 -2.69621
-15.5846 -13.1205 -0.545612
-15.9838 -12.9008 0.512079
-15.9609 -12.568 -1.15047
-14.504 -13.3135 -1.3562
-14.6368 -12.0979 -2.46657
-15.0835 -13.5262 -0.679193
-16.8666 -11.6213 -1.62349
-14.7689 -12.9157 -1.73246
-16.0886 -12.7422 -0.397581
-15.7343 -12.2473 -1.67282
-17.7029 -9.66852 1.75958
-19.3904 -10.7362 -0.943376
-19.2453 -10.9281 -0.871769
-18.2508 -11.1115 -1.59897
-17.3931 -11.0859 -1.23677
-18.4899 -11.3744 -0.923422
-17.6383 -11.4435 -1.80737
-15.4852 -11.9425 -2.03762
-15.6402 -12.3393 -1.8151
-16.4216 -12.4129 -0.733077
-16.5862 -12.3153 -0.62683
-16.539 -12.4846 -0.284198
-16.2273 -12.5569 -0.0983025
-15.9083 -12.6051 -0.651127
-16.4222 -12.5104 0.305954
-14.7933 -12.5919 -1.73485
-14.8 -12.7093 -1.6824
-15.9422 -12.7606 -0.142752
-15.1117 -13.35 -1.09097
-17.8041 -10.1883 -3.90549
-18.1689 -10.2865 -3.45656
-18.4608 -10.3712 -2.96669
-18.6581 -10.9144 -1.52636
-17.9959 -11.166 -2.11775
-16.608 -11.4882 -3.12393
-17.646 -11.4514 -0.0386693
-16.621 -11.9328 -1.65721
-17.2718 -12.2403 -0.493744
-15.6549 -12.2494 -1.99062
-16.7662 -12.2931 -0.426817
-15.7923 -12.3285 -1.55686
-15.5426 -12.564 -1.52817
-15.4355 -12.6064 -1.49976
-14.8335 -12.4963 -1.67977
-15.4559 -12.5912 -1.44578
-14.8454 -12.6193 -1.73046
-15.9415 -12.7378 -0.840063
-14.701 -12.6548 -1.72977
-15.899 -12.9602 -0.339855
-16.2429 -12.9225 0.714164
-15.967 -13.0237 -0.081605
-16.0819 -12.9128 0.630656
-15.8463 -13.2335 0.025635
-15.5859 -13.4376 -0.185007
-14.0702 -13.67 -2.26635
-15.3062 -13.6196 -0.328222
-15.1857 -13.5907 -0.471175
-18.095 -11.227 -1.8663
-18.204 -11.246 -1.40362
-16.7214 -11.4895 -3.08166
-16.5678 -12.3184 -0.645497
-16.7178 -12.2391 -0.747739
-14.8014 -12.7089 -1.67898
-15.7984 -12.9796 -0.602877
-15.8876 -13.0529 -0.102338
-15.7018 -13.0194 -0.292969
-19.2133 -10.7982 -1.21044
-19.1589 -10.7288 -1.19414
-17.5477 -11.5196 0.103201
-15.9757 -12.3313 -1.55478
-14.9335 -12.5609 -1.71518
-15.8478 -13.0191 -0.137318
-15.9284 -13.0751 -0.0216397
-15.8246 -13.2303 -0.0127593
-14.4787 -13.3187 -1.40582
-15.3966 -13.4676 -0.725403
-14.1298 -13.6876 -2.31354
-17.9108 -10.8425 -2.61284
-16.7514 -12.4317 -0.353596
-15.8061 -12.4941 -1.09339
-15.7968 -12.9764 -0.105808
-15.7291 -13.1142 -0.164077
-14.0756 -13.7193 -2.38301
-18.2027 -10.3943 -3.24172
-19.0304 -10.8894 -1.2953
-18.4364 -11.2427 -1.33063
-16.6251 -11.5065 -3.23564
-15.7001 -12.8579 -0.544203
-15.7998 -12.1955 -1.85583
-16.0292 -12.2884 -1.2788
-18.5176 -10.0676 -3.43671
-16.368 -10.9061 1.56795
-16.4134 -10.9996 1.61695
-18.3928 -10.9393 -1.83551
-17.8821 -10.3929 -3.45386
-18.5082 -11.3821 -0.955521
-16.0586 -11.0923 1.73988
-15.8158 -11.2997 2.45818
-17.4344 -11.1509 -2.9224
-17.1462 -10.8519 -3.70898
-17.0761 -10.8778 -3.78844
-17.1439 -10.9445 -3.49873
-16.9716 -11.9131 -0.851137
-17.3078 -12.171 -0.48989
-16.7332 -11.58 -2.84661
-16.9095 -12.0221 -1.25585
-16.7526 -12.3363 -0.345658
-16.2898 -12.2514 -1.13352
-16.3017 -12.9282 0.661874
-15.7477 -12.3452 -1.42486
-15.5952 -12.2342 -1.82269
-16.1459 -12.8595 0.660966
-15.5262 -12.9049 -0.732157
-15.5571 -13.0122 -0.622509
-15.5373 -12.9978 -0.817685
-14.7988 -12.5274 -1.65006
-15.5457 -13.4603 -0.305876
-14.4799 -13.8793 -1.50394
-14.0766 -13.9903 -1.98821
-14.13 -14.1108 -2.00407
-19.117 -10.9496 -1.16705
-18.7006 -10.7986 -1.559
-15.8419 -11.351 2.39882
-17.201 -11.8548 0.226741
-16.8066 -11.1665 -3.68841
-16.8518 -11.4971 -2.97165
-16.8313 -12.2858 -0.417406
-15.781 -12.1959 -1.88456
-14.9639 -11.9804 -2.63697
-15.9912 -13.0195 0.586343
-15.6838 -12.9648 -0.615086
-15.7176 -13.247 -0.053071
-14.9272 -12.5929 -1.7342
-15.6273 -13.3651 -0.210188
-13.9781 -13.7907 -2.49233
-14.1364 -13.9157 -1.92076
-19.0967 -10.8412 -1.09197
-18.5844 -10.5138 -2.3991
-18.0731 -10.7754 -2.72825
-18.1805 -11.1984 -1.72495
-17.6419 -11.447 -0.0583684
-17.6012 -10.8193 -3.10848
-17.0602 -11.3197 -2.91745
-16.4931 -11.4354 -3.3496
-16.4146 -11.6737 -3.27398
-16.3464 -11.6611 -3.24229
-15.9767 -12.5917 -0.217518
-15.6443 -12.3488 -1.79362
-15.0184 -11.902 -2.55858
-15.5146 -13.5046 -0.217793
-19.5711 -10.4937 -1.24541
-18.0569 -10.6991 -2.72637
-17.9548 -11.1277 -2.04402
-16.7988 -11.3765 -3.40423
-16.3493 -11.706 -1.99741
-16.4351 -12.235 -1.16626
-16.4256 -12.3788 -0.666159
-16.0728 -12.4086 -0.392494
-15.3942 -13.4243 -0.712772
-15.2062 -13.497 -0.53322
-19.7865 -10.7352 -0.37287
-17.3151 -10.8151 1.51027
-18.2742 -11.3222 -1.35474
-16.532 -12.3348 -0.571286
-15.8636 -12.5249 -0.643174
-15.8176 -13.1151 -0.00277589
-15.6499 -13.0725 -0.287942
-16.6723 -11.4393 -3.28219
-14.9028 -13.4814 -0.949347
-17.9567 -11.2043 -0.177857
-15.5752 -12.9015 -0.613244
-15.3996 -13.0308 -0.844427
-15.5476 -13.483 -0.178949
-16.2297 -12.4933 -0.726794
-19.7649 -10.6555 -0.481069
-16.0985 -11.1095 1.47895
-17.7769 -11.2549 -0.149463
-17.6889 -11.5014 -0.00332776
-18.5888 -11.0639 -1.36351
-17.6605 -11.5999 0.0783669
-17.2218 -12.1245 0.278214
-18.196 -10.0115 -3.78917
-18.0746 -10.776 -2.67572
-17.9557 -11.2892 -2.03112
-16.7637 -12.2644 0.287936
-16.5153 -12.5578 0.487168
-17.0207 -12.0201 -0.810734
-17.0882 -11.9917 -0.851912
-16.4326 -12.7081 0.493645
-16.3263 -12.6131 0.30605
-17.479 -10.8579 -3.22659
-17.5056 -10.8366 -3.22894
-17.5428 -10.5765 -3.58202
-17.3281 -11.4029 -2.45782
-16.9351 -12.0487 -1.09399
-17.0427 -10.8757 -3.76993
-15.9157 -13.044 0.681079
-16.0491 -12.5267 -0.153819
-16.0463 -12.6585 -0.105772
-16.0212 -12.9414 0.0688429
-16.2488 -12.3664 -1.04526
-15.9993 -12.7888 -0.142116
-15.6685 -11.8222 -2.02441
-15.6131 -12.2896 -1.81373
-15.5902 -12.5439 -1.5666
-14.4594 -13.896 -1.44103
-14.2552 -13.6383 -2.13995
-14.1775 -13.9313 -1.87676
-19.3508 -10.7875 -1.23872
-18.3152 -11.2179 -1.59199
-18.2683 -11.1947 -1.63127
-17.3795 -11.7979 -0.700239
-17.9396 -10.8854 -2.64566
-17.9888 -10.4342 -3.4961
-17.8384 -10.6785 -3.05339
-17.94 -10.4103 -3.46525
-17.0244 -11.6167 -1.52855
-17.6257 -10.2712 -3.87164
-16.22 -12.7676 0.556598
-16.4356 -12.5489 -0.310874
-16.2709 -12.5941 -0.190974
-17.2101 -11.1997 -3.04088
-16.6197 -11.7431 -1.66762
-17.0607 -11.1434 -3.29371
-16.8709 -11.4674 -2.91905
-15.9072 -12.8898 -0.108418
-16.667 -11.4372 -3.18892
-16.4997 -11.5988 -3.23779
-15.5155 -13.1525 -0.484538
-15.467 -12.7187 -1.35061
-15.2423 -12.0834 -2.23151
-15.2177 -13.3971 -0.465215
-14.5783 -14.0113 -1.45226
-14.2954 -13.9693 -1.65757
-14.3098 -13.2957 -2.98284
-14.1286 -13.8548 -1.85543
-13.9057 -13.7485 -2.53851
-16.2791 -10.8691 1.49075
-19.4288 -10.7439 -0.901215
-19.0592 -10.7976 -1.12869
-19.1032 -10.9717 -1.06858
-19.1316 -10.8408 -1.16182
-18.7474 -10.6659 -1.98789
-17.7944 -11.5118 -0.628198
-18.2996 -11.199 -1.70005
-17.3011 -11.8991 0.249313
-16.6529 -12.3263 0.203547
-16.2493 -12.7256 0.50135
-16.5446 -12.4119 -0.594038
-16.0518 -12.5183 -0.251167
-16.1669 -12.2033 -1.15729
-16.3397 -12.239 -1.01909
-15.8893 -12.6254 0.0232379
-16.4001 -12.1489 -1.07815
-16.1759 -11.509 -2.27555
-15.8833 -13.0041 -0.087259
-15.7539 -13.1203 -0.0132027
-15.8687 -13.01 -0.310366
-16.4546 -11.5083 -3.42448
-16.4101 -11.6994 -3.21047
-15.5946 -13.1014 -0.291443
-15.6194 -13.0397 -0.729132
-15.5027 -12.424 -1.72709
-15.5019 -12.962 -0.705818
-15.4437 -12.9879 -0.761008
-15.0844 -11.9727 -2.5951
-14.7457 -12.5404 -1.76211
-14.8091 -12.6491 -1.76503
-14.5056 -13.9998 -1.39916
-14.0705 -13.7955 -2.39302
-13.7688 -14.1642 -2.03937
-18.4955 -11.1831 -1.2548
-16.9296 -12.1865 0.178754
-17.9584 -10.8043 -2.64369
-16.5816 -12.1621 -0.785822
-16.3752 -12.2912 -0.867638
-16.3316 -12.209 -1.0233
-16.2592 -11.4961 -2.20003
-16.772 -11.4054 -3.28688
-16.6107 -11.513 -3.25827
-16.7201 -11.3869 -3.26295
-16.6501 -11.4949 -3.25583
-15.792 -13.106 -0.0697713
-15.761 -13.026 -0.155296
-15.802 -13.1919 0.0674902
-15.6543 -12.9539 -0.559045
-15.4666 -13.0559 -0.560291
-15.6309 -11.8176 -2.3218
-15.4738 -12.9844 -0.806624
-14.7797 -12.6837 -1.68133
-14.7682 -12.0737 -2.5486
-14.186 -13.7788 -2.24572
-17.1413 -11.9669 0.216534
-17.4428 -11.8545 -0.768513
-17.3332 -11.2841 -1.31289
-17.6983 -11.4495 -1.88764
-15.8533 -13.2193 0.032654
-15.0947 -13.3866 -0.721395
-14.8587 -12.158 -2.50133
-14.1464 -13.7637 -2.27939
-18.2331 -10.2616 -3.36302
-16.2593 -12.8628 0.501146
-15.9967 -12.6411 -0.930596
-15.6971 -11.8214 -2.13428
-14.8801 -12.568 -1.6425
-17.8529 -11.3473 -0.0874801
-18.1998 -11.3515 -1.28999
-17.2273 -11.9583 -0.705678
-16.0062 -12.3125 -1.32368
-15.5536 -12.4747 -1.72219
-15.6591 -12.3751 -1.692
-15.3915 -12.8488 -1.2104
-16.0718 -12.7193 -0.65014
-14.5094 -13.2394 -1.38331
-15.4167 -12.5678 -1.51707
-16.184 -11.2 1.69889
-19.306 -11.123 -0.311151
-16.0907 -11.0683 1.46243
-15.6264 -11.6298 1.87836
-19.1444 -10.9493 -0.739421
-17.9569 -11.1761 -0.0660287
-17.7499 -11.3756 0.0642198
-17.7353 -11.4368 -0.0558022
-18.869 -10.9999 -1.06296
-17.1935 -11.8375 0.0574058
-17.0798 -12.1158 0.282753
-18.8474 -10.7496 -1.75503
-18.4321 -11.3904 -1.21137
-19.0359 -10.2426 -2.12787
-17.6232 -11.9041 -0.63399
-18.5567 -10.8701 -2.04617
-16.0838 -12.874 0.579379
-17.2082 -12.1623 -0.46348
-17.2854 -11.9471 -0.775418
-17.3602 -11.9371 -0.834082
-17.0903 -11.9788 -0.705457
-16.6549 -12.3608 -0.334229
-16.0552 -12.9873 0.388801
-17.0676 -11.8869 -0.859445
-18.7261 -10.1386 -2.99564
-16.0578 -12.6871 -0.0913869
-17.1227 -11.6114 -1.49261
-17.8395 -11.1382 -2.31201
-16.5594 -12.2306 -0.83774
-18.2833 -10.3522 -3.11053
-16.4569 -12.2511 -0.789002
-15.8469 -13.1005 -0.140331
-16.3949 -12.3149 -0.91016
-16.9304 -11.8084 -1.51109
-18.198 -10.4685 -3.13154
-17.9737 -10.4877 -3.39357
-16.6025 -11.8521 -1.7464
-15.6405 -13.4507 -0.241371
-17.3081 -10.9685 -3.09445
-17.2302 -11.1626 -3.04264
-17.5116 -10.5575 -3.62142
-17.0297 -11.1455 -3.3139
-17.0414 -10.833 -3.72449
-17.2114 -10.7355 -3.78642
-17.0497 -10.9297 -3.67552
-15.6093 -12.3543 -1.8578
-16.579 -11.473 -3.30579
-15.2366 -12.745 -1.43441
-16.9611 -10.9705 -3.5983
-15.0261 -13.4946 -1.05708
-16.4484 -11.6041 -3.18164
-16.554 -11.5021 -3.25691
-15.3013 -12.5734 -1.7205
-16.5869 -11.2363 -3.62217
-16.4403 -11.3331 -3.58525
-15.1359 -12.1371 -2.28927
-14.8787 -12.6705 -1.81855
-14.8688 -12.4261 -2.07084
-14.7621 -12.526 -2.25143
-14.3769 -13.6052 -2.26279
-14.2466 -13.8619 -2.00244
-14.0308 -13.9692 -2.06981
-14.1727 -13.5895 -2.3811
-14.0021 -13.5755 -2.6874
-13.9176 -13.798 -2.67137
-19.4986 -11.3249 0.269053
-16.0637 -11.2196 1.52344
-19.6365 -10.5259 -0.921522
-15.5639 -11.4988 1.65554
-18.8684 -11.0842 -0.930037
-17.1207 -11.9812 0.265499
-18.9086 -10.523 -2.15257
-16.4496 -12.5266 0.354998
-18.279 -11.1947 -1.67155
-16.3363 -12.5523 -0.199423
-18.6109 -10.194 -2.98
-17.1007 -11.9128 -1.11805
-17.1963 -11.9449 -1.16182
-16.4551 -12.2735 -0.635365
-17.6287 -11.4548 -2.12924
-15.9237 -13.0372 0.0436791
-17.5377 -11.5162 -1.89782
-16.816 -12.0635 -1.30216
-18.3113 -10.197 -3.22534
-18.3937 -9.97265 -3.50081
-17.2807 -11.6396 -2.13156
-16.1829 -12.4316 -1.14429
-17.9026 -10.5551 -3.1866
-16.5237 -11.8101 -1.79361
-17.0438 -11.7285 -2.3584
-15.531 -13.1889 -0.414461
-17.4417 -10.8314 -3.29912
-17.7777 -10.4469 -3.75907
-16.9515 -11.1153 -3.36911
-15.1253 -13.5824 -0.627316
-15.841 -11.8645 -1.8253
-15.664 -12.3805 -1.73006
-15.5654 -11.7888 -2.13925
-16.5763 -11.6074 -3.24213
-16.4376 -11.7102 -3.24094
-16.2987 -11.6974 -3.267
-15.2721 -12.6031 -1.76748
-15.5194 -12.0362 -2.07877
-16.3796 -11.4358 -3.58211
-14.8374 -12.5505 -1.58712
-14.7894 -12.6093 -1.78324
-14.82 -12.7205 -1.65237
-14.988 -12.4491 -2.15727
-14.711 -12.6805 -2.03605
-14.6119 -12.8363 -1.99599
-19.4995 -10.8677 -0.636798
-19.2194 -10.7881 -1.13521
-19.1744 -10.8732 -1.13674
-17.0395 -12.0138 0.204315
-16.2459 -12.7479 0.427024
-17.3425 -11.2168 -1.40786
-15.86 -13.0927 -0.0935925
-17.9873 -10.4886 -3.40845
-15.4932 -13.2818 -0.506818
-17.9636 -9.91144 -4.25149
-17.4155 -10.8005 -3.62681
-15.4476 -13.0339 -0.766835
-17.0181 -11.3223 -3.07822
-16.1367 -11.476 -2.36825
-15.5861 -12.3717 -1.51547
-15.8404 -11.8738 -2.03279
-16.4913 -11.4999 -3.31455
-14.9371 -13.2073 -1.35534
-14.7469 -12.6652 -1.70913
-14.8751 -12.4221 -2.09125
-14.4774 -13.9529 -1.45733
-14.1294 -13.6414 -2.44724
-13.9947 -13.6637 -2.50583
-18.0594 -11.1534 0.0817391
-17.5642 -11.6366 -0.00414385
-16.6054 -12.5092 0.497621
-16.169 -12.8746 0.656994
-17.2133 -11.2808 -1.26533
-16.647 -12.406 -0.337322
-17.0802 -12.0667 -1.04141
-15.9711 -12.5425 -0.116746
-16.0002 -13.122 0.0445137
-15.7342 -13.2782 -0.109949
-15.691 -13.5094 0.0578309
-15.7141 -13.4748 -0.295593
-15.5505 -13.0087 -0.589669
-15.7665 -11.7533 -2.1664
-15.2747 -12.7431 -1.63757
-15.3166 -12.4502 -1.82594
-13.7701 -14.0347 -1.99852
-15.9223 -11.4888 1.84523
-15.752 -13.0966 -0.25615
-17.1951 -11.2384 -3.03118
-15.1584 -13.4817 -0.745705
-15.1488 -13.5839 -0.725017
-15.5889 -11.9411 -1.9028
-14.8356 -12.4799 -1.84425
-14.8338 -12.7806 -1.63211
-16.3299 -12.2287 -1.08842
-15.6312 -12.5871 -1.58781
-14.0093 -13.9627 -1.97051
-16.0858 -12.9919 0.602608
-17.6246 -11.221 -1.19259
-17.1703 -12.0339 -0.71783
-15.6504 -12.671 -1.40691
-14.7921 -12.0988 -2.60901
-14.0903 -13.7868 -2.21413
-17.8749 -11.3085 -0.0749224
-14.5452 -13.2294 -1.30712
-15.927 -12.8257 -0.475413
-15.1568 -13.1906 -1.05615
-15.0254 -12.5416 -1.55523
-14.6384 -13.1829 -1.48852
-15.2908 -13.5499 -0.469452
-16.1888 -11.1572 1.74959
-19.2898 -10.707 0.703181
-16.1832 -11.1516 1.75397
-15.8432 -11.5374 1.91968
-15.6834 -11.5122 1.89424
-16.4527 -10.8762 1.61712
-15.9043 -11.3778 1.80902
-15.5315 -11.5835 1.74246
-15.9071 -11.1938 1.55691
-16.0423 -11.0075 1.46856
-19.9424 -10.867 -0.228706
-19.6652 -10.9012 -0.374368
-19.4408 -11.1602 -0.287895
-19.3567 -11.0225 -0.246482
-19.4506 -11.0543 -0.326621
-19.8557 -10.6403 -0.337754
-19.6259 -10.8772 -0.332016
-19.8807 -10.6336 -0.500882
-17.5544 -11.6083 0.109406
-17.5811 -11.591 0.0874003
-16.2298 -12.8541 0.55036
-17.3056 -12.0768 0.206196
-17.2186 -12.0193 0.256595
-17.5017 -11.7722 0.180742
-16.7042 -12.4829 0.405497
-17.5543 -11.5661 0.0866891
-16.9358 -12.2181 0.339329
-17.126 -12.0095 0.361171
-17.0316 -12.0387 0.304012
-19.5108 -10.7237 -0.826152
-17.0118 -11.9666 0.320804
-16.1543 -12.9604 0.66529
-19.7423 -10.4601 -0.886372
-19.4493 -10.8124 -0.71607
-19.3253 -11.0061 -0.773527
-17.2221 -11.6995 0.129567
-19.1406 -10.9483 -0.712543
-17.3974 -11.7715 0.0810241
-19.3784 -11.0014 -0.723153
-17.5982 -11.3354 -0.0692088
-19.3522 -10.776 -0.987339
-17.7144 -11.4858 -0.335058
-19.6216 -10.4502 -1.15588
-19.652 -10.427 -1.25246
-18.8558 -11.216 -0.994603
-18.6828 -11.3063 -0.838992
-19.5266 -10.5219 -1.31976
-19.4959 -10.4309 -1.2967
-19.5173 -10.4613 -1.3448
-17.8118 -11.3246 -0.677076
-17.7463 -11.4468 -0.672494
-18.4589 -11.2037 -1.16317
-16.6638 -12.3295 -0.224043
-17.7159 -11.7719 -0.541071
-15.9384 -13.1784 0.147926
-17.8328 -11.4582 -0.641185
-18.5549 -11.2555 -1.20807
-18.9057 -10.9704 -1.25363
-16.6613 -12.251 -0.460308
-18.8792 -10.9964 -1.45287
-16.3974 -12.4562 -0.261816
-16.7872 -12.2441 -0.321691
-18.4938 -11.2368 -1.18154
-16.7345 -12.4299 -0.312306
-16.6898 -12.3197 -0.32328
-16.7547 -12.3982 -0.276347
-16.0378 -13.0114 -0.126445
-16.1868 -12.6193 -0.190084
-15.8093 -13.0604 -0.096928
-15.9494 -12.78 -0.139074
-16.1296 -12.5176 -0.1853
-15.9925 -12.8229 -0.260109
-17.1387 -11.9274 -0.869167
-15.9765 -12.5138 -0.359282
-16.0556 -12.503 -0.35785
-16.9968 -12.0404 -0.734079
-16.5379 -12.2524 -0.701141
-18.2947 -11.1557 -1.53834
-17.4228 -11.2486 -1.16919
-16.4349 -12.3645 -0.810642
-18.5458 -10.9407 -1.85222
-16.3453 -12.2529 -0.993181
-18.705 -10.7585 -1.94402
-19.0078 -10.3464 -2.1231
-18.9922 -10.4165 -2.19087
-18.5641 -10.7712 -2.03108
-18.6093 -10.8162 -1.93545
-19.0239 -10.3906 -2.28712
-17.0652 -11.8435 -1.37002
-18.7658 -10.4242 -2.3823
-18.9225 -10.2697 -2.443
-18.8329 -10.2723 -2.75762
-18.8317 -10.239 -2.71104
-18.6195 -10.3852 -2.60573
-18.1919 -10.8854 -2.52227
-16.5444 -11.8807 -1.66838
-18.4145 -10.4978 -2.70479
-16.6342 -11.6394 -1.7285
-15.1313 -13.3536 -1.0898
-18.1365 -10.6309 -2.7523
-18.0978 -10.6063 -2.81826
-16.4545 -11.9652 -1.90743
-17.3447 -11.4846 -2.53517
-17.1252 -11.651 -2.25929
-17.0544 -11.7174 -2.25191
-18.3886 -10.3468 -3.22035
-17.7742 -10.853 -2.85167
-18.3726 -10.2453 -3.26322
-18.067 -10.443 -3.09849
-17.346 -11.1618 -2.77403
-17.3824 -11.2019 -2.84417
-18.3963 -9.98243 -3.52672
-18.3877 -9.97831 -3.46025
-18.0695 -10.4422 -3.42958
-17.0377 -11.4303 -2.86928
-18.0179 -10.4421 -3.48275
-17.8087 -10.591 -3.34365
-17.469 -10.7988 -3.20105
-17.4183 -10.8934 -3.14066
-18.0245 -10.3114 -3.52287
-17.9563 -10.3147 -3.56784
-17.9379 -10.315 -3.55406
-17.0884 -11.3127 -3.08888
-15.5839 -11.8973 -2.0113
-16.723 -11.564 -2.90951
-15.6501 -11.7734 -2.15799
-18.1388 -10.0183 -3.73956
-16.681 -11.6575 -2.90808
-17.991 -10.3283 -3.67505
-14.2877 -13.9768 -1.64671
-17.3687 -10.692 -3.4928
-17.654 -10.4245 -3.61283
-17.5033 -10.6795 -3.55058
-17.7084 -10.4347 -3.67915
-17.5761 -10.6374 -3.63518
-17.7906 -10.4169 -3.70159
-17.7385 -10.4704 -3.69487
-17.046 -11.2955 -3.32761
-17.7973 -10.2636 -3.90071
-17.5845 -10.4552 -3.85776
-16.506 -11.57 -3.25358
-15.3607 -12.0628 -2.27456
-16.5715 -11.5029 -3.28708
-17.7924 -10.2757 -4.0136
-17.1617 -10.8669 -3.75365
-17.3142 -10.5867 -3.83845
-17 -10.8936 -3.80767
-17.3172 -10.6964 -3.79277
-16.8403 -11.0179 -3.58118
-16.2738 -11.5372 -3.47445
-14.1962 -13.7389 -2.37056
-16.4067 -11.4596 -3.70467
-14.0493 -13.7189 -2.41065
-13.8756 -13.9273 -2.26305
-13.9534 -13.6971 -2.6019
-14.3439 -13.2637 -2.93886
-13.3974 -14.1069 -2.67063
-15.799 -11.1783 2.34619
-15.8754 -11.3462 1.93982
-19.2978 -10.4212 0.717301
-19.6306 -11.1283 0.384451
-15.8863 -11.262 1.73264
-19.4655 -11.2122 0.196376
-15.5123 -11.5345 1.64732
-19.802 -10.7935 -0.0520631
-19.9594 -10.5358 -0.571298
-19.928 -10.553 -0.583836
-19.8787 -10.6039 -0.478693
-19.9414 -10.6837 -0.420559
-19.5142 -11.0235 -0.362187
-19.8167 -10.5752 -0.566738
-16.9001 -12.22 0.57339
-16.7963 -12.3341 0.498252
-19.7999 -10.4486 -0.921779
-19.1753 -11.0823 -0.676695
-19.0786 -11.136 -0.700808
-19.1255 -11.0258 -0.678349
-16.8595 -12.1735 0.194151
-19.1991 -11.0168 -0.816674
-19.6184 -10.4799 -1.19577
-18.3583 -11.3526 -1.02962
-16.0712 -12.9454 -0.100646
-15.9638 -12.9981 -0.0139869
-18.3691 -11.3485 -1.19833
-17.5759 -11.6963 -0.837121
-16.1051 -12.482 -0.294147
-16.5854 -12.325 -0.523172
-18.7576 -10.9432 -1.52728
-16.6189 -12.2836 -0.646172
-16.029 -12.4353 -0.305817
-18.7778 -10.7119 -1.83768
-18.2413 -11.286 -1.61364
-16.0384 -12.6341 -0.54746
-17.4488 -11.1595 -1.17547
-16.1111 -12.7229 -0.610095
-15.3628 -13.5038 -0.361848
-16.8432 -12.1277 -1.0943
-15.507 -13.3658 -0.441551
-17.0691 -11.8353 -1.19209
-16.9024 -11.907 -1.222
-17.6661 -11.6148 -1.74631
-16.4488 -12.1579 -1.06617
-17.6255 -11.5128 -1.87865
-16.3082 -12.1997 -1.10557
-17.1316 -11.5624 -1.55799
-17.6422 -11.471 -1.99759
-17.6009 -11.5396 -2.03096
-16.589 -11.9306 -1.60434
-18.3458 -10.6817 -2.52779
-18.6384 -10.2435 -2.82293
-18.7179 -10.1878 -3.01895
-16.9568 -11.7246 -2.30178
-15.6325 -12.3823 -1.58534
-15.3355 -12.7296 -1.41251
-15.677 -12.4754 -1.54577
-17.4712 -11.1618 -2.92421
-17.2429 -11.3206 -2.76032
-15.6384 -11.9704 -1.93401
-15.759 -11.7964 -2.10017
-16.5984 -11.7312 -2.79552
-14.4129 -13.2604 -1.51
-14.564 -12.8319 -1.70504
-14.6087 -12.7024 -1.68264
-16.6756 -11.3923 -3.20076
-16.7198 -11.3402 -3.3444
-16.3554 -11.5944 -3.18519
-16.4814 -11.7146 -3.23584
-17.8039 -10.1019 -4.00363
-17.551 -10.4528 -3.87963
-16.5105 -11.3577 -3.53438
-14.1 -13.7806 -2.36072
-15.0921 -11.9394 -2.62064
-14.0863 -13.69 -2.40562
-13.7757 -14.1207 -2.34576
-14.3766 -12.437 -2.33925
-13.9375 -13.7221 -2.40042
-13.6486 -14.0372 -2.50344
-15.8752 -11.47 1.87828
-16.4652 -10.8205 1.59286
-16.3495 -11.0212 1.71127
-19.1918 -11.2477 -0.436972
-18.096 -11.2906 -0.00421477
-16.2721 -12.7799 0.430343
-17.856 -11.3015 -0.597617
-17.7565 -11.4818 -0.601848
-18.4114 -11.2998 -1.00109
-16.4293 -12.6151 -0.285604
-15.9999 -12.738 -0.619922
-17.3475 -11.2534 -1.20266
-17.3603 -11.3147 -1.17025
-17.3059 -11.0967 -1.23052
-16.8857 -12.0074 -1.27032
-16.8635 -11.9738 -1.32112
-16.3824 -12.0401 -1.0644
-17.6115 -11.5613 -1.99389
-16.669 -11.927 -1.60046
-16.6076 -11.9153 -1.66677
-17.4322 -11.4902 -2.1088
-15.5133 -12.7989 -1.18523
-17.991 -10.8602 -2.7085
-16.9491 -11.7101 -2.34145
-15.8689 -12.2279 -1.58608
-17.3564 -11.1816 -2.67493
-15.7216 -12.3415 -1.81623
-15.789 -12.2014 -1.93632
-16.2949 -11.5302 -2.14187
-17.488 -10.8917 -3.18291
-17.0414 -11.3664 -2.9376
-16.8256 -11.3931 -3.02088
-16.9817 -11.3992 -3.04786
-17.8332 -10.3094 -3.59845
-14.8376 -12.5077 -1.73497
-14.6311 -12.9021 -1.97666
-14.7467 -12.6767 -2.06133
-16.3063 -11.4457 -3.58502
-14.0244 -13.8496 -2.29189
-15.061 -12.0485 -2.6694
-13.7868 -13.8934 -2.56376
-19.7065 -10.7963 -0.0400914
-19.7447 -10.7607 -0.429857
-18.0662 -11.1125 0.0219854
-17.6091 -11.6554 0.11275
-17.6419 -11.5059 0.0607365
-16.1618 -12.7663 0.577003
-16.0058 -12.8604 0.462434
-17.9836 -11.2378 -0.464642
-17.9223 -11.2993 -0.586029
-18.5192 -11.3824 -1.09398
-18.892 -10.9533 -1.37454
-16.557 -12.5846 -0.308928
-16.3666 -12.5729 -0.187279
-15.8956 -12.9173 -0.0405691
-18.2676 -11.3156 -1.24286
-16.9762 -12.1814 -0.732972
-18.3445 -10.951 -1.91534
-15.284 -13.4807 -0.580899
-16.3804 -12.0007 -1.41525
-15.0317 -13.5538 -0.8111
-16.513 -12.0492 -1.66218
-15.7101 -12.3508 -1.75478
-17.7708 -10.5951 -3.18343
-15.7286 -11.8541 -2.02367
-16.4765 -11.7204 -2.82662
-15.5163 -12.0003 -2.05
-14.729 -12.5923 -1.71787
-14.5278 -12.7767 -1.9263
-16.4571 -11.4862 -3.49935
-16.2847 -11.5578 -3.50066
-14.6954 -12.1769 -2.2207
-15.391 -11.5203 -2.63313
-15.3203 -11.6628 -2.74204
-14.1057 -12.8823 -2.29738
-13.9442 -13.7517 -2.44222
-19.6807 -11.2992 0.13801
-17.2874 -11.7485 0.131369
-17.6608 -11.5579 -0.268337
-19.144 -10.7519 -1.23513
-16.0827 -12.5917 -0.123287
-18.5151 -11.2209 -1.32919
-18.3134 -11.2316 -1.22824
-15.888 -12.4694 -0.175713
-16.5303 -12.2857 -0.652218
-18.2921 -11.2363 -1.56557
-16.6466 -11.7368 -1.68821
-14.8583 -12.6711 -1.57868
-16.8472 -11.3706 -3.01051
-15.6841 -11.9018 -2.29256
-14.6119 -12.6795 -1.87044
-15.7898 -11.353 -2.7213
-14.2894 -12.4199 -2.24189
-14.0809 -12.7215 -2.07211
-19.7012 -11.1959 0.194019
-19.3844 -10.9405 -0.662037
-19.1354 -10.8249 -1.11682
-16.8871 -12.3018 -0.140445
-18.9374 -10.8704 -1.13546
-16.0563 -12.5352 -0.256952
-18.6394 -11.056 -1.55006
-15.5306 -13.1096 -0.48739
-15.5572 -13.0238 -0.663121
-16.3014 -12.0161 -1.41013
-14.6676 -13.4551 -1.06939
-15.795 -12.1609 -1.72952
-14.6917 -12.1631 -2.52211
-14.2448 -12.5686 -2.16837
-19.7607 -10.8685 -0.100483
-18.788 -10.9695 -1.37885
-17.2287 -11.2766 -1.33104
-17.4576 -11.2709 -1.50798
-14.6789 -13.3532 -1.00026
-16.3627 -11.4718 -2.11014
-14.9673 -12.5741 -1.84517
-14.5252 -12.91 -1.71626
-16.8743 -11.3393 -3.30827
-18.5832 -11.1433 -1.05706
-18.7135 -10.9862 -1.17294
-15.7113 -12.0869 -1.78977
-15.1152 -11.7898 -2.6033
-16.1477 -12.2845 -1.47626
-15.8909 -12.4057 -1.38602
-16.5387 -10.9329 1.96384
-15.5392 -12.7515 -1.20472
-15.5578 -12.5594 -1.40713
-15.8278 -12.2374 -1.49834
-14.9658 -12.9471 -1.4288
-14.7786 -13.5789 -1.63595
-15.1796 -12.2583 -1.7984
-16.4819 -12.7004 0.132357
-16.5995 -11.9291 -1.47502
-14.0105 -13.6335 -2.65351
-14.6317 -12.3489 -2.45023
-14.0365 -13.7751 -2.4773
-13.9864 -13.8696 -2.18587
-13.9968 -13.8686 -2.19726
-16.9952 -10.8799 -3.7187
-17.4516 -10.4038 -3.94267
-14.7903 -12.421 -2.05494
-18.0529 -9.94888 -4.17843
-15.1443 -12.2234 -2.26091
-16.7075 -11.3982 -3.33422
-16.74 -11.3413 -3.29639
-16.7177 -11.5009 -3.1686
-16.8095 -11.3635 -3.26115
-16.5884 -11.4961 -3.2487
-15.5042 -11.8043 -2.37017
-17.0183 -11.1812 -3.40831
-14.7733 -12.552 -1.71642
-16.5734 -11.5878 -2.96779
-16.5054 -11.8475 -2.77592
-17.9641 -10.2964 -3.53882
-16.6947 -11.6437 -2.95835
-15.6969 -11.7719 -2.03734
-16.9031 -11.3726 -2.83818
-18.0951 -10.3809 -3.22983
-15.6282 -11.93 -1.89217
-17.9532 -10.4088 -3.30804
-18.4359 -10.1504 -3.42318
-18.0908 -10.4637 -3.32175
-15.1474 -12.5495 -1.69581
-17.3388 -11.1328 -2.77534
-17.7566 -10.8354 -2.91835
-15.6065 -12.4221 -1.61078
-16.5688 -11.8848 -1.74987
-17.4481 -11.522 -2.17806
-15.7303 -12.5024 -1.11148
-17.9193 -11.1971 -2.14362
-15.915 -12.5601 -1.01957
-18.7436 -10.4126 -2.36886
-18.4614 -10.7246 -2.25326
-16.9527 -12.0064 -1.27394
-19.0163 -10.4712 -2.12364
-18.8164 -10.5374 -1.93615
-18.8703 -10.5766 -1.87666
-17.0886 -11.9064 -1.2393
-18.3643 -11.1692 -1.53232
-18.7386 -10.8883 -1.49616
-16.0552 -12.5871 -0.309171
-18.79 -11.1353 -1.1718
-18.9285 -11.0772 -0.993107
-19.0408 -10.9992 -0.957162
-17.6683 -11.4379 -0.0225548
-17.269 -11.8268 0.167501
-17.6633 -11.3518 -0.0239044
-19.1611 -11.0517 -0.745652
-16.9344 -12.2154 0.23339
-17.1614 -11.8659 0.195228
-16.2344 -12.7747 0.631689
-19.2038 -11.1049 -0.495626
-19.7388 -10.8617 -0.385548
-19.8129 -10.9382 -0.124
-19.8495 -10.836 -0.174997
-16.1205 -11.2436 1.65792
-13.6769 -13.8437 -2.40917
-13.706 -13.8844 -2.53385
-13.8888 -13.8805 -2.57964
-15.5928 -11.8292 -2.14921
-14.839 -12.6355 -1.62402
-18.1575 -10.3017 -3.27587
-18.0373 -10.9909 -2.19147
-16.316 -12.3234 -1.06981
-15.5857 -13.3544 -0.476946
-18.3848 -11.2743 -1.44396
-16.5978 -12.559 -0.258719
-16.0502 -13.0055 0.385563
-16.7954 -12.2097 0.186229
-19.4204 -11.0468 -0.381106
-16.0743 -11.0774 1.59822
-13.9676 -13.6412 -2.785
-13.7078 -14.0337 -2.37609
-17.3401 -10.7328 -3.93934
-16.6038 -11.6592 -2.92916
-15.7216 -11.8851 -2.0045
-14.8005 -13.3049 -1.43672
-15.4284 -13.0474 -0.762484
-15.1737 -13.4999 -0.692795
-18.4181 -10.8296 -1.94737
-15.3732 -13.563 -0.346589
-17.7393 -11.4514 -0.538496
-17.7323 -11.4349 -0.754796
-16.8683 -12.1489 0.202571
-17.6039 -11.5704 0.0110255
-16.2838 -10.8357 1.47389
-14.5184 -12.3194 -2.17398
-15.2473 -11.6467 -2.55844
-15.7862 -11.8072 -1.9793
-17.6071 -10.6519 -3.31579
-18.4087 -11.1408 -1.23206
-15.864 -13.0126 -0.010132
-16.0572 -12.8971 -0.0156672
-16.515 -12.616 -0.199184
-17.5896 -11.5969 0.051723
-16.6263 -12.497 0.368281
-19.83 -10.9732 -0.167366
-15.8114 -11.3102 2.39178
-14.8464 -12.056 -2.53049
-15.6663 -12.0784 -1.85199
-15.7613 -12.2001 -1.67614
-16.421 -11.9786 -1.58247
-15.8576 -12.5964 -1.02341
-18.5168 -11.1536 -1.5425
-17.6332 -11.4197 -0.961912
-18.6005 -11.2308 -1.05781
-17.0388 -12.2376 -0.276923
-15.8831 -12.9455 0.544128
-14.792 -12.7348 -1.66163
-15.3294 -12.5793 -1.38177
-15.959 -12.7372 -0.566328
-18.5208 -11.1596 -1.28853
-18.7508 -11.2885 -1.03808
-15.8287 -12.5117 -1.14309
-15.9795 -12.5487 -0.6276
-15.7586 -13.0019 -0.646526
-16.0356 -12.384 -1.18877
-17.7159 -11.4455 -1.23612
-16.0008 -12.8839 -0.0534793
-15.7716 -12.3347 -1.58018
-16.0236 -12.5969 -0.852982
-15.7085 -12.9023 -0.69125
-15.1811 -13.2652 -0.925975
-15.5409 -13.109 -1.07201
-16.2262 -12.7395 -0.0829309
-17.9562 -10.185 -4.12072
-17.3992 -10.7704 -3.54993
-14.7431 -12.3743 -2.48526
-16.7469 -11.3877 -3.36212
-16.3939 -11.6924 -3.19215
-16.9236 -11.3292 -2.99972
-14.0158 -13.6808 -2.61148
-14.681 -12.5987 -2.04867
-15.8609 -11.72 -2.05278
-14.0235 -13.7857 -2.42724
-14.1389 -13.6219 -2.4246
-14.3089 -13.6711 -2.1953
-14.6897 -12.6099 -1.79902
-14.8891 -12.6438 -1.71641
-15.8186 -12.3198 -1.58229
-18.197 -11.1402 -1.70343
-16.8368 -12.0628 -1.33415
-15.9257 -12.5398 -1.11192
-16.2086 -12.2721 -1.01765
-18.7312 -10.9138 -1.31553
-15.4712 -12.9418 -0.846268
-19.6053 -10.4769 -1.14805
-18.8939 -11.128 -0.969858
-17.7045 -11.4359 -0.713811
-15.6031 -12.9348 -0.599662
-16.4103 -12.4752 -0.557736
-17.6458 -11.9017 -0.592986
-19.2959 -10.9524 -0.706452
-19.1027 -11.1377 -0.577384
-19.9009 -10.6311 -0.584123
-20.0267 -10.5472 -0.458966
-19.9471 -10.5694 -0.473226
-19.8455 -10.6916 -0.496433
-15.8134 -13.0741 -0.068811
-19.6305 -10.8988 -0.405486
-19.5474 -10.9606 -0.337064
-19.4282 -10.9873 -0.291447
-16.9009 -12.1943 0.298601
-16.6842 -12.2148 0.556501
-16.4232 -10.8744 1.49807
-16.1065 -11.1147 1.53541
-16.0169 -11.1008 1.65874
-16.1769 -11.1689 1.70901
-16.4045 -11.5469 -3.30999
-18.1056 -10.3873 -3.28018
-17.5042 -10.8544 -3.26433
-17.0312 -11.4163 -3.07411
-15.6996 -11.8152 -2.18861
-17.1286 -11.427 -2.73361
-17.1393 -11.309 -2.74956
-14.0042 -14.0648 -1.97363
-14.1526 -14.0144 -1.98225
-15.5298 -12.4643 -1.5604
-18.3527 -11.0016 -1.91918
-14.9902 -13.3264 -0.999487
-17.0019 -11.963 -0.962065
-16.4847 -12.3358 -0.804785
-15.5134 -12.9742 -0.739503
-16.1136 -12.7838 -0.489748
-19.1449 -10.956 -0.827381
-19.1417 -11.099 -0.506871
-17.77 -11.3371 -0.105894
-16.5729 -12.4337 -0.208135
-16.0534 -12.8382 0.564339
-15.9426 -12.9719 0.655412
-16.3562 -11.4776 -3.67386
-15.0661 -11.9586 -2.55466
-14.3185 -12.4761 -2.23273
-17.0917 -11.4069 -2.9016
-14.0648 -13.8021 -2.34705
-17.179 -11.5268 -2.30978
-17.0054 -11.9573 -0.914412
-14.9035 -13.4702 -0.826866
-19.2802 -10.7994 -1.04373
-19.1896 -11.0439 -0.898331
-19.2095 -10.9423 -0.861591
-19.2532 -11.1036 -0.590337
-16.8906 -12.1724 -0.1543
-17.4291 -11.6304 -0.00222947
-17.4465 -10.9261 -3.1806
-15.8238 -12.5638 -1.11768
-18.322 -11.4238 -1.23656
-19.1428 -10.7794 -1.18322
-16.7979 -12.3105 -0.189664
-15.999 -12.7956 -0.0636951
-16.0824 -12.8463 0.509653
-15.7208 -11.8759 -1.97783
-17.8567 -11.2901 -0.245576
-16.1548 -12.8372 0.611263
-15.7433 -11.9424 -2.07834
-17.1351 -12.1148 -0.766691
-17.0382 -12.1154 -0.793388
-15.8605 -11.2844 2.35462
-15.4547 -12.2043 -2.0382
-15.6689 -12.4626 -1.45004
-15.8345 -12.2835 -1.61937
-15.8971 -12.4371 -1.42981
-16.3151 -12.6119 -0.184328
-15.0421 -12.5586 -1.80679
-17.6226 -10.8063 -3.20169
-17.5378 -10.89 -3.29527
-18.58 -10.2801 -2.97879
-18.0221 -10.8523 -2.61142
-14.7479 -12.1857 -2.47212
-17.5952 -11.1514 -2.57225
-14.9994 -12.2445 -2.11146
-18.0305 -11.26 -2.02555
-17.8965 -11.1966 -2.1555
-15.6965 -11.8258 -1.92523
-15.6689 -12.1684 -1.84605
-14.0257 -13.6049 -2.72116
-15.5845 -12.3482 -1.76205
-14.7871 -12.6301 -1.73421
-14.809 -12.6641 -1.67673
-19.1159 -10.7211 -1.10128
-15.5518 -12.4044 -1.51655
-15.7011 -12.3256 -1.54238
-15.7258 -12.4898 -1.57067
-15.5772 -12.4548 -1.42581
-14.1346 -13.733 -2.30763
-18.58 -11.4678 -0.876006
-13.7733 -14.0148 -2.21657
-16.1394 -12.3616 -1.06441
-16.4004 -12.3309 -0.772322
-14.0664 -14.0451 -1.86787
-16.6101 -12.3066 -0.668364
-16.4701 -12.4445 -0.561264
-16.861 -12.2972 -0.500122
-15.4387 -12.9139 -0.809325
-16.6402 -12.2766 -0.330977
-15.6983 -13.0017 -0.548151
-17.2444 -11.9305 0.192762
-15.6984 -13.1912 -0.238553
-16.7099 -12.3735 0.471615
-15.9222 -13.0519 -0.160521
-16.678 -12.5271 0.445313
-15.2386 -13.619 -0.262664
-15.8308 -11.4356 1.67767
-15.1192 -12.338 -2.18219
-15.5335 -12.004 -2.06989
-15.4706 -11.9785 -1.99784
-15.6627 -11.9591 -1.90249
-15.3835 -12.5701 -1.75431
-19.2962 -10.7729 -1.02245
-19.2851 -10.8892 -1.07098
-14.1901 -13.6489 -2.3686
-16.2229 -12.2526 -1.01758
-19.0785 -11.1338 -0.544118
-17.9685 -11.1792 -0.137638
-14.1195 -13.8869 -1.94129
-14.2245 -14.004 -1.68173
-17.4056 -11.7225 0.0478016
-16.666 -12.3946 -0.298246
-17.0015 -12.065 0.197439
-15.7748 -12.9873 -0.35937
-15.3962 -13.4283 -0.520442
-15.1579 -13.5665 -0.548789
-15.8289 -13.1704 -0.0315237
-15.9568 -13.1914 0.0156349
-15.6698 -13.417 -0.0796381
-14.6449 -12.2098 -2.47389
-15.7813 -11.7603 -2.09458
-15.759 -11.7753 -2.00901
-18.3755 -11.2694 -1.24303
-19.2493 -10.7546 -1.00134
-14.1398 -13.6878 -2.34515
-19.2352 -10.9193 -0.943798
-19.1785 -11.0788 -0.660786
-19.7862 -10.7565 -0.538587
-17.1091 -11.9272 -0.879392
-17.9613 -11.1542 -0.129952
-16.0583 -12.4719 -1.04982
-16.4173 -12.3426 -0.735114
-16.5806 -12.2345 -0.673771
-17.4397 -11.6235 0.202955
-14.9844 -13.4612 -1.02215
-15.7001 -13.0347 -0.611748
-16.4158 -12.531 0.423511
-15.3425 -11.5877 -2.60921
-16.3997 -11.915 -1.89737
-15.8759 -12.6221 -0.936048
-16.6772 -12.3053 -0.296885
-16.8002 -12.5014 -0.295899
-16.7025 -12.3456 -0.22399
-15.8739 -13.102 -0.0612488
-15.919 -13.1348 0.0110601
-16.2197 -12.9771 0.563703
-15.1762 -11.7164 -2.6602
