-19.1265 -11.2015 -0.297328
-17.1914 -12.0153 -0.437423
-16.2023 -12.3889 -0.428267
-14.3754 -13.4352 -1.02674
-16.0678 -12.3784 -0.467786
-15.0097 -12.947 -0.613892
-14.6652 -13.3972 -0.901076
-16.2669 -12.4423 -0.157678
-15.02 -13.0846 -0.613126
-16.987 -11.8864 0.191795
-16.2331 -12.4278 -0.226557
-14.4985 -13.4883 -0.867896
-14.099 -14.1223 -1.17986
-16.2087 -12.5266 -0.167365
-17.0641 -11.6585 0.336196
-16.1497 -12.5073 -0.20242
-15.6734 -12.672 -0.142982
-15.7544 -12.749 0.0748189
-15.2375 -13.037 -0.138458
-15.0964 -13.0768 -0.150399
-15.9835 -10.8396 1.71565
-15.5498 -12.9149 0.110345
-15.2541 -13.243 0.0146835
-15.1497 -13.4923 -0.0039503
-15.799 -12.6715 0.682637
-15.4702 -13.1291 0.175587
-15.0914 -11.5972 1.77702
-15.4787 -11.2646 2.61632
-17.2382 -10.642 -3.93549
-17.7496 -10.5202 -3.60835
-17.6076 -10.6631 -3.5402
-16.7163 -11.2688 -3.66487
-17.1063 -11.0591 -3.47488
-17.8901 -10.6058 -3.11214
-16.9367 -11.1303 -3.33371
-17.6778 -10.7029 -3.11766
-18.318 -10.5046 -2.89897
-16.2923 -11.6586 -3.09945
-15.9536 -11.8683 -3.0971
-14.5481 -12.2131 -2.53492
-14.5481 -12.2555 -2.48276
-15.364 -11.9539 -1.96665
-16.8509 -11.6826 -2.29027
-15.2523 -12.0573 -1.98714
-17.541 -11.3038 -1.90666
-17.5869 -11.4446 -1.92565
-18.3138 -11.0935 -1.4015
-18.0888 -11.3036 -1.40683
-14.463 -12.7348 -1.70585
-13.5819 -13.7259 -2.4489
-14.4841 -12.8635 -1.42373
-17.9006 -11.4573 -1.21145
-15.3867 -12.3942 -1.27845
-13.2433 -14.0015 -2.24035
-18.8719 -11.0689 -0.670591
-13.6831 -13.7926 -2.07377
-16.654 -12.0344 -0.992374
-15.0965 -12.6138 -1.15663
-19.5122 -10.7993 -0.437434
-19.4655 -10.8544 -0.419618
-19.4664 -10.853 -0.430136
-18.2628 -11.4285 -0.71008
-19.4579 -10.8909 -0.300132
-16.4197 -12.2406 -0.88797
-17.001 -11.9377 -0.759502
-13.543 -14.0498 -1.90269
-18.6142 -11.3405 -0.500263
-19.397 -10.8973 -0.254469
-18.8231 -11.2457 -0.389252
-15.5141 -12.598 -0.92499
-19.2082 -11.033 -0.225894
-19.2396 -11.1273 -0.169582
-15.028 -12.716 -0.826159
-13.6187 -14.022 -1.62657
-19.0714 -11.1345 -0.169079
-18.9333 -11.1796 -0.211087
-15.9746 -12.4503 -0.666076
-15.8205 -12.6008 0.0510795
-16.3893 -12.3155 0.481358
-15.1642 -13.2307 -0.0337415
-14.9259 -13.57 -0.0870916
-15.7258 -11.093 1.92922
-15.5203 -12.9857 0.610268
-15.4362 -13.1345 0.876282
-17.2833 -10.5416 -3.93517
-16.9877 -10.8828 -3.7952
-18.5055 -10.6023 -2.017
-15.3601 -11.9721 -1.94236
-15.3909 -11.9991 -1.92659
-15.4289 -12.0603 -1.94389
-15.301 -12.0425 -1.63241
-17.1971 -11.6965 -1.94318
-17.3244 -11.7615 -1.85229
-16.1453 -11.8929 -1.61815
-14.4948 -12.6659 -1.60931
-17.8438 -11.548 -1.00286
-14.9094 -12.8689 -1.30809
-19.2927 -10.9157 -0.311138
-15.0456 -12.961 -1.14955
-17.2264 -11.5205 0.00947559
-13.7739 -14.0554 -1.5282
-17.1988 -11.625 0.112309
-15.1163 -12.9661 -0.563384
-16.6063 -12.2233 0.169112
-16.1024 -12.5513 -0.0476642
-16.6729 -11.6407 -2.77095
-14.3838 -12.4185 -2.31807
-15.9574 -11.7868 -2.05736
-15.6355 -11.9338 -2.14999
-15.1717 -12.0437 -1.8942
-15.0646 -12.16 -1.88561
-15.2482 -12.1277 -1.7004
-15.2341 -12.0847 -1.64087
-18.1283 -11.3533 -1.24969
-14.8438 -12.7431 -1.55842
-18.6932 -11.1292 -0.94721
-14.5498 -12.8194 -1.38728
-17.9497 -11.4787 -1.03813
-15.3022 -12.7887 -1.1743
-15.5045 -12.5303 -1.0743
-17.2647 -11.5361 -0.00128633
-14.6252 -13.2953 -0.882161
-16.285 -12.4425 -0.0807771
-16.5555 -12.3359 0.00263319
-16.1263 -12.5752 -0.0511126
-15.2973 -13.2827 0.201207
-15.3853 -13.2332 0.253527
-17.7288 -10.6918 -3.131
-16.5161 -11.5212 -3.12873
-16.0046 -11.9932 -1.90077
-17.9605 -11.3796 -1.40344
-14.3511 -12.6916 -1.60047
-17.5313 -11.2512 -0.221444
-15.2338 -12.6846 -0.948027
-15.0738 -13.1165 -0.457481
-16.2573 -12.4239 -0.117352
-16.2076 -12.4298 0.697019
-15.8053 -12.8011 0.787601
-15.4367 -11.9705 -2.02323
-15.8314 -11.9832 -1.87953
-15.9354 -12.0804 -1.74489
-15.9132 -12.1976 -1.2135
-17.2303 -11.4772 0.0186568
-15.5261 -12.744 -0.4989
-15.4273 -13.1674 0.291498
-17.9973 -11.4784 -1.27139
-14.338 -12.7642 -1.7085
-15.5093 -12.6977 -0.649802
-15.2026 -12.634 -1.38579
-14.5654 -13.0293 -1.19062
-14.8965 -12.9003 -0.828201
-14.5894 -13.4729 -0.767826
-13.757 -13.0054 -2.01787
-17.5972 -10.6916 -3.31159
-18.1758 -10.7552 -2.42207
-17.279 -11.0401 -3.08943
-16.7491 -11.1849 -3.66001
-16.7313 -11.1909 -3.43966
-18.8104 -11.0095 -0.803802
-18.3806 -11.1457 -1.20535
-17.0566 -11.4505 -2.62981
-19.3502 -11.2124 0.0688617
-16.2276 -11.7061 -3.10779
-16.3405 -11.8194 -3.14662
-18.9417 -11.4142 0.0808915
-16.02 -10.9708 1.6514
-14.5586 -12.1705 -2.46233
-15.5283 -11.1618 1.55761
-16.6898 -12.087 0.359467
-14.2232 -12.4014 -2.37364
-16.4953 -12.3667 -0.534659
-14.2795 -12.4374 -2.35367
-15.3107 -11.3753 1.80688
-16.0362 -12.3896 -0.461724
-15.6414 -12.5737 -0.841663
-15.3467 -11.2031 2.5864
-16.1696 -12.6096 -0.169307
-13.8289 -12.8 -2.27314
-14.3426 -12.8046 -1.45741
-15.5629 -12.8631 0.0477786
-15.3917 -13.0886 -0.133945
-15.1211 -13.1279 -0.412375
-15.3979 -13.0126 -0.114024
-14.319 -13.3919 -1.30584
-15.264 -13.0544 -0.15313
-15.4097 -13.1511 0.127483
-15.1107 -13.2466 -0.325098
-15.4383 -13.1323 0.206167
-13.4701 -13.8377 -2.37681
-13.398 -13.9159 -2.33436
-18.2328 -10.3715 -3.22628
-17.5394 -10.6885 -3.44769
-17.075 -11.0487 -3.44982
-19.28 -11.0216 -0.261912
-19.3171 -10.9779 -0.24778
-16.4241 -11.3994 -3.22558
-17.738 -11.3489 -1.74199
-18.3859 -11.3168 -0.902494
-17.8923 -11.3882 -1.5889
-16.0048 -11.6642 -3.44913
-18.9175 -11.3289 -0.139678
-16.3147 -11.7784 -3.09437
-18.0207 -11.5792 -0.775725
-18.9129 -11.4267 0.51148
-17.1389 -11.6322 0.187595
-16.6129 -12.1095 -0.829019
-15.0913 -12.1258 -1.85304
-15.9838 -12.2387 -0.927172
-15.8071 -12.2331 -0.846583
-15.3713 -12.4615 -1.47958
-15.6886 -12.3965 -0.888615
-15.7833 -12.3566 -0.86488
-16.1346 -12.4683 -0.252901
-13.7765 -12.7962 -2.3859
-14.5149 -12.7714 -1.35491
-15.5979 -12.5748 0.0464062
-15.7864 -12.6328 0.0685205
-15.8354 -12.7177 0.592381
-14.8855 -13.0348 -0.631139
-15.1545 -13.0297 -0.282124
-15.0969 -13.1756 -0.254244
-15.4476 -13.2183 0.0922348
-15.2158 -13.1434 0.0666982
-18.023 -10.8921 -1.99876
-18.896 -11.1989 -0.638509
-17.8892 -11.4792 -1.54221
-18.9342 -11.2694 -0.27141
-19.0024 -11.2466 -0.12762
-16.9616 -11.3903 -1.08947
-16.8689 -11.2873 -1.08101
-17.9931 -11.5841 -1.05426
-18.1722 -11.4382 -0.6832
-16.005 -11.9496 -3.09275
-16.1285 -12.0844 -1.5296
-15.4019 -11.9924 -1.71767
-15.2804 -12.1931 -1.79146
-16.9875 -11.7895 0.23171
-16.1829 -12.3107 -0.570345
-16.6633 -12.2059 0.230427
-15.3794 -12.4364 -1.24152
-16.0679 -12.4087 -0.481969
-15.3487 -12.6539 -1.127
-16.1399 -12.5556 -0.0440624
-16.1007 -12.5321 -0.0770002
-14.9902 -12.8694 -1.15838
-14.1782 -12.7905 -1.42008
-15.2394 -13.0496 -0.105646
-15.0511 -13.1682 -0.326462
-15.3384 -13.147 0.1857
-15.1239 -13.5014 -0.0175733
-14.8552 -13.5424 -0.0768261
-14.9265 -13.5329 -0.0802763
-13.3915 -14.2082 -1.80157
-17.0716 -11.0947 -3.0688
-19.4111 -10.8884 -0.290164
-15.3058 -11.8427 -2.07639
-16.791 -11.8917 0.277619
-15.8796 -12.2401 -0.963871
-15.1858 -12.5339 -1.61872
-16.0624 -12.4703 -0.528674
-16.2281 -12.3612 -0.265712
-15.5662 -12.69 -0.220041
-14.1321 -13.154 -1.55757
-15.022 -13.0292 -0.634283
-19.5575 -10.7767 -0.475924
-19.352 -11.0082 -0.253682
-17.5509 -11.3015 -2.01117
-16.9909 -11.485 -1.05215
-16.866 -11.8972 -1.99685
-15.3774 -12.7022 -0.817811
-15.5367 -12.8704 -0.482292
-13.6852 -13.8912 -2.0552
-17.8525 -11.35 -1.47123
-17.8743 -11.4211 -1.19795
-17.5763 -11.2141 -0.0942882
-17.0019 -11.4545 -1.05871
-15.4334 -12.4497 -1.24043
-15.7528 -12.5673 -0.863546
-15.324 -13.2165 0.155512
-18.597 -11.1056 -1.07546
-16.8509 -11.4416 -1.14941
-17.1605 -11.5981 0.259599
-16.4989 -12.3319 -0.302911
-15.5664 -12.4524 -1.07446
-15.1318 -12.5625 -1.50742
-14.9249 -13.1765 -0.460408
-17.9549 -11.2569 -1.32171
-14.1378 -12.8339 -1.86188
-15.4025 -12.1438 -1.49841
-14.5923 -12.9659 -1.05199
-14.4253 -12.9822 -1.22826
-18.8945 -10.9282 -1.00867
-18.8127 -11.081 -0.826511
-18.1209 -10.6457 -2.80845
-15.8035 -11.1229 1.89254
-17.7763 -11.0078 -2.48448
-17.6616 -11.0131 -2.61045
-17.604 -10.7636 -3.28943
-15.4991 -11.3952 1.95165
-17.5819 -11.3015 -1.88097
-16.6835 -11.1521 -3.57484
-16.8878 -12.238 -0.428956
-16.581 -12.0966 -0.719892
-16.3901 -12.3724 -0.224794
-16.1157 -12.3176 -0.701404
-16.0018 -12.305 -0.661867
-15.6524 -11.975 -2.12878
-15.113 -12.0324 -1.94022
-15.6182 -12.6992 -0.747585
-15.6012 -12.5782 -0.868248
-15.5246 -12.6637 -0.43881
-15.6302 -12.9156 0.0231986
-15.4668 -12.7904 -0.641622
-15.4494 -12.7826 -0.686652
-15.3498 -13.0245 0.821006
-15.4023 -13.1513 0.783996
-14.6679 -12.269 -2.53536
-14.9033 -13.1606 -0.491943
-14.7594 -13.7039 -0.224966
-13.7619 -13.746 -2.19069
-13.6679 -13.8214 -2.21643
-13.2764 -14.2463 -1.97623
-19.419 -10.918 -0.252977
-18.8784 -10.974 -0.966308
-18.4797 -10.7614 -2.26687
-15.9631 -10.8933 1.62624
-17.6521 -11.3336 -0.00598575
-18.1074 -11.6114 -0.690327
-17.9411 -11.5746 -0.950558
-17.5583 -10.6383 -3.4913
-17.6101 -10.7055 -3.30161
-17.644 -11.3533 -1.96294
-17.0026 -11.7195 0.222484
-15.3513 -11.4265 1.96063
-17.161 -11.0163 -3.57052
-17 -11.551 -2.33114
-16.6884 -12.1583 -0.905028
-16.5717 -12.0882 -1.06172
-16.2687 -12.345 -0.199839
-15.8221 -12.0177 -1.14351
-15.9249 -12.6088 0.555601
-15.916 -12.3847 -0.672388
-15.8114 -12.8274 0.918981
-15.4433 -12.7581 -0.735546
-15.4598 -13.1503 0.132624
-15.3553 -13.0924 0.12424
-15.3745 -13.188 0.209827
-15.3326 -13.1786 0.179712
-15.1579 -13.1118 -0.40254
-14.9995 -13.2183 -0.303773
-15.1979 -13.4518 0.000296123
-14.4363 -12.7671 -1.41113
-13.7911 -13.8931 -2.17418
-13.8725 -14.0213 -1.4254
-13.6187 -13.8205 -2.5439
-18.4756 -10.532 -2.28823
-18.4841 -10.8455 -1.85573
-17.2631 -11.5405 0.14497
-17.5127 -10.5633 -3.76323
-16.9493 -11.3567 -1.08783
-16.582 -12.173 0.388729
-16.4101 -12.3208 0.689144
-16.5697 -12.1636 -0.828235
-16.3377 -12.4741 0.387435
-16.3868 -12.365 0.31989
-16.1998 -12.4672 -0.303089
-16.116 -11.93 -3.14064
-16.0371 -12.6118 -0.0988062
-15.7805 -12.8236 0.940311
-15.2796 -12.3476 -1.75384
-15.5174 -13.0675 0.874554
-15.4516 -12.7401 -0.718412
-15.1407 -12.4899 -1.60574
-15.097 -12.5775 -1.40404
-15.3351 -13.1667 -0.197066
-15.4569 -13.0376 0.103116
-15.3731 -13.0289 -0.0699037
-15.431 -13.2418 0.376136
-15.2893 -13.2829 0.182474
-14.8546 -12.5957 -1.4467
-14.8133 -13.6159 -0.273235
-13.7399 -13.8326 -2.19292
-13.6935 -13.9931 -1.98593
-13.5736 -13.9003 -2.14633
-13.5936 -13.9996 -1.64217
-13.6341 -14.1115 -1.55227
-16.9054 -10.968 1.50467
-17.2565 -11.6015 0.143789
-17.5046 -11.3914 -1.86605
-17.1062 -11.0552 -3.0576
-17.0426 -11.0506 -3.3303
-16.7242 -12.1486 0.455856
-16.262 -12.3906 0.538147
-16.4778 -12.1642 -0.90623
-16.3829 -11.6215 -3.20264
-16.3652 -12.4292 -0.131939
-16.2588 -12.3041 -0.421059
-16.0779 -12.425 -0.499651
-15.8585 -12.4698 -0.845489
-15.869 -12.8167 0.791336
-15.3167 -12.4187 -1.37696
-15.4527 -12.5276 -1.31577
-15.3691 -12.637 -0.933187
-15.2346 -12.4589 -1.57502
-14.6216 -12.1126 -2.46619
-15.1842 -13.2109 -0.0818499
-15.1291 -13.0002 -0.436005
-15.149 -13.0865 -0.377394
-14.9964 -13.028 -0.654864
-15.0894 -13.0009 -0.523395
-15.0135 -13.0994 -0.47199
-14.2939 -12.3602 -2.1646
-13.563 -13.9247 -2.10024
-13.3774 -14.2406 -1.76912
-18.5775 -10.7419 -2.02624
-17.9187 -11.3504 -1.43743
-17.1135 -11.1094 -3.00433
-16.2727 -12.4711 -0.0752633
-16.1876 -12.3405 -0.202358
-16.1396 -12.4127 -0.462502
-15.9891 -12.3 -0.55783
-16.0014 -12.4944 -0.578789
-15.855 -12.2919 -0.850782
-15.38 -12.5675 -1.31132
-15.4646 -13.2572 0.217936
-15.3835 -13.1174 0.0591798
-13.7194 -13.7332 -2.02089
-13.4345 -13.7466 -2.51766
-13.6785 -13.9969 -1.74568
-13.3978 -14.1856 -1.78653
-19.3706 -10.9634 -0.246771
-18.8444 -11.2618 -0.674987
-17.1294 -11.7026 0.158689
-16.8819 -11.3509 -1.12649
-16.2466 -11.876 -1.56755
-15.4313 -12.5787 -0.472302
-15.3273 -13.2202 0.0291629
-15.4527 -13.0511 -0.00872253
-17.9632 -11.5589 -1.06451
-15.1861 -12.9574 -0.50795
-14.6727 -13.6728 -0.401487
-17.0125 -11.5127 -1.41625
-16.7567 -12.1036 -0.655618
-15.4289 -12.6578 -0.685017
-15.4391 -12.7845 -0.716201
-17.4733 -11.3993 0.00212811
-15.6355 -12.9756 0.0822977
-15.5683 -12.7209 -0.552736
-15.0096 -12.0979 -1.81938
-14.103 -12.9837 -1.90115
-15.5569 -12.9332 0.0807434
-15.1638 -12.9013 -0.858551
-19.2486 -11.1325 0.0932956
-15.8622 -10.919 1.63275
-18.8388 -11.2801 -0.348727
-15.4103 -11.3642 1.9775
-15.516 -11.1259 1.5911
-19.1241 -10.7766 -1.19586
-19.1213 -10.685 -1.2087
-19.0742 -10.7568 -1.22781
-17.5354 -11.279 -0.0290055
-16.6739 -12.0833 0.566901
-18.3305 -10.8434 -1.81096
-17.323 -11.6407 -0.478088
-17.8909 -11.5787 -1.04872
-17.1403 -11.9926 -0.393042
-18.0266 -10.9616 -1.87996
-17.0811 -11.7426 -0.836542
-16.9693 -11.7682 -0.843187
-18.3007 -10.423 -2.79671
-16.9235 -12.0532 -0.754146
-16.3506 -12.4223 -0.147055
-16.3754 -12.3567 -0.260117
-16.1946 -12.431 -0.205266
-17.8647 -10.6115 -3.2416
-18.0683 -10.2351 -3.76666
-17.7811 -10.6642 -3.25491
-16.4655 -12.2362 -0.942108
-18.0085 -10.389 -3.67541
-16.6048 -11.8149 -1.32066
-17.6472 -10.6181 -3.21217
-15.8538 -12.4133 -0.681223
-15.5704 -12.8639 0.0832072
-16.4596 -11.8781 -1.45255
-17.1337 -11.5423 -2.32294
-15.4933 -13.1773 0.369742
-16.8212 -11.6005 -2.08072
-15.6386 -12.763 -0.281642
-17.5059 -10.5863 -3.80232
-16.1721 -12.1761 -1.56191
-16.9455 -11.3064 -2.88741
-17.0242 -11.2236 -3.10016
-15.5325 -12.7013 -0.528405
-17.1421 -10.8903 -3.56122
-16.1312 -12.0607 -1.86201
-17.028 -10.9104 -3.71908
-15.2487 -12.9883 -0.407652
-15.0835 -13.5428 0.0126453
-15.8938 -11.5982 -2.07483
-16.4508 -11.296 -3.67257
-16.1622 -11.6212 -3.17413
-15.2463 -12.0741 -1.86219
-14.7064 -13.6173 -0.466904
-14.345 -12.5074 -2.35072
-13.9485 -13.9763 -1.3663
-13.8829 -13.7484 -2.08204
-13.644 -13.8584 -2.25826
-13.4851 -13.8747 -2.32468
-13.3973 -13.9763 -2.25852
-19.5742 -10.769 -0.400806
-19.5102 -10.7784 -0.38832
-19.109 -11.1273 -0.200082
-19.4585 -10.6209 -0.762296
-15.5055 -11.2179 1.82174
-15.3761 -11.4129 2.048
-18.8491 -11.2038 -0.428718
-15.4529 -11.2459 1.61776
-17.5461 -11.2832 0.140906
-14.9898 -11.5953 1.91559
-17.2262 -11.5721 0.103507
-16.971 -11.7457 0.229213
-16.9717 -11.6262 0.022496
-18.2212 -11.1316 -1.56038
-17.8774 -11.4991 -1.09687
-17.8251 -11.3898 -1.46541
-15.9059 -12.6498 0.546694
-16.8291 -12.2932 -0.404709
-15.9695 -12.5908 0.546117
-17.6997 -11.2551 -1.99151
-17.6139 -11.2826 -1.92869
-16.6298 -12.1667 -0.793911
-16.6355 -12.1431 -0.819724
-16.0375 -12.5498 -0.405686
-17.4132 -11.0601 -2.75977
-17.8465 -10.3785 -3.73104
-17.0221 -11.784 -2.02722
-16.1474 -12.3508 -0.773216
-17.1743 -11.452 -2.35807
-17.3744 -10.8304 -3.26805
-15.3634 -13.2233 0.362189
-17.0976 -11.395 -2.73059
-15.486 -12.6945 -0.389346
-15.1672 -13.0143 -0.469996
-16.2283 -11.7419 -2.99567
-16.4893 -11.3535 -3.52168
-16.2435 -11.7091 -3.09758
-15.3328 -12.1221 -1.76182
-16.2306 -11.7784 -3.1797
-15.2015 -11.9296 -1.93413
-16.1695 -11.5002 -3.36804
-14.7327 -13.5668 -0.252063
-14.4504 -13.5762 -0.731116
-14.4425 -12.8226 -1.41475
-14.4084 -12.7839 -1.43012
-14.2764 -12.7144 -1.86361
-14.1151 -14.0058 -1.20446
-14.0826 -13.623 -2.11375
-13.7418 -13.9495 -2.03061
-13.601 -13.9245 -2.2664
-13.4593 -13.9354 -2.49302
-13.2255 -14.225 -2.15502
-12.9567 -14.3388 -2.15166
-19.1344 -11.4731 0.347952
-15.648 -11.1055 1.74313
-15.5562 -11.3799 1.90405
-15.3003 -11.4218 2.0137
-18.8604 -11.0852 -0.748017
-17.3276 -11.4943 0.18035
-17.9855 -11.3887 -1.50419
-17.7856 -11.4113 -1.45322
-18.0717 -10.9521 -2.13994
-16.9178 -12.0395 -0.662413
-15.6595 -13.006 0.904928
-16.3077 -12.3148 -0.256388
-16.3994 -12.3845 -0.152085
-16.1928 -12.5634 -0.209614
-15.5099 -13.1007 0.785388
-18.0004 -10.4597 -3.53445
-17.1458 -11.656 -1.78742
-17.5755 -11.133 -2.58586
-17.1199 -11.8481 -1.80594
-16.343 -12.1331 -0.938445
-17.9192 -10.4385 -3.67781
-17.7246 -10.5371 -3.35773
-16.8455 -11.1034 -3.42098
-15.4593 -12.7021 -0.745625
-16.3985 -11.7225 -2.85026
-16.6132 -11.4808 -3.27325
-14.8136 -13.6188 -0.156508
-14.962 -13.0678 -0.530025
-14.8373 -13.5514 -0.243552
-15.3158 -12.2395 -1.7923
-15.3151 -12.0665 -1.86874
-15.9449 -11.8837 -3.07888
-15.2342 -12.0031 -2.06772
-16.0775 -11.7093 -3.43119
-14.4763 -12.7873 -1.46004
-14.3654 -12.9158 -1.47191
-14.5864 -12.1774 -2.51059
-14.2747 -14.0071 -1.02768
-13.8667 -13.4209 -2.66543
-16.169 -10.7642 1.90409
-18.6928 -11.1448 -0.952452
-17.2437 -11.6515 0.116428
-18.1768 -11.4907 -0.990279
-16.185 -12.394 0.517152
-18.2564 -10.7709 -2.42178
-15.6251 -12.9418 0.770436
-17.0455 -11.4457 -2.69496
-17.1333 -11.1649 -3.04444
-15.4466 -12.7793 -0.507245
-16.94 -11.3934 -2.83475
-17.0088 -11.1126 -3.43505
-15.172 -13.0654 -0.387713
-16.4731 -11.643 -2.82149
-15.1211 -13.1117 -0.510018
-15.6724 -12.008 -2.04916
-14.807 -13.5767 -0.500136
-15.3004 -11.9005 -2.05838
-16.1508 -11.814 -3.04291
-15.0164 -12.9084 -1.09635
-15.2685 -11.9851 -1.87663
-14.0762 -14.027 -1.23835
-19.4991 -11.0188 -0.145345
-18.2842 -11.2534 -1.16756
-16.8008 -11.9866 0.198085
-16.621 -12.1821 0.191431
-18.22 -11.0218 -1.88591
-17.8771 -11.48 -1.49953
-17.9191 -11.3116 -1.51922
-16.1356 -12.3792 -0.670531
-15.3995 -13.109 -0.0501245
-15.453 -13.068 -0.0125658
-16.1579 -11.7783 -3.12611
-14.8456 -12.6812 -1.43334
-14.0615 -14.0677 -1.1929
-13.4407 -13.8601 -2.37795
-19.3782 -11.0155 0.0629076
-17.5334 -11.3196 0.0285067
-18.4844 -11.2618 -0.795224
-17.602 -11.3211 -0.00168556
-17.1926 -11.5583 0.0489008
-15.4867 -12.5668 -0.0026786
-15.1452 -13.438 0.0997398
-15.2466 -12.0448 -1.9697
-14.2117 -12.625 -1.77079
-14.409 -12.2154 -2.47944
-13.6039 -13.8795 -2.1133
-16.7937 -11.8148 0.340364
-18.0653 -11.5321 -1.08567
-16.9482 -12.0248 -0.682821
-15.6923 -12.8568 0.932276
-18.1497 -11.3961 -0.887345
-17.918 -11.4832 -1.26423
-15 -12.4878 -1.61326
-14.1383 -13.4159 -0.702184
-14.3425 -12.9106 -1.55089
-15.4793 -12.0596 -1.75339
-13.3802 -13.8751 -2.53497
-13.5715 -13.7521 -2.4135
-13.5409 -13.8694 -2.36824
-13.2849 -13.9823 -2.10949
-13.1947 -14.2682 -2.0251
-14.1837 -12.3344 -2.30962
-13.6494 -13.7137 -2.11302
-16.0719 -11.6125 -3.55343
-13.5567 -13.9997 -2.01673
-16.6846 -11.2076 -3.62322
-14.4693 -12.4957 -1.92876
-15.009 -12.1413 -2.12499
-16.2714 -11.7524 -3.05214
-16.6501 -11.4711 -3.31484
-16.516 -11.4626 -3.15225
-17.403 -10.7025 -3.60396
-17.4068 -10.7151 -3.57645
-13.642 -14.1345 -1.59032
-16.3387 -11.8561 -2.76564
-17.7438 -10.7076 -3.50707
-13.7856 -14.1315 -1.42231
-17.5974 -10.651 -3.40903
-14.1301 -13.3581 -1.20716
-15.1562 -12.4466 -1.65076
-17.707 -10.7051 -2.99605
-17.0857 -11.3847 -2.7507
-16.9239 -11.3909 -2.61867
-17.9962 -10.614 -3.07775
-17.156 -11.4677 -2.33125
-17.8664 -10.8835 -2.60384
-16.089 -11.8155 -1.49041
-16.9506 -11.8064 -2.07927
-18.0612 -10.8944 -2.46793
-14.9202 -12.8349 -0.829574
-14.6413 -13.6543 -0.413221
-16.6525 -11.8896 -1.27595
-18.6518 -10.5765 -2.13735
-18.201 -10.9003 -1.84227
-15.0678 -13.1824 -0.268471
-16.8161 -11.8177 -1.11301
-16.6686 -11.9962 -0.967798
-15.2972 -13.0962 -0.297102
-16.6466 -12.0478 -0.936888
-16.0984 -12.32 -0.603725
-18.3117 -11.1224 -1.34315
-15.6097 -12.6377 -0.093322
-15.4426 -13.1542 0.11109
-17.9231 -11.4931 -1.04295
-16.2352 -12.577 -0.0850627
-15.8119 -12.6481 0.0273818
-18.1635 -11.4812 -1.04924
-17.3274 -11.5355 -0.62103
-18.6603 -10.9305 -1.14382
-17.463 -11.4534 -0.503637
-16.3903 -12.4017 0.300336
-16.332 -12.2382 0.331337
-18.8698 -11.2357 -0.652784
-16.836 -11.8311 0.296846
-17.1138 -11.7512 0.32515
-16.5296 -12.3151 0.578085
-16.6389 -12.0463 0.467945
-15.4761 -13.1041 0.826165
-18.7666 -11.391 -0.309205
-19.4248 -11.088 -0.0174021
-15.5672 -11.1751 1.75438
-15.6087 -11.1628 1.75207
-15.863 -11.1868 1.91379
-13.1931 -14.0408 -2.29587
-13.3406 -14.0151 -2.34882
-13.5322 -13.9265 -2.43822
-13.3907 -13.9348 -2.19518
-13.6101 -13.8229 -2.25115
-14.5252 -12.2403 -2.44504
-17.2026 -10.7545 -3.81097
-13.9565 -13.6648 -1.95547
-14.7387 -12.3741 -2.00714
-16.0336 -11.7415 -3.08768
-16.35 -11.6807 -3.14998
-14.4466 -12.7298 -1.64357
-16.2306 -11.9199 -2.68945
-16.2291 -11.9206 -2.78619
-16.4995 -11.5931 -2.8669
-15.3367 -12.024 -1.85032
-15.3023 -12.1214 -1.82544
-18.0038 -10.4841 -3.43182
-16.9651 -11.5147 -2.66128
-14.9296 -12.7191 -1.33114
-15.1395 -12.6146 -1.44072
-16.0717 -12.0749 -1.79402
-17.1313 -11.6729 -2.08537
-17.1875 -11.8265 -1.77666
-17.5586 -11.3107 -1.9698
-15.8217 -12.2969 -0.861186
-15.9589 -12.2427 -0.896403
-16.3841 -12.1988 -1.02518
-17.9174 -11.1764 -1.80856
-17.863 -11.3861 -1.80063
-16.9404 -11.36 -1.22725
-17.0682 -11.2571 -1.12332
-16.4807 -12.2575 -0.935315
-16.6502 -12.0964 -0.980703
-14.9921 -13.4882 -0.247904
-18.5435 -10.9247 -1.70692
-15.2893 -13.0583 -0.150489
-16.4936 -12.2188 -0.602827
-16.0196 -12.426 -0.321769
-15.5898 -13.039 0.282591
-18.4606 -11.3357 -0.922657
-18.5284 -11.1524 -1.00156
-19.327 -10.7662 -1.06309
-16.423 -12.1538 0.30568
-18.7943 -11.1383 -0.568428
-16.3137 -12.2802 0.469194
-16.9048 -11.8544 0.118723
-16.8909 -11.9228 0.205581
-18.7282 -11.4097 -0.363947
-19.2011 -11.1781 -0.13685
-15.6625 -11.1373 1.78841
-15.433 -11.2089 2.65256
-13.3461 -13.7987 -2.40445
-14.6007 -12.2652 -2.56562
-13.7843 -13.7307 -2.20502
-13.4588 -14.2012 -1.82247
-14.3705 -12.7108 -1.65205
-14.3529 -12.6568 -1.67672
-14.3902 -12.8934 -1.39777
-14.3888 -12.9504 -1.44981
-17.6457 -10.713 -3.26617
-16.648 -11.6673 -2.66196
-15.2977 -12.2277 -1.71165
-16.7922 -11.669 -2.50719
-17.231 -11.2171 -2.79015
-17.6691 -11.1859 -2.25921
-15.0223 -13.0236 -0.608339
-15.9417 -12.2802 -1.01435
-16.329 -12.0871 -1.22414
-18.0156 -11.347 -1.37918
-18.5762 -10.7467 -1.7347
-17.9899 -11.3944 -0.967956
-18.7879 -11.1083 -0.815574
-19.4395 -10.7014 -0.368276
-19.4309 -10.8307 -0.324519
-15.472 -11.3785 2.02857
-13.501 -13.8604 -2.41018
-14.4756 -12.2069 -2.36655
-17.0747 -10.9288 -3.76476
-17.1421 -10.8738 -3.80295
-13.7348 -14.0537 -1.634
-14.4558 -12.6898 -1.59736
-15.144 -12.1447 -1.90873
-16.1196 -12.036 -2.66338
-15.0309 -12.5581 -1.64462
-15.1929 -12.4234 -1.62111
-15.2026 -12.424 -1.55845
-15.1721 -12.6341 -0.986258
-14.4912 -13.5501 -0.657857
-14.5924 -13.5512 -0.658409
-14.6378 -13.6096 -0.629194
-14.7474 -13.567 -0.354873
-18.1164 -11.049 -1.83073
-14.767 -13.7271 -0.32897
-15.3498 -13.143 0.170207
-17.6333 -11.2391 -0.0622389
-15.7294 -12.7605 0.644666
-17.1908 -11.5502 0.247502
-19.347 -10.9514 -0.311129
-15.8781 -10.9178 1.48914
-17.3225 -10.6657 -3.90172
-13.7857 -13.4918 -1.39052
-15.3684 -12.0368 -1.8206
-16.2913 -11.8834 -1.53934
-16.171 -11.9278 -1.42205
-16.8629 -12.0741 -0.611754
-16.8865 -11.8934 0.188091
-19.14 -11.3805 0.311905
-15.3734 -11.1101 2.55797
-15.3167 -12.1283 -1.78721
-17.8621 -11.4428 -1.13975
-18.1579 -11.2925 -1.13067
-14.1847 -12.9161 -1.86634
-15.2182 -12.6498 -0.993949
-18.2267 -11.182 -1.82609
-17.8792 -11.4686 -1.24361
-16.1231 -12.3905 -0.357369
-14.0043 -13.1582 -1.86128
-15.5158 -12.5979 -1.01927
-17.9843 -11.3606 -1.15829
-15.4571 -13.0867 0.207
-17.3442 -11.3564 -0.0956731
-15.7239 -12.2978 -1.2346
-15.6059 -12.8215 -0.355729
-18.5461 -11.2949 -0.793206
-14.4941 -13.0715 -1.25499
-15.1641 -13.1341 -0.996586
-17.1161 -10.8428 -3.67682
-17.0037 -10.8507 -3.66494
-17.2133 -10.9983 -3.73905
-17.1692 -10.9659 -3.71057
-15.8847 -11.7469 -3.53266
-15.9238 -11.9125 -3.37786
-14.6536 -12.0897 -2.52426
-14.6701 -12.1761 -2.56931
-16.2856 -11.8268 -3.17788
-17.1193 -11.1172 -3.04445
-17.1701 -11.1014 -3.02861
-16.5657 -11.7098 -2.81792
-18.192 -10.7356 -2.59489
-17.5744 -11.0504 -2.53091
-15.1655 -12.0829 -1.88864
-13.5008 -13.9009 -2.40267
-18.6001 -10.6154 -2.13605
-14.2982 -12.7142 -1.6451
-18.3236 -10.9755 -1.91261
-14.0198 -13.7085 -1.88979
-13.33 -14.1407 -2.0229
-17.7382 -11.2976 -1.78948
-16.4562 -11.9729 -1.37283
-16.1503 -12.2233 -1.41746
-15.3726 -12.5585 -1.3587
-17.9021 -11.3049 -1.44222
-16.4215 -12.1788 -1.00605
-16.8181 -12.0005 -1.16201
-15.4653 -12.5734 -0.999908
-16.5799 -12.1445 -1.0594
-18.1891 -11.3064 -0.921435
-18.4002 -11.317 -0.946294
-19.3667 -10.7083 -0.740353
-18.809 -11.086 -0.853926
-19.262 -10.8719 -0.774188
-16.6543 -12.0419 -0.635919
-15.9734 -12.4318 -0.694569
-18.7859 -11.1429 -0.805023
-16.129 -12.411 -0.549611
-14.8658 -13.1173 -0.561382
-18.8811 -11.1366 -0.563491
-18.8333 -11.2584 -0.587438
-17.1361 -11.9525 -0.446269
-19.4517 -10.8079 -0.335327
-19.3593 -10.9305 -0.270526
-15.1358 -13.1646 -0.285438
-19.0359 -11.2985 -0.124867
-16.2643 -12.4527 -0.0354894
-15.6024 -12.6704 0.129211
-17.2953 -11.6907 0.273224
-17.106 -11.8188 0.30836
-19.3258 -11.0903 -0.0132139
-15.2953 -13.1546 0.120285
-15.7916 -12.6307 0.477518
-16.1583 -12.6607 0.675579
-16.0476 -10.9617 1.57923
-15.6321 -11.1557 1.71748
-15.9912 -10.845 1.63893
-15.4656 -11.1779 1.64961
-15.3332 -11.3144 1.97399
-16.8869 -11.0799 -3.40836
-16.9687 -11.0388 -3.45044
-17.8198 -10.6188 -3.20431
-17.8233 -10.6854 -3.17931
-17.7322 -10.6432 -2.93829
-18.2831 -10.5261 -2.82923
-16.669 -11.6562 -2.76297
-15.3803 -11.9889 -1.89212
-17.7162 -11.1073 -2.24802
-15.3473 -12.0633 -1.84634
-18.6607 -10.592 -2.12981
-17.5129 -11.3523 -2.04646
-13.6709 -13.7941 -2.10642
-13.6775 -13.8232 -2.04898
-18.4645 -10.9271 -1.85777
-17.1393 -11.6044 -1.95593
-13.7852 -14.0607 -1.29362
-15.4841 -12.6171 -0.88139
-17.258 -11.5374 -0.496406
-17.5941 -11.3767 -0.297898
-16.2142 -12.3272 -0.385929
-19.4191 -10.8376 -0.402641
-18.6489 -11.2746 -0.481842
-16.6161 -12.3085 -0.451275
-19.5591 -10.8246 -0.320729
-15.6314 -12.7373 -0.451278
-19.5174 -10.8019 -0.289705
-19.4426 -10.9353 -0.31867
-19.2155 -11.077 -0.238736
-19.2112 -10.974 -0.205495
-19.0864 -11.2561 -0.202799
-14.8027 -13.5595 -0.320917
-17.5208 -11.5234 0.152845
-14.8224 -13.6231 -0.0811212
-15.5845 -12.9481 0.200932
-18.9046 -10.7726 0.794291
-16.0552 -10.8647 1.71754
-15.4878 -13.1146 0.65695
-15.3411 -11.4163 1.875
-16.1604 -11.7247 -3.14093
-14.7483 -12.4175 -2.03373
-16.7499 -11.7523 -2.25077
-16.6564 -11.8675 -2.15276
-14.3347 -12.6939 -1.57251
-13.5838 -13.822 -2.06236
-14.0051 -13.6479 -2.0269
-17.258 -11.6248 -1.82059
-14.9472 -12.6979 -1.54726
-16.1772 -12.0895 -1.52687
-15.1621 -12.6498 -1.36102
-18.1428 -11.4363 -1.18312
-18.8782 -10.9178 -1.07916
-18.8637 -10.9524 -0.878912
-16.6462 -12.0953 -0.774229
-17.4593 -11.3192 -0.0433389
-17.4895 -11.335 0.0078509
-16.1361 -12.3287 -0.32804
-18.7782 -11.2409 -0.332482
-19.219 -10.9172 -0.178804
-15.1806 -13.0692 -0.347145
-19.1895 -11.193 -0.253915
-17.1744 -11.5839 0.0485949
-15.8601 -12.6296 -0.0257959
-16.3599 -12.4105 0.0244967
-16.8546 -11.9595 0.224592
-19.0901 -11.2903 0.0516946
-16.5084 -12.1678 0.365847
-15.4683 -13.1171 0.19663
-16.3824 -12.2571 0.773553
-15.4423 -11.2382 2.64417
-16.0401 -11.6763 -3.51164
-15.2916 -12.4264 -1.60235
-15.2665 -12.4789 -1.46028
-18.3095 -11.2143 -1.30285
-18.2201 -11.3764 -1.13647
-18.0207 -11.5332 -1.084
-18.7971 -11.0659 -0.797868
-15.0257 -13.0697 -0.437923
-16.2001 -12.4817 -0.0635835
-15.9314 -12.532 -0.105997
-16.3988 -12.3674 -0.0486274
-15.1411 -13.4198 -0.0440904
-15.3096 -13.1733 0.13773
-15.4968 -13.0242 0.750715
-14.4998 -12.3145 -2.53796
-14.4079 -12.2247 -2.28915
-15.3014 -11.9287 -2.25339
-16.0104 -12.1402 -1.82933
-16.5421 -12.1269 -1.14232
-16.7159 -12.0366 -1.01746
-17.8962 -11.5897 -1.10288
-17.925 -11.4811 -1.03002
-15.4623 -12.6202 -0.797485
-17.4357 -11.6141 -0.578602
-17.5317 -11.1952 -0.0301701
-15.6964 -12.8268 -0.441327
-15.13 -13.1676 -0.272674
-15.1141 -13.1185 -0.368167
-15.4537 -13.1318 0.158592
-15.441 -13.1877 0.290469
-15.2327 -12.0075 -2.15018
-15.7868 -11.8342 -1.94682
-14.6864 -12.7038 -1.3798
-17.7298 -11.2342 0.00302105
-17.5206 -11.414 -0.00990832
-17.3579 -11.4178 0.0143764
-16.9052 -11.823 0.136563
-16.3119 -12.5887 -0.0401763
-14.8895 -13.4764 -0.32114
-16.5775 -12.2513 -0.534298
-17.2978 -11.5134 0.026131
-15.0898 -12.866 -1.03918
-16.4029 -12.3908 -0.0588344
-15.5918 -11.266 2.44937
-16.0448 -10.7272 1.93508
-14.6383 -13.405 -0.838711
-15.2002 -12.4268 -1.35651
-17.4867 -10.714 -3.64653
-17.0048 -11.2062 -3.40385
-17.5587 -11.345 -1.89402
-17.598 -11.3734 -1.88892
-16.0435 -11.9622 -2.54766
-14.5809 -12.1843 -2.48133
-16.7022 -11.874 -2.27769
-19.6681 -10.7042 -0.0975835
-19.021 -11.2183 -0.631789
-18.2714 -11.4617 -0.671541
-18.2007 -11.6467 -0.720296
-18.6238 -11.4072 -0.379917
-19.2282 -11.1423 0.0759333
-16.6117 -12.155 -0.922032
-17.2089 -11.4754 0.0870824
-15.3941 -12.4612 -1.33431
-16.5969 -12.1022 -0.689909
-16.1119 -12.3607 -0.459312
-16.0321 -10.8869 1.66728
-15.5646 -12.5102 -0.713996
-13.9405 -13.6043 -2.01507
-13.6457 -13.9464 -2.1657
-16.3811 -12.406 -0.0713664
-15.7083 -11.0475 1.66679
-13.2888 -14.0491 -2.31116
-15.8874 -11.1498 1.90356
-15.4156 -12.8214 -0.178892
-15.334 -11.3738 1.76811
-15.4521 -13.0825 -0.0828258
-15.3437 -11.3442 1.8451
-17.7077 -10.9164 -2.516
-15.6491 -12.0196 -2.13418
-16.9657 -11.2257 -1.19201
-18.4152 -11.2876 -0.845697
-19.413 -10.8937 -0.324472
-17.9826 -11.5482 -1.0491
-18.2535 -11.5004 -0.672036
-18.1613 -11.523 -0.708618
-18.1842 -11.456 -0.760586
-18.922 -11.1801 -0.273362
-14.3402 -12.7249 -1.56259
-15.2061 -12.6021 -1.31023
-14.3077 -12.733 -1.66533
-14.2921 -12.8723 -1.62992
-16.1454 -12.3076 -0.747612
-16.3623 -12.48 -0.146174
-16.5944 -12.1332 0.48071
-15.313 -13.0656 -0.340545
-15.1437 -13.1826 -0.0585191
-15.5143 -13.173 0.261174
-15.6291 -12.9682 0.862533
-14.8687 -13.5989 -0.121389
-19.4403 -10.8699 -0.363598
-18.362 -10.3657 1.05487
-15.1366 -12.5673 -1.4069
-16.616 -12.2903 -0.810103
-14.3556 -12.7647 -1.51404
-16.1703 -12.4185 -0.198491
-16.6497 -12.1421 0.158304
-15.8279 -11.1492 1.74225
-15.0855 -13.0195 -0.52701
-15.3719 -13.1081 0.0245262
-14.8291 -13.6423 -0.106853
-18.8891 -10.9103 -0.954433
-18.9568 -11.0333 -0.742651
-14.8071 -12.6995 -1.56084
-15.1263 -13.0513 -0.450298
-15.2265 -13.0281 -0.284593
-15.3649 -13.0783 0.0220814
-15.5618 -13.0131 0.820308
-18.0228 -11.5006 -0.980069
-19.3533 -10.8613 -0.386785
-17.4716 -11.3137 -0.0336214
-16.7553 -12.0703 -0.897536
-17.3151 -11.6041 0.190667
-15.3185 -12.5649 -0.998256
-12.9354 -14.2236 -2.44701
-15.1275 -13.1901 -0.327942
-15.5215 -12.9224 0.720611
-15.524 -12.6815 -0.957872
-14.0506 -13.4004 -1.13911
-14.2259 -12.2517 -2.31302
-14.6175 -13.5899 -0.444792
-16.4585 -11.7855 -1.47173
-14.3294 -13.0307 -1.53359
-15.6396 -12.817 -0.195121
-15.3111 -12.3845 -1.49964
-17.3105 -9.67039 1.8083
-18.9973 -10.9278 -0.812225
-18.8466 -11.1118 -0.731853
-17.8552 -11.31 -1.4593
-16.9947 -11.243 -1.10898
-18.0805 -11.5412 -0.767608
-17.2364 -11.6375 -1.65619
-15.0736 -12.0942 -1.8835
-15.2161 -12.4818 -1.63773
-15.9843 -12.5152 -0.54435
-16.1503 -12.4161 -0.441733
-16.0953 -12.5649 -0.0908833
-15.78 -12.619 0.0950978
-15.4655 -12.6896 -0.457885
-15.9719 -12.5552 0.498412
-14.3622 -12.7083 -1.55349
-14.3654 -12.8227 -1.49459
-15.4902 -12.8176 0.058623
-14.6544 -13.4375 -0.865282
-17.4557 -10.5047 -3.81809
-17.8133 -10.5871 -3.36026
-18.0979 -10.6519 -2.86313
-18.2666 -11.1196 -1.39294
-17.6042 -11.3867 -1.97721
-16.2187 -11.729 -2.9801
-17.2259 -11.5479 0.110237
-16.2054 -12.092 -1.49112
-16.8362 -12.3511 -0.30507
-15.2349 -12.4022 -1.81774
-16.3288 -12.3874 -0.241182
-15.3658 -12.4607 -1.37873
-15.1099 -12.6879 -1.34002
-15.0014 -12.7259 -1.31056
-14.4043 -12.6108 -1.5033
-15.0217 -12.7083 -1.25726
-14.4135 -12.7367 -1.547
-15.4971 -12.8334 -0.638846
-14.2682 -12.7685 -1.54603
-15.4439 -13.0266 -0.127692
-15.7779 -12.9394 0.926556
-15.5076 -13.0774 0.134422
-15.618 -12.9303 0.840793
-15.3804 -13.278 0.251638
-15.117 -13.4868 0.0495418
-13.617 -13.7956 -2.03323
-14.8342 -13.6693 -0.0866735
-14.7159 -13.6453 -0.232379
-17.6991 -11.4362 -1.72166
-17.8029 -11.4323 -1.25741
-16.3316 -11.7308 -2.93652
-16.1321 -12.4197 -0.460413
-16.2851 -12.35 -0.565124
-14.3667 -12.8222 -1.49118
-15.3455 -13.058 -0.390391
-15.4276 -13.1058 0.114415
-15.2447 -13.0782 -0.0799033
-18.8214 -11.0001 -1.0775
-18.7686 -10.9285 -1.06567
-17.1245 -11.6056 0.254498
-15.549 -12.4679 -1.37438
-14.5029 -12.6798 -1.53394
-15.3891 -13.0729 0.0771704
-15.4671 -13.1245 0.196678
-15.3592 -13.2763 0.212876
-14.0257 -13.4076 -1.18866
-14.9325 -13.5418 -0.490538
-13.6766 -13.8173 -2.0787
-17.5325 -11.089 -2.49028
-16.3097 -12.5213 -0.160625
-15.3707 -12.6007 -0.906732
-15.3389 -13.0273 0.105695
-15.2683 -13.1663 0.0543102
-13.6223 -13.8513 -2.14694
-17.8421 -10.6837 -3.13944
-18.637 -11.0911 -1.15932
-18.0346 -11.4308 -1.18203
-16.2364 -11.7539 -3.09044
-15.2498 -12.9308 -0.339635
-15.3798 -12.3446 -1.68445
-15.6009 -12.4112 -1.10059
-18.1673 -10.3763 -3.34845
-15.9462 -10.8827 1.6696
-15.9887 -10.9745 1.72419
-18.0039 -11.1548 -1.7033
-17.5239 -10.6859 -3.35503
-18.0989 -11.5511 -0.799022
-15.6304 -11.0513 1.84792
-15.375 -11.2126 2.57368
-17.0515 -11.4019 -2.7879
-16.779 -11.1397 -3.593
-16.709 -11.1682 -3.67172
-16.7722 -11.2205 -3.37802
-16.5482 -12.0367 -0.683349
-16.874 -12.2826 -0.304614
-16.3387 -11.8085 -2.69673
-16.4874 -12.1663 -1.08215
-16.3133 -12.4257 -0.15793
-15.8608 -12.3729 -0.954553
-15.8371 -12.9495 0.875343
-15.3195 -12.4689 -1.24654
-15.1739 -12.3763 -1.6516
-15.6831 -12.8771 0.868865
-15.0766 -12.9838 -0.526717
-15.1036 -13.0856 -0.410989
-15.0862 -13.0815 -0.606875
-14.3685 -12.6394 -1.47232
-15.0775 -13.5151 -0.0703517
-14.0135 -13.9727 -1.25579
-13.6124 -14.1001 -1.73785
-13.6628 -14.2226 -1.74645
-18.7208 -11.1463 -1.02697
-18.3124 -11.0068 -1.4314
-15.4005 -11.2677 2.51754
-16.7681 -11.9247 0.392272
-16.4312 -11.4441 -3.55909
-16.4606 -11.7356 -2.82476
-16.3939 -12.3812 -0.231436
-15.3612 -12.3462 -1.71333
-14.5576 -12.1521 -2.48583
-15.5251 -13.0369 0.801365
-15.2315 -13.041 -0.40472
-15.2522 -13.2925 0.172308
-14.496 -12.7126 -1.55124
-15.1605 -13.4168 0.0208948
-13.5241 -13.9263 -2.25328
-13.6733 -14.0234 -1.67392
-18.7025 -11.0335 -0.958201
-18.2121 -10.766 -2.28718
-17.6976 -11.0325 -2.60733
-17.7838 -11.4019 -1.58112
-17.2222 -11.5445 0.0902838
-17.2286 -11.0854 -2.98999
-16.673 -11.5608 -2.77799
-16.1075 -11.6858 -3.20965
-16.0222 -11.9176 -3.12196
-15.954 -11.9015 -3.0918
-15.5298 -12.654 -0.0249084
-15.2198 -12.4903 -1.61571
-14.6134 -12.0708 -2.41125
-15.0443 -13.5536 0.0196678
-19.1872 -10.707 -1.12503
-17.6833 -10.9558 -2.60983
-17.5633 -11.3434 -1.90617
-16.4151 -11.6378 -3.26391
-15.943 -11.8776 -1.84638
-16.0068 -12.3619 -0.98647
-15.9885 -12.4776 -0.479364
-15.6323 -12.4833 -0.208565
-14.9311 -13.4978 -0.480335
-14.7395 -13.5557 -0.299238
-19.3874 -10.9053 -0.238102
-16.8959 -10.8189 1.61794
-17.8706 -11.5075 -1.20361
-16.095 -12.4311 -0.385834
-15.4228 -12.608 -0.45487
-15.3551 -13.1606 0.216432
-15.1915 -13.1296 -0.0725645
-16.2859 -11.6905 -3.14007
-14.4408 -13.5555 -0.719067
-17.5443 -11.3168 -0.0387241
-15.1245 -12.975 -0.407614
-14.948 -13.1124 -0.63335
-15.0775 -13.5308 0.0576445
-15.7904 -12.5903 -0.53587
-19.369 -10.8312 -0.350757
-15.6724 -11.0839 1.58881
-17.363 -11.3612 -0.0096713
-17.2672 -11.597 0.148771
-18.1918 -11.258 -1.22293
-17.2354 -11.69 0.23542
-16.7814 -12.1916 0.458727
-17.8508 -10.3317 -3.70715
-17.6985 -11.0302 -2.55483
-17.5599 -11.5038 -1.8844
-16.3198 -12.3191 0.470836
-16.0619 -12.5948 0.683019
-16.5941 -12.1425 -0.636559
-16.6627 -12.1181 -0.678456
-15.9753 -12.7424 0.696792
-15.8733 -12.6552 0.503044
-17.1066 -11.1275 -3.1072
-17.1338 -11.1069 -3.11041
-17.1812 -10.8678 -3.4768
-16.9339 -11.6252 -2.31143
-16.5107 -12.1845 -0.918788
-16.6756 -11.1643 -3.65374
-15.448 -13.0543 0.89643
-15.6032 -12.5874 0.0359513
-15.5965 -12.7162 0.0911333
-15.5623 -12.9884 0.280737
-15.816 -12.4817 -0.860591
-15.5465 -12.8471 0.0614675
-15.2599 -11.978 -1.8748
-15.1902 -12.4315 -1.63941
-15.1584 -12.6711 -1.37894
-13.9919 -13.9854 -1.1923
-13.8015 -13.7616 -1.90664
-13.7136 -14.0376 -1.62865
-18.9594 -10.9944 -1.10474
-17.9167 -11.4175 -1.44574
-17.8708 -11.3953 -1.48678
-16.9574 -11.9237 -0.534311
-17.5604 -11.1344 -2.52036
-17.6299 -10.7322 -3.39369
-17.4688 -10.9479 -2.93999
-17.5814 -10.7055 -3.36477
-16.6155 -11.7796 -1.37538
-17.2749 -10.5812 -3.78179
-15.7607 -12.7929 0.760461
-15.9906 -12.628 -0.115171
-15.8235 -12.6624 0.00512083
-16.8272 -11.4516 -2.9061
-16.209 -11.9032 -1.51195
-16.6819 -11.4056 -3.16334
-16.48 -11.7035 -2.77366
-15.4515 -12.9438 0.0996031
-16.2797 -11.6832 -3.04711
-16.1088 -11.843 -3.08896
-15.057 -13.217 -0.266002
-15.0285 -12.8306 -1.15512
-14.8292 -12.2395 -2.07214
-14.7529 -13.4525 -0.236703
-14.1078 -14.1041 -1.1958
-13.8283 -14.0664 -1.40636
-13.8734 -13.4676 -2.7664
-13.6665 -13.9589 -1.61213
-13.4533 -13.8849 -2.30255
-15.859 -10.8479 1.58946
-19.035 -10.9342 -0.76926
-18.6665 -10.991 -0.997695
-18.7054 -11.1626 -0.927598
-18.7381 -11.0379 -1.02756
-18.367 -10.8993 -1.86637
-17.3788 -11.6445 -0.473328
-17.9027 -11.4042 -1.55485
-16.8667 -11.9702 0.418399
-16.2083 -12.3828 0.388706
-15.7916 -12.7548 0.703329
-16.1059 -12.5097 -0.404163
-15.6071 -12.5845 -0.0616736
-15.7394 -12.3231 -0.982348
-15.9099 -12.3554 -0.840412
-15.4391 -12.6721 0.216309
-15.9731 -12.2702 -0.903642
-15.7777 -11.692 -2.13691
-15.4245 -13.0561 0.126735
-15.2914 -13.1647 0.205569
-15.412 -13.074 -0.0958624
-16.0679 -11.7618 -3.28085
-16.0163 -11.9396 -3.05719
-15.1355 -13.1573 -0.0751061
-15.1663 -13.1205 -0.515211
-15.0756 -12.5581 -1.54678
-15.0506 -13.0387 -0.497562
-14.9923 -13.0661 -0.551912
-14.6779 -12.1451 -2.44306
-14.3162 -12.6572 -1.58409
-14.3768 -12.7675 -1.5803
-14.035 -14.0879 -1.14425
-13.6154 -13.9278 -2.15281
-13.3007 -14.2688 -1.78293
-18.0944 -11.3687 -1.10892
-16.4887 -12.2516 0.359462
-17.5813 -11.0537 -2.52264
-16.1513 -12.2718 -0.608951
-15.9424 -12.4 -0.685921
-15.9026 -12.3255 -0.846359
-15.8604 -11.6771 -2.06126
-16.3864 -11.6595 -3.14546
-16.2221 -11.7612 -3.11284
-16.3348 -11.6383 -3.12319
-16.262 -11.7441 -3.11095
-15.3304 -13.1546 0.148745
-15.3024 -13.0786 0.0585973
-15.3368 -13.233 0.29063
-15.2016 -13.0263 -0.349708
-15.0114 -13.1235 -0.347509
-15.2254 -11.9889 -2.17241
-15.0229 -13.0659 -0.597304
-14.3457 -12.7966 -1.49516
-14.3587 -12.2353 -2.39473
-13.7297 -13.906 -2.00531
-16.7056 -12.0357 0.387553
-17.0199 -11.9855 -0.598637
-16.9305 -11.4434 -1.17478
-17.2971 -11.6494 -1.73532
-15.3878 -13.2635 0.257942
-14.6327 -13.4531 -0.494472
-14.4465 -12.3192 -2.34186
-13.6909 -13.8918 -2.04023
-17.8771 -10.5588 -3.26749
-15.798 -12.892 0.710786
-15.5557 -12.7432 -0.733916
-15.2896 -11.984 -1.98422
-14.4486 -12.6815 -1.4616
-17.4359 -11.4519 0.0581717
-17.7948 -11.5313 -1.1382
-16.8011 -12.0802 -0.532684
-15.5777 -12.4372 -1.14434
-15.1251 -12.6097 -1.53852
-15.2328 -12.5112 -1.51263
-14.9482 -12.9507 -1.00885
-15.626 -12.8077 -0.448736
-14.0582 -13.328 -1.17019
-14.9838 -12.6879 -1.33019
-15.7534 -11.1643 1.81437
-18.8966 -11.2769 -0.160707
-15.6659 -11.0435 1.56996
-15.1831 -11.5693 2.01074
-18.7438 -11.1231 -0.599716
-17.5441 -11.2825 0.0713795
-17.3307 -11.4692 0.21
-17.3158 -11.5365 0.0933624
-18.4705 -11.1845 -0.923145
-16.7627 -11.9166 0.222166
-16.6397 -12.1791 0.461142
-18.4624 -10.9725 -1.62812
-18.0252 -11.5716 -1.0549
-18.6676 -10.4917 -2.02607
-17.1976 -12.0321 -0.459517
-18.1716 -11.1015 -1.91554
-15.6215 -12.8944 0.787484
-16.7743 -12.27 -0.279873
-16.8602 -12.0743 -0.60226
-16.9359 -12.0695 -0.660515
-16.6637 -12.0972 -0.532915
-16.2148 -12.447 -0.146303
-15.5919 -13.0173 0.603105
-16.6449 -12.0134 -0.691974
-18.3694 -10.428 -2.90177
-15.6071 -12.7443 0.107202
-16.7135 -11.7748 -1.33865
-17.4505 -11.3657 -2.1745
-16.1279 -12.3425 -0.657277
-17.9224 -10.6365 -3.00984
-16.0243 -12.3577 -0.608671
-15.3861 -13.1544 0.0786294
-15.962 -12.4265 -0.726847
-16.5164 -11.9676 -1.34849
-17.8344 -10.7516 -3.02541
-17.6124 -10.7796 -3.28856
-16.1899 -12.0159 -1.58481
-15.1718 -13.5043 -0.00538369
-16.9316 -11.2262 -2.97116
-16.8482 -11.4151 -2.90967
-17.151 -10.8502 -3.51755
-16.651 -11.408 -3.18375
-16.6749 -11.1191 -3.61073
-16.8479 -11.0295 -3.67596
-16.6802 -11.2131 -3.55643
-15.1852 -12.4984 -1.6799
-16.1919 -11.7231 -3.16285
-14.7984 -12.8557 -1.23999
-16.5898 -11.2473 -3.47812
-14.5648 -13.5778 -0.824479
-16.0567 -11.8439 -3.03319
-16.1657 -11.7488 -3.11274
-14.8704 -12.7018 -1.53432
-16.2091 -11.5046 -3.49166
-16.0597 -11.5955 -3.45116
-14.722 -12.2936 -2.12808
-14.4464 -12.7936 -1.63175
-14.4454 -12.5632 -1.89719
-14.3379 -12.6702 -2.07324
-13.9252 -13.7384 -2.0297
-13.7857 -13.9769 -1.75716
-13.568 -14.0824 -1.82101
-13.7227 -13.7242 -2.15104
-13.5556 -13.7228 -2.4596
-13.4653 -13.9419 -2.43234
-19.078 -11.4512 0.431903
-15.6344 -11.1904 1.63888
-19.2485 -10.7229 -0.799125
-15.1263 -11.4493 1.78036
-18.4664 -11.2613 -0.785801
-16.6841 -12.0467 0.436986
-18.5334 -10.7698 -2.03679
-15.9983 -12.5693 0.548585
-17.8818 -11.3978 -1.52687
-15.89 -12.6228 -0.00485635
-18.2527 -10.4796 -2.88444
-16.6799 -12.0544 -0.94837
-16.7751 -12.0912 -0.989201
-16.0204 -12.3715 -0.454069
-17.2298 -11.6664 -1.97705
-15.4627 -13.0829 0.259752
-17.1349 -11.7126 -1.74367
-16.3934 -12.2078 -1.12719
-17.9557 -10.4886 -3.13268
-18.0466 -10.282 -3.4191
-16.8772 -11.8422 -1.97322
-15.7494 -12.5506 -0.956639
-17.5374 -10.8337 -3.07903
-16.1127 -11.9747 -1.63517
-16.6404 -11.9375 -2.19755
-15.0709 -13.2498 -0.193854
-17.0708 -11.104 -3.18151
-17.4212 -10.7542 -3.65799
-16.5742 -11.3789 -3.24144
-14.6573 -13.6442 -0.389424
-15.4291 -12.0136 -1.6717
-15.238 -12.5189 -1.55028
-15.1588 -11.9484 -1.99249
-16.1851 -11.8537 -3.09193
-16.0438 -11.9528 -3.0867
-15.9055 -11.938 -3.11502
-14.8408 -12.7333 -1.57993
-15.1058 -12.1909 -1.91904
-15.9964 -11.6962 -3.44309
-14.4059 -12.6599 -1.40776
-14.3583 -12.7282 -1.60089
-14.3847 -12.8328 -1.46377
-14.5648 -12.594 -1.98085
-14.2807 -12.8113 -1.8503
-14.1773 -12.9621 -1.80288
-19.0999 -11.0449 -0.497641
-18.827 -10.986 -1.00287
-18.7798 -11.0698 -1.00024
-16.6027 -12.0806 0.376756
-15.7883 -12.7811 0.630308
-16.9425 -11.3817 -1.27319
-15.399 -13.1443 0.125012
-17.626 -10.7816 -3.30322
-15.0316 -13.3466 -0.281399
-17.6258 -10.2515 -4.17692
-17.0487 -11.0906 -3.51068
-14.9951 -13.1124 -0.555157
-16.6324 -11.5712 -2.93886
-15.7402 -11.6632 -2.23173
-15.1581 -12.4963 -1.33742
-15.4304 -12.0343 -1.87836
-16.1037 -11.7482 -3.17114
-14.4863 -13.3052 -1.13909
-14.3137 -12.7788 -1.52432
-14.4519 -12.5605 -1.91772
-14.0086 -14.0435 -1.20524
-13.6788 -13.7785 -2.21473
-13.5441 -13.8007 -2.27355
-17.6456 -11.2542 0.218844
-17.1391 -11.7288 0.153945
-16.1531 -12.5479 0.69182
-15.7059 -12.8929 0.865991
-16.8103 -11.4345 -1.12886
-16.2058 -12.4921 -0.146998
-16.6548 -12.2033 -0.863619
-15.5244 -12.5992 0.072935
-15.5369 -13.1694 0.266129
-15.2687 -13.3272 0.117428
-15.2177 -13.5476 0.297153
-15.2453 -13.5332 -0.0573483
-15.0968 -13.0801 -0.378467
-15.361 -11.9195 -2.01923
-14.8386 -12.866 -1.44249
-14.8899 -12.5851 -1.64619
-13.3049 -14.1373 -1.74924
-15.4829 -11.4378 1.97333
-15.2925 -13.1545 -0.0383189
-16.8111 -11.4893 -2.89446
-14.6942 -13.551 -0.512783
-14.6818 -13.6517 -0.486616
-15.1759 -12.0879 -1.74777
-14.4085 -12.6036 -1.66839
-14.3968 -12.892 -1.44007
-15.901 -12.3487 -0.910314
-15.1984 -12.7164 -1.39728
-13.5456 -14.0699 -1.72247
-15.6202 -13.011 0.817183
-17.2222 -11.3812 -1.05477
-16.7424 -12.1549 -0.541317
-15.2136 -12.7907 -1.21183
-14.3825 -12.2644 -2.45339
-13.6336 -13.9098 -1.97444
-17.4588 -11.413 0.0688271
-14.0934 -13.3147 -1.09426
-15.4766 -12.9006 -0.270105
-14.7033 -13.2775 -0.838759
-14.5937 -12.654 -1.37425
-14.1897 -13.2807 -1.27685
-14.822 -13.6071 -0.231686
-15.7587 -11.1188 1.86269
-18.8808 -10.8053 0.828972
-15.7532 -11.1128 1.86668
-15.4018 -11.4803 2.04942
-15.243 -11.4524 2.02079
-16.0311 -10.8523 1.71803
-15.4681 -11.3285 1.93086
-15.0908 -11.5282 1.87141
-15.4782 -11.1589 1.66907
-15.6191 -10.9812 1.57218
-19.5384 -11.0329 -0.0851193
-19.2619 -11.068 -0.231875
-19.0301 -11.3161 -0.13389
-18.9491 -11.1743 -0.101078
-19.043 -11.2128 -0.178263
-19.4588 -10.8104 -0.20746
-19.2228 -11.0407 -0.191362
-19.4855 -10.8133 -0.370412
-17.1289 -11.694 0.265649
-17.1562 -11.6787 0.243036
-15.7683 -12.8798 0.759101
-16.8671 -12.1501 0.38517
-16.7811 -12.0877 0.431324
-17.0712 -11.8523 0.345272
-16.2535 -12.5293 0.599538
-17.1301 -11.6532 0.240647
-16.4925 -12.2745 0.521592
-16.6878 -12.0698 0.534128
-16.5932 -12.0997 0.477574
-19.1168 -10.9119 -0.694483
-16.5751 -12.0263 0.490146
-15.6888 -12.9777 0.878821
-19.3556 -10.658 -0.766422
-19.0519 -10.9929 -0.580405
-18.9235 -11.1862 -0.628558
-16.7942 -11.7756 0.286955
-18.7398 -11.1205 -0.572979
-16.968 -11.8545 0.244468
-18.9762 -11.1801 -0.57791
-17.1815 -11.4326 0.0728183
-18.9585 -10.9691 -0.854369
-17.2965 -11.6004 -0.183
-19.2379 -10.6599 -1.03745
-19.2699 -10.6428 -1.1348
-18.451 -11.3962 -0.843164
-18.2742 -11.4733 -0.684834
-19.1428 -10.7382 -1.19822
-19.1142 -10.6453 -1.18055
-19.1353 -10.6788 -1.22666
-17.4014 -11.4608 -0.532217
-17.3328 -11.5808 -0.521681
-18.0563 -11.3832 -1.01672
-16.2235 -12.4099 -0.0379084
-17.2926 -11.8973 -0.372948
-15.4727 -13.2185 0.371769
-17.4186 -11.5927 -0.488795
-18.1514 -11.4398 -1.0576
-18.5099 -11.1666 -1.11471
-16.2254 -12.3446 -0.278143
-18.4848 -11.2029 -1.3125
-15.9542 -12.5318 -0.0717287
-16.35 -12.3332 -0.138669
-18.0905 -11.4181 -1.03285
-16.2925 -12.5168 -0.119695
-16.2507 -12.4063 -0.137228
-16.3131 -12.4837 -0.0853031
-15.5792 -13.0695 0.0897999
-15.7388 -12.6853 0.00642316
-15.3492 -13.1109 0.119322
-15.4968 -12.837 0.0634478
-15.6842 -12.5821 0.00494869
-15.5401 -12.8876 -0.0545387
-16.7151 -12.0562 -0.698633
-15.533 -12.5841 -0.170731
-15.6123 -12.5753 -0.168982
-16.5689 -12.158 -0.559184
-16.1044 -12.3562 -0.519941
-17.8973 -11.3519 -1.39583
-17.0195 -11.4023 -1.03222
-15.9997 -12.4715 -0.624297
-18.157 -11.1609 -1.71814
-15.9148 -12.3679 -0.81372
-18.3217 -10.9881 -1.81797
-18.6368 -10.5943 -2.01592
-18.6201 -10.6677 -2.07991
-18.1814 -11.0021 -1.90582
-18.2245 -11.0429 -1.80735
-18.6534 -10.6479 -2.17707
-16.6488 -11.9983 -1.20416
-18.3955 -10.6802 -2.27324
-18.5568 -10.5333 -2.34052
-18.4703 -10.551 -2.65554
-18.4695 -10.5152 -2.61088
-18.2525 -10.6499 -2.50014
-17.8114 -11.1339 -2.39425
-16.1303 -12.0387 -1.50602
-18.0457 -10.7627 -2.59522
-16.2268 -11.8035 -1.57827
-14.6739 -13.4415 -0.863687
-17.7649 -10.8912 -2.63855
-17.7275 -10.8693 -2.7062
-16.0407 -12.134 -1.74107
-16.9492 -11.7113 -2.38397
-16.7227 -11.8567 -2.10192
-16.6502 -11.9208 -2.09171
-18.029 -10.6398 -3.11857
-17.398 -11.1093 -2.72973
-18.016 -10.5404 -3.16714
-17.7038 -10.721 -2.99532
-16.9613 -11.4024 -2.64019
-16.9974 -11.4473 -2.70759
-18.0491 -10.2932 -3.4444
-18.0399 -10.2852 -3.37835
-17.7097 -10.7385 -3.32591
-16.6471 -11.6679 -2.72408
-17.6586 -10.74 -3.3796
-17.4443 -10.8758 -3.23494
-17.0979 -11.0668 -3.08507
-17.0442 -11.1566 -3.02016
-17.669 -10.612 -3.42676
-17.6012 -10.6161 -3.47226
-17.5827 -10.6151 -3.4587
-16.7031 -11.564 -2.94922
-15.1732 -12.0502 -1.85856
-16.3295 -11.7957 -2.76053
-15.244 -11.9362 -2.01106
-17.793 -10.3343 -3.6579
-16.2851 -11.8879 -2.75445
-17.6366 -10.6365 -3.57815
-13.8203 -14.0731 -1.39519
-17.0033 -10.9738 -3.38338
-17.2966 -10.7205 -3.51464
-17.1388 -10.9679 -3.44021
-17.3514 -10.7358 -3.57966
-17.2135 -10.9323 -3.52614
-17.4343 -10.7213 -3.6021
-17.3807 -10.773 -3.59305
-16.6636 -11.5589 -3.18901
-17.4469 -10.5795 -3.80925
-17.2288 -10.763 -3.75829
-16.1159 -11.8152 -3.10623
-14.9485 -12.2243 -2.11488
-16.1835 -11.7517 -3.14262
-17.4428 -10.5976 -3.92136
-16.7945 -11.1576 -3.6366
-16.955 -10.8864 -3.73491
-16.6327 -11.1831 -3.69093
-16.9548 -10.9934 -3.68324
-16.4676 -11.2906 -3.45981
-15.8869 -11.7889 -3.33124
-13.7422 -13.8732 -2.13204
-16.0241 -11.7275 -3.56383
-13.5963 -13.8519 -2.17486
-13.4158 -14.0473 -2.01804
-13.503 -13.8383 -2.3681
-13.9079 -13.4341 -2.72385
-12.9374 -14.2371 -2.42062
-15.3625 -11.0971 2.45501
-15.4387 -11.2891 2.05939
-18.896 -10.5194 0.827448
-19.2139 -11.2519 0.537834
-15.4539 -11.2168 1.84804
-19.0485 -11.3419 0.352762
-15.0738 -11.484 1.77351
-19.3982 -10.9461 0.0855807
-19.5675 -10.7215 -0.445184
-19.5357 -10.7386 -0.457118
-19.4841 -10.7824 -0.34991
-19.5441 -10.8604 -0.286758
-19.1077 -11.1856 -0.214731
-19.4237 -10.7571 -0.440108
-16.4543 -12.2625 0.754976
-16.3484 -12.3779 0.685029
-19.4138 -10.6499 -0.801745
-18.7707 -11.2532 -0.529419
-18.6728 -11.3057 -0.551658
-18.7224 -11.1956 -0.534751
-16.4188 -12.236 0.373308
-18.7975 -11.1961 -0.672505
-19.2343 -10.6917 -1.07568
-17.9506 -11.522 -0.87636
-15.6139 -13.003 0.112313
