-18.6709 -12.1157 -0.578289
-16.7044 -12.1261 -1.69321
-20.016 -11.237 -0.0541528
-16.6635 -12.104 -1.86775
-18.4654 -11.1653 -0.31053
-19.2016 -11.3082 0.272075
-18.3614 -11.3115 0.390279
-17.3548 -11.7969 -0.571864
-15.7724 -12.1632 -1.01861
-16.8409 -11.8975 -1.12599
-14.6095 -13.1199 -3.10887
-14.6331 -12.9246 -3.34457
-14.4692 -12.4783 -1.65638
-14.87 -12.3545 -2.06548
-17.3946 -12.0983 -0.639647
-16.5751 -12.1362 -0.604176
-16.9952 -12.2036 -0.898133
-14.5158 -13.1658 -2.42133
-13.8708 -13.6481 -2.5952
-15.588 -12.4657 -0.397347
-13.447 -13.6148 -3.05931
-15.658 -13.119 -1.18124
-16.4565 -12.2507 0.970576
-15.492 -12.7463 0.173672
-15.9033 -12.6785 0.442921
-14.1937 -13.7299 -1.13334
-15.6919 -11.138 2.22396
-15.41 -13.4472 -0.825004
-15.5368 -13.3647 -0.345957
-15.8254 -13.1243 0.00973802
-16.0088 -12.8756 0.580097
-15.5126 -12.9433 0.25126
-15.3729 -13.6781 -0.627028
-18.8056 -9.718 -3.91549
-18.0649 -10.4303 -3.26289
-17.914 -10.2902 -3.31326
-18.2072 -11.078 -3.1787
-17.7745 -10.9311 -3.26087
-17.8145 -11.2744 -2.9527
-16.7389 -11.3441 -2.82374
-17.0486 -11.3924 -3.26849
-16.8573 -11.4984 -3.10683
-17.5156 -11.6673 -2.65539
-15.7053 -11.3508 -2.87004
-16.7436 -11.4509 -1.64538
-15.7859 -11.4261 -2.04745
-15.3219 -11.6732 -1.94329
-19.3969 -10.9084 -1.10026
-17.3531 -11.4635 -1.86901
-16.0118 -11.7593 -2.03653
-15.9604 -12.0641 -2.31842
-15.9589 -11.8727 -2.25078
-15.9739 -12.065 -1.75296
-18.2602 -11.1819 -1.15965
-18.4174 -11.8694 -0.994166
-19.5905 -11.0343 0.246441
-19.5517 -11.2719 0.0324479
-18.4948 -11.3758 -0.574328
-19.2627 -11.455 -0.0963129
-19.1211 -11.8614 -0.672293
-18.8606 -11.5265 0.0286633
-17.8915 -10.9551 -0.227956
-19.3967 -12.2052 0.689225
-17.0517 -12.2128 -0.908243
-15.9703 -12.3826 -1.22449
-15.7895 -12.6088 -1.35009
-15.6902 -12.4632 -1.80574
-14.5464 -12.1409 -2.1804
-14.8602 -12.4453 -1.86761
-14.4209 -12.6213 -1.7738
-16.3776 -12.0293 -0.773341
-16.237 -12.362 -0.153521
-16.2034 -10.8075 1.57326
-15.4385 -12.4455 -0.99528
-15.7515 -12.6839 -0.474029
-15.5572 -12.5411 -0.371998
-15.6332 -12.5497 0.25342
-16.0006 -12.4997 0.464136
-14.2002 -14.0936 -1.89174
-15.2227 -12.6385 -0.0560665
-16.4356 -12.5198 0.937134
-15.0426 -13.4639 0.0685016
-15.2714 -12.9014 -0.335228
-15.4646 -12.9028 0.736608
-17.9314 -11.1529 -2.72588
-18.7514 -10.9508 -2.60085
-16.9124 -11.3642 -3.24058
-17.0631 -11.7237 -3.14422
-18.7598 -10.9119 -2.0403
-15.3482 -11.5667 -2.93216
-18.1529 -11.4016 -1.55502
-17.2567 -11.8055 -2.58385
-19.3823 -10.8482 -0.945085
-18.2198 -11.4077 -0.923502
-19.6409 -11.1189 -0.594417
-18.8585 -11.2756 -0.871004
-17.964 -11.7918 -1.73095
-17.4531 -11.7264 -2.03122
-19.9096 -11.1059 -0.175191
-18.7684 -11.7246 -0.778585
-16.094 -12.8033 -1.05146
-14.3699 -12.486 -2.09073
-15.4327 -12.2609 -1.70869
-15.3327 -13.0257 -1.47624
-14.635 -12.6855 -1.77068
-16.3319 -12.0488 -0.9825
-16.5302 -12.1221 -1.02402
-16.0061 -11.9668 -0.528186
-16.5417 -12.4998 -0.601756
-17.0039 -12.1167 0.314447
-16.1023 -12.5018 -0.343867
-15.7997 -13.0214 -0.867082
-15.9823 -12.1547 -0.405632
-13.8115 -13.4583 -1.6921
-15.9537 -13.1375 -0.671614
-15.6777 -12.688 -0.143429
-15.4592 -13.269 -0.0913298
-15.3732 -13.2114 0.51482
-15.3823 -12.9726 -0.152306
-18.8949 -10.7735 -2.36684
-17.3217 -12.2484 -2.55674
-16.2461 -11.7283 -2.45482
-15.8298 -11.4846 -1.86397
-16.5311 -11.7176 -1.88626
-16.4224 -12.32 -1.5756
-17.5052 -11.7236 0.224048
-15.8404 -12.5063 -1.62025
-13.7543 -13.4798 -2.89197
-16.0167 -12.7735 -1.27573
-14.0082 -13.4974 -2.4026
-15.8335 -13.1234 -0.685076
-15.5631 -12.8078 -0.122959
-15.8624 -11.4773 -1.68101
-16.5071 -11.7982 -2.244
-15.8157 -11.9438 -2.43824
-16.6308 -11.659 -1.47509
-16.9556 -11.8521 -0.71897
-15.8486 -12.9432 0.0838846
-14.8983 -11.868 -2.62603
-16.288 -11.6718 -2.04808
-16.5439 -11.8711 -1.04152
-17.2618 -12.023 -0.367413
-17.2005 -12.2958 0.636713
-15.4235 -12.5867 -0.936383
-15.169 -12.9862 -0.253523
-15.6235 -12.4379 -1.678
-18.8892 -10.5567 -2.41115
-16.3623 -12.4095 -1.35844
-15.01 -12.5136 -1.61694
-16.0067 -13.0311 -0.335479
-17.4 -11.9586 -1.13192
-16.4194 -12.213 -0.293219
-19.976 -11.2894 -0.113344
-18.975 -11.4374 -0.315994
-19.6532 -11.1177 -0.0461433
-18.906 -11.1079 -0.114378
-19.2527 -10.8912 -3.25877
-18.9085 -11.091 -2.00495
-19.1902 -10.3669 -2.37956
-16.1464 -11.3312 2.25541
-18.5496 -10.9731 -1.32346
-16.139 -11.539 2.41085
-17.5147 -11.2406 -0.111785
-18.125 -11.3638 0.143649
-17.685 -11.1698 0.395506
-18.7966 -11.2234 -1.82781
-17.4002 -11.7755 0.330685
-17.5388 -11.6888 0.296757
-18.0847 -10.8463 -2.31186
-18.5741 -10.9938 -2.32592
-17.4758 -11.8015 0.0349491
-18.4143 -10.2398 -2.82535
-17.3995 -11.8792 0.237546
-18.1238 -11.4449 -2.81725
-18.1825 -11.2196 -2.0855
-17.5659 -10.968 -2.81895
-16.6473 -11.9886 0.736823
-17.8406 -11.0449 -3.02569
-17.6323 -12.0052 -1.18704
-17.9534 -11.4649 -2.21723
-17.7988 -11.3488 -3.669
-16.6609 -11.6887 0.220694
-17.9034 -11.53 -1.95887
-17.2782 -11.8353 -0.903401
-16.8485 -12.4359 0.523571
-17.0673 -12.1553 -1.25655
-16.8673 -11.9933 -2.80881
-17.0632 -11.3678 -2.48881
-17.0116 -11.4991 -2.56707
-17.1205 -12.0076 -2.56457
-16.3796 -12.539 0.326774
-16.5835 -11.5526 -1.54161
-17.1676 -11.9886 -2.03552
-16.6917 -11.8872 -2.03665
-16.7274 -11.9526 -1.75357
-16.5851 -12.9427 -0.120546
-16.3466 -12.5774 -1.05574
-15.8429 -13.1292 -1.0261
-15.8893 -12.9093 -0.573799
-15.6641 -12.2717 -0.0627898
-15.6981 -12.5859 -0.759309
-16.3556 -13.0925 -0.601143
-15.7145 -12.5982 0.595681
-16.2313 -12.6707 -1.26608
-16.0926 -12.9089 -0.0060058
-15.8926 -12.5749 -0.115493
-16.3798 -12.4237 -0.621486
-15.4223 -12.0464 -2.77538
-15.2649 -13.2141 0.986131
-15.3921 -11.9284 -2.32761
-15.6711 -12.9263 -0.0655513
-15.5293 -13.0564 -0.207446
-15.3831 -11.7808 -2.13497
-15.4557 -12.788 -0.394022
-15.1008 -12.0911 -3.29322
-15.4212 -13.1211 -1.32714
-15.5316 -13.579 0.0632058
-15.448 -13.0843 -1.67647
-14.6795 -13.3546 -1.51005
-14.8722 -13.1838 -1.3316
-14.2983 -13.6429 -1.48642
-14.1884 -13.2009 -2.85173
-14.266 -13.5628 -3.21991
-13.8153 -13.3229 -2.49296
-13.9056 -13.2501 -2.53008
-14.5006 -13.6574 -2.04317
-13.9221 -13.7737 -2.92311
-14.2293 -13.2915 -3.1935
-13.5927 -13.7153 -2.81614
-19.6573 -10.9269 -0.0609811
-19.6874 -11.5728 0.458139
-19.7776 -11.3496 0.0197489
-19.3768 -11.288 -1.05164
-19.4838 -11.7285 0.185665
-19.5444 -11.192 0.0390168
-19.3165 -11.1864 -0.66534
-19.0664 -10.2364 -2.01221
-19.2773 -10.0495 -3.66229
-19.2867 -11.4729 0.323092
-18.9668 -11.4414 -0.895022
-18.6071 -11.4046 -1.55074
-18.5132 -10.4138 -2.96573
-18.5037 -11.9912 -0.427822
-16.0752 -11.3809 1.09912
-18.2787 -11.8306 -0.544711
-18.3541 -10.9401 -0.267981
-15.8587 -11.3628 1.51877
-16.2215 -11.0741 1.44326
-18.202 -11.0932 -2.15482
-18.4073 -11.2912 -1.12291
-16.0143 -10.9415 1.70403
-18.0316 -11.5845 0.646079
-17.7654 -11.276 -1.27539
-17.8629 -10.6043 -3.51561
-17.8002 -10.5419 -3.31509
-17.5714 -12.0925 0.174931
-18.319 -11.0941 -2.50879
-18.1699 -11.9615 -0.759242
-15.0671 -11.1797 1.63127
-15.5346 -11.0627 1.73373
-15.1337 -11.1387 1.93527
-15.8694 -11.2211 1.92679
-17.7259 -11.4498 -2.3721
-17.7078 -11.0733 -2.76388
-17.3904 -10.7828 -3.76726
-17.8511 -10.8274 -3.56667
-17.5921 -11.5725 -2.40043
-17.6361 -10.9394 -3.65807
-17.6344 -11.8304 -1.01555
-17.4463 -11.5252 -2.3152
-17.3681 -11.5464 -2.76393
-17.6616 -11.573 -2.47632
-17.222 -11.7397 -1.32564
-17.1446 -11.9697 -0.754219
-17.13 -11.352 -2.73665
-16.8583 -12.0358 -0.729754
-16.9082 -11.7665 -3.59028
-16.7712 -12.8764 0.0395893
-16.2813 -12.4566 0.130241
-16.6493 -12.666 -0.537865
-16.8138 -11.9523 -0.762979
-16.6414 -12.556 -0.817845
-15.7647 -11.7808 -2.66842
-16.0113 -12.3152 -0.308284
-15.6812 -12.5528 0.569657
-15.8022 -12.309 -0.546428
-15.0994 -11.5209 -2.46904
-15.909 -12.7457 -0.923865
-15.8049 -12.2467 -1.01327
-15.5693 -13.2198 0.953821
-15.6212 -13.0085 0.641572
-15.1666 -12.9432 -0.712718
-14.9556 -11.5223 -2.285
-15.8464 -13.1506 -0.664469
-15.2766 -12.4009 -2.58364
-15.5186 -13.483 -0.360355
-14.5703 -12.6458 -2.07438
-14.8997 -13.3826 -0.819144
-14.4298 -12.9574 -3.18328
-14.13 -13.6959 -2.1034
-13.8982 -13.7072 -1.63782
-14.1845 -13.53 -3.23916
-13.7518 -13.4479 -2.56476
-14.2402 -13.5652 -3.03457
-13.8751 -13.7046 -2.44149
-13.4284 -13.7514 -2.73216
-14.0137 -13.8519 -2.98193
-13.3095 -13.6185 -2.50671
-19.5987 -10.9382 -0.298264
-20.371 -11.4403 -0.231277
-19.5306 -11.795 0.852442
-19.5332 -10.6399 -1.7779
-19.901 -11.5953 0.0160408
-18.8899 -11.4951 -0.769563
-18.5472 -11.6141 -0.845646
-15.4542 -11.7437 1.70926
-18.026 -11.2272 -1.55013
-17.4788 -11.2249 -3.74768
-16.8484 -11.8737 -0.0321435
-17.1662 -11.6991 0.0705612
-17.2665 -11.2266 -3.63938
-16.8603 -12.177 -0.665507
-16.8535 -11.5601 -3.45352
-16.8308 -12.3199 -0.543553
-17.0715 -11.9082 -3.3085
-17.0019 -11.7726 -1.85098
-16.6627 -12.4758 -0.73559
-16.8989 -12.6602 -0.193126
-16.4665 -12.6697 0.388304
-16.2458 -12.8238 0.515648
-15.8847 -13.1426 0.30417
-15.5943 -12.5899 -0.515005
-15.7385 -12.9984 0.536965
-15.105 -12.7467 -0.018431
-15.4429 -13.1414 0.0135979
-15.25 -12.8745 -0.647594
-15.0762 -12.5055 -1.38832
-15.4963 -13.3542 -0.507504
-14.6504 -13.3415 -2.72255
-14.5182 -13.0778 -1.79816
-14.3836 -14.1258 -1.40028
-13.8197 -13.5672 -3.0018
-13.8502 -13.7351 -2.57164
-14.0433 -13.3835 -2.91899
-19.7439 -11.3429 0.422856
-19.7903 -11.4378 0.084602
-19.3945 -11.0969 -0.337947
-16.145 -10.6228 1.49087
-18.6918 -11.0647 -1.304
-18.7784 -11.5016 -0.923122
-18.5336 -11.1769 -0.990612
-18.9748 -11.6989 -0.545718
-17.6648 -11.6887 0.0464747
-17.4601 -11.2784 -1.15203
-17.5706 -10.5789 -3.05414
-18.2323 -10.4668 -3.66287
-17.171 -11.7291 0.536637
-16.6175 -11.8565 -2.79441
-16.9572 -11.2698 -3.31941
-16.6563 -11.8619 -3.32895
-16.3243 -11.5957 -2.974
-16.428 -12.4489 -0.507505
-15.9914 -12.2852 -0.556607
-16.4066 -11.7862 -0.97257
-16.2924 -12.6877 -0.159499
-16.1317 -12.5332 -0.304602
-15.2457 -11.9583 -2.24931
-16.0788 -12.2415 -0.669076
-15.5519 -12.4678 0.186615
-15.7763 -12.5573 -1.18174
-15.2823 -12.0588 -1.74933
-14.8524 -12.5552 -1.73674
-15.1566 -12.1476 -1.31417
-14.7389 -12.785 -2.14481
-15.0641 -12.3723 -1.27871
-15.5914 -13.6283 -0.971196
-15.2472 -13.6611 -0.094662
-15.0348 -13.582 -0.236024
-14.3109 -13.4522 -2.6877
-14.7811 -12.949 -1.80102
-13.9465 -13.2521 -2.91915
-14.2332 -14.2504 -2.27179
-20.1226 -11.2497 0.189007
-19.3187 -11.1367 -0.271311
-19.8857 -10.9883 -0.29951
-18.9781 -11.6735 -0.699504
-18.1521 -11.486 -1.43137
-18.3433 -11.1579 -1.76934
-17.0276 -11.9294 -0.101779
-17.0887 -11.6022 -1.5196
-16.6102 -12.4976 0.392432
-16.4419 -12.3764 -0.803248
-16.7745 -11.8891 -0.184446
-16.9327 -12.4661 -0.603504
-16.1464 -12.1304 -0.772721
-16.7122 -12.827 -0.789577
-16.2465 -12.5254 -0.33457
-15.0937 -12.9632 0.258055
-15.4764 -13.3402 -0.0590411
-15.1398 -12.7547 -1.48432
-14.7984 -12.5132 -1.85009
-14.4491 -13.4827 -2.33451
-13.7367 -13.3618 -2.72733
-18.0119 -11.1604 0.491706
-17.8499 -11.5546 -0.328135
-18.3567 -11.512 -0.947867
-15.9659 -12.1994 -0.212121
-15.4593 -11.5908 -2.07133
-15.5909 -12.7031 -0.627472
-15.1885 -12.347 -2.022
-15.3776 -13.0748 -0.359266
-14.2037 -13.7926 -2.13534
-19.3532 -11.086 0.120241
-18.562 -11.1018 -2.50319
-18.7428 -11.6759 -0.983701
-18.3459 -11.3082 -1.08704
-17.1982 -12.2767 0.16511
-15.9168 -12.8228 -0.065167
-16.0011 -12.9736 -0.108166
-15.3016 -13.378 -0.715527
-18.5664 -11.2098 -1.28037
-16.7809 -11.7734 -3.2678
-15.4686 -12.7221 -1.86128
-19.5894 -11.2696 0.413696
-19.0441 -10.4462 -1.92119
-14.7544 -12.5901 -2.24161
-16.2011 -11.6298 -2.30808
-15.9569 -12.0192 -0.778762
-16.2825 -12.3483 -1.64754
-15.7674 -12.8907 -1.45166
-19.082 -11.4799 -0.883084
-15.7378 -12.5617 -0.333286
-15.2511 -13.2576 -0.467585
-15.4111 -12.7149 -0.838333
-15.8639 -12.7442 0.258998
-14.9861 -13.0088 -1.22304
-18.0251 -9.42194 1.83005
-20.1195 -11.3875 0.314588
-19.5775 -11.1296 -0.161718
-15.6114 -10.8595 1.93474
-19.5553 -11.2247 -0.105269
-19.7864 -10.7673 -0.690333
-18.0507 -11.3634 -0.0272656
-19.2582 -11.4564 -0.0962884
-19.5827 -10.8017 -1.08863
-17.8357 -11.3831 0.288815
-17.5163 -11.6828 -0.137528
-19.5073 -11.0802 -0.270865
-18.5143 -11.368 -0.0840809
-19.1755 -11.3302 -0.533356
-18.8443 -11.7864 -0.394008
-17.3542 -12.1384 0.539121
-18.6452 -11.1583 -0.97472
-19.1943 -11.3193 -0.735606
-18.2515 -11.5465 -0.835885
-17.8192 -11.6229 -0.259724
-17.6326 -11.174 -0.562777
-18.2737 -11.6003 -1.06481
-15.7992 -12.2957 0.396426
-19.3479 -10.8047 -1.39911
-16.9116 -13.0507 0.70163
-19.588 -10.6854 -1.62483
-17.3559 -11.1435 -1.70471
-17.8184 -11.9858 -0.555456
-17.8856 -11.9986 -1.10811
-17.6914 -11.8317 -0.780663
-18.6793 -10.9303 -2.23948
-15.2947 -13.1492 0.255673
-18.095 -11.3976 -1.69346
-16.8951 -12.3022 -0.793648
-17.1141 -11.9696 -0.544428
-15.5834 -13.4503 0.127567
-17.1362 -11.8451 -1.44747
-16.7695 -11.9674 -0.466272
-18.8859 -10.6488 -2.85
-16.0351 -12.6601 -0.30921
-17.6786 -11.511 -1.5578
-16.0323 -13.2408 -0.104976
-17.9965 -11.9969 -1.75688
-15.7028 -13.2107 -0.0556531
-18.9565 -11.4279 -2.3601
-15.8844 -12.1255 -0.376285
-15.9117 -13.2746 -0.0175666
-18.1138 -10.7673 -2.17864
-18.6739 -10.6181 -2.71077
-16.1295 -12.8552 -0.697671
-15.5624 -12.462 -0.319834
-16.1082 -12.6903 -0.873179
-18.9385 -10.9826 -3.05996
-17.0367 -12.2115 -1.55821
-17.2728 -11.9368 -1.65165
-16.883 -11.9472 -1.56966
-16.5103 -12.4082 -1.09863
-15.7648 -12.4307 -0.576687
-17.5761 -11.1639 -2.37697
-16.2829 -12.0725 -0.545038
-15.7342 -12.0691 -0.956082
-17.1968 -11.2638 -2.09544
-16.2401 -11.8883 -1.53695
-18.1231 -11.477 -2.01706
-15.9634 -12.298 -0.857792
-15.6162 -13.1951 -0.508447
-17.0178 -12.0101 -0.875084
-16.7674 -11.677 -1.72577
-16.9207 -11.3502 -1.7336
-15.4613 -13.1295 -0.525193
-18.5321 -10.6823 -3.09514
-17.7449 -10.9779 -2.51688
-17.255 -11.4918 -2.47524
-16.5198 -11.9146 -1.87023
-17.8398 -11.4202 -3.32851
-17.8941 -11.4552 -3.46218
-16.9485 -11.6672 -1.52039
-18.2419 -11.416 -2.94889
-18.7004 -10.2231 -3.3371
-16.2827 -12.0275 -1.69829
-14.9143 -12.8983 -0.468973
-15.8178 -12.5393 -0.833485
-16.1889 -12.6708 -1.24244
-16.6405 -12.0966 -2.21085
-16.1527 -12.395 -1.21378
-16.3015 -11.9336 -2.10429
-18.1836 -10.9498 -3.44823
-18.1658 -11.0458 -3.69514
-17.9432 -11.0608 -3.31591
-16.8891 -11.6125 -2.37933
-17.7128 -11.5121 -3.04026
-16.9729 -11.4592 -2.89208
-17.0418 -11.441 -2.53631
-17.471 -10.8425 -3.9539
-15.2426 -12.2523 -1.25199
-17.0397 -10.87 -4.16215
-16.0529 -11.7396 -2.01423
-15.8938 -12.0103 -1.89461
-16.7808 -11.4292 -2.99767
-16.9601 -11.6176 -3.04867
-14.9308 -13.1348 -0.852047
-15.0591 -13.327 -1.10435
-16.7357 -11.5322 -3.35902
-16.9071 -11.3535 -3.51406
-16.3354 -11.134 -2.96506
-15.598 -11.53 -2.859
-15.6979 -11.3498 -3.10162
-15.308 -13.3803 -1.48433
-14.4749 -12.6071 -1.78024
-15.1981 -11.6448 -2.7628
-14.1846 -13.4664 -2.00777
-13.9776 -13.4828 -2.13566
-14.463 -13.4053 -2.51807
-14.47 -13.4833 -2.66466
-13.8362 -13.2375 -2.74522
-13.81 -13.9888 -2.3554
-14.0459 -13.6985 -2.71263
-14.3391 -13.1897 -3.07265
-13.8551 -13.518 -2.5204
-14.1721 -13.8077 -2.98137
-14.292 -13.5159 -2.98415
-13.8554 -13.3554 -2.41902
-14.0724 -13.4957 -3.10146
-14.2518 -13.468 -2.98847
-16.4801 -10.902 1.94844
-16.0907 -11.2503 1.69857
-16.1249 -10.8925 1.82531
-19.9065 -11.1012 0.101036
-19.7273 -10.7181 0.369228
-20.0851 -11.0956 -0.000126683
-19.9102 -11.0824 0.0754343
-15.8841 -10.8045 1.60816
-19.7765 -11.1213 0.299621
-16.0395 -11.6517 1.64195
-19.4111 -11.465 0.200404
-15.6363 -10.8446 1.97395
-19.4847 -11.3957 0.0746943
-19.0766 -11.939 0.497996
-19.0283 -11.5505 -0.422729
-17.962 -11.803 0.012569
-18.101 -11.8224 0.317206
-17.9701 -10.9672 0.0445611
-17.5425 -11.4606 0.149584
-17.2593 -11.7076 -0.0831899
-18.5803 -11.1947 -1.0586
-18.7803 -11.3293 -0.437165
-19.4811 -10.7312 -0.698026
-18.7913 -11.6261 -0.470261
-18.3469 -11.6976 -0.629143
-17.2577 -12.1339 0.591283
-18.8624 -11.2269 -1.4897
-17.2111 -11.7886 0.522935
-18.9386 -11.4724 -0.684428
-17.036 -11.9345 0.799107
-16.4374 -12.9241 0.361838
-17.8352 -12.3814 -0.564405
-17.8155 -11.7108 -0.878006
-19.2499 -10.7818 -1.69003
-16.1893 -12.5836 0.264661
-16.267 -12.8467 1.00165
-17.6498 -11.9363 -0.633483
-15.4779 -12.8323 0.68008
-17.3032 -11.501 -0.704318
-17.9982 -11.0432 -1.47237
-17.4117 -11.2527 -1.32366
-18.5307 -11.2761 -1.6192
-16.5573 -12.1798 0.0113985
-16.4002 -12.4714 -0.348573
-16.3321 -12.5965 -0.046442
-17.216 -11.4734 -1.0792
-19.0234 -10.5126 -2.74052
-15.5161 -12.7004 -0.222369
-16.2859 -12.3296 -0.340627
-16.2526 -12.5046 -0.27185
-16.6744 -11.841 -1.18516
-18.7361 -10.7376 -1.8606
-15.732 -12.8626 -0.658534
-16.5432 -11.8856 -1.24098
-16.4433 -12.475 -0.804544
-17.2961 -12.2633 -1.36844
-18.7182 -10.879 -2.72496
-15.5601 -12.8322 -0.347614
-18.0506 -10.5981 -2.5732
-17.8116 -11.9104 -1.9938
-19.2064 -10.2396 -3.30076
-17.8724 -11.5299 -2.23851
-19.0472 -9.74533 -3.2787
-15.9889 -13.0619 -0.774975
-19.005 -10.1488 -3.17802
-15.2465 -12.6576 -0.160947
-18.7077 -10.9752 -2.85348
-16.7471 -11.656 -1.22177
-16.8416 -12.1598 -1.45897
-18.0966 -11.0028 -2.97096
-15.1495 -13.118 0.383475
-18.3893 -10.6926 -2.93903
-17.3982 -11.8213 -1.98253
-15.6194 -13.4274 -0.115827
-15.5641 -13.0433 -0.872759
-17.7413 -11.0115 -2.88663
-17.6034 -11.1162 -2.51404
-15.7954 -13.0659 -0.848682
-15.3539 -12.6578 -0.579247
-15.1933 -12.7732 -0.306401
-15.9475 -12.9411 -1.03535
-18.8323 -10.3198 -3.78117
-15.2529 -13.1823 -0.373669
-16.2949 -12.514 -1.17678
-15.7882 -12.6757 -0.76662
-17.2665 -11.5567 -2.76692
-16.2887 -12.5796 -1.72664
-17.1458 -11.4212 -3.17223
-15.4322 -13.412 -0.680501
-18.2149 -10.4391 -3.394
-17.541 -11.4762 -2.72134
-18.1706 -11.0905 -3.25242
-17.5386 -11.4518 -3.07421
-17.008 -11.9873 -3.20572
-17.558 -10.4968 -3.88114
-15.2039 -13.3918 -0.656498
-17.1554 -11.3397 -3.03913
-17.2963 -11.5856 -3.34037
-16.3833 -11.7705 -1.96864
-14.9812 -13.0436 -1.38421
-15.6633 -11.6881 -1.68737
-16.988 -11.582 -2.97239
-15.8043 -11.8993 -1.85294
-15.5874 -11.8438 -2.28205
-16.6978 -11.6637 -3.74464
-14.5027 -13.5633 -1.0672
-14.78 -12.8244 -2.04439
-15.152 -12.6169 -1.60592
-15.3302 -12.224 -3.14851
-14.4602 -14.0041 -1.81961
-15.7219 -12.3257 -2.93651
-15.7497 -12.0639 -2.99463
-14.0426 -13.7227 -1.87141
-14.1149 -13.4617 -2.16324
-14.1109 -13.4259 -3.16587
-14.5403 -13.7948 -2.60545
-13.6558 -13.501 -2.55695
-14.0045 -13.2564 -2.55973
-13.8185 -13.8309 -2.54344
-14.3867 -13.4693 -3.0852
-14.3699 -13.8393 -3.30515
-14.4191 -13.284 -2.79386
-14.1636 -13.7086 -2.60371
-13.9934 -13.0987 -2.50612
-14.108 -13.2481 -3.3861
-14.3845 -13.7086 -3.04789
-13.6456 -13.2986 -2.94935
-13.2238 -13.8512 -3.09817
-19.8203 -11.2062 0.487335
-19.746 -10.8329 0.406181
-19.9007 -11.5531 0.358991
-15.9492 -10.7825 1.66644
-19.0603 -11.33 0.181037
-19.7742 -10.4182 -0.534834
-20.0668 -11.1497 -0.232717
-19.4014 -12.2168 -0.462023
-19.2408 -10.8933 -0.593179
-19.5638 -11.387 0.0538774
-19.7371 -11.4927 -0.253583
-18.8686 -11.5902 -0.0462805
-18.2927 -11.5478 0.399616
-14.8986 -11.692 1.69744
-19.4334 -11.5256 -0.528493
-18.8327 -11.4838 -0.358951
-18.5115 -11.2939 -0.231979
-17.6528 -11.6425 0.426089
-18.8205 -11.5313 -0.334097
-17.0777 -12.0062 -0.198066
-16.6019 -12.4403 0.594916
-18.1431 -11.4293 -0.812869
-18.2361 -11.2093 -0.524746
-18.3562 -11.2747 -1.48211
-16.9565 -12.5547 -0.193801
-15.4597 -12.9216 0.0821448
-16.1431 -12.3928 -0.26436
-17.3193 -11.8772 -0.802791
-17.2247 -11.6363 -1.0624
-16.2987 -12.6263 -0.606373
-18.3835 -11.2187 -2.00355
-15.9101 -12.5235 -0.389467
-15.6437 -12.5184 -0.672097
-17.2944 -11.8157 -1.27413
-17.8173 -11.9443 -1.64872
-18.7628 -10.2337 -2.69825
-16.1454 -12.5756 -0.207277
-15.9118 -12.6855 -0.215194
-16.3846 -12.3112 -0.551002
-15.9203 -12.6281 -0.813908
-18.6947 -10.3041 -3.07371
-19.0282 -10.19 -3.38744
-15.5921 -13.1991 0.0556298
-19.0622 -10.3125 -2.97913
-18.9994 -9.98825 -3.30336
-17.0903 -11.4403 -2.17177
-17.3676 -11.4924 -2.04626
-18.7726 -10.4847 -3.406
-15.0599 -13.3952 -0.515587
-17.6143 -11.5608 -2.72376
-17.5254 -11.2579 -2.59944
-16.9495 -11.4969 -2.42338
-18.3669 -10.8039 -3.4696
-18.1688 -11.339 -2.92988
-17.0995 -11.3585 -2.89642
-14.8983 -13.6116 -0.258638
-15.168 -13.7796 -0.866123
-16.4754 -12.004 -2.26461
-15.933 -12.0953 -1.7989
-15.5979 -11.8817 -1.7591
-16.7982 -11.7972 -3.45503
-15.5467 -12.5074 -1.6747
-14.8066 -13.0811 -1.24675
-14.634 -13.3041 -0.954953
-14.927 -12.4561 -2.07066
-14.7303 -12.6758 -1.57878
-15.5045 -11.879 -3.37668
-14.277 -12.8129 -1.99292
-14.8362 -12.6903 -2.33754
-14.4971 -11.9201 -2.33879
-14.2116 -13.6283 -2.69189
-14.2151 -12.6934 -3.07648
-14.0357 -13.0972 -3.1384
-14.5367 -13.2305 -3.15012
-14.0512 -13.3198 -3.05981
-20.0505 -11.1171 0.167058
-19.4643 -11.2521 0.199651
-19.6784 -11.8204 -0.198936
-20.073 -10.8943 0.220871
-19.1016 -11.392 -0.751614
-19.2406 -11.4936 -0.511029
-19.181 -11.3844 -0.294033
-19.311 -11.0829 -0.282745
-19.4681 -10.9961 -0.47977
-19.2675 -11.28 -0.785012
-17.5919 -11.7218 0.476686
-18.1003 -11.3452 -0.215093
-17.7095 -11.7842 -0.624679
-18.9024 -11.6365 -1.00015
-16.0021 -12.4449 0.554423
-16.7659 -12.3416 -0.0965217
-16.0701 -13.314 0.112221
-19.0479 -10.5642 -2.44812
-15.7692 -13.4074 -0.0484996
-16.5522 -12.2081 -0.615355
-15.3383 -12.5013 -0.388239
-15.5592 -12.5403 -0.316953
-16.873 -12.2858 -0.674727
-18.303 -10.7883 -2.09806
-17.8312 -11.511 -1.88961
-18.1508 -10.9612 -2.13014
-18.5705 -10.7451 -3.1636
-15.9167 -12.4662 -1.07548
-18.3113 -10.5852 -3.22894
-16.1223 -12.7379 -0.215353
-17.5762 -12.1076 -2.64652
-14.9233 -13.0859 -0.840632
-15.1094 -12.8204 -0.75497
-15.8439 -13.1608 -0.227032
-15.2376 -13.2867 -0.22851
-14.7707 -13.1009 -0.26839
-15.1048 -13.1571 -0.53648
-17.9707 -10.8453 -2.91385
-17.4658 -11.7085 -3.23867
-17.4174 -11.5308 -3.10589
-16.7612 -11.3055 -2.05541
-15.9998 -12.1218 -1.91585
-15.5982 -12.8867 -1.3449
-17.1266 -11.4823 -3.14506
-16.0862 -11.7081 -1.74221
-16.7341 -11.7097 -2.98114
-16.9822 -11.681 -3.08938
-16.9356 -11.2382 -3.36827
-15.4979 -11.8283 -2.37769
-15.164 -11.8244 -1.85175
-14.2139 -13.5159 -1.50554
-15.2423 -11.5119 -3.12262
-14.9561 -12.1743 -2.7226
-13.815 -13.7408 -1.99789
-14.5349 -13.4999 -2.66695
-20.5368 -10.6785 -0.137045
-17.952 -11.2281 -0.0518009
-19.854 -11.0651 -0.661291
-19.5542 -11.2263 -0.572561
-19.3092 -11.1673 -0.749743
-17.7046 -11.6306 0.458589
-17.6826 -11.2435 0.107028
-17.0121 -11.6377 0.254554
-19.1484 -11.4742 -0.794585
-17.3314 -12.1327 0.504061
-19.0777 -11.1508 -1.50168
-18.3768 -11.5557 -1.03454
-15.3676 -12.5411 0.577099
-15.8107 -12.4739 1.06797
-16.1473 -12.3982 0.353256
-16.6879 -11.7652 -0.855646
-15.8849 -12.7923 -0.0595981
-18.8092 -10.5559 -3.25953
-18.4257 -10.7485 -3.17408
-15.4988 -13.094 -0.474052
-15.7256 -13.001 -0.28086
-18.7146 -11.0491 -3.12677
-17.7783 -11.4305 -2.98618
-18.1923 -11.189 -2.67678
-15.9699 -12.3781 -1.48116
-17.9949 -11.0983 -3.10318
-15.7585 -12.3557 -1.38831
-15.8821 -12.0078 -2.14763
-16.3868 -11.3988 -2.69769
-15.6802 -11.981 -2.10616
-17.0177 -11.8873 -3.50765
-16.548 -11.2203 -3.59618
-14.9799 -12.989 -1.97883
-14.8199 -12.3836 -1.88813
-15.0326 -12.8694 -2.04254
-14.0418 -13.3135 -1.38912
-14.309 -13.3803 -2.62002
-16.1409 -10.6321 1.73929
-19.8301 -11.4777 0.0415468
-19.2558 -11.2503 -0.305086
-18.4108 -11.0292 -0.132539
-18.1659 -11.7379 0.0135532
-17.5807 -11.361 0.157042
-17.2163 -11.6518 0.279888
-18.9586 -11.4242 -1.26471
-18.2187 -10.9012 -1.65169
-17.7739 -11.2819 -0.96281
-16.5672 -12.5471 -0.523113
-16.7773 -12.0532 -0.716056
-17.7129 -11.5141 -2.03723
-15.4032 -12.551 -0.543609
-17.1414 -11.752 -1.13916
-15.4994 -12.8104 -0.711467
-15.7864 -13.1495 -0.461601
-17.2254 -11.5893 -2.77664
-15.5483 -12.3643 -2.02233
-14.8545 -13.0963 -1.4161
-13.42 -13.1344 -2.54258
-18.1617 -11.1662 0.579858
-17.9632 -11.7178 -0.0363974
-18.596 -11.579 -1.31876
-18.9595 -10.6429 -2.01944
-16.2864 -12.5154 -0.171156
-15.3444 -13.0898 -0.511747
-15.158 -13.0304 -0.574005
-14.9106 -13.1804 -0.923027
-16.0123 -11.8889 -2.34135
-17.559 -11.3701 0.0475339
-18.6675 -11.3409 -0.862333
-15.8827 -12.7332 0.266157
-16.1761 -12.2082 -0.993612
-16.1947 -12.1907 -1.39589
-15.9135 -12.4413 -1.63648
-16.0006 -12.0324 -1.79623
-15.6372 -11.9189 -1.95449
-14.7245 -12.8006 -1.89793
-14.5197 -12.8181 -2.30751
-14.7282 -12.2289 -2.13432
-17.7386 -11.0616 -0.370544
-17.0315 -12.6727 -0.827939
-15.6862 -13.2161 -0.634965
-15.664 -12.5366 -0.770478
-16.0986 -12.7762 0.334883
-18.6951 -10.6291 -2.17082
-16.0567 -12.5306 -1.57019
-17.9323 -11.2834 0.0540019
-16.3939 -11.9582 -1.79904
-16.1425 -12.6481 -1.20931
-15.2037 -13.2122 -1.38643
-15.7753 -12.0087 -2.14698
-17.1952 -11.9051 -1.32157
-15.6171 -12.783 -0.879804
-15.8229 -12.4096 -1.03362
-15.0809 -12.8917 -1.38254
-14.6731 -12.2507 -1.60293
-14.6057 -12.805 -1.61065
-14.6491 -12.0805 -2.65872
-14.1152 -13.4535 -2.88387
-13.8258 -13.6894 -2.57773
-13.7261 -13.7367 -2.76151
-13.98 -13.2942 -2.23819
-14.0528 -14.0203 -2.80702
-16.4426 -11.4128 -3.50589
-14.3617 -13.934 -2.73861
-16.8812 -11.405 -3.57332
-13.6562 -13.5816 -2.33528
-14.2939 -13.2934 -2.8503
-14.2181 -14.065 -2.21644
-18.4744 -10.6468 -3.88784
-14.1617 -13.9878 -1.82754
-13.9418 -13.4922 -2.4213
-14.0053 -13.278 -2.4316
-17.119 -11.5546 -3.02957
-17.2238 -11.0613 -3.11757
-18.4408 -10.8098 -3.4822
-13.9225 -13.5813 -1.86811
-14.5727 -12.1163 -1.9575
-18.9035 -10.624 -2.95463
-15.9478 -12.1009 -2.27353
-14.7125 -12.8126 -1.90478
-18.4191 -10.247 -3.53058
-15.586 -12.0463 -2.11118
-18.0947 -11.2702 -3.211
-18.7658 -10.408 -3.06857
-18.5586 -11.0471 -3.27893
-17.8232 -11.5358 -2.96376
-18.9531 -10.4591 -3.0718
-17.5404 -10.7594 -2.7625
-18.1035 -11.01 -2.59674
-17.3838 -11.5881 -1.64499
-17.3083 -11.7893 -2.41201
-18.7755 -10.9981 -2.4166
-18.3985 -11.2523 -2.62488
-19.3906 -11.0142 -2.36188
-17.6122 -11.7287 -1.74021
-18.4491 -11.0942 -2.17841
-18.2714 -10.8127 -1.89466
-16.9725 -11.6248 -1.78055
-18.1025 -11.5696 -2.07595
-17.5451 -11.5727 -1.51277
-17.9326 -11.0193 -1.76009
-15.7675 -13.2191 -1.21983
-19.2951 -10.9353 -1.97963
-19.2201 -10.7452 -1.88925
-19.2411 -10.3662 -1.96998
-18.3268 -11.2707 -1.51456
-18.5834 -11.6672 -1.53437
-17.8975 -11.9211 -0.611937
-15.6068 -13.0518 -0.776935
-16.4589 -12.3024 -1.07913
-16.6188 -12.3352 -0.567285
-15.8733 -12.9889 -0.501336
-15.7688 -13.1546 0.00870763
-15.5149 -13.3761 -0.0544797
-15.6454 -13.3376 0.0696916
-16.3736 -12.4552 -0.289453
-16.7721 -12.1677 -0.450672
-19.3957 -10.6845 -1.47913
-19.2017 -11.2543 0.159958
-17.3775 -11.4387 0.321375
-18.1249 -11.5505 0.0242043
-17.4217 -12.1909 0.51825
-17.0344 -12.4795 0.574335
-15.9301 -12.7536 0.22734
-19.2336 -11.6834 0.161293
-19.6035 -11.021 0.144776
-15.7061 -10.8507 0.969662
-15.9063 -11.161 1.31303
-19.5151 -11.5939 0.779169
-14.066 -13.3019 -3.56002
-13.9921 -13.3354 -2.61693
-13.8506 -13.035 -2.72563
-13.844 -13.3768 -3.08675
-13.9583 -13.3724 -2.76495
-13.8285 -13.6587 -2.21272
-13.9673 -13.9868 -2.77234
-14.7119 -13.5137 -2.11763
-14.7316 -13.4622 -2.42837
-14.1231 -13.6916 -2.80827
-13.9178 -14.0245 -2.04455
-18.5168 -10.3606 -3.64503
-18.1418 -10.224 -3.67204
-16.9299 -11.6338 -3.19493
-17.1255 -11.6776 -3.16745
-18.4518 -10.4504 -3.5517
-16.7856 -11.9711 -3.32702
-17.12 -11.2779 -3.16765
-17.5018 -11.3896 -3.166
-15.4671 -11.9812 -2.50991
-17.837 -11.0564 -2.78057
-18.4783 -10.6234 -3.4987
-18.297 -10.3975 -2.73958
-15.501 -12.0758 -1.85713
-17.2199 -11.8054 -2.72008
-18.1158 -11.3531 -1.92677
-15.7071 -12.5154 -1.44204
-18.0672 -11.8034 -1.9741
-15.1255 -13.6861 -0.935247
-16.7437 -11.9294 -1.70472
-17.7933 -11.3238 -1.85078
-19.1731 -10.384 -2.09386
-16.5944 -12.1784 -1.12271
-14.9279 -13.4265 -0.884529
-15.8938 -13.0325 -0.269284
-16.5955 -12.5618 -0.69831
-15.2136 -12.7089 -0.678901
-15.6776 -12.5387 -0.263444
-17.7294 -11.6425 -0.766817
-18.2577 -12.24 -1.49981
-15.4879 -13.5563 -0.292866
-15.5147 -13.3741 -0.0595253
-16.9824 -12.2815 -0.266378
-16.0161 -12.5567 0.132621
-18.0044 -11.5643 -0.554357
-17.499 -12.3597 -0.111797
-16.4931 -12.5946 -0.197464
-19.8347 -10.8785 -0.259929
-19.272 -11.4653 -0.507391
-19.525 -10.7131 -0.443929
-16.888 -12.1602 0.293501
-19.3279 -11.1709 -0.0307378
-19.8839 -11.4709 0.0750678
-20.0684 -10.7091 0.712278
-15.503 -11.6234 1.80875
-15.7164 -11.019 1.67937
-15.0475 -11.1688 2.21289
-15.7739 -11.0329 1.80692
-13.3518 -13.123 -2.8998
-14.1084 -13.4271 -2.98485
-14.7194 -12.2532 -2.74527
-15.0541 -11.6536 -3.13937
-13.8432 -13.5188 -2.66289
-17.1189 -11.3818 -3.35888
-14.2464 -13.7623 -2.33332
-15.5616 -11.553 -2.36165
-14.2316 -13.0425 -2.29637
-14.8373 -12.9305 -2.86128
-16.7705 -11.7886 -3.14451
-17.8695 -10.9689 -3.49512
-15.139 -12.2357 -2.1826
-18.3588 -10.4985 -3.06247
-15.6442 -11.6154 -1.6591
-15.827 -12.0697 -1.77094
-18.8038 -10.7147 -3.28887
-17.7649 -11.7937 -2.38269
-17.5238 -11.5928 -2.57076
-15.6536 -12.0526 -2.02993
-15.5722 -12.4852 -1.79255
-17.0946 -11.6743 -1.42799
-17.598 -11.1201 -1.81173
-18.3277 -10.7494 -1.76175
-17.3396 -12.3505 -1.36026
-16.856 -11.6162 -1.06309
-17.3536 -11.1905 -0.910078
-15.2829 -12.9842 -0.881645
-14.6816 -13.1667 -0.468885
-15.0976 -13.046 -0.413092
-16.1068 -12.7171 -0.196326
-15.714 -12.7721 -0.068937
-18.8917 -11.1167 -1.35463
-16.5247 -12.672 0.15716
-19.8187 -11.31 -0.409111
-19.852 -11.0249 0.0730856
-19.4315 -11.5248 -0.612298
-19.1057 -11.4072 0.163712
-19.2647 -11.3045 0.361717
-16.0682 -11.0139 1.48173
-16.2776 -11.3721 1.43546
-15.9972 -10.6241 1.61236
-14.9783 -11.5656 1.46347
-14.2362 -12.1862 -2.725
-15.1575 -12.0835 -2.84125
-15.4974 -11.6417 -2.69586
-16.9488 -11.6016 -3.66835
-16.931 -11.4143 -3.031
-13.7855 -13.3845 -2.29097
-17.1824 -11.374 -3.76263
-13.8892 -13.6317 -1.7525
-15.9937 -11.9236 -2.48391
-14.6932 -13.009 -2.44098
-15.1216 -12.6291 -1.74722
-14.9801 -12.5859 -1.87814
-17.3484 -11.2172 -2.41692
-14.873 -13.4972 -0.861445
-16.0868 -12.1243 -0.530472
-16.0572 -12.8989 0.823718
-16.2989 -13.37 0.412932
-15.848 -12.9234 0.026055
-16.1997 -11.057 1.37201
-15.7354 -11.1523 2.2279
-16.0788 -11.2571 1.84693
-13.5977 -13.3339 -2.64976
-15.5614 -11.4121 -2.45673
-18.1443 -10.192 -3.38484
-14.0417 -13.814 -2.48324
-15.5177 -11.6444 -2.64242
-15.756 -12.0692 -2.14893
-15.6369 -11.9864 -1.83152
-16.0387 -13.1482 0.151517
-15.7442 -12.5419 -2.08962
-15.0915 -13.3907 -0.216327
-15.7235 -12.965 0.128536
-19.0175 -11.0841 -1.20365
-15.2249 -13.0848 0.825739
-15.8053 -12.8472 -0.821295
-18.9545 -11.168 -0.57797
-16.8864 -11.9112 -0.372258
-16.6828 -12.4825 0.103615
-15.143 -11.9576 -1.99662
-15.8914 -12.5014 -1.74713
-15.3509 -12.7718 -0.474636
-16.3764 -12.4397 0.0844865
-16.1352 -12.0843 -1.9563
-15.7078 -11.9489 -1.61796
-16.3124 -11.8532 -1.61803
-17.2671 -11.9015 -1.19424
-16.2119 -12.3358 -0.192963
-16.2383 -12.7841 -0.379781
-18.2289 -10.3756 -3.94662
-18.5007 -11.0779 -3.04515
-18.2723 -10.8668 -3.0449
-15.4132 -11.5593 -2.73793
-17.3656 -11.8348 -2.74975
-18.0729 -11.1199 -1.85332
-19.4107 -10.828 -1.52967
-19.2408 -10.5365 -1.86526
-14.7852 -12.4485 -2.86418
-14.7329 -12.0597 -2.29
-19.3718 -10.9894 -2.09525
-19.0954 -10.732 -1.60553
-16.7814 -11.7272 -2.55185
-17.4053 -11.8935 -2.18706
-15.6296 -11.5403 -1.78774
-15.8396 -11.9787 -2.49247
-15.3999 -11.8211 -2.16949
-15.679 -11.9324 -2.1371
-15.7201 -11.403 -1.87391
-18.5939 -11.2452 -1.74078
-16.4971 -11.7334 -2.0719
-18.5533 -11.5368 -1.42427
-19.4539 -10.544 -1.57344
-17.9889 -11.9324 -1.27142
-19.83 -10.8917 -0.563857
-19.0655 -10.9451 -0.832145
-18.4086 -11.1242 -0.734637
-17.3555 -11.8802 -1.43195
-16.4818 -11.9112 -1.2603
-14.083 -13.307 -3.11373
-18.5008 -11.4654 -0.95272
-18.4657 -11.2474 -0.722521
-13.8212 -13.0871 -2.98327
-19.3795 -10.9271 -0.31675
-19.3505 -11.15 -0.489214
-19.2102 -10.8527 -0.510782
-17.3007 -12.1091 -0.743592
-19.2471 -11.3752 -0.77694
-19.138 -11.2926 -0.481635
-16.9608 -11.9768 -0.977888
-18.2037 -11.8922 -1.07949
-19.6339 -11.1273 0.035958
-16.6692 -11.916 -0.947256
-19.3259 -11.1285 -0.260164
-13.9199 -13.7732 -2.45388
-15.7833 -12.9492 -0.759508
-20.0049 -11.0852 0.201021
-14.5477 -13.3163 -1.81306
-16.9517 -12.1756 -0.637557
-14.2697 -13.4074 -2.27727
-19.2031 -11.4958 -0.413762
-16.1354 -12.3902 -1.28364
-18.9946 -11.0972 -0.13134
-15.9683 -12.0841 -0.685765
-14.1804 -13.799 -2.16029
-17.7712 -9.71903 2.1297
-17.2532 -10.1757 2.31114
-15.2462 -13.1579 -0.949454
-17.8627 -11.9752 -0.240502
-14.6299 -13.8222 -1.35884
-15.481 -12.6832 -0.680572
-17.248 -12.0503 0.0165739
-15.1075 -13.5637 -0.460485
-15.5843 -13.2419 -0.50867
-15.3741 -12.7852 -0.691877
-15.7985 -12.9674 -0.624636
-16.6782 -12.3892 0.444521
-15.4597 -12.533 -0.385315
-16.4511 -12.5375 0.5219
-15.6277 -10.8502 1.53088
-14.8873 -13.4985 -0.473835
-15.5096 -10.9729 1.40823
-16.3376 -11.0245 1.54318
-15.6944 -13.6109 -0.116682
-16.4352 -12.1497 0.711464
-15.5193 -13.0463 -0.108354
-15.5505 -13.29 0.0681517
-15.1462 -12.8051 -0.470607
-15.3378 -12.9443 0.0128709
-16.3688 -11.6638 1.71922
-15.8944 -11.0407 1.47276
-15.6118 -11.4434 1.87737
-18.449 -9.78536 -3.11573
-19.0578 -10.5427 -3.25533
-18.7395 -10.5774 -3.08762
-18.4668 -11.0386 -3.38199
-17.1735 -11.4144 -3.32939
-16.1912 -11.4985 -3.74631
-17.7523 -10.9689 -2.60537
-16.7845 -11.2681 -3.07129
-15.6403 -11.8527 -2.83613
-17.5854 -11.435 -3.01309
-15.1026 -12.1603 -3.27053
-17.5001 -11.251 -2.18701
-16.1567 -11.593 -1.82781
-18.7527 -10.9627 -2.03171
-15.7947 -11.4888 -2.27974
-17.4409 -11.3936 -2.12075
-15.4012 -11.6288 -1.98017
-16.9755 -12.4438 -1.81916
-18.3634 -11.4812 -1.14345
-13.9782 -13.3691 -3.38696
-14.1618 -13.17 -3.39192
-16.7609 -11.7957 -1.66942
-19.1862 -10.607 -1.07728
-14.7625 -12.7942 -1.91204
-16.1043 -12.4327 -1.92766
-18.6654 -11.2336 -0.583248
-14.9588 -12.2071 -1.71977
-15.0206 -12.474 -1.79088
-14.3082 -13.3618 -2.67575
-18.9445 -11.0949 -0.927608
-13.964 -13.511 -2.69575
-13.7376 -13.8627 -2.79071
-14.1235 -12.9227 -1.96799
-20.1986 -11.1972 0.335832
-17.0061 -12.1217 -1.03405
-19.065 -11.294 -0.26797
-16.2557 -12.2511 -1.40713
-20.0666 -11.078 0.0444232
-20.1192 -10.8107 0.12202
-16.3984 -12.0992 -0.932336
-19.5182 -11.5647 -0.357127
-17.5735 -12.278 -0.261672
-16.3292 -12.5955 -0.417401
-14.6833 -13.0835 -1.4883
-16.4107 -11.9359 -0.887756
-15.2558 -12.6222 -0.907133
-15.1879 -13.0056 -1.40944
-16.3447 -12.6057 0.00293394
-15.6784 -12.9468 -1.10303
-17.5447 -12.2273 0.206811
-16.6342 -12.326 -0.321391
-14.9101 -13.2523 -1.41702
-14.7218 -14.1552 -1.62005
-16.6093 -12.6041 -0.208927
-17.153 -11.3523 0.369033
-16.571 -12.3181 -0.454424
-16.4714 -12.8142 -0.310677
-15.9921 -12.9852 -0.0343614
-15.5658 -12.6696 -0.107686
-14.7551 -12.8243 -0.331229
-16.2334 -10.6891 1.82326
-15.9991 -12.9 -0.12178
-15.5384 -13.3759 -0.0208541
-15.4298 -13.3695 -0.203387
-15.3953 -12.7542 0.85205
-15.7197 -12.9262 -0.354138
-15.2608 -11.8086 1.45169
-15.7967 -11.542 2.77808
-17.815 -10.5505 -3.91401
-18.8514 -10.5313 -3.51922
-18.841 -10.5276 -3.55188
-17.6219 -11.5227 -3.74226
-18.269 -11.0382 -3.48218
-18.8331 -10.6876 -2.39277
-17.6541 -11.0472 -3.06227
-18.3533 -10.4924 -3.18897
-19.3251 -10.5197 -2.90635
-16.9751 -11.4997 -2.94685
-16.3006 -11.5875 -3.34486
-15.0759 -12.1558 -2.9781
-15.5179 -12.1419 -2.63218
-15.8778 -11.8203 -2.21751
-17.5456 -11.4514 -2.44902
-15.8438 -11.9708 -2.46136
-17.9648 -11.0426 -1.64581
-18.2793 -11.6738 -1.71178
-18.9029 -11.0215 -1.01747
-19.0951 -11.2842 -0.967714
-15.1133 -12.7598 -2.36298
-14.2485 -13.1162 -3.00946
-15.5975 -12.7577 -1.46604
-18.5744 -11.2347 -1.06069
-15.6816 -11.9401 -1.49561
-13.8023 -13.3096 -2.74327
-19.068 -11.4494 -0.0668506
-14.1646 -13.1883 -2.56634
-17.139 -11.9396 -0.866585
-15.7978 -11.9593 -0.987014
-19.8121 -11.2542 -0.0698064
-19.858 -11.2604 0.0169795
-20.0935 -11.0682 -0.0768883
-18.832 -11.2495 -0.41753
-20.0265 -11.2288 0.476741
-16.7414 -12.2035 -0.886822
-17.3642 -11.9715 -0.761454
-14.2202 -13.6054 -2.41701
-18.884 -11.4805 -0.221686
-20.0804 -10.8599 0.24326
-19.1546 -11.3619 -0.199422
-15.9322 -12.3196 -1.36523
-19.7757 -11.0496 0.285952
-19.4773 -11.6483 0.346416
-15.5682 -12.267 -1.04297
-13.9591 -13.5461 -1.84591
-19.1346 -11.4357 0.283426
-19.3282 -11.1218 0.301294
-16.3934 -12.4209 -1.01176
-16.1602 -12.4463 -0.0231583
-16.7833 -12.3939 0.642745
-15.5173 -13.0798 -0.252134
-15.1603 -13.4311 -0.470916
-15.7326 -10.9655 1.88034
-15.6444 -12.5835 0.398024
-15.5194 -13.3594 0.86761
-18.4437 -9.92954 -3.85949
-17.8217 -10.6825 -3.7016
-18.855 -10.4423 -1.54495
-16.0531 -11.8965 -2.08389
-16.4013 -11.8443 -1.95846
-16.4625 -12.1277 -2.21981
-15.7096 -11.7709 -1.08901
-17.7167 -11.8311 -2.26869
-18.3551 -12.1097 -1.81195
-16.5868 -12.0226 -1.67963
-15.0451 -12.5245 -1.88766
-18.017 -11.6393 -0.461068
-15.6037 -12.7168 -1.95183
-19.2915 -11.1545 0.0521417
-15.4239 -12.8507 -1.88506
-17.3334 -11.6228 -0.147694
-14.2672 -13.6714 -2.10266
-17.4084 -11.8368 -0.00681969
-15.581 -12.6193 -0.817416
-16.9985 -12.3134 0.0867062
-16.4126 -12.3953 -0.452768
-17.594 -11.7402 -2.95058
-15.3982 -11.9641 -2.49855
-16.769 -11.8668 -2.16683
-16.327 -11.6961 -2.45569
-15.8844 -11.6485 -1.93415
-15.5567 -12.0059 -2.15877
-15.3296 -12.089 -1.69276
-15.6247 -11.6986 -1.91561
-18.6307 -11.4936 -1.2837
-15.2795 -12.6138 -2.11824
-19.0906 -11.4597 -0.762806
-15.2911 -12.6223 -1.56376
-18.3979 -11.3806 -0.73632
-15.6293 -12.7084 -1.38656
-16.1276 -12.1382 -1.40178
-17.6616 -11.6932 -0.0220834
-14.9857 -12.6056 -1.04255
-16.5433 -12.5143 0.226557
-16.9998 -12.3079 0.0897305
-16.357 -12.539 -0.257839
-15.5206 -13.3131 -0.0943757
-15.6283 -13.0608 -0.265957
-18.4178 -10.6698 -2.94798
-17.5012 -11.4382 -2.80292
-16.7589 -11.778 -2.12964
-18.5325 -11.486 -1.02546
-14.8594 -12.2469 -1.91692
-17.8344 -11.277 -0.546756
-15.3462 -12.4128 -1.28643
-15.2911 -13.2951 -0.60782
-16.4551 -12.2536 -0.225412
-16.2337 -12.3623 0.855896
-15.7692 -12.8295 0.643226
-16.2643 -11.9267 -2.1225
-16.485 -12.2194 -1.74507
-16.3555 -12.4138 -1.34692
-16.2859 -11.8019 -1.33241
-17.3675 -11.5109 0.0689645
-16.0942 -12.6773 -0.534316
-15.5474 -13.0888 0.332264
-18.8267 -11.4673 -1.41279
-14.8418 -12.5478 -2.50312
-15.8032 -12.7196 -0.547293
-15.7208 -12.5799 -1.47693
-15.2318 -12.8525 -1.33976
-15.2877 -12.1943 -1.3548
-14.8816 -13.2691 -1.01009
-14.0836 -12.3082 -2.64334
-18.5434 -10.4758 -3.04774
-19.0477 -10.8139 -2.02125
-18.5112 -10.8095 -2.84784
-17.6792 -11.1484 -3.92796
-17.4181 -11.1789 -2.91912
-19.61 -10.853 -0.334856
-18.9833 -11.1051 -0.790183
-17.9576 -11.4547 -2.522
-19.7791 -11.7166 0.525404
-16.9277 -11.4461 -3.17545
-17.532 -12.0261 -3.41333
-19.3166 -11.5752 0.397232
-16.7342 -11.1184 1.40856
-15.0167 -11.9315 -2.65462
-15.6419 -11.2267 1.13053
-16.7895 -12.2709 0.00370794
-14.6229 -11.9624 -2.84189
-16.786 -12.332 -0.612226
-15.0152 -12.105 -2.70478
-15.2375 -11.4068 1.49752
-16.2697 -11.9965 -0.904949
-16.0786 -12.5332 -1.22393
-15.2318 -10.9677 2.61404
-16.5177 -12.8681 -0.368619
-14.4753 -12.2995 -2.10968
-14.6615 -12.7436 -1.58412
-16.0833 -12.7153 -0.211661
-15.7126 -13.1567 -0.399179
-15.4062 -13.1808 -0.75119
-15.8531 -12.6996 -0.389331
-14.4062 -13.488 -1.55261
-15.6318 -12.7515 -0.266508
-15.5787 -13.1222 -0.110662
-15.6823 -13.2982 -0.891952
-15.7486 -12.9521 0.130373
-13.8607 -13.3198 -3.2044
-13.8325 -13.5504 -2.76713
-19.2042 -10.542 -2.8299
-18.2719 -10.6475 -3.27578
-18.0784 -10.9572 -3.39813
-19.4532 -11.2449 0.154244
-19.6935 -11.0854 0.131598
-16.7146 -10.9249 -3.39
-18.1957 -11.359 -1.55839
-18.9267 -11.4384 -0.465721
-18.6475 -11.4025 -1.7045
-16.9232 -11.3658 -3.32658
-18.9926 -11.6875 0.0684887
-17.2717 -11.8411 -3.23142
-17.9631 -11.7374 -0.78783
-18.891 -11.6793 0.753315
-17.2363 -11.8517 0.538233
-16.9225 -11.9988 -0.905381
-15.819 -11.7526 -1.92582
-16.443 -12.0013 -1.00313
-15.8794 -11.8975 -0.68926
-15.7907 -12.4272 -1.94487
-15.5977 -12.3758 -1.01191
-16.0789 -12.2042 -0.895157
-16.4438 -12.1672 -0.702045
-14.2341 -12.2404 -2.71831
-14.8602 -12.6445 -1.62473
-15.6589 -12.5043 -0.23569
-15.9656 -12.5778 0.0325693
-16.0271 -12.7521 0.432796
-15.0405 -12.6347 -1.24665
-15.3253 -12.7117 -0.400517
-15.3869 -13.1677 -0.350786
-15.6487 -13.5706 -0.238765
-15.3752 -12.8959 0.21336
-18.662 -10.513 -1.38497
-19.347 -11.5927 -0.537504
-18.5244 -11.869 -1.66079
-19.3617 -11.5686 0.00612183
-19.4295 -11.3442 0.320571
-17.4509 -11.5515 -0.918576
-17.1153 -10.9643 -0.850325
-18.7239 -11.8708 -0.752225
-18.4787 -11.3048 -0.388625
-16.6403 -11.9499 -3.22355
-16.5041 -11.9311 -1.87073
-15.967 -11.6618 -1.48765
-15.6664 -12.4964 -1.93848
-17.6642 -11.6284 0.232331
-16.3908 -12.1471 -1.09817
-17.1403 -12.255 0.44146
-15.781 -12.125 -1.15594
-16.1397 -12.284 -0.687104
-15.9814 -12.5186 -1.82382
-16.5118 -12.3766 0.0174669
-16.4158 -12.2258 -0.0449198
-15.5873 -12.7171 -1.74814
-14.1552 -12.308 -1.51409
-15.4351 -12.7587 -0.0234997
-15.1288 -13.1121 -0.807087
-15.6112 -12.8454 0.124584
-15.3895 -13.3487 -0.26833
-14.8484 -13.2883 -0.477203
-15.3455 -13.357 -0.606653
-13.9184 -13.8349 -2.45679
-17.8013 -10.8321 -2.63994
-19.8485 -11.0575 0.251267
-16.0028 -11.2069 -2.23476
-16.9648 -11.8914 0.403181
-16.3562 -11.9165 -1.09657
-15.6429 -12.4545 -2.15053
-16.5212 -12.5397 -0.773223
-16.5949 -12.0581 -0.243168
-15.9536 -13.0786 -0.956237
-14.4095 -12.7552 -2.05096
-15.7976 -12.6862 -1.06747
-20.0921 -10.9685 -0.483234
-19.5785 -11.4896 0.281442
-17.9886 -11.1299 -1.99896
-17.4897 -11.7586 -0.93168
-17.4678 -12.1141 -2.10463
-15.9893 -12.3832 -0.675756
-16.1881 -13.0775 -0.760166
-14.0879 -13.6748 -2.67596
-18.3686 -11.2771 -1.06941
-18.3043 -11.1293 -1.12645
-17.8256 -11.221 -0.15002
-17.6726 -11.5209 -0.602293
-15.6777 -12.3628 -1.35148
-16.5972 -12.4686 -1.41983
-15.6903 -13.1139 0.105044
-19.0412 -11.3975 -0.761947
-17.1486 -11.3323 -1.11115
-17.3823 -11.426 0.339609
-16.6437 -12.1408 -0.607152
-16.0877 -12.4002 -0.960501
-16.1156 -12.2855 -1.58574
-14.9829 -13.3856 -0.597366
-18.4544 -10.9281 -0.779939
-14.6124 -12.1625 -2.14294
-15.7645 -11.6755 -2.09796
-14.8862 -12.9585 -1.4676
-14.7208 -12.7368 -1.66006
-19.5455 -10.9722 -0.890108
-19.5 -11.1791 -0.659048
-19.1142 -10.7316 -2.5806
-16.0775 -11.2065 1.89782
-18.8553 -10.9643 -2.14914
-18.3542 -10.9798 -2.56806
-18.5253 -10.8294 -2.9621
-15.9213 -11.5309 1.88057
-18.0853 -11.0477 -1.60554
-17.3069 -10.9727 -3.54251
-17.429 -12.4245 -0.384467
-17.0112 -11.985 -0.999203
-16.8363 -12.3424 -0.312254
-16.6041 -12.2565 -0.847864
-16.4219 -11.9273 -0.73395
-16.5533 -11.8521 -2.2266
-15.2966 -11.7467 -2.40837
-15.9618 -13.0954 -0.726079
-16.117 -12.4388 -1.19436
-15.9993 -12.5586 -0.555703
-16.2898 -13.0705 -0.223287
-15.884 -12.5923 -0.852704
-15.8973 -12.527 -1.03294
-15.3026 -12.6772 0.66349
-15.6047 -13.3188 0.530333
-15.6764 -12.3424 -3.06031
-15.0265 -12.9878 -0.862046
-15.1304 -13.723 -0.488388
-14.4355 -13.1958 -2.80717
-14.5425 -13.4608 -2.41089
-13.5463 -14.195 -2.47666
-19.7523 -11.3459 0.446534
-19.703 -11.1807 -0.291891
-19.0347 -11.5422 -1.9847
-16.1771 -10.9224 1.34853
-18.1872 -11.6815 0.00619172
-18.3298 -11.9514 -0.304639
-18.3646 -11.7517 -0.404161
-18.4684 -10.4413 -3.3706
-18.5976 -10.6072 -2.86136
-18.4033 -11.4059 -1.843
-17.2937 -11.5793 0.185559
-15.5435 -11.405 1.89281
-18.0583 -11.215 -3.57759
-17.7517 -11.5111 -1.83211
-17.3164 -12.2706 -1.24726
-17.0765 -11.8567 -1.43966
-16.5408 -12.0294 -0.194848
-16.335 -11.6964 -1.2163
-16.1015 -12.5064 0.339456
-16.1765 -12.1321 -0.877329
-16.0653 -12.5771 0.768194
-15.8371 -12.5074 -1.00698
-15.6108 -13.3161 0.0230063
-15.3315 -12.8205 -0.129884
-15.5324 -13.2013 0.222142
-15.7222 -12.8575 0.010405
-15.5755 -13.0255 -0.986288
-15.0457 -13.2329 -0.692835
-15.6916 -13.1522 -0.207832
-14.8639 -12.4481 -1.56334
-14.4622 -13.9218 -2.88977
-14.4967 -13.5813 -1.67395
-14.4139 -13.6408 -3.45671
-19.1775 -10.295 -1.97915
-19.3358 -10.8439 -1.72562
-17.8353 -11.4642 0.353013
-18.5607 -10.5522 -3.23617
-17.5153 -11.4029 -0.784946
-16.9856 -12.2283 0.232058
-16.7786 -12.4742 0.323538
-16.9607 -12.1319 -0.932151
-16.6724 -12.7345 0.4753
-16.9719 -12.2579 0.361108
-16.6538 -12.4263 -0.460906
-17.1181 -12.079 -3.43416
-16.1618 -12.6618 -0.0910252
-15.9232 -12.5875 0.972379
-15.9112 -12.1123 -2.0021
-15.8176 -13.0477 0.894539
-15.8149 -12.4677 -0.965407
-15.5629 -12.3818 -1.72638
-15.2931 -12.223 -1.91348
-15.5321 -13.4869 -0.714934
-15.9965 -12.4727 -0.243267
-15.7326 -12.7569 -0.158504
-15.7409 -13.1808 0.388163
-15.5946 -13.2446 -0.13987
-15.3745 -11.8851 -1.44515
-15.0895 -13.5247 -0.609994
-14.3571 -13.708 -2.60529
-14.2911 -13.8835 -2.61464
-13.9601 -13.5509 -2.72197
-13.7662 -13.3702 -2.1747
-14.0121 -13.8039 -1.87258
-17.2072 -11.2541 1.53211
-17.6072 -11.6608 -0.165966
-17.7074 -11.5029 -1.39138
-17.8953 -10.5263 -3.11041
-17.8784 -10.8524 -3.15817
-17.1138 -12.4851 0.514915
-16.3219 -12.416 0.21073
-16.5583 -12.2393 -0.68734
-17.0943 -11.6515 -3.29019
-16.821 -12.3725 -0.322267
-16.661 -12.2059 -0.29181
-16.4322 -12.303 -0.838123
-16.378 -12.6047 -0.996358
-16.2046 -12.8379 0.604147
-15.4252 -12.2745 -1.42012
-15.9817 -12.6151 -1.64865
-15.9283 -12.4464 -1.04379
-15.7114 -12.2732 -1.84289
-15.2575 -11.6712 -2.759
-15.2658 -13.2007 -0.523349
-15.4801 -12.4856 -0.957063
-15.5928 -12.8067 -0.941703
-15.2572 -12.9632 -1.10332
-15.7103 -12.7569 -0.529641
-15.5205 -12.8478 -0.606948
-15.0156 -11.8668 -2.7025
-14.0061 -13.7866 -2.18939
-13.7923 -14.0022 -2.33418
-19.3587 -11.0248 -1.68964
-18.6381 -11.2502 -1.22302
-17.6076 -10.9348 -2.85447
-16.4329 -12.3852 -0.369429
-16.3986 -11.791 -0.402613
-16.5552 -12.2114 -0.950671
-16.0948 -11.8068 -0.723041
-16.3089 -12.6476 -0.898573
-16.2099 -11.9903 -0.870495
-15.9003 -12.5304 -1.57946
-15.6387 -13.5742 -0.133878
-15.6815 -13.1297 0.275018
-14.1334 -12.9883 -2.47092
-13.9518 -12.9754 -3.3073
-14.3805 -13.3467 -2.51351
-13.9628 -13.7798 -2.23445
-19.774 -11.2572 0.317354
-19.5502 -11.7886 -0.464247
-17.4597 -11.8922 0.0554932
-17.3664 -11.0099 -0.75962
-17.1003 -11.93 -1.42851
-15.5616 -12.0582 -0.758381
-15.2263 -13.4983 -0.448302
-16.0724 -12.596 -0.554641
-18.4641 -11.8755 -0.800674
-16.0213 -12.3398 -0.932219
-14.8188 -13.7032 -0.845188
-17.4447 -10.8903 -1.2597
-17.2409 -11.9297 -0.772121
-15.6399 -12.2112 -1.25102
-15.9379 -12.7449 -0.924209
-18.0777 -11.4574 -0.0725269
-16.0728 -12.9182 -0.561395
-16.2907 -12.426 -0.92595
-15.4732 -11.374 -1.99792
-14.46 -12.9063 -2.50249
-15.5958 -12.7888 -0.366921
-15.5835 -12.9713 -0.925792
-19.6273 -11.1052 0.697875
-16.545 -10.7646 2.00567
-19.3766 -11.4265 -0.0543767
-15.7074 -11.1904 1.9424
-15.4648 -11.1491 1.38559
-19.6495 -11.361 -0.784951
-19.6417 -10.9522 -0.707989
-19.614 -11.0806 -0.924946
-18.1104 -11.2522 0.256535
-16.8983 -12.1048 0.997157
-18.5065 -10.8749 -1.41293
-17.7193 -11.7921 -0.429436
-18.2089 -11.7952 -0.839537
-17.3424 -12.0855 -0.121545
-18.394 -10.6454 -1.62967
-17.5497 -11.5413 -0.793365
-17.1231 -11.566 -0.847809
-19.1508 -10.2447 -2.32168
-17.4335 -12.0941 -0.961623
-16.7431 -12.4783 -0.00957528
-16.911 -12.2265 -0.445483
-16.5237 -12.1374 -0.42209
-18.8362 -10.5874 -3.03217
-19.0562 -10.2374 -3.72088
-18.4426 -10.8477 -3.08911
-17.0003 -12.1612 -1.10585
-19.1487 -10.6676 -3.38627
-17.2881 -11.7166 -0.911937
-18.6151 -10.3028 -2.52036
-15.8269 -12.2335 -1.04441
-15.9851 -12.7295 -0.133637
-17.1296 -11.5885 -1.44306
-18.2339 -11.5194 -2.02343
-15.8026 -13.0695 0.45611
-17.0626 -11.1269 -1.51467
-15.921 -12.3433 -0.128316
-18.5603 -10.6994 -3.3474
-16.7227 -12.3973 -1.85018
-17.6085 -11.034 -2.87469
-17.6289 -11.2441 -3.14186
-16.1475 -12.6487 -1.00485
-18.0047 -10.5925 -3.49171
-17.0936 -11.9388 -2.43559
-17.6798 -10.9009 -3.80671
-15.6789 -12.6667 -0.885574
-15.1027 -13.5002 -0.294457
-16.7879 -11.4447 -2.02878
-17.5615 -10.7139 -4.04727
-16.8323 -11.093 -3.20032
-15.8962 -12.0334 -1.9483
-14.8722 -13.6134 -0.971116
-15.1698 -12.525 -2.72241
-14.3807 -13.533 -1.86211
-14.5298 -13.278 -2.8622
-14.5663 -13.3852 -2.96202
-13.9215 -13.5809 -2.65107
-13.6353 -13.8529 -2.77505
-19.8889 -11.1457 -0.0423477
-19.9237 -11.0395 0.184778
-19.3661 -11.3727 0.272458
-20.1774 -10.6407 -0.204076
-15.6913 -10.9714 1.50022
-15.3833 -11.3288 1.95996
-19.3478 -11.1327 -0.362757
-15.4372 -11.435 1.25566
-17.8842 -11.0543 0.299985
-14.9016 -11.4485 1.52741
-17.6354 -11.5886 0.0720675
-17.1145 -11.7036 0.209118
