-15.8994 -11.8937 -2.39453
-16.1436 -12.0383 -1.83602
-17.0352 -11.7221 -2.93766
-17.1092 -11.662 -3.18454
-17.2058 -11.0301 -2.8791
-17.3659 -11.2486 -3.1223
-17.0358 -11.6069 -3.11451
-17.8208 -11.5031 -3.18218
-15.1265 -12.2184 -2.4725
-15.4786 -11.4265 -2.45591
-16.6846 -11.8435 -2.94178
-15.523 -11.2705 2.48099
-19.4726 -11.6321 0.421791
-20.2751 -10.8451 0.432696
-19.8636 -11.7481 0.415272
-19.4125 -12.0603 0.07427
-14.9697 -12.0286 1.58601
-19.73 -11.333 -0.399902
-17.7024 -11.6387 0.515123
-19.2968 -11.5256 -0.220814
-19.0937 -11.0054 -0.375537
-15.8434 -13.141 0.72926
-18.1516 -11.7638 0.280278
-16.5549 -12.5376 0.347171
-19.0942 -11.2415 -0.825063
-18.6458 -11.3244 -0.644122
-19.1243 -11.6101 -0.718147
-18.5333 -11.5422 -0.814548
-18.7329 -11.2395 -0.864508
-18.7639 -11.385 -0.55367
-19.911 -10.6789 -0.969797
-16.3177 -12.6344 -0.02637
-18.371 -10.8546 -0.555729
-15.3306 -12.6098 0.00361137
-18.1418 -11.4826 -1.00697
-18.677 -11.1148 -0.923892
-16.7766 -11.8872 -0.714763
-16.174 -12.6249 -0.0893133
-16.8823 -12.062 0.0365292
-16.2594 -12.4168 -0.688997
-17.533 -11.5021 -1.03101
-18.2788 -11.3922 -1.35819
-18.2729 -11.3168 -1.44461
-18.3387 -11.3714 -1.58498
-16.9617 -11.8946 -1.33151
-17.9339 -11.1394 -1.69471
-18.0087 -11.3968 -2.17009
-15.4229 -12.7947 -1.61048
-18.6283 -10.3847 -2.29076
-15.6183 -12.2499 -1.78453
-18.52 -11.158 -1.967
-17.4339 -11.4244 -2.35618
-17.3859 -11.9849 -2.04178
-17.2817 -11.1575 -2.4642
-16.9643 -11.4847 -2.46614
-18.511 -10.9294 -2.93042
-14.8488 -12.39 -1.83171
-17.7302 -11.5768 -2.73357
-18.3885 -11.2711 -2.95116
-15.6654 -11.7327 -2.12988
-17.0745 -11.3046 -2.8923
-18.0602 -11.3306 -2.80593
-16.8275 -11.7588 -2.94898
-16.4443 -12.0388 -2.94652
-14.5908 -12.2598 -2.13561
-16.2576 -10.3236 1.38823
-16.627 -10.6509 2.00485
-16.3514 -10.9999 1.48062
-17.6747 -11.5309 1.54532
-19.6141 -11.0557 -0.187153
-19.7034 -11.555 0.20832
-16.2265 -12.6316 0.392535
-19.1034 -11.4197 -0.29556
-16.7113 -12.4476 0.683253
-18.4823 -12.0866 -0.932203
-18.2177 -11.9762 -0.44783
-18.9287 -11.5531 -0.86828
-17.3339 -12.1471 -0.742987
-18.6891 -11.548 -0.503892
-18.9175 -11.4291 -0.96553
-19.0533 -11.0082 -0.8257
-15.8848 -12.5198 0.362242
-16.1075 -12.5212 -0.128866
-16.4386 -12.5683 -0.31169
-18.7245 -11.938 -1.33846
-18.3857 -11.3352 -0.777541
-17.9855 -11.9192 -0.832988
-18.3288 -11.6235 -1.18686
-18.4474 -11.0821 -1.38088
-16.4857 -12.7535 -0.490039
-15.7668 -12.7516 -0.194182
-18.4332 -11.4288 -0.753604
-17.8462 -11.1767 -1.61909
-16.746 -12.2342 -1.50416
-18.4175 -10.9979 -1.86332
-18.4461 -11.3128 -2.01284
-16.7776 -12.2621 -1.3575
-17.6579 -11.9229 -2.13461
-17.3354 -11.9214 -1.91834
-18.4828 -10.7426 -2.61668
-17.6954 -11.762 -2.35788
-16.4524 -11.837 -1.69407
-17.9413 -11.7139 -2.91155
-17.8212 -11.4215 -2.15787
-17.6425 -11.5233 -2.04924
-16.3827 -11.477 -2.25603
-13.7717 -13.2937 -2.17176
-18.7106 -11.9294 1.13176
-16.6059 -10.5949 1.30999
-17.5782 -11.6816 1.44517
-17.8191 -11.7586 0.28523
-17.4821 -10.9789 -0.0376144
-18.98 -11.778 -0.0644671
-18.8014 -11.4109 -0.210367
-19.208 -11.5051 -0.803457
-19.0999 -11.3597 -1.00432
-16.9 -12.2151 -0.299383
-16.8601 -11.7118 -0.0709175
-19.4984 -11.0155 -0.674734
-16.7701 -12.3324 -0.616451
-18.584 -11.3546 -1.0394
-16.6623 -12.3866 -0.690196
-16.4551 -12.1339 -0.829139
-18.0788 -11.2767 -1.41902
-17.8329 -12.0894 -1.53937
-17.9295 -11.8176 -1.604
-17.7352 -11.4732 -1.5669
-16.7118 -11.9969 -0.996987
-15.2505 -13.0195 -0.658813
-16.6042 -11.7665 -1.63101
-16.538 -12.1737 -1.61461
-15.5697 -12.9008 -1.10451
-15.3756 -12.5469 -1.62512
-16.5121 -11.731 -1.26452
-17.3777 -11.6167 -2.29409
-16.1964 -11.847 -2.26071
-17.2746 -12.0708 -2.41778
-15.81 -11.8815 -2.14348
-17.6251 -11.3009 -2.46811
-16.3025 -11.7174 -2.00479
-15.4217 -12.0593 -2.18904
-14.5298 -12.4576 -2.20183
-19.341 -11.6129 0.72831
-18.4452 -11.4068 -0.337732
-18.2634 -11.9413 0.0457783
-15.9542 -12.3422 0.686878
-19.1064 -12.0475 -0.0865368
-17.935 -11.3771 0.285874
-18.5186 -11.7159 0.0661789
-18.4571 -11.5313 -0.345381
-18.204 -11.6228 -0.534618
-16.9278 -12.1747 -0.150526
-18.2345 -11.2431 -0.43655
-17.0961 -12.3807 0.0935575
-19.1569 -11.6437 -1.16823
-17.0344 -11.417 -0.631052
-18.3885 -11.8985 -0.962953
-18.9432 -11.5742 -1.67846
-18.459 -11.1669 -1.54571
-19.048 -11.245 -1.84846
-15.7964 -12.5114 -1.27871
-16.6887 -12.0831 -2.42115
-18.7929 -10.6824 -2.67351
-17.7312 -11.6157 -2.88603
-17.3752 -11.6206 -2.96462
-15.9185 -11.89 -1.86215
-15.6237 -11.9125 -2.16881
-16.3028 -11.5009 -2.24526
-16.0351 -11.8114 -2.56562
-14.6466 -12.8055 -2.39869
-14.076 -13.153 -2.32273
-14.95 -12.143 -2.7303
-18.7684 -10.7053 1.06718
-18.1727 -11.9176 1.01166
-18.376 -11.469 0.882
-18.2028 -11.2632 0.211638
-17.9374 -11.2884 -0.171187
-16.7172 -12.4826 0.280197
-16.824 -12.1057 0.282447
-16.1089 -12.1456 -0.135263
-17.7336 -11.8814 -0.322478
-16.9701 -11.4724 -0.911904
-16.5969 -11.891 -1.23191
-16.2597 -12.0067 -1.26094
-15.8783 -11.9492 -1.36453
-15.8004 -12.4887 -1.14156
-15.3578 -12.5015 -2.29751
-18.2153 -11.4462 -2.88253
-15.7785 -11.5471 -2.31162
-14.3248 -12.9112 -2.31007
-14.0025 -12.5852 -2.18267
-14.5578 -12.4225 -2.62365
-16.42 -12.1385 -0.105458
-16.6645 -12.356 -0.28612
-18.2589 -10.7988 -1.64969
-18.0159 -10.9224 -2.95144
-16.2389 -12.3489 -2.52983
-17.7065 -11.8028 0.255657
-19.3766 -10.9682 -0.485691
-17.3185 -11.6867 -1.35086
-15.4786 -12.3283 -1.97226
-14.3939 -13.7865 -1.5223
-16.7447 -11.6531 -1.94406
-16.8343 -12.1538 0.051227
-17.2832 -12.1721 -0.611142
-16.9341 -11.8224 0.0845876
-17.5588 -11.7767 0.0412827
-16.8811 -12.4546 -0.359164
-18.585 -11.7112 -0.988344
-18.0224 -11.8254 -1.46451
-16.5063 -10.648 1.69119
-18.7795 -11.6869 -0.879304
-18.2418 -11.7089 -0.307003
-17.9838 -11.7371 -1.21638
-15.1954 -12.7457 -1.4072
-15.5308 -12.3913 -1.2296
-16.9338 -11.2419 -2.70365
-14.5479 -12.1228 -1.59502
-17.5794 -11.2373 -2.57136
-17.6871 -11.4926 -2.98317
-18.3429 -10.6833 -2.53384
-18.6019 -10.7227 -2.70121
-18.7715 -11.029 -2.46088
-17.1364 -11.778 -2.14901
-18.71 -10.6857 -1.90321
-18.8874 -11.1883 -2.15333
-18.908 -11.0209 -2.09147
-15.4541 -12.3387 -1.51512
-18.2021 -11.042 -2.02789
-17.7916 -11.8912 -2.32916
-16.6249 -11.8205 -1.48809
-18.8032 -11.1066 -1.75347
-18.1324 -11.3626 -1.57126
-18.1649 -11.1421 -1.65039
-18.8448 -11.1215 -1.85534
-15.6772 -12.8002 -0.729902
-18.4796 -11.1001 -1.76282
-18.5856 -11.5179 -1.30023
-16.219 -12.6214 -0.896705
-19.3626 -11.562 -1.4791
-18.0561 -11.3389 -1.12764
-19.6211 -11.0331 -1.04853
-16.4225 -11.9768 -0.534235
-18.011 -11.2328 -0.771056
-17.0385 -12.2327 -0.232695
-17.0273 -12.2165 -0.578254
-16.0597 -12.2561 -0.448282
-19.5584 -11.0302 -0.879165
-19.5804 -11.179 -1.22204
-18.4559 -11.2703 -0.991011
-16.2156 -12.7173 -0.466584
-16.6822 -12.5262 -0.356283
-16.2182 -11.8252 -0.246073
-18.2264 -11.8062 -1.06988
-16.3985 -12.1037 -0.331878
-18.1176 -11.7471 -0.558751
-19.1634 -11.4003 -0.912975
-18.5738 -11.807 -0.806594
-19.1595 -11.2293 -0.806676
-19.0567 -11.4279 -0.258671
-19.0746 -11.667 -0.284394
-16.7317 -12.5259 0.114174
-16.0704 -12.7158 0.434407
-18.7294 -11.9187 -0.0530402
-19.049 -11.5895 -0.246828
-18.6723 -11.109 -0.700059
-19.2676 -11.0177 -0.334561
-16.2618 -12.5751 0.733447
-17.528 -11.8735 0.138074
-17.8375 -11.5401 0.554449
-19.1287 -11.7143 0.0709663
-18.7826 -11.7788 0.0702275
-19.8351 -11.7819 -0.0557634
-19.8282 -11.5106 -0.246311
-18.7429 -11.6119 0.276262
-19.5193 -11.1981 0.0394249
-18.9966 -11.1185 0.0236111
-19.628 -11.493 0.394559
-19.9581 -11.825 0.499206
-19.2972 -11.6041 -0.0905015
-18.6214 -11.3447 0.758569
-14.8882 -11.485 1.51259
-19.0577 -11.8383 0.630409
-19.7288 -11.4015 0.559744
-18.9251 -11.6477 1.16707
-17.6956 -11.4196 1.50517
-15.0286 -11.6168 2.5018
-14.636 -12.2907 -2.53566
-16.2761 -11.8713 -2.28544
-18.8719 -11.0214 -2.7832
-17.1971 -11.3424 -2.50079
-15.2955 -12.1876 -1.74715
-17.3825 -11.5707 -1.74945
-17.888 -11.7758 -1.89671
-17.9074 -11.8297 -1.48278
-18.7434 -10.8776 -2.0542
-18.4819 -10.9073 -2.0217
-16.513 -12.4087 -1.4069
-18.5241 -10.9616 -1.35779
-18.3793 -11.1882 -1.37856
-17.9093 -11.7599 -1.35309
-17.7891 -11.6535 -1.62382
-18.7539 -11.2342 -1.64386
-18.3423 -11.8729 -1.24634
-18.9274 -10.879 -0.999173
-16.4643 -12.0503 -0.385449
-18.4784 -11.7185 -0.0068624
-19.0957 -11.5035 -0.148365
-19.694 -11.3025 -0.06234
-17.4801 -11.4241 0.460454
-17.5294 -11.6639 0.48237
-17.9194 -11.8783 0.368612
-17.5256 -11.7257 0.316315
-19.355 -11.0113 -0.132872
-19.2704 -11.4473 -0.182293
-18.9683 -11.7588 0.734588
-19.0025 -11.6822 0.49968
-15.2739 -11.1478 1.70923
-18.3395 -11.6095 0.866356
-15.1313 -12.257 -2.29699
-16.0372 -12.1039 -2.06868
-15.4346 -12.0222 -1.85306
-16.2869 -11.8314 -1.57157
-16.5978 -12.1917 -1.32999
-17.5976 -11.4362 -1.56946
-17.2388 -12.0973 -1.45933
-16.1896 -12.1908 -1.14271
-16.602 -12.0231 -1.26775
-18.9829 -10.9978 -1.47959
-18.2512 -11.3104 -1.08555
-17.3431 -11.9036 -0.940506
-16.6561 -12.6971 -0.594609
-18.0228 -11.5011 0.292184
-17.7257 -11.5617 -0.572525
-18.7129 -11.4102 -0.3987
-17.6146 -11.6984 0.00783539
-19.5765 -11.3532 -0.115505
-19.0456 -11.3561 -0.840959
-18.7557 -11.6457 -0.14755
-19.7573 -10.6938 -0.255711
-19.5735 -11.3405 -0.44018
-15.8161 -13.0241 0.595937
-19.4093 -11.4215 -0.214938
-16.0696 -10.7134 1.39529
-18.7394 -11.7522 0.538813
-18.7624 -11.9699 0.981639
-17.8944 -11.4281 0.971526
-15.2747 -11.7908 1.94657
-15.0419 -12.9603 -2.59874
-15.9052 -11.5234 -1.97376
-17.1626 -11.3824 -2.41518
-18.7089 -10.9831 -1.40686
-16.9088 -13.1775 0.0373645
-18.9253 -11.4773 -0.701251
-19.2966 -11.9441 -0.51418
-17.1394 -11.6353 0.298412
-18.805 -11.7016 -0.774355
-17.3164 -11.7134 0.119997
-18.8101 -11.7336 0.105174
-19.5496 -11.2735 0.0215018
-15.8346 -11.2183 1.2838
-17.7011 -11.9344 -2.7501
-17.2835 -11.9157 -0.866614
-17.1995 -12.1029 -0.918163
-16.7321 -12.0428 -0.0634158
-18.2541 -11.2473 0.458402
-16.2097 -11.6181 -2.17393
-17.1556 -11.4923 -2.33159
-18.017 -11.3673 -1.96348
-16.0022 -12.5081 -0.1991
-16.2136 -12.1142 0.736758
-17.6376 -11.6995 1.06839
-16.3727 -11.9992 -1.2551
-15.5747 -12.5003 -1.30316
-15.7545 -12.8109 -1.15299
-18.397 -11.0016 -1.22182
-18.7647 -11.4008 -1.5952
-19.1143 -11.337 -0.582398
-18.6788 -11.2774 -0.451549
-15.69 -12.7203 -1.3707
-16.5919 -12.5411 -1.12547
-16.3275 -11.913 -0.372961
-16.5158 -12.1227 -0.157011
-15.9609 -12.4204 0.524992
-16.0396 -11.0317 1.28482
-18.5994 -11.3755 -0.801161
-16.2938 -12.7887 0.673017
-15.7098 -13.0798 -0.553558
-16.7178 -12.4064 -0.115894
-18.7208 -10.5508 -2.8288
-18.0432 -11.1471 -2.1694
-18.4623 -11.1638 -2.08286
-17.1637 -11.58 -1.9056
-15.5774 -11.8641 -1.7404
-19.159 -11.2126 -1.8914
-14.9329 -12.6696 -2.02886
-19.0383 -10.7859 -1.22911
-17.5132 -11.4459 -1.73454
-18.5154 -11.168 -1.06529
-19.4914 -10.7578 -0.727347
-18.0951 -11.1689 -1.25281
-19.5215 -11.1182 -1.01977
-19.1557 -10.9831 -1.0013
-18.7596 -11.2722 -0.486525
-17.2388 -12.4714 -1.09415
-19.4359 -11.5342 -0.277394
-16.0613 -12.7606 -0.60912
-19.005 -10.9951 -0.150047
-16.7039 -12.0733 -0.622417
-19.0141 -11.8568 -0.419078
-18.8652 -11.465 -0.412286
-19.3089 -11.7425 -0.114389
-18.2777 -11.7087 0.0909309
-19.5645 -10.9091 0.510036
-17.7749 -11.4512 -0.0245733
-19.8065 -10.9778 0.304233
-19.1777 -11.1082 0.155373
-16.4981 -12.7388 -0.592949
-16.3379 -12.7845 -0.174859
-17.8071 -11.3018 0.139345
-17.8791 -11.9332 0.106413
-19.4408 -11.5654 0.221688
-19.2831 -11.8411 0.562801
-18.2351 -11.6182 0.925141
-19.167 -11.7491 0.849885
-19.0856 -11.7226 0.435984
-16.9929 -10.9998 0.9268
-17.4496 -11.4551 -2.58347
-18.2476 -10.9986 -2.05771
-17.6121 -11.3988 -2.67567
-19.3345 -10.7975 -1.63766
-18.0854 -11.4116 -1.48834
-18.0908 -11.6681 -1.14207
-19.1334 -11.1761 -0.942847
-18.2892 -11.5798 -1.00004
-18.6156 -10.776 -0.946929
-19.5224 -11.1122 -0.92268
-17.1121 -12.1535 -0.786027
-18.4733 -11.3028 -0.61685
-18.9191 -11.4883 -1.30465
-18.9938 -10.6349 0.047942
-18.7898 -11.1535 -0.542267
-19.707 -11.4267 0.111649
-18.7995 -11.6623 -0.547245
-16.4173 -12.6177 -0.299735
-15.9128 -12.6619 -0.083563
-17.9202 -11.3311 0.532724
-15.1437 -13.4569 -0.733227
-19.0831 -11.238 0.524056
-15.9643 -11.0458 1.43657
-17.5456 -11.8428 -2.82835
-17.0231 -11.9165 -3.29572
-14.522 -12.6619 -1.68808
-15.0324 -12.1462 -1.91729
-18.2381 -11.6234 -1.91407
-19.3369 -11.0464 -0.711628
-17.2353 -11.9457 -0.713087
-18.4688 -12.2464 -0.362063
-18.1827 -11.4288 -0.396168
-16.6916 -11.9757 -0.364186
-18.8025 -11.6329 0.465404
-18.9993 -11.7115 0.599179
-18.1429 -11.4808 1.08353
-16.8994 -11.6408 -2.61884
-16.7901 -11.6705 -2.03956
-18.3531 -11.4508 -1.56296
-18.0328 -11.3094 -2.04121
-18.3615 -11.5837 -0.902766
-15.4636 -12.4037 -1.14026
-19.4859 -11.314 -0.406856
-17.3122 -12.3729 -0.727074
-19.7966 -11.2131 -0.348125
-19.092 -11.5436 0.24622
-18.7414 -11.3709 -0.301442
-16.2452 -12.2703 -0.216433
-18.7344 -11.6948 0.276881
-19.1912 -11.9864 0.140796
-16.6774 -12.9018 0.10287
-16.5762 -12.6393 0.537926
-18.3019 -11.3904 1.00609
-15.754 -10.5922 1.67069
-17.4042 -11.7424 1.57156
-17.8915 -11.6667 1.60385
-16.8045 -11.6257 -3.11668
-14.4776 -12.2468 -2.49765
-18.9565 -11.453 0.779278
-15.9378 -12.8533 0.346222
-15.8623 -12.3789 0.532874
-17.5514 -11.57 -1.07116
-16.6884 -12.1311 -0.335339
-16.8578 -12.1385 0.243423
-15.8138 -10.6626 1.44754
-18.3551 -11.4199 -1.17088
-15.2233 -13.0766 -0.328642
-17.9127 -11.7748 1.01477
-18.0346 -11.261 -1.15288
-16.2705 -11.7058 -1.89033
-14.4494 -12.3685 -2.17666
-17.4781 -11.2042 -2.64353
-18.2211 -11.7867 -0.954953
-18.4794 -11.5172 -0.654679
-15.7948 -12.201 -1.58921
-14.8081 -12.4795 -2.4316
-17.4312 -11.6145 0.173083
-18.7312 -12.2033 0.401431
-18.4553 -11.9393 0.859595
-15.3973 -12.6178 -0.770035
-15.9963 -12.6538 0.0458011
-15.6793 -12.9921 0.350117
-19.0727 -11.1735 -1.95029
-18.7725 -10.5528 -1.643
-17.2453 -11.8321 -1.9919
-19.238 -11.9319 -0.570493
-19.1227 -11.0991 -0.559752
-18.6943 -11.3223 0.530053
-18.354 -11.4635 0.623525
-19.199 -11.9028 1.14293
-16.1446 -12.4989 -0.010827
-16.1721 -12.2653 0.628787
-18.5998 -10.6776 -2.13665
-17.2895 -11.3769 -2.45836
-16.7544 -11.2701 -2.60906
-15.2254 -12.7451 -1.35356
-13.3619 -13.7385 -2.90994
-16.4884 -12.441 -0.955405
-18.9218 -12.1637 0.454278
-16.5009 -12.4844 -0.490354
-16.6392 -12.5913 -0.0564015
-15.5115 -13.8193 -0.546311
-19.3536 -10.7677 -1.88835
-15.5448 -13.1057 -0.269401
-15.343 -13.4636 -0.584131
-15.2972 -13.6593 -1.13574
-17.4881 -10.9247 -2.48146
-18.1275 -11.4492 -0.576142
-17.0434 -11.473 -1.56246
-18.7328 -11.2469 -0.29675
-14.1624 -13.4929 -1.86786
-20.0705 -11.386 -0.187519
-16.5572 -12.386 0.386532
-16.5527 -11.1831 -1.7535
-16.4159 -13.0624 -0.328431
-16.3514 -12.7447 -0.458706
-14.2644 -12.5039 -2.28797
-18.546 -10.4877 -2.40668
-18.7006 -10.6915 -2.61028
-18.4192 -11.0532 -1.82886
-19.4732 -10.8629 -0.334173
-17.0177 -11.6835 -2.28641
-17.5225 -11.6281 -1.85157
-17.6166 -11.6522 -1.11643
-17.0665 -11.4672 -1.4314
-19.3301 -11.8221 0.260179
-15.6829 -12.0243 -1.38589
-16.3022 -12.378 -1.2259
-16.6284 -12.3632 -0.235636
-16.4789 -11.1131 1.60695
-17.7064 -11.4913 -2.66555
-19.2553 -11.0458 -0.813805
-15.6596 -11.5201 -2.3488
-17.979 -11.7113 0.390746
-16.1 -12.235 -1.45558
-16.0625 -12.3993 -1.28754
-16.2403 -12.2093 -0.883359
-16.4556 -12.4762 -0.786753
-16.6812 -12.4293 -0.355419
-15.5751 -13.0894 0.202857
-18.8465 -10.9455 -1.60649
-18.1721 -11.6847 -1.77304
-17.4621 -11.8545 -1.97023
-18.4273 -11.0487 -0.271205
-14.4564 -12.6154 -1.75607
-18.0321 -11.9557 0.674852
-16.7124 -12.2849 -0.42275
-16.3077 -12.3749 -0.00533086
-15.952 -12.925 -0.662548
-15.202 -13.1032 -0.807932
-15.2879 -12.8725 0.0315316
-17.3966 -11.4078 0.242275
-17.113 -12.0934 0.5221
-16.8606 -12.4199 -0.523558
-15.1483 -13.4893 -0.628784
-18.9839 -11.5868 0.0554636
-16.5665 -12.4447 -1.31441
-19.7023 -11.2752 -0.824545
-15.8392 -12.2577 -0.867566
-18.2353 -11.5289 -1.22627
-17.7495 -11.601 -1.27511
-17.3121 -11.4314 -2.43908
-18.6986 -11.2559 -2.4382
-19.0294 -11.1739 -0.702394
-19.2148 -11.056 -0.63473
-18.6505 -10.8632 -1.16832
-18.965 -10.9409 -0.645371
-18.279 -11.5288 -1.305
-18.2878 -11.0711 -1.5162
-17.8266 -11.4239 -2.4061
-17.7528 -11.144 -1.87845
-18.3095 -11.8739 -1.28931
-16.1952 -11.6018 -2.38135
-15.7404 -11.6493 -1.95944
-16.0117 -12.2516 -0.503676
-16.2592 -12.6728 -0.336522
-15.5334 -12.7266 -0.704092
-15.3689 -12.8021 -0.638415
-15.0384 -12.3452 -0.519145
-15.2138 -13.4432 -0.515765
-18.8521 -11.5027 -0.795869
-18.3552 -11.6758 -2.22977
-18.7424 -11.6122 -0.79224
-17.1865 -11.5142 -2.25113
-16.9956 -11.827 -3.20876
-16.7425 -12.5157 -0.579983
-15.5591 -12.115 -1.30514
-15.4375 -12.8769 -1.26189
-15.2422 -12.8306 -0.596172
-15.7219 -13.1844 -0.84636
-15.9795 -13.5758 -0.657408
-15.3638 -12.4803 -0.507412
-15.9157 -13.2598 -0.82374
-18.8448 -10.8142 -2.59485
-19.6147 -10.6634 -0.606523
-19.9172 -10.7838 -0.138538
-19.1206 -10.6255 -0.833627
-19.0407 -11.0239 -0.818477
-18.2094 -11.1789 -1.5683
-16.22 -11.6302 -3.01409
-17.4053 -11.9381 1.09602
-16.1485 -12.753 -1.30192
-15.4374 -12.7277 -0.82869
-15.0547 -12.8968 -0.710957
-19.2662 -10.9902 -0.402192
-17.8004 -11.296 0.251138
-18.7273 -11.5712 1.14583
-16.8429 -12.4547 -0.983835
-16.2599 -12.1127 -0.000193381
-15.1503 -12.9615 -0.343938
-15.3846 -13.5613 -0.410287
-15.4433 -12.9808 -0.689735
-15.5361 -13.551 0.0214332
-15.0553 -12.9404 -0.603436
-15.5397 -12.8677 0.333592
-16.4469 -12.0411 -0.888363
-18.5328 -11.2499 -0.780679
-15.6826 -12.0936 -1.08545
-14.6665 -13.3712 -0.698102
-19.4181 -11.6044 -0.589911
-16.3893 -12.7745 0.116932
-17.4256 -11.7792 -1.70275
-15.7412 -12.5174 -1.11617
-16.4445 -10.8402 1.89172
-17.9659 -11.5243 -1.28511
-19.4309 -10.5702 -1.55453
-19.5989 -11.4983 -0.496901
-18.8129 -10.4733 -2.94566
-19.504 -11.3502 -0.787255
-18.5053 -10.9815 -2.13145
-19.1249 -11.217 -0.314877
-18.3876 -11.1075 -2.47792
-19.1563 -10.9283 -0.627963
-18.7954 -11.6882 -0.799106
-18.2158 -10.8876 -2.36101
-18.1858 -11.0374 -2.53296
-18.6492 -11.0676 -1.28234
-18.9344 -12.0389 0.955759
-18.1017 -11.7518 -1.44782
-17.6531 -11.0638 -2.77024
-17.9377 -11.0161 -2.26622
-17.5338 -11.8741 -2.50033
-17.3467 -11.8137 -2.31263
-17.461 -11.7575 -2.94412
-17.4463 -12.0891 -1.33709
-17.2681 -12.0985 -0.608997
-17.2555 -11.9501 -0.639318
-16.7069 -12.5311 -0.832114
-16.009 -12.0327 -1.18397
-16.9333 -12.2037 -0.395836
-16.5995 -12.4175 -1.07939
-16.6223 -11.9884 -0.654617
-16.3427 -12.1433 -1.07562
-16.4969 -12.812 0.0429334
-16.0654 -10.7972 1.41316
-16.0102 -12.6312 -1.41343
-16.0306 -12.5972 0.049673
-14.7695 -12.5479 -2.14077
-15.5064 -11.9104 1.43939
-15.297 -12.8053 -0.885878
-15.5682 -12.8293 -0.513177
-15.7862 -12.7603 -0.026726
-14.6538 -13.5173 -0.912429
-18.9683 -10.5894 -1.78065
-18.439 -11.0053 -2.49727
-18.5686 -11.5225 -2.16634
-17.9499 -11.4402 -2.15326
-19.1115 -11.1106 -1.88199
-18.6171 -11.1484 -2.07549
-18.4935 -10.4999 -2.23458
-18.0938 -11.3429 -2.10556
-18.6213 -11.5788 0.193083
-18.5328 -11.5474 -1.22368
-17.8451 -11.6499 -1.86105
-17.5539 -11.642 0.208454
-17.7689 -11.3264 0.537413
-16.9842 -11.6528 -1.3028
-17.5838 -12.4162 -0.282112
-15.8029 -11.379 -1.52415
-15.9003 -12.6046 0.206234
-15.8628 -12.666 0.349176
-15.741 -12.8874 -0.754007
-15.5267 -12.7416 -0.311271
-15.5541 -12.6189 -0.786675
-15.6089 -13.1286 -0.869703
-15.4498 -12.961 -0.726471
-14.9613 -13.0396 -0.377936
-15.3252 -13.4026 -0.879925
-19.2723 -10.6105 -1.74252
-19.2267 -10.9033 -1.31713
-18.6978 -11.2414 -1.54473
-17.7729 -11.5468 -1.02784
-17.9599 -11.7497 0.716122
-17.3789 -11.778 -1.80236
-16.5086 -11.983 -1.49725
-16.083 -12.3928 -0.470171
-16.7645 -11.6029 -0.61704
-16.6277 -12.4645 0.167604
-15.7129 -12.5601 -0.964323
-15.6797 -12.6864 0.49468
-15.1874 -11.3957 1.69389
-15.3307 -12.8361 -0.845646
-15.4363 -12.5424 -0.581947
-15.2102 -12.8595 -1.3251
-15.62 -12.924 -0.524667
-15.7924 -12.4815 -0.554791
-15.1008 -13.1563 -1.26609
-18.9566 -11.3397 -1.48698
-18.1178 -10.7753 -2.56134
-15.9146 -12.3823 -1.14333
-15.9937 -12.356 -1.31779
-15.4287 -12.0679 -2.13824
-15.5024 -12.9504 -0.807032
-15.3529 -12.9327 -0.464755
-15.5134 -13.447 -0.154264
-15.4549 -13.7742 -1.16844
-14.3202 -13.2894 -1.84402
-18.8166 -10.7572 -2.46242
-18.7863 -10.6892 -1.66826
-19.3014 -11.062 -0.52381
-18.7138 -10.8811 -2.50217
-18.8639 -11.5387 -1.0398
-17.3479 -12.509 -0.48145
-16.6497 -12.1675 -0.52128
-16.4591 -12.211 -0.382111
-16.1691 -12.4874 -0.362132
-16.5763 -12.6555 -1.14944
-16.2001 -12.5322 -0.695181
-15.965 -12.9636 0.315423
-15.742 -11.6826 2.19857
-14.8482 -12.7622 -0.607557
-15.2156 -12.9083 -0.591994
-14.4771 -12.8389 -1.95459
-19.5941 -11.062 -1.00478
-19.1396 -10.9934 -0.541942
-17.6339 -11.5081 0.341175
-15.7907 -11.7186 -1.26382
-16.5307 -12.1681 -1.07205
-16.4432 -12.3854 -0.304323
-16.4519 -12.0318 -0.859428
-16.0027 -13.4061 -0.409595
-15.6124 -12.471 -0.445931
-14.6226 -13.1258 -0.976743
-15.8316 -11.8223 -1.81563
-15.3663 -12.568 -0.957903
-16.2668 -10.7208 1.72318
-16.1783 -12.0027 -0.76291
-16.2566 -12.8787 -0.798558
-14.4397 -12.9034 -2.28142
-16.4723 -12.2142 -0.993991
-19.5176 -11.1288 -0.310189
-18.8608 -10.5049 -2.73378
-18.5535 -11.1977 -1.87549
-18.1022 -10.3318 -2.40741
-18.7307 -11.2066 -2.58131
-17.899 -11.6783 -0.105161
-18.4205 -11.1119 -2.47911
-18.3374 -10.6682 -2.21595
-17.8837 -10.9938 -1.93605
-17.9568 -11.403 0.0145842
-17.7852 -11.4816 -0.265457
-17.5775 -11.3828 0.532299
-18.2066 -11.481 -2.61948
-17.4283 -11.3413 -2.32954
-17.6396 -11.4731 -2.02044
-17.7171 -11.258 -2.73726
-17.12 -12.2064 -0.591436
-16.6132 -12.4818 -0.63892
-15.7121 -12.556 -1.02382
-15.0246 -12.3151 -2.40472
-15.0807 -12.6526 -2.40358
-19.2855 -10.3265 -1.84358
-18.7833 -10.4179 -3.12269
-18.7984 -10.6344 -2.38296
-18.7822 -11.0418 -1.75497
-18.7994 -10.8017 -1.41435
-18.4963 -11.8208 -1.8105
-18.7605 -11.1067 -2.13292
-18.11 -10.9585 -2.35788
-18.7927 -10.796 -2.12339
-18.5216 -11.6636 -1.7572
-17.8007 -11.493 0.755597
-18.3452 -11.3983 -2.40045
-17.9494 -11.7802 -1.94346
-17.7035 -11.8059 -1.61439
-16.9608 -11.5901 -2.74163
-17.2879 -12.4092 -2.42962
-16.7507 -12.0826 -0.98029
-16.6558 -12.1604 -1.02567
-17.0983 -11.7785 -1.00927
-15.6246 -10.9032 1.70865
-16.3353 -12.2145 -0.552931
-15.3978 -11.2885 1.18562
-15.5858 -11.392 1.49324
-15.3033 -12.9779 -0.871386
-15.0239 -13.2429 -0.414762
-19.3315 -11.057 -0.843217
-18.6662 -11.3674 -0.850998
-18.089 -11.4019 1.06984
-18.4388 -11.5289 -1.00279
-18.4447 -10.9549 -2.56093
-18.5626 -11.2929 -1.99313
-17.8662 -11.9521 1.40762
-17.9208 -11.5218 -2.02584
-17.4146 -11.9286 -0.351524
-17.5527 -11.4594 -2.5823
-16.8929 -11.8333 -1.40646
-16.3791 -12.5077 0.366908
-15.9965 -12.5969 -0.0532422
-16.401 -12.5889 -0.415072
-16.0861 -11.9281 -1.51826
-16.4022 -12.2679 -0.416147
-16.4714 -12.4037 -0.998144
-15.6258 -12.7529 -0.427128
-15.0268 -13.1977 -0.592417
-15.7148 -12.9694 -0.116718
-15.4942 -13.4055 -0.247817
-15.666 -13.3876 -0.167813
-15.2143 -12.9733 0.15942
-15.4686 -12.8663 -0.983183
-15.5648 -13.0253 -1.21368
-15.3775 -12.1354 -1.96561
-14.8645 -12.6281 -2.15507
-19.171 -11.1702 -0.329117
-18.8836 -11.0578 0.0229925
-18.639 -10.6773 -1.76127
-19.3114 -11.1178 -1.47049
-18.7265 -11.2948 -0.71716
-17.5022 -11.0488 -0.181959
-17.7319 -11.4157 -3.13183
-16.738 -11.9437 -1.17851
-16.5001 -12.607 0.269959
-16.5517 -12.0664 -0.69752
-16.0956 -12.2687 -0.654926
-16.7312 -12.1198 -1.24247
-15.5126 -11.6706 -1.91946
-15.2254 -12.9974 -0.547241
-15.5727 -12.5329 -0.549044
-15.2849 -12.857 -0.760053
-19.546 -10.5644 -1.29447
-18.8752 -11.2225 -1.73474
-18.9434 -11.3121 -1.43604
-18.8928 -11.6733 -0.0997152
-17.4367 -11.7688 -0.506945
-16.4107 -12.0859 -0.564696
-15.3533 -13.2078 -0.334644
-17.9092 -11.6955 1.46428
-16.866 -12.1642 -0.587054
-16.6637 -12.3218 -0.29954
-17.5065 -12.3046 -0.496526
-16.6219 -11.5744 -1.84592
-15.6116 -12.506 -0.89092
-15.1798 -12.2859 -1.68444
-14.801 -12.3059 -1.72517
-15.2888 -12.3441 -1.83082
-18.4092 -11.4067 -1.45972
-18.9719 -11.8202 -1.17541
-17.5632 -11.6982 0.46077
-17.924 -11.0925 -2.10479
-18.7234 -12.0165 -1.37198
-18.1385 -11.4859 -2.02809
-18.5446 -11.1433 -2.04099
-18.3744 -11.4814 -1.52855
-18.0446 -11.6099 -1.63066
-17.8201 -11.0274 -2.51959
-17.2151 -11.6565 -0.817409
-17.6606 -11.7471 -2.30313
-16.8967 -12.0449 -1.21928
-17.1839 -12.2869 -2.80739
-15.6811 -12.94 0.315118
-15.745 -12.5416 -0.0272154
-15.8008 -11.7556 -1.1833
-15.7348 -12.3813 -1.62035
-15.8121 -11.9307 -2.53567
-15.5922 -11.8584 -2.11896
-14.9971 -13.0514 -0.287613
-15.3717 -12.0353 -2.26838
-15.597 -12.4489 -2.06914
-15.1989 -11.5268 -2.35581
-15.0818 -12.486 -2.51775
-15.0591 -12.3264 -2.37322
-14.9851 -12.1138 -2.09504
-14.8372 -12.2034 -2.20212
-14.5019 -12.0043 -2.43546
-19.748 -10.7136 -0.971288
-18.4512 -10.7599 -1.38864
-19.1048 -11.0928 -1.74505
-17.9895 -11.4901 0.147347
-19.4821 -10.8662 -2.16145
-18.7895 -11.3001 -1.71747
-18.5737 -11.255 -2.00358
-18.583 -11.4331 -1.2054
-18.4391 -11.5506 -1.25021
-16.4995 -12.5162 -1.14932
-15.5464 -12.8566 -1.1273
-17.8521 -11.2663 0.955803
-18.6289 -11.2833 -1.06539
-18.6694 -11.6616 -0.329142
-19.0286 -11.4937 -0.426087
-19.1622 -10.7209 -1.53108
-19.0004 -10.778 -2.54204
-18.4574 -11.4237 -1.24544
-17.203 -12.2374 0.468256
-18.293 -11.1375 -1.92564
-16.8591 -12.0845 -0.15737
-17.7453 -12.0289 -1.68326
-17.9651 -11.2608 -2.8897
-16.7486 -12.4259 0.329132
-16.5025 -12.3542 -0.0413234
-15.5306 -11.5271 1.79505
-16.21 -12.4587 -0.0869695
-16.6533 -12.3487 -0.153095
-16.4789 -12.24 -0.346824
-16.5591 -12.1781 -0.890348
-16.4383 -12.6398 -1.09228
-15.6717 -12.7947 -0.670215
-15.0552 -12.7167 -0.386886
-14.6867 -12.7305 -1.4009
-19.2157 -11.3798 -0.540269
-18.5106 -11.7431 -0.396241
-17.9034 -11.5919 -0.0296576
-17.5832 -11.8595 0.0369421
-16.3891 -12.4121 0.53583
-16.4781 -11.4681 -2.28668
-15.1711 -12.5511 0.199885
-15.5697 -12.7362 -0.477101
-14.8393 -13.6584 -0.723104
-14.6491 -13.2569 -1.82253
-19.0529 -11.113 -0.356466
-17.7388 -11.2755 -1.29799
-17.7076 -11.6325 -1.2779
-16.6821 -12.1559 -0.789935
-15.3069 -11.1208 1.92732
-15.7502 -13.0926 0.0688777
-15.7813 -12.9201 -0.424754
-14.5736 -13.5113 -1.09199
-18.8716 -11.6896 -0.394349
-16.9006 -11.7833 -0.860824
-15.8783 -12.4863 -0.725885
-16.1212 -12.3627 -1.88199
-14.4386 -12.7646 -2.04557
-17.3922 -11.6502 0.724658
-17.828 -11.7331 1.27109
-18.3677 -11.5172 -0.970164
-15.442 -12.5177 -2.20095
-15.2982 -12.1651 -1.50261
-15.5908 -12.3613 -2.09668
-14.2577 -13.3654 -1.60726
-17.3643 -12.2121 -0.553091
-19.1769 -11.6404 0.546205
-19.3593 -11.8033 -0.49109
-19.2988 -11.5564 -0.219642
-17.9733 -11.3497 0.026161
-18.4593 -11.7961 -0.635109
-17.9974 -10.8639 0.488316
-17.4605 -11.9783 0.0985923
-18.8873 -11.325 -1.38444
-18.9333 -10.4511 -2.10182
-19.2046 -11.2707 -1.75025
-18.5462 -11.1304 -1.26476
-19.0413 -10.8143 -1.17742
-18.0602 -11.3148 -1.55949
-17.8751 -11.329 -0.964218
-18.2967 -11.497 -1.21015
-17.9724 -11.6699 -0.636435
-18.4985 -10.5574 -2.84787
-18.6276 -10.8402 -2.53245
-18.0041 -11.0221 -1.81702
-18.2829 -12.1338 -1.34663
-18.4299 -11.2016 -2.15509
-16.6052 -12.4182 -0.0351582
-16.7233 -11.9768 -0.863803
-16.438 -12.1471 -0.639272
-18.3009 -10.7092 -2.49904
-17.6177 -11.716 -1.53673
-17.4136 -11.6623 -2.23604
-17.0532 -11.9979 -1.85961
-17.5163 -11.5859 -1.869
-18.0212 -11.5333 -2.65117
-17.3189 -11.2417 -2.67737
-17.7726 -11.4729 -2.664
-17.2238 -11.3817 -2.34604
-14.9557 -13.358 -0.409032
-16.3019 -11.9579 -3.11293
-15.2836 -11.7705 -2.16302
-20.5203 -11.2307 0.21642
-19.2882 -11.6496 0.0639912
-17.792 -11.6211 1.04859
-18.2117 -11.5123 0.795428
-19.0352 -11.5529 -0.434574
-19.0979 -10.6589 -2.04441
-18.7158 -11.2894 -1.12614
-18.8166 -10.7893 -1.92083
-15.9511 -11.1508 0.929668
-18.4258 -11.2821 -0.969728
-18.5119 -11.4135 -1.62674
-19.4591 -10.7247 -2.57556
-18.8981 -10.6332 -2.26454
-18.7003 -10.8089 -2.38468
-17.9722 -11.1588 -1.71955
-19.0593 -10.4953 -2.38758
-16.4095 -12.3174 -0.0831607
-17.7227 -12.2614 -0.923795
-18.1545 -11.4106 -2.4374
-16.0727 -12.6388 0.556741
-17.0856 -11.7323 -1.26223
-17.1206 -12.4935 -1.38413
-16.132 -12.0471 -0.128766
-17.6923 -11.5868 -1.88042
-16.3421 -12.1727 -0.829958
-16.2047 -12.7417 -0.736001
-16.0075 -12.0452 -0.567593
-16.7761 -12.612 -0.875161
-17.0827 -11.8024 -2.05866
-17.0316 -12.018 -2.4153
-16.4249 -11.8942 -1.61177
-16.2809 -11.8373 -1.17878
-16.0349 -11.4661 -1.45057
-16.5321 -11.6061 -3.03241
-14.9747 -13.1013 -1.04538
-16.6286 -11.9247 -3.32566
-15.6791 -11.4005 -2.08557
-15.2791 -12.3586 -2.02971
-17.8405 -11.1145 1.02843
-19.1048 -11.8956 -0.38573
-19.058 -11.4381 -0.610809
-18.3437 -11.3779 -1.33233
-18.7608 -11.1438 -1.78267
-18.1146 -11.6729 -1.24069
-16.9405 -12.1558 0.396462
-16.8181 -12.1864 -0.0678603
-16.2255 -12.6948 0.57919
-18.53 -11.388 -2.16396
-16.58 -12.2721 0.224966
-16.4993 -12.3382 -0.388529
-18.1625 -10.8109 -2.56242
-16.934 -12.3137 -0.873081
-17.4204 -11.3978 -2.46814
-16.5269 -11.783 -0.854619
-17.7855 -10.9891 -2.13127
-15.4166 -12.6113 -0.169187
-15.0433 -13.0335 -0.758521
-14.9472 -12.4441 -2.02221
-19.3645 -11.5014 0.552349
-19.8281 -10.9984 -0.408264
-19.3331 -11.7242 -0.547741
-18.7404 -11.7807 -0.679386
-18.4365 -11.0875 -1.62531
-19.2144 -10.9868 -1.54579
-17.0534 -12.0581 0.286039
-16.2353 -12.1926 -0.0306451
-16.5305 -12.557 -0.513558
-16.4474 -12.1457 -0.077826
-16.2375 -12.2272 -0.609931
-17.4354 -11.6301 -2.46282
-15.7602 -12.9863 -0.154513
-15.4489 -12.8684 -0.48993
-15.55 -11.7619 -2.71116
-14.5692 -12.3422 -1.69161
-15.4428 -11.9262 -2.40629
-14.5595 -12.3155 -2.74598
-15.1472 -12.0592 -2.44555
-19.6728 -11.2662 0.698682
-18.6539 -11.7163 -0.663183
-17.4042 -11.424 0.0535293
-15.8795 -10.9289 1.37391
-17.4992 -12.332 -1.25538
-16.3873 -11.9303 0.313002
-16.5475 -12.4394 -0.12156
-16.5213 -12.6834 -0.255059
-16.0215 -12.3467 -0.717972
-15.7419 -12.5257 -0.935887
-17.6565 -11.6489 0.896903
-18.7899 -11.6263 -0.246386
-16.9622 -12.3692 0.187205
-17.2302 -12.6744 -0.716492
-16.2616 -12.9156 0.229592
-16.466 -12.553 -1.53081
-16.4361 -12.821 -1.56559
-17.8453 -12.2019 0.651076
-17.7569 -11.7689 0.462545
-16.5402 -12.4645 -0.389953
-17.0069 -11.9813 -1.35007
-16.8871 -12.7874 -0.151304
-17.2285 -12.5221 -0.988162
-14.8018 -13.1254 -1.31779
-19.44 -11.471 0.240034
-19.0443 -11.469 -0.526652
-19.632 -11.0366 -0.386991
-19.6156 -11.2857 -0.431303
-19.0744 -11.7191 -0.698285
-15.733 -10.9166 1.72008
-18.8334 -11.7209 -0.229765
-18.8475 -11.2565 -0.425148
-15.4107 -11.3409 1.67945
-18.8059 -11.6908 -0.526113
-17.3463 -11.9025 0.432278
-17.9836 -11.6805 0.187637
-18.4088 -11.6625 -1.06123
-19.0865 -11.3313 -0.321375
-19.328 -10.4272 -0.459835
-17.4078 -12.3112 0.478042
-17.6013 -11.651 0.280921
-18.7059 -11.1121 -0.990638
-19.096 -10.7996 -0.833734
-18.5827 -11.7648 -0.494509
-16.9995 -12.5175 0.317117
-19.0897 -10.9697 -1.03082
-18.8368 -11.2357 -1.74123
-17.2783 -11.8278 -0.285302
-17.96 -11.4825 -0.777221
-15.8452 -12.88 0.530308
-18.9404 -11.3504 -1.25989
-18.6631 -10.8268 -1.84987
-19.6396 -11.0833 -1.55349
-18.5833 -11.1904 -1.4304
-18.6086 -10.7884 -2.15725
-18.622 -10.8893 -1.35567
-18.8049 -10.2237 -1.59539
-18.9571 -10.881 -1.89319
-18.4604 -11.0558 -2.2756
-18.2564 -11.2548 -1.15742
-16.1137 -12.3056 0.0764223
-19.3496 -10.2743 -1.8763
-18.502 -11.8395 -1.31391
-16.7353 -12.2467 -0.696128
-16.4415 -12.616 -0.252157
-18.7327 -11.2792 -1.64501
-18.6424 -10.7872 -2.33689
-18.1371 -11.6113 -1.71079
-18.9871 -10.889 -2.11155
-19.2186 -10.5881 -2.27654
-16.3524 -12.3563 -0.634819
-19.2803 -11.1865 -2.4683
-18.3538 -11.4426 -1.74694
-18.8275 -10.6165 -2.40448
-17.6294 -11.0158 -2.06415
-18.3385 -11.025 -2.23494
-17.471 -11.8539 -1.83362
-18.4368 -10.1706 -2.40889
-19.0869 -10.4286 -2.31342
-18.7484 -10.5017 -2.4386
-18.7115 -10.661 -2.47633
-16.5305 -12.4767 -0.723471
-19.0954 -10.9203 -2.8711
-17.0444 -11.9939 -1.89772
-18.5176 -11.8416 -1.73251
-18.3304 -10.936 -3.00954
-15.5255 -12.7175 -1.38927
-17.7045 -11.9803 -2.63624
-14.8301 -13.4343 -0.704494
-15.5245 -12.934 -0.912379
-18.2563 -10.7443 -2.27087
-17.7928 -11.2894 -2.03954
-17.3522 -11.1425 -2.6243
-18.0283 -10.936 -2.92812
-17.2395 -11.3554 -2.54557
-17.5052 -11.6867 -2.26069
-16.9324 -11.7716 -2.0852
-16.8214 -11.541 -3.0403
-17.6407 -11.3475 -2.79789
-17.5693 -11.8037 -2.5268
-17.2158 -11.6235 -2.92424
-19.8035 -11.5222 0.578166
-16.9235 -11.3273 1.76865
-18.0072 -11.6157 0.885517
-19.4345 -11.5625 0.0177328
-19.463 -10.7814 -0.438714
-19.4893 -11.1999 -0.575436
-18.9528 -11.9649 0.195787
-19.3015 -11.5642 -0.553797
-19.0462 -11.6544 -1.20727
-19.0995 -11.3313 -1.10815
-19.1361 -10.9814 -0.788842
-19.0361 -11.0561 -1.31589
-15.9169 -12.879 0.441203
-16.4679 -12.9459 0.606208
-18.5779 -11.3749 -1.31345
-19.3716 -10.8247 -1.55534
-18.896 -11.4796 -1.60652
-19.2529 -10.8209 -1.77004
-17.2414 -12.2763 -0.507899
-18.1906 -11.3484 -0.577162
-18.5772 -11.1325 -1.42821
-18.2116 -12.1618 -1.2927
-16.9152 -12.095 -0.897739
-18.1376 -11.7753 -1.26183
-16.8479 -11.9169 -0.49775
-16.6066 -12.463 -0.131813
-18.6198 -10.7564 -2.27031
-18.5802 -10.8905 -2.40583
-18.1829 -11.4061 -2.21214
-16.1271 -12.3547 -1.36313
-18.7389 -10.935 -2.31051
-16.519 -11.5104 -1.1925
-18.16 -10.969 -2.80399
-17.8348 -11.4881 -2.58177
-17.7257 -11.3823 -2.15893
-18.0937 -10.7062 -2.63801
-18.5466 -10.6123 -2.15075
-17.6478 -11.5288 -1.81327
-16.3195 -12.2401 -1.13201
-18.3432 -10.9059 -2.73368
-17.8255 -11.7979 -2.6393
-17.4269 -11.1784 -2.81956
-17.594 -10.962 -2.89605
-18.3428 -11.3434 -2.88796
-16.3759 -11.5007 -2.45953
-14.6554 -13.0446 -1.44142
-16.8993 -11.6822 -2.66261
-15.5286 -12.1357 -1.94615
-17.1567 -11.3508 -3.05511
-17.3027 -11.4705 -2.57385
-15.3221 -12.7235 -1.43758
-17.0618 -11.7009 -2.79418
-15.7882 -11.6248 -2.03942
-15.1017 -12.4172 -1.82291
-14.2123 -13.4001 -2.14353
-19.3518 -12.086 0.587537
-18.1661 -11.509 0.606088
-19.4533 -11.6652 -0.0339385
-18.3583 -11.5048 0.697669
-17.8477 -11.5337 0.459049
-18.8196 -11.1701 -0.867879
-17.8082 -11.5536 -0.219377
-17.5356 -11.3803 -0.0902755
-18.2461 -11.9341 -0.309458
-18.7394 -12.0014 -0.416749
-16.9545 -11.8286 0.239685
-16.2047 -12.7815 0.659514
-18.434 -11.1957 -1.65367
-19.0802 -11.1927 -1.15342
-18.8429 -10.9567 -1.54312
-18.5216 -11.1637 -1.15432
-17.6881 -11.5721 -1.42545
-17.4188 -12.097 -0.652815
-17.5258 -11.2447 -1.2356
-19.006 -10.3949 -2.44374
-16.6447 -12.2018 -0.488895
-18.9926 -10.8395 -2.13359
-15.9008 -13.0415 -0.103308
-15.5175 -13.5094 -0.446217
-18.6433 -10.9171 -2.23623
-15.2585 -13.3419 -0.419034
-14.9452 -12.9067 -0.88339
-17.1885 -12.0219 -2.55464
-15.6894 -12.6591 -1.5027
-17.1465 -10.9131 -2.61705
-15.5905 -12.0068 -2.52719
-15.5286 -11.6 -2.64117
-18.9049 -11.8224 0.362958
-16.8987 -11.999 0.121364
-17.8402 -11.3361 -0.0790264
-17.4465 -11.583 -0.51532
-16.5861 -12.6733 0.201236
-19.2856 -10.74 -2.18991
-17.8705 -11.9942 -0.734741
-18.4895 -11.4923 -0.754931
-18.7566 -11.0879 -2.14526
-17.4035 -11.4078 -2.54302
-15.6897 -12.5076 -1.8958
-15.8818 -12.329 -2.04153
-15.5337 -12.4925 -2.12839
-19.4182 -11.4884 -0.427965
-18.9768 -11.7776 -0.533391
-18.6052 -11.6552 -0.820254
-18.8956 -11.2756 -0.77787
-18.398 -11.4129 -1.00733
-18.7746 -11.5863 -1.39798
-18.0792 -11.7732 -1.78912
-18.4383 -11.4298 -1.58293
-17.5565 -11.9187 -1.73274
-17.5255 -12.0808 -2.09799
-17.0379 -12.3212 -2.39488
-16.5267 -11.4283 -2.39122
-15.1285 -12.3193 -1.58281
-15.3739 -12.1323 -2.27363
-14.8488 -12.8577 -2.10535
-13.0907 -13.9889 -2.74797
-15.5153 -11.0347 1.93625
-16.2336 -12.2819 -0.5307
-16.9884 -12.4205 -0.872581
-17.9888 -11.3895 -2.79001
-15.5305 -11.4154 -2.52002
-16.8215 -12.1483 0.220964
-18.2815 -11.6733 -0.684202
-16.2636 -12.4473 -1.29358
-17.0109 -12.2574 -2.54062
-16.2354 -11.4785 -2.81176
-18.6408 -11.6229 -1.2968
-17.1127 -12.4212 -1.33623
-16.6073 -12.268 0.102561
-15.5776 -12.5082 -1.92804
-16.8682 -11.8411 -0.600888
-15.289 -13.0967 -0.978479
-15.4376 -12.2435 -1.70099
-15.4475 -12.0332 -2.44659
-15.8769 -11.981 -2.21012
-15.7948 -11.8556 -1.53035
-15.9871 -11.9322 -2.3507
-17.4331 -11.2195 -2.73214
-18.5237 -10.9434 -2.6315
-17.6176 -11.5439 -2.06348
-16.775 -12.1063 -1.75708
-16.7653 -11.8725 -1.66745
-18.6262 -10.6381 -1.8666
-18.4355 -11.4276 -1.36121
-18.0633 -10.9143 -1.4634
-19.289 -11.1859 -1.26147
-17.7587 -11.5635 -0.478708
-18.1962 -11.5047 -0.988679
-18.1551 -11.4571 -1.08519
-16.771 -12.1955 -0.328109
-17.5903 -11.5082 -0.391073
-16.8251 -12.4194 -0.089505
-17.5443 -11.2294 -0.148966
-17.5946 -11.5666 -0.514627
-19.4558 -11.3524 -0.499535
-18.7671 -11.3324 -0.878972
-18.6505 -11.52 -0.221198
-17.7874 -11.5561 -0.00646375
-18.5373 -11.6704 -0.0121505
-18.8791 -11.1517 -0.115118
-18.9915 -11.7215 -0.345081
-19.0913 -12.0717 -0.173538
-19.9705 -11.0193 0.134095
-18.8439 -11.478 -0.359566
-19.484 -11.1556 -0.4534
-18.7298 -11.4404 -0.11103
-17.6853 -11.4521 0.490559
-17.6807 -11.5517 0.0935422
-17.7062 -11.6307 0.21442
-19.6277 -11.2474 0.288009
-18.8794 -11.7681 0.0395827
-19.4082 -11.3953 -0.518603
-19.5012 -11.0989 0.197796
-19.3526 -11.3997 0.369221
-19.9817 -11.3777 -0.247545
-19.2843 -11.8126 0.871546
-18.3883 -12.1304 0.188558
-15.6965 -11.36 1.36379
-19.1803 -11.9937 0.529184
-18.1474 -11.6405 1.17325
-16.0237 -11.7442 -2.29113
-17.1123 -11.5446 -1.47002
-14.9697 -13.3207 -1.17714
-15.4446 -12.9579 -0.811512
-18.9413 -10.6698 -1.68958
-18.372 -11.5167 -0.898036
-17.9299 -11.4436 -1.27842
-18.8755 -11.2254 -1.2544
-18.7861 -11.5603 -0.93197
-18.6877 -11.7655 -0.791314
-18.2445 -11.5682 -0.91063
-19.1266 -11.0928 -0.749459
-15.9446 -12.5286 -0.117552
-18.6059 -11.6702 -0.702327
-18.8109 -11.7111 -0.302642
-15.7248 -12.7117 0.989089
-15.6445 -12.9655 0.551305
-19.7798 -10.7136 -0.379681
-19.0484 -12.1802 -0.0442856
-16.0529 -10.7961 1.77368
-16.083 -10.8665 1.57579
-16.8025 -11.031 1.29804
-18.6685 -10.9118 -1.17172
-18.0052 -11.4169 -1.12796
-17.9278 -11.78 -0.450033
-18.4848 -11.9322 -0.612577
-18.9174 -11.9842 -0.444161
-18.1308 -11.28 0.255253
-15.5186 -12.7968 0.202424
-17.1932 -12.0752 0.343887
-19.6144 -11.4822 -0.216382
-19.3401 -11.4443 0.262025
-17.3062 -11.9415 -2.23613
-17.8333 -11.2007 -1.20979
-18.0317 -11.4915 -0.980711
-18.2176 -11.431 -1.19611
-18.143 -11.5335 -0.927404
-18.0845 -11.7696 -0.754152
-18.6854 -11.7535 -0.471174
-19.5394 -11.3376 -0.414689
-15.7444 -10.6885 1.64052
-16.5309 -10.7122 1.80168
-16.7334 -11.9979 -1.69874
-17.8745 -11.1173 -0.787668
-18.1582 -11.5966 -0.657367
-17.8685 -11.5425 -0.112434
-19.5596 -11.9159 -0.0246388
-17.8976 -11.6931 0.787069
-17.4286 -11.6233 0.469585
-16.6779 -11.8409 -2.86506
-16.6097 -11.9377 -2.02313
-18.9873 -11.2878 -0.461835
-15.59 -12.7454 -0.0934013
-18.8984 -11.3691 -0.830535
-16.4707 -12.4469 0.0702918
-19.5233 -11.4132 0.586561
-18.4213 -11.7815 1.26602
-18.1652 -11.2401 -0.960753
-16.9899 -12.2076 -0.483676
-15.3654 -13.0862 -0.523575
-16.3493 -11.9414 -0.0731829
-16.8236 -12.3713 0.743837
-17.5149 -11.436 0.222653
-18.4874 -11.6731 -1.08182
-16.0233 -12.4345 -0.0205699
-15.5168 -12.7429 -0.827603
-16.4406 -12.4034 -0.302077
-16.6378 -10.4278 1.67795
-18.5872 -11.3512 -0.799901
-19.1411 -10.8874 -2.49967
-18.0879 -11.1761 -2.34492
-15.5249 -12.0441 -2.24661
-16.3907 -11.7923 -2.14238
-18.0776 -11.6289 -1.96603
-19.367 -10.7403 -1.86068
-18.9952 -11.292 -1.87315
-17.499 -11.8012 -2.1398
-18.8502 -11.4359 -1.09754
-19.4429 -10.8768 -1.21022
-18.4709 -11.5389 -1.24964
-18.3255 -11.6477 -1.65713
-18.4168 -11.4533 -1.68343
-19.1172 -11.3047 -1.32612
-16.4052 -12.4016 -0.796283
-18.9669 -11.1985 -1.04511
-19.4985 -10.9384 -0.435072
-18.6329 -11.9207 -0.61851
-18.8918 -11.3784 -0.360057
-18.6413 -11.9305 -0.635774
-18.0827 -11.7332 -0.0522604
-18.7024 -11.6405 -0.473603
-19.0783 -11.3249 -0.63188
-19.1038 -11.5543 -0.156008
-15.7008 -12.5998 -0.0365407
-19.1574 -12.0257 0.117733
-19.3442 -11.6989 0.281714
-17.6429 -11.7699 0.0517221
-19.838 -11.0653 0.0140458
-19.224 -11.309 0.451245
-16.2892 -12.4012 0.507232
-15.9414 -12.6109 0.046987
-15.8862 -12.8405 0.423327
-19.2456 -11.1364 0.595891
-17.7003 -11.1957 0.977607
-16.3839 -10.8158 1.65399
-17.305 -11.3119 -3.09463
-18.3874 -10.6921 -2.2887
-15.6963 -11.7142 -2.08189
-18.6994 -11.5115 -0.83865
-17.968 -11.6179 -0.589964
-14.4672 -13.4055 -1.05674
-16.2447 -12.078 0.0584339
-18.9667 -11.2185 -0.163687
-18.6006 -11.9208 -0.335273
-18.9831 -11.4065 -0.0845154
-19.23 -11.3218 0.427194
-17.8944 -11.3638 0.849693
-18.8905 -12.1101 0.614927
-18.2993 -11.553 1.00145
-18.2518 -11.2474 1.04658
-16.9522 -11.738 -2.25617
-19.0244 -11.349 -1.02934
-19.5141 -11.291 -0.14454
-16.4782 -12.4162 -0.455356
-16.1613 -12.7226 -0.46454
-18.9418 -11.4185 0.120185
-15.7147 -12.7728 0.531784
-18.923 -11.4565 0.0980543
-18.298 -10.9308 1.7564
-15.7868 -11.1647 1.58082
-14.7745 -11.8135 -2.10907
-15.7375 -12.3296 -1.47713
-18.0151 -11.429 -1.39012
-17.1723 -11.5091 -0.860589
-15.041 -13.0228 -1.18826
-15.8194 -13.074 -0.000897334
-19.2195 -11.2495 0.651229
-18.8224 -11.8429 -0.769334
-18.9017 -11.441 -0.198421
-18.0292 -11.6518 1.38616
-15.4993 -11.2028 1.85879
-18.5238 -11.7452 -1.67665
-18.9065 -11.1142 -0.936668
-17.8604 -11.7912 0.369045
-16.8011 -11.5613 -0.909732
-19.0695 -11.4285 -0.45795
-18.1196 -11.4138 -0.722879
-16.7201 -12.8646 0.168258
-16.2588 -11.0315 1.1307
-15.632 -12.2503 -1.84255
-17.903 -12.0228 -0.0716784
-17.8991 -11.0085 -2.10664
-19.6286 -10.5149 -1.74614
-19.301 -11.1172 -0.705303
-19.481 -10.7207 -0.178794
-19.2432 -11.7156 0.0951244
-19.1737 -11.8082 0.696761
-18.9565 -11.9506 0.50849
-17.8892 -11.258 0.661788
-17.9269 -11.6789 0.960454
-18.7024 -10.7782 -2.71416
-19.1977 -11.3134 -1.24607
-18.1244 -11.3417 -1.16569
-18.8019 -11.5246 -0.440354
-17.6012 -11.9304 -0.246286
-15.3981 -12.6938 0.443624
-17.2051 -12.2736 -1.27274
-19.5137 -11.4891 0.0172008
-16.3092 -11.4264 -2.55841
-17.6159 -11.826 0.305093
-16.3205 -12.0248 0.245312
-15.623 -12.975 0.469707
-17.9604 -11.777 -1.13053
-17.0895 -11.8183 -0.924435
-18.6608 -11.3686 -0.503699
-18.5695 -11.4142 -0.0478348
-16.5979 -12.4563 -0.361153
-16.1969 -12.5614 -1.59188
-19.1691 -10.9015 -0.636834
-15.623 -12.7939 -1.92055
-18.0755 -11.6398 0.53047
-15.3086 -13.0701 -0.840606
-16.1175 -13.4483 0.491767
-19.3098 -10.8891 -0.922074
-19.5913 -11.4953 -1.48377
-18.559 -11.614 -0.0655375
-18.7634 -11.7722 -0.443534
-17.8822 -11.3499 0.821388
-18.2982 -11.0148 0.971543
-17.6646 -11.7012 -0.181786
-16.1476 -12.1113 -1.74328
-19.3455 -11.2887 -0.513038
-19.2363 -11.1895 -0.844054
-17.9828 -11.5622 -1.31512
-18.0574 -11.3532 0.0906851
-15.3809 -13.1432 0.178991
-19.207 -10.8389 -0.901791
-17.6914 -11.7224 -0.1738
-16.1163 -12.413 -1.4529
-16.3083 -12.2516 0.142057
-15.336 -13.1714 -0.45818
-15.2791 -13.0524 -0.105958
-15.4606 -13.0071 0.00117619
-19.2579 -11.0774 -0.760048
-19.666 -11.2108 -0.699535
-17.5629 -11.7078 0.82095
-17.8462 -11.3685 1.07303
-15.4982 -13.6995 -0.638791
-19.5103 -11.1357 -0.628053
-19.4002 -10.8633 -0.935098
-19.1417 -11.2168 -0.470601
-18.4301 -11.3175 -2.07928
-17.1277 -11.4046 -3.039
-16.8657 -12.2551 -2.88443
-17.498 -11.7697 0.645109
-15.7676 -12.4846 -1.70618
-15.6475 -12.1101 -1.44808
-16.7164 -12.2306 -1.08779
-16.2868 -12.3203 -1.98438
-17.0653 -11.6181 -0.77122
-16.742 -12.4397 -0.680292
-16.4136 -12.756 -0.459589
-16.4024 -12.543 -0.21004
-15.9453 -12.8745 -1.17067
-16.8846 -12.6034 -0.167275
-15.2633 -12.9469 -0.820965
-15.5127 -12.7867 -0.579345
-16.5361 -12.1091 -0.774536
-16.6883 -12.6766 -0.836585
-15.7326 -12.826 -0.0651911
-15.7733 -13.1223 -0.221699
-15.536 -13.5264 -0.0753079
-15.0298 -13.0785 -1.15782
-17.2992 -11.5265 -1.45369
-16.547 -11.8069 -2.32487
-18.7962 -11.3816 1.17357
-15.2977 -13.2324 -0.409346
-17.1098 -12.2062 -2.40914
-18.9203 -10.744 -2.58479
-19.3171 -10.8207 -0.66139
-18.9543 -11.0347 -0.418869
-18.3087 -11.0912 -2.62781
-18.7722 -11.2825 -0.720881
-17.2232 -11.9412 -0.750596
-16.7394 -12.2421 -0.987104
-16.1425 -12.5549 -0.218728
-15.3545 -13.0686 -0.351765
-19.1728 -10.628 -2.70728
-18.26 -11.4519 -2.90341
-17.4079 -11.6405 0.192186
-16.7025 -12.3694 -0.310355
-16.4524 -12.6116 -0.568734
-16.0022 -10.7984 1.917
-15.1068 -12.5408 -0.474613
-15.6502 -12.9748 -0.986908
-13.8098 -13.5425 -3.29634
-19.221 -11.1017 -1.62867
-18.8541 -11.3942 -1.4704
-18.5439 -11.3452 -1.61687
-18.3229 -11.2027 -1.55521
-17.5813 -11.4763 -2.10329
-16.7515 -12.3936 -0.958956
-16.1758 -12.6327 -0.816482
-15.5511 -12.1769 -1.52319
-16.5815 -12.5286 -0.855507
-15.3896 -12.9484 -0.835568
-15.5939 -12.9269 0.112239
-17.3528 -11.177 -3.23396
-17.9696 -11.442 1.16044
-14.9537 -12.9788 -0.699021
-14.9306 -13.4362 -0.877296
-14.8073 -13.0775 -0.818109
-15.8406 -10.6511 2.38148
-15.7654 -12.5231 -0.737791
-19.5838 -11.1719 -1.1457
-18.4578 -11.0763 -2.56325
-18.1046 -11.4928 -1.03365
-17.3885 -11.0949 -2.40911
-17.0878 -11.3838 -3.08829
-17.5673 -11.9261 0.121032
-17.5486 -11.2977 -0.378037
-17.3958 -12.2878 0.287935
-15.5356 -12.9697 -0.863858
-15.5116 -12.4694 -0.566193
-19.0147 -10.5354 -2.60317
-18.7076 -10.9721 -2.49036
-17.5631 -11.3146 -2.9117
-17.6844 -11.4699 1.1976
-17.9162 -11.8544 0.933305
-16.1852 -12.135 -0.471077
-16.5354 -12.1097 -0.904948
-16.1768 -12.1049 0.0699136
-16.316 -12.2912 -0.316254
-16.7002 -12.2848 0.0441582
-15.3361 -12.9492 -0.800887
-15.4544 -13.1512 -0.870697
-14.9855 -13.2825 -1.01843
-15.909 -12.7581 0.0754252
-18.5764 -10.9568 -1.94849
-17.6888 -10.8002 -2.84919
-17.9119 -10.9259 -1.3246
-18.3948 -11.5928 0.614421
-16.6397 -12.1912 -0.58216
-16.2705 -11.9255 -0.672286
-15.4842 -12.7888 -1.65848
-15.2972 -11.5673 1.45582
-14.7831 -13.0409 -0.991218
-19.2883 -10.8289 -2.04961
-19.2293 -11.0138 -1.69861
-19.5269 -10.9141 -0.458928
-17.8023 -11.8169 -0.347427
-17.7632 -11.787 0.479275
-16.4657 -12.7251 0.0708159
-16.7763 -12.2385 -0.873512
-15.2609 -12.0413 -1.71509
-15.334 -12.6095 -0.625475
-15.7538 -13.1596 -1.02073
-16.5596 -12.7177 -0.918797
-15.5981 -12.4215 -0.949985
-15.125 -13.4712 -0.397332
-17.7766 -11.4149 1.09764
-18.2263 -11.8233 0.27568
-16.074 -11.5763 -2.10509
-15.8842 -12.6587 -0.710032
-15.3776 -13.0532 -1.17278
-14.6884 -13.2401 -1.26838
-18.374 -11.2832 1.09249
-18.4165 -10.7855 -2.62444
-18.4673 -11.0395 -1.37194
-18.425 -11.3129 -1.29681
-19.2661 -11.3845 -2.24346
-18.2768 -10.9547 -1.71191
-18.1345 -11.74 0.77318
-17.183 -11.727 -2.48343
-17.5572 -12.136 -1.59593
-17.3101 -11.5931 -2.76474
-16.3351 -10.9888 2.09312
-15.6904 -13.5717 -0.131011
-15.1735 -12.8755 -0.303327
-15.4085 -13.2294 -0.567008
-15.3187 -12.9475 -1.0452
-14.8945 -12.3209 -2.12239
-19.3045 -10.6025 -2.40104
-18.9745 -11.1794 -1.43546
-18.7427 -10.7464 -2.37119
-18.9864 -11.0684 -0.913723
-18.3814 -10.4814 -2.15401
-18.1955 -11.2263 -2.45086
-17.726 -11.0871 -2.75223
-17.9177 -11.4975 -1.64376
-17.814 -11.7806 0.959482
-17.6677 -11.6402 -2.76183
-15.7458 -10.8867 1.64563
-16.7227 -12.6166 -0.253547
-16.469 -11.8414 -1.05028
-16.4228 -12.3951 -0.259844
-16.3916 -11.4173 1.31725
-16.3519 -12.3453 -1.13789
-15.7251 -11.3043 1.41607
-15.6622 -12.7781 -0.390463
-15.0306 -13.3702 -0.0280806
-15.3668 -12.6953 -1.87589
-15.3221 -13.2921 -1.05802
-15.5875 -12.8786 -0.45189
-15.5714 -12.8802 -0.972688
-15.3063 -13.4046 -0.546458
-19.4394 -10.749 -1.43227
-19.1383 -11.1762 -0.858172
-18.2106 -10.8054 -2.74115
-18.1833 -11.1802 -1.49155
-18.291 -11.5621 -1.81913
-17.7583 -11.6999 -2.87651
-16.6707 -12.1939 -1.2542
-15.7467 -11.5407 -1.80072
-17.0177 -12.1273 -0.806705
-16.0851 -12.3289 -0.763612
-16.4798 -12.904 -0.746697
-15.8269 -11.3212 1.62321
-15.8731 -12.983 -0.0876422
-15.4901 -13.0228 -0.580226
-15.5506 -13.1743 -0.812123
-18.5473 -11.1403 -1.44484
-18.5191 -10.7128 -2.26866
-17.911 -11.237 0.406065
-16.568 -12.3876 -0.723067
-16.4817 -12.3206 -1.08954
-16.4588 -12.3671 -1.10149
-16.6831 -12.7216 -0.943725
-15.5711 -12.4153 -1.72481
-15.9034 -13.018 -0.426485
-15.2936 -13.0356 -0.630161
-16.6172 -12.4074 -0.850157
-15.8428 -11.7158 -1.8593
-15.6572 -13.4802 -0.127016
-17.9186 -11.1488 0.290757
-14.7512 -13.2912 -0.804068
-18.8518 -10.4492 -2.46883
-19.2364 -11.0505 -1.68101
-18.7434 -10.7891 -2.10243
-18.5605 -11.2602 -1.66072
-18.3272 -11.4878 -1.7088
-18.2041 -11.3571 -1.95543
-17.8057 -11.3227 -3.01212
-18.1194 -11.2761 -2.8773
-17.0634 -11.9829 -0.67301
-17.3121 -11.6026 -3.17489
