-15.7729 -11.1845 1.76323
-17.3013 -11.4911 -2.25707
-16.1878 -11.9835 -2.16375
-16.0459 -11.7571 -2.16457
-16.2792 -12.0774 -1.56724
-14.5672 -13.359 -2.68275
-13.515 -13.8681 -2.96636
-14.8871 -12.0964 -2.10287
-16.6986 -11.423 -0.854044
-15.6014 -12.174 -1.41121
-16.2408 -12.0385 -1.08348
-16.0668 -12.2966 -0.824669
-17.296 -11.9669 -0.974922
-19.4587 -12.1845 0.102367
-19.8953 -10.8246 -0.331984
-19.5313 -11.4892 -0.267547
-19.9659 -10.9273 -0.211096
-19.8035 -11.0918 -0.265455
-18.9158 -11.1487 -0.213484
-20.0684 -11.3834 -0.101414
-15.7995 -13.1068 -0.822152
-16.7377 -12.2756 -0.415603
-19.7174 -11.0292 0.466292
-16.583 -12.6084 -0.352244
-17.6066 -12.04 0.161511
-19.0409 -11.7612 0.100404
-15.7465 -12.9027 -0.00187704
-17.8844 -11.8597 1.17135
-18.4816 -10.8399 -2.98726
-15.9389 -11.6869 -1.64061
-16.0679 -11.9139 -2.14886
-15.7493 -11.9635 -2.17747
-15.9295 -11.8135 -1.52233
-18.7682 -11.2391 -1.77707
-17.3726 -12.0034 -2.1643
-19.159 -11.0086 -1.06968
-14.6677 -12.9014 -1.57286
-19.652 -11.1528 -0.788144
-18.3313 -11.6211 -0.437087
-15.0292 -12.1678 -0.912776
-18.7683 -11.6211 -0.422845
-19.2748 -12.127 0.352039
-15.7344 -12.5637 -0.850525
-14.8893 -13.2872 -1.09449
-17.4148 -11.8522 -0.0507718
-16.988 -12.4831 -0.150185
-19.0098 -10.6554 -1.22654
-14.5266 -12.2578 -2.07523
-14.689 -12.8996 -2.26892
-15.5277 -12.6969 -1.65299
-18.9118 -11.5688 -1.12886
-15.6197 -12.3975 -1.07253
-15.324 -12.3146 -0.970624
-15.6256 -11.9152 -1.54289
-17.0981 -12.3215 -1.27704
-19.6765 -10.9973 0.122849
-18.1584 -11.6807 0.0308853
-16.1058 -12.6635 -0.0396353
-17.8855 -11.4049 0.582607
-19.187 -11.7904 0.596741
-17.458 -11.5165 -2.91281
-14.0203 -12.9404 -2.27298
-14.8534 -13.662 -0.0658576
-16.7136 -12.1379 -1.74675
-17.7286 -11.581 0.423458
-17.1633 -11.8674 -0.654724
-18.352 -11.6047 1.23675
-15.778 -10.9537 1.59218
-15.9301 -12.5669 -0.830707
-18.2006 -11.5589 -0.17785
-17.6068 -11.7057 -0.984964
-17.467 -11.5996 -1.53269
-18.8891 -11.5553 -0.0508761
-18.4457 -11.3231 -2.44477
-18.9676 -10.1838 -2.48063
-18.9694 -11.3418 -2.50231
-19.3896 -11.2397 -0.76449
-19.6268 -11.0454 -0.146338
-19.6638 -11.5373 -0.122428
-18.0496 -11.4011 -0.883531
-19.4564 -11.511 0.546041
-15.5103 -11.7707 -2.22179
-18.9993 -12.0676 0.197938
-19.35 -11.4153 0.557416
-17.2745 -11.9769 -1.45586
-17.4064 -11.6811 0.3607
-16.2879 -12.3226 -1.15154
-16.3741 -12.2578 -0.884246
-14.708 -12.8695 -1.81919
-17.8882 -11.5397 0.850413
-14.7667 -12.8091 -1.89276
-16.9546 -11.7325 0.596092
-17.3283 -12.1719 0.781263
-14.0101 -13.3826 -2.87742
-15.9423 -13.4516 -0.784882
-16.0635 -12.6576 -0.769445
-16.1127 -11.0966 1.1087
-15.1557 -13.1063 -0.71155
-15.6273 -14.1254 -0.616023
-15.7268 -10.7583 1.36064
-16.1199 -10.7868 1.67577
-15.8957 -10.9319 1.39979
-15.7379 -11.6427 1.54624
-16.2663 -13.0719 0.571213
-14.9895 -11.1208 1.67401
-19.0857 -10.3025 -2.28259
-19.8839 -11.064 -0.819527
-18.4736 -11.2434 -1.63553
-17.8588 -11.3426 -2.16741
-18.8345 -11.3074 -0.408957
-18.013 -11.3973 -1.14752
-18.7358 -11.6655 -0.821115
-18.797 -11.9776 -0.829943
-19.2799 -11.752 0.298879
-18.4227 -12.2338 -0.181934
-16.2405 -11.5252 -2.19745
-17.2616 -11.9008 -1.1148
-18.7857 -11.8452 -0.053613
-19.3601 -11.5724 0.438941
-15.6893 -12.1871 -1.21679
-15.8703 -12.0499 -1.65085
-16.3988 -12.4206 -1.07365
-18.2163 -11.8734 0.938323
-16.4563 -12.5253 -0.310813
-16.2387 -12.2803 -0.524344
-17.1442 -11.8458 0.102524
-15.5805 -12.3411 -1.34538
-16.3096 -12.5462 -0.307835
-14.973 -13.0979 -1.30887
-17.2201 -11.2839 -3.03156
-18.9571 -10.9942 -1.11779
-18.5627 -11.266 -1.52614
-18.4487 -11.7633 -0.965548
-18.8774 -11.4918 -1.19307
-18.6331 -11.96 -1.02804
-19.4942 -11.9574 0.104476
-15.0072 -12.8338 -1.53738
-15.7934 -12.6589 -1.64306
-15.969 -12.3131 -0.12221
-13.5015 -13.859 -2.65203
-16.2132 -12.0605 0.0537595
-16.8251 -12.2422 0.0326721
-12.9851 -13.9127 -2.52442
-15.5757 -12.8515 -0.341126
-16.1795 -11.0443 2.17251
-17.5433 -12.005 -2.38886
-18.8728 -11.5815 -0.824847
-18.7318 -11.5777 0.0856033
-17.8863 -11.7747 -0.399899
-15.9631 -11.8382 -1.91226
-17.6274 -11.4254 0.992559
-16.8002 -12.5286 -0.416854
-16.7091 -12.2603 -0.151554
-15.7152 -12.9762 -1.343
-15.4781 -12.6919 -0.617634
-15.169 -13.1345 -1.36125
-19.1402 -10.0922 -2.87301
-19.189 -11.1331 -1.53976
-17.9996 -11.8829 -1.90875
-17.4902 -11.0067 -1.24235
-17.7644 -11.9248 -1.72108
-17.9857 -11.0794 -0.232253
-19.3426 -11.6833 0.610437
-17.3565 -12.2045 -1.16259
-16.3996 -11.8823 -0.640766
-16.5015 -12.2704 -0.262657
-16.9008 -12.4673 0.991605
-17.4977 -11.9492 -0.142301
-18.1223 -11.2231 -0.440001
-15.4922 -12.5524 -1.97941
-15.8668 -11.9507 -1.09508
-15.3536 -12.2006 -0.903896
-16.3534 -11.9516 -1.8696
-16.4062 -11.6584 -2.66141
-16.5349 -11.7652 -2.28848
-17.0601 -12.667 -0.953218
-15.7258 -12.2135 -1.77655
-15.5246 -12.5683 -1.48609
-18.2563 -11.948 -0.812611
-15.6053 -12.0417 -1.94735
-18.8584 -10.7531 -2.43025
-18.7066 -10.5658 -2.84338
-18.6516 -10.9351 -2.55521
-18.4706 -10.8209 -3.04787
-19.5637 -11.294 -0.685818
-18.0393 -10.784 -3.2333
-18.8524 -11.4688 -0.273767
-19.0776 -11.3621 -0.890999
-17.8694 -11.464 0.471515
-16.9931 -11.9691 -3.24599
-17.4586 -11.8346 1.12868
-18.0035 -11.5341 1.10839
-17.6615 -11.874 0.986652
-17.4393 -12.0607 -0.0684107
-17.1952 -11.683 -0.671215
-16.5534 -11.8686 -1.27528
-15.8911 -10.7751 1.76146
-16.0537 -10.4812 1.72022
-15.5751 -12.2766 -1.47165
-15.8348 -11.2076 1.66889
-15.3958 -11.2104 1.9035
-15.8034 -11.6079 1.80344
-16.1256 -13.114 -1.21813
-15.4007 -12.919 -0.490071
-16.0715 -12.5304 -0.221385
-14.3753 -13.0088 -1.75266
-14.7653 -11.267 1.24413
-18.7901 -10.4864 -2.42187
-18.3266 -10.7396 -2.00588
-18.3775 -10.5437 -2.52458
-18.6422 -11.2919 -2.17485
-18.4895 -11.7586 -1.3265
-18.0411 -11.4315 -2.51403
-18.5387 -12.0164 -0.467604
-18.4468 -11.684 -0.958322
-17.6901 -11.3586 -2.64645
-17.6288 -11.1793 -2.27783
-17.8818 -11.4061 -2.69043
-18.252 -11.3428 -0.875147
-18.6895 -12.0368 -0.756523
-16.893 -11.5525 -3.06796
-18.96 -11.8128 0.837103
-18.0175 -11.8653 -1.84015
-17.8224 -11.3282 1.23515
-16.8274 -11.8349 -0.913964
-17.4042 -11.7675 -1.25652
-16.5519 -11.9508 -2.01268
-17.5497 -12.4511 -0.0565914
-16.0031 -10.9287 1.47345
-16.6479 -12.2055 -0.39943
-15.0722 -12.7309 -1.85778
-15.5508 -12.3304 -1.26209
-15.4295 -13.0682 -0.968077
-15.6182 -12.5372 -0.413495
-15.3778 -13.0249 -0.279071
-15.2459 -13.8449 -0.0504427
-14.9735 -11.3542 2.34408
-14.108 -13.0198 -2.91141
-18.8183 -11.0113 -2.76882
-18.9931 -10.4157 -2.47072
-19.5543 -10.7044 -0.340856
-18.836 -11.1625 -0.699368
-18.0103 -11.1771 -1.76621
-18.7438 -11.2847 -2.03993
-17.9859 -11.0952 -2.55073
-18.2718 -11.4387 -1.03246
-18.5621 -11.9887 -0.428815
-17.6663 -11.7879 -0.509241
-18.0259 -11.5921 -0.0254675
-17.4545 -12.1152 -0.608603
-17.5336 -11.7409 0.385596
-16.0406 -12.1649 -1.43498
-16.6045 -12.1764 0.0168907
-16.3491 -12.622 -0.0457256
-15.4114 -12.6322 -0.230589
-15.2453 -13.3514 -0.511968
-15.1481 -13.3596 -0.375039
-19.0637 -10.6798 -1.78685
-18.6969 -11.084 -1.51379
-19.7108 -10.651 -0.468229
-18.1011 -11.2962 -1.81521
-18.3817 -11.2905 -0.94774
-17.6766 -11.715 -2.26238
-15.8026 -11.6339 -2.13637
-16.5456 -12.2268 -0.905978
-16.735 -12.333 -0.0650617
-16.4895 -12.637 -0.347245
-16.1935 -12.3732 -0.229672
-14.5883 -11.721 -2.48292
-15.4313 -13.0567 -0.443208
-15.6858 -12.4341 -0.140637
-15.6024 -12.9779 -0.866623
-15.4179 -12.8755 -0.970748
-15.8947 -12.9018 -0.262505
-14.9232 -13.0882 -0.317827
-18.0015 -10.7876 -2.48121
-16.9945 -11.6152 -2.36658
-16.3543 -12.2982 -0.327976
-16.3081 -12.0236 -1.43552
-16.444 -12.4643 -0.18904
-16.0182 -12.1531 -1.62448
-15.7897 -12.778 -1.02141
-15.5546 -13.2979 -0.658218
-15.2662 -12.7667 -0.960038
-19.9485 -10.9479 -0.441002
-18.6184 -11.043 -2.08052
-17.8702 -12.0559 -0.892972
-16.6085 -12.1031 -1.09377
-16.527 -12.2955 -0.744095
-18.0555 -11.3452 -1.15496
-15.1249 -13.2694 -0.317464
-17.9671 -11.1658 0.387535
-18.4061 -11.5216 -1.12036
-16.9341 -11.7029 -1.36378
-16.3593 -11.0937 1.49525
-13.9216 -12.9607 -1.8706
-16.4867 -10.7127 1.77143
-19.4055 -11.113 -1.47463
-19.4277 -11.1676 -0.360545
-19.4513 -10.9943 -0.137572
-18.9874 -10.934 -3.04748
-18.3539 -11.5646 -1.11555
-18.0315 -10.9491 -2.51565
-17.8734 -12.2486 0.913877
-18.4471 -11.5935 -1.13804
-17.7637 -11.6303 -3.0075
-17.74 -11.6142 -2.49525
-17.3106 -11.5563 -2.58752
-17.5475 -11.6932 -1.80278
-17.1626 -11.9573 0.187293
-17.5025 -11.3064 -2.70486
-17.4925 -12.1261 -0.318352
-17.323 -12.2921 -0.849013
-17.1965 -12.1836 -0.208795
-15.8588 -11.0846 1.6884
-15.7611 -11.2346 1.81514
-15.7466 -11.1344 1.28315
-17.0491 -12.4723 -0.646054
-16.746 -11.8771 -2.91887
-16.2969 -12.3859 -0.312613
-16.6637 -11.2817 -1.2458
-16.7293 -12.4307 0.0688445
-15.9958 -11.5036 2.19489
-15.9321 -11.4466 2.11447
-16.2506 -12.8784 -1.03561
-15.7601 -11.8271 -2.33995
-15.9828 -11.5632 -2.25575
-15.4294 -11.6772 1.45359
-15.8499 -12.4622 0.716382
-15.9439 -12.5907 -0.145865
-15.5653 -12.5986 -0.984445
-15.206 -11.4085 1.6742
-15.7109 -12.8319 0.478042
-16.0184 -12.9725 -0.574708
-14.9238 -12.0962 -2.2651
-15.2997 -13.4104 -0.507053
-14.8215 -13.212 -2.3962
-14.3882 -12.8999 -1.45347
-14.1436 -13.3483 -2.69466
-14.4527 -13.7897 -2.96235
-19.526 -11.2938 -0.529832
-19.2201 -11.1441 -0.870423
-19.1827 -10.7331 -2.194
-19.4071 -10.9007 -2.34607
-19.8419 -10.5076 -2.56145
-19.2071 -10.6641 -2.28424
-19.3756 -11.2068 -1.02188
-18.9715 -10.607 -2.83619
-18.3235 -10.7454 -2.12788
-18.8147 -11.032 -1.76824
-18.3772 -11.0381 -2.88974
-18.2421 -11.4974 -0.99846
-18.3372 -11.1927 -3.73507
-17.9654 -10.9974 -1.93933
-18.164 -11.9842 -2.6993
-17.3445 -11.2753 -2.72246
-18.0181 -11.6591 -2.52271
-17.3279 -11.7236 -2.47752
-17.1811 -11.2987 -1.42961
-17.4782 -12.017 -0.690298
-17.2637 -11.526 -2.29838
-17.5318 -12.4258 -0.540453
-16.9123 -12.0813 -1.09591
-15.8005 -10.6833 1.40563
-15.9326 -11.0157 1.69444
-16.6416 -12.1588 -0.737708
-16.0191 -11.7708 1.52064
-16.7146 -12.1547 -0.767195
-15.7133 -11.7535 -1.79963
-16.6729 -11.8301 -1.82882
-15.8976 -11.7407 -2.20969
-16.3133 -12.9356 -0.18731
-15.7944 -11.9306 -2.03981
-15.8894 -12.3471 -0.59308
-15.0704 -11.3619 1.56689
-16.1446 -12.2766 0.276696
-15.8311 -12.1051 -1.85294
-15.8254 -11.8737 -1.99213
-15.6692 -12.6735 -1.18681
-15.3692 -12.3808 -1.44992
-15.2498 -12.0548 -2.53089
-14.7692 -12.5392 -1.70889
-15.436 -13.4218 -1.06985
-15.3475 -12.131 -1.96406
-15.3926 -14.0829 -0.195309
-15.3305 -13.3609 -0.697373
-15.0517 -13.753 -1.30022
-14.7149 -12.8734 -0.809468
-14.5563 -12.5783 -2.07661
-13.6765 -13.6088 -2.10058
-13.809 -13.7104 -2.33025
-19.4122 -11.2432 -0.559007
-19.4828 -11.155 -0.744789
-19.2561 -11.2144 -0.946082
-19.4773 -10.4528 -2.73132
-19.2446 -10.976 -1.94796
-18.6045 -11.5069 -1.90056
-18.5193 -11.7641 -1.04544
-18.0537 -11.5424 -0.291872
-17.7709 -11.4455 -1.78597
-17.7036 -12.0101 -1.8223
-17.1412 -11.5168 -1.52224
-16.0892 -10.9054 2.00592
-16.9748 -11.8573 0.523094
-16.912 -12.6137 0.0418005
-16.7212 -12.2158 -0.32758
-16.3614 -12.2961 -0.512419
-16.0913 -12.8561 -0.0722477
-16.0412 -12.7765 0.810116
-15.968 -11.9974 -1.7141
-15.8634 -12.9209 -0.650606
-15.6583 -12.4599 -0.772354
-15.3787 -12.3647 -0.650203
-15.5803 -12.8567 0.175002
-15.6171 -12.6536 -1.44232
-15.3802 -12.8546 -0.768556
-15.4788 -12.4225 -1.40819
-15.3344 -12.6834 -1.83472
-15.2547 -13.2068 -0.351423
-14.7092 -13.0511 -2.96714
-19.2138 -11.7358 -0.568876
-19.0468 -10.4297 -2.45181
-18.8925 -10.9841 -1.62841
-18.0844 -11.6224 1.29347
-16.4853 -12.263 -0.575539
-16.4248 -12.0904 -0.914237
-16.5737 -12.2127 -0.642954
-16.2863 -12.0884 -0.788312
-16.4081 -12.0187 0.207455
-15.8623 -12.7006 -0.679693
-15.4308 -13.4087 -0.409573
-14.496 -13.0653 -1.06589
-18.755 -10.9649 -1.31279
-18.2604 -12.025 0.640396
-18.2425 -11.2246 -1.24642
-17.478 -11.1535 -1.09816
-16.7176 -12.7979 -0.585753
-16.7934 -12.2372 -0.264632
-16.3987 -11.8289 -0.511072
-15.5447 -12.894 0.104756
-16.0199 -12.9586 -1.12909
-15.4155 -12.7903 -1.18274
-15.6712 -12.8997 -0.715039
-15.4337 -12.9687 -0.756827
-14.7778 -13.5682 -0.897542
-18.0313 -11.4741 0.78179
-18.3211 -11.5432 -0.734329
-16.7301 -11.2763 -2.17131
-15.9585 -12.3775 -1.43588
-16.3619 -11.8993 -0.839837
-16.6037 -12.2927 -1.4502
-15.474 -12.0353 -1.65454
-15.6939 -12.6276 -1.88532
-17.2516 -12.0536 -1.02278
-17.0236 -12.1519 -0.981727
-16.5638 -12.6382 -0.104441
-14.8383 -11.932 -2.17481
-18.3527 -11.3518 0.19169
-17.262 -12.0896 -0.540425
-15.1231 -12.4192 -1.35769
-15.1621 -12.4588 -2.22316
-14.5194 -12.1264 -1.57978
-14.5106 -13.2666 -1.38853
-18.0964 -10.9814 0.276139
-18.0454 -11.0709 -0.191438
-14.8446 -12.4256 -1.96973
-17.7347 -11.7087 -0.555792
-13.9367 -12.844 -1.42285
-18.1329 -11.5998 0.853083
-15.7596 -12.2954 -1.0654
-19.108 -11.4371 -0.621298
-19.7336 -10.306 -2.1292
-19.1383 -11.0385 -0.982797
-19.6049 -11.2046 -1.74559
-19.3135 -10.5958 -2.60927
-18.8982 -11.7443 -1.07772
-15.8309 -11.2094 1.18211
-19.1821 -10.4269 -3.05286
-15.8215 -11.2632 2.11568
-18.0424 -11.506 -0.270939
-16.0821 -10.9478 1.71197
-18.2534 -11.9892 -0.521366
-18.2659 -11.5392 -2.16004
-15.7811 -10.7008 1.3964
-18.5223 -11.0645 -1.99754
-17.9505 -11.1585 -1.13976
-15.6178 -11.3153 1.7701
-18.0084 -10.9748 -2.85141
-15.3579 -11.4019 2.03296
-15.3021 -11.4361 1.32715
-17.1034 -12.0908 -0.956716
-18.4783 -10.788 -2.44271
-17.5585 -11.7756 -1.35276
-18.1718 -11.1275 -2.50773
-18.0686 -11.4413 -2.25225
-17.1262 -12.149 -0.535854
-17.8197 -10.9859 -2.32992
-17.9357 -10.9119 -2.70862
-17.9978 -11.5787 -2.80486
-18.1125 -11.176 -2.35401
-16.568 -12.0532 0.227831
-17.2865 -11.79 -0.966148
-17.7564 -11.6649 -2.17144
-17.6531 -11.4133 -2.04952
-16.2321 -13.2668 0.265397
-17.4042 -11.538 -1.86817
-16.4399 -12.6116 -1.06651
-17.7582 -11.488 -2.48802
-17.5043 -11.3204 -2.71939
-17.0806 -11.8388 -1.54495
-16.001 -12.8873 -0.400082
-16.3431 -12.2095 0.0721928
-17.0155 -11.8311 -1.53072
-17.7221 -11.6999 -2.56344
-16.6513 -11.8806 -2.70036
-16.7169 -11.8751 -3.15333
-16.4981 -12.2069 -0.843855
-15.6521 -12.3219 -1.13673
-15.8343 -12.8974 -1.37712
-15.7211 -12.5882 -0.28414
-15.8816 -11.9855 -1.97998
-15.2903 -12.5961 -0.685584
-15.138 -12.2365 -2.28726
-15.2274 -13.5055 -1.65926
-14.394 -13.5711 -1.6101
-14.3502 -13.0053 -2.65488
-13.6866 -13.6549 -2.73785
-13.5786 -13.7474 -3.03303
-20.0209 -11.0252 0.180398
-19.2996 -11.7624 0.230802
-19.2797 -11.3416 0.152294
-18.8354 -11.653 0.367655
-19.7206 -11.0398 -1.63999
-19.2734 -10.2536 -1.76825
-19.4801 -11.1979 -0.671188
-18.9256 -10.7822 -1.57788
-19.0309 -10.3513 -2.06602
-16.0115 -10.6928 1.59801
-18.3262 -11.0913 -1.89883
-16.1326 -10.9961 1.65826
-18.1451 -10.9601 -2.58727
-16.0748 -10.961 0.846611
-17.3821 -11.0768 -0.760893
-16.0657 -11.1771 1.9115
-16.9846 -12.4226 -0.0273164
-17.8238 -11.081 -1.95507
-18.0908 -11.2908 -2.25032
-17.9166 -11.3595 -2.89562
-17.24 -11.6836 -0.890639
-16.6748 -12.5202 -0.128976
-17.7745 -11.1832 -2.57615
-15.7703 -12.3947 0.668717
-16.6489 -11.739 -1.61187
-17.4001 -11.2606 -2.93143
-16.594 -11.8348 -1.18614
-16.5703 -12.4454 -1.14364
-15.862 -12.2638 -1.52271
-15.3835 -13.3023 -0.4156
-15.6483 -11.9556 -2.18846
-15.2519 -12.4987 -1.20531
-15.8464 -12.6168 -1.94276
-15.2967 -12.9397 -0.825312
-15.7479 -11.6279 -2.48233
-15.7285 -11.7278 -3.26541
-15.5097 -12.7052 -1.99426
-15.3212 -11.8781 -2.73471
-14.7315 -12.2466 -2.04255
-15.3174 -11.9874 -2.3457
-14.9127 -12.2273 -2.54123
-14.7876 -12.4931 -2.5197
-14.8357 -12.2919 -2.2316
-13.8103 -13.332 -3.06984
-19.7165 -11.5912 0.41968
-18.7748 -11.6004 1.34365
-19.6447 -11.7364 0.365759
-19.3306 -11.2114 -0.870852
-19.3296 -10.6575 -0.686236
-19.4095 -11.0793 -0.204963
-17.7295 -11.9491 0.468505
-19.6837 -10.4554 -2.14997
-18.7949 -10.9671 -0.998831
-19.6364 -11.0998 -2.07294
-19.2212 -10.4246 -1.55386
-18.8417 -11.2269 -1.42921
-19.1179 -11.0892 -1.28824
-18.5784 -10.7696 -2.04339
-18.5401 -10.64 -2.35758
-18.0349 -11.5081 -1.25436
-18.1494 -10.9208 -1.76929
-18.5903 -10.7943 -1.8178
-17.5729 -11.4886 -0.687091
-16.9646 -12.1882 0.214958
-18.3765 -11.776 -2.60537
-18.0322 -11.787 -1.70243
-17.4718 -11.6116 -1.32179
-17.6347 -12.3352 -1.43484
-17.2327 -11.502 -1.04939
-18.5651 -10.7405 -2.76286
-17.8545 -11.4213 -2.37683
-17.2615 -11.3178 -2.892
-16.8259 -12.0819 0.154411
-16.8029 -12.4783 -0.0272222
-16.6119 -12.6449 -0.503201
-17.5145 -11.5519 -2.92129
-16.1934 -11.9463 -0.633589
-17.1297 -11.7957 -2.965
-15.963 -12.2739 -0.422195
-16.7952 -11.8936 -1.23275
-16.1515 -12.0482 -0.777259
-15.7932 -13.0713 -0.131216
-15.5951 -13.1353 -0.93873
-15.7606 -12.2272 -2.00154
-15.4856 -13.1264 -0.58057
-15.2406 -12.2543 -1.01417
-15.0633 -12.827 -1.5425
-15.053 -12.6771 -1.67889
-15.3008 -12.1797 -1.87964
-14.9414 -12.2972 -1.87476
-14.4497 -13.2511 -1.79352
-14.1873 -13.2543 -2.40258
-19.2832 -11.5154 -0.195202
-19.5072 -11.5645 -0.445598
-19.4139 -11.2964 -0.385271
-19.2792 -11.5197 -0.720344
-19.0487 -10.9621 -1.41471
-18.8271 -10.5907 -2.08233
-19.0705 -10.9536 -1.71322
-18.7803 -11.3767 -1.26764
-15.2898 -11.3794 1.41497
-17.8614 -12.2826 -0.890047
-17.5813 -11.5276 -2.27139
-15.1541 -11.1758 1.71183
-17.964 -11.4036 -3.10587
-17.1946 -11.0172 -2.94461
-16.5926 -12.1642 -0.227149
-16.9356 -12.3544 -0.634453
-16.3817 -12.289 -0.999442
-17.427 -11.5767 -2.43335
-16.3392 -12.0736 -1.8606
-14.9107 -13.7494 -0.600471
-14.5044 -13.2268 -2.80985
-19.1293 -10.4342 -1.6207
-19.0348 -10.6041 -2.26701
-19.5654 -11.0718 -2.45185
-16.2418 -11.3375 1.32843
-18.4764 -11.1366 -2.97849
-16.8315 -12.4584 -0.291326
-16.3181 -12.4058 0.126931
-16.2484 -12.1932 -0.66306
-17.0955 -12.0472 -2.07172
-15.4883 -13.2267 -0.464114
-15.6206 -12.9477 -0.589398
-15.3627 -13.4837 -0.448153
-15.2313 -11.6815 -2.38014
-14.8029 -12.7373 -2.11067
-19.2527 -11.25 0.0417835
-17.7526 -11.0935 0.000374915
-18.6157 -11.3155 -0.805994
-17.6867 -11.7019 0.128955
-16.375 -12.4077 -0.805717
-16.1524 -13.0793 0.779848
-15.1382 -12.4907 -2.63542
-17.8 -10.9428 0.414398
-17.5516 -11.5457 -0.675242
-15.9414 -12.3865 -1.40601
-16.2266 -12.6455 -1.98844
-15.6549 -12.0263 -1.42867
-15.1413 -13.3157 -0.922555
-14.7965 -13.3938 -1.18572
-17.5098 -11.0654 0.30094
-15.4022 -12.2099 -1.89661
-16.3432 -10.943 1.55644
-16.2611 -12.7254 -0.447941
-15.9418 -12.5761 -0.878608
-15.4906 -12.6435 -0.792957
-15.0866 -12.2006 -2.21869
-19.7093 -11.2308 0.409693
-19.39 -11.381 0.183343
-19.69 -11.1996 -0.184638
-19.6113 -11.5862 -0.416353
-18.9166 -11.3042 -0.271514
-17.9159 -11.4619 0.503216
-18.116 -11.4171 0.563296
-16.1117 -11.3273 1.21728
-19.7047 -10.9658 -1.38074
-19.3701 -10.7967 -0.796718
-18.3757 -11.0286 -0.660334
-17.5415 -11.8906 0.281029
-18.8605 -11.1086 -1.31667
-19.1858 -10.7259 -1.65379
-17.8268 -11.6305 -0.235798
-18.9969 -10.6982 -1.56333
-19.5875 -10.8538 -1.94662
-19.466 -10.6868 -1.56353
-19.6385 -10.8047 -2.03804
-18.9887 -11.062 -1.63416
-17.1976 -12.2557 -0.817505
-19.2413 -10.7719 -1.83239
-18.6937 -11.0527 -1.20018
-19.2298 -10.833 -1.92492
-17.4291 -12.1762 -0.760863
-18.4796 -12.0856 -1.57056
-15.8541 -13.2216 0.373428
-18.4578 -11.569 -1.59202
-17.2936 -12.3163 -0.991466
-16.8241 -12.4085 -0.592731
-16.4124 -12.283 -1.10573
-17.1258 -12.2758 -0.633843
-18.0942 -11.1748 -2.37215
-17.1019 -12.3264 -0.742733
-19.3242 -9.92777 -2.67578
-17.1423 -12.3797 -0.853188
-18.1793 -11.3136 -1.97811
-16.8219 -12.0473 -0.700997
-16.5129 -12.3511 -0.508406
-18.4688 -11.119 -2.42899
-17.462 -11.6299 -2.10014
-14.9543 -13.0422 -0.504782
-17.5549 -11.8289 -2.49757
-18.0406 -10.7946 -2.54853
-15.7188 -13.2866 -0.013243
-17.4525 -11.2637 -2.18409
-16.9278 -11.6603 -1.73706
-15.6084 -12.5263 -0.433975
-16.8028 -11.5214 -2.98539
-14.9684 -13.0588 -2.09514
-19.8092 -11.1669 -0.254719
-19.5565 -11.0435 0.125439
-19.1253 -11.6937 0.027881
-19.2997 -11.9524 0.378261
-19.4526 -11.4771 -0.220559
-16.2161 -10.6323 1.27965
-16.2428 -10.6317 1.69789
-15.6752 -11.0206 1.54694
-19.0423 -11.8052 0.146622
-18.1836 -11.4081 0.336919
-17.9588 -11.2996 0.404799
-15.798 -11.1422 1.83106
-20.0218 -11.4315 -1.00603
-15.8474 -11.1011 1.53012
-19.4959 -11.2169 -1.535
-16.0364 -11.3575 1.19151
-15.6997 -11.3351 1.31941
-17.5263 -11.1582 0.002823
-17.7847 -11.8985 0.46466
-17.6545 -11.6591 0.214321
-17.1048 -12.2009 0.413066
-19.2649 -11.1204 -0.696812
-18.8589 -11.0242 -1.34021
-18.6859 -10.3841 -1.37567
-19.3275 -10.7243 -1.01149
-18.4999 -11.5666 -0.995689
-16.7743 -11.8995 0.270738
-18.7915 -10.0651 -2.37752
-15.8121 -12.9756 0.650645
-19.1913 -10.3491 -1.90436
-18.8107 -10.8104 -2.01214
-18.6576 -10.5658 -2.49036
-18.329 -10.7702 -1.73088
-16.3846 -12.389 -0.248478
-18.325 -11.2095 -1.98871
-16.1502 -12.3373 -0.504176
-18.4983 -10.4235 -2.58716
-18.8125 -10.755 -3.10436
-17.134 -12.1769 -1.35573
-18.2455 -10.99 -2.43406
-16.7534 -12.2734 -0.899666
-15.5419 -13.1578 -0.222663
-17.8404 -11.7689 -2.85219
-18.5048 -10.535 -3.09074
-17.5015 -11.3771 -2.63236
-15.8083 -12.4609 -1.14673
-18.4783 -10.8338 -3.49952
-17.1122 -11.2276 -3.07142
-17.7326 -11.6869 -2.59076
-17.4842 -11.1416 -3.12302
-15.7133 -13.0995 -0.833161
-16.7717 -11.3839 -2.89313
-16.0666 -12.774 -1.51166
-16.2708 -12.0102 -1.74719
-16.8224 -11.569 -3.08936
-14.744 -12.9264 -1.79616
-14.8682 -12.1616 -1.71344
-19.4395 -12.1603 1.28885
-19.5697 -11.6868 0.134117
-19.4708 -11.1923 -0.0685359
-18.9636 -11.3662 -0.266169
-15.6505 -11.1059 1.73102
-19.5586 -11.1229 -1.34118
-18.7299 -11.6326 0.0896594
-19.8021 -10.7319 -0.792233
-15.718 -10.7174 1.44885
-16.1135 -11.0167 1.09323
-18.5896 -11.2244 -0.787675
-18.6923 -11.1532 -1.01967
-19.2172 -10.2497 -1.88914
-19.0925 -11.3444 -1.15244
-18.7527 -11.7433 -0.980227
-17.2063 -11.7171 -0.438303
-17.4516 -11.5362 -1.0779
-16.0359 -12.131 -0.214816
-18.2226 -11.3052 -1.72569
-16.8244 -12.5771 -1.30858
-17.1743 -11.483 -1.7683
-17.3832 -11.7973 -1.78437
-16.4315 -12.1548 -0.79219
-17.626 -11.7206 -2.15345
-16.1096 -12.9208 -0.931512
-16.53 -12.2653 -0.763591
-16.834 -11.6364 -1.62931
-15.8641 -11.9111 -1.73077
-17.5354 -11.8556 -2.03384
-15.6252 -12.463 -1.33016
-15.2679 -12.2862 -1.31782
-15.2716 -13.4486 -1.06724
-15.133 -13.2639 -0.617139
-15.3726 -12.4909 -1.80112
-15.9723 -11.8672 -1.70891
-15.0494 -12.4607 -2.233
-19.785 -11.3197 0.247825
-15.9863 -11.187 1.62645
-19.3057 -11.3136 0.284715
-17.9178 -11.1924 1.13033
-17.6248 -11.7892 0.718338
-18.9994 -11.4465 -0.934911
-18.041 -11.2294 0.308254
-19.1646 -11.4428 -0.298513
-18.7896 -11.3718 -0.668087
-19.2434 -11.7699 -0.187453
-17.9204 -12.1101 0.135315
-17.6277 -11.6425 0.403223
-17.1398 -11.2348 0.291996
-17.2825 -12.0965 0.308885
-17.4304 -11.7407 0.482234
-16.6885 -11.7262 0.234274
-19.1119 -10.6091 -1.41223
-16.8969 -12.2516 0.0446419
-18.4358 -10.9353 -1.68558
-16.6507 -12.7571 -0.220744
-16.3494 -12.1598 0.0240972
-16.3745 -12.404 -0.482063
-17.4125 -11.9385 -1.10895
-16.484 -12.2596 -0.360008
-18.1693 -11.7749 -2.03265
-15.9846 -12.3656 -0.820841
-17.0305 -11.808 -1.54869
-16.4081 -12.09 -0.398134
-16.2576 -11.9167 -1.68233
-14.9869 -13.2598 -0.959378
-15.5298 -13.1557 -1.07708
-15.6936 -12.5749 -1.25048
-15.7219 -12.3702 -1.96363
-16.0246 -11.7188 -2.10467
-19.4146 -10.6198 -0.738793
-18.9857 -11.7321 -0.0937829
-16.8801 -11.6803 0.404087
-15.2877 -11.3961 1.57487
-17.7347 -11.6775 -0.622078
-18.4267 -11.2351 -1.50589
-16.9635 -12.5139 -0.849862
-18.2914 -11.5437 -2.17329
-16.238 -12.2337 -1.18996
-15.5176 -13.3276 -0.244509
-16.6505 -11.7098 -1.13933
-17.4822 -11.127 -2.90529
-15.7188 -13.264 -0.60215
-15.5309 -12.7109 -1.05047
-15.8062 -11.6397 -2.1123
-19.8264 -11.1463 -0.893371
-16.0487 -11.0408 1.43966
-15.661 -11.0844 1.56069
-15.7352 -11.1892 1.82172
-18.1447 -11.6294 -0.752184
-16.1474 -12.5666 -0.267344
-18.1079 -10.5458 -2.78099
-15.4813 -12.5193 -1.20823
-17.1207 -12.2887 -1.66094
-15.4311 -12.6633 -1.12051
-14.544 -12.9533 -1.99249
-17.2803 -11.3608 0.14017
-16.0974 -12.5568 -0.64284
-19.6146 -11.2848 0.27805
-18.6038 -11.4485 -1.42002
-16.0724 -12.9033 0.708123
-16.8958 -11.8047 -0.681074
-15.1456 -13.499 -0.911351
-15.7655 -12.4018 -1.95861
-19.6467 -11.072 -0.139959
-18.1261 -11.3193 -1.36776
-16.6382 -12.256 -1.94916
-15.7966 -11.4468 -2.02144
-14.9591 -12.5622 -2.01828
-16.4382 -12.753 -0.247249
-15.738 -11.8675 0.285057
-16.2918 -10.8516 1.65249
-19.305 -10.7161 0.973396
-19.4021 -11.2295 0.67518
-19.006 -11.4034 1.15013
-16.0231 -11.3034 1.64998
-15.8586 -11.4745 1.88462
-16.2837 -11.0245 1.48869
-17.0371 -10.8607 1.23453
-18.1194 -11.5787 0.960999
-19.1531 -11.2405 0.603354
-16.2455 -11.3767 1.13966
-15.9576 -11.1531 1.4827
-19.2694 -11.374 0.505772
-19.2465 -11.5206 0.157715
-19.7875 -11.2066 0.328506
-19.8974 -11.2926 0.228959
-19.2952 -11.324 0.300262
-19.1309 -11.6567 0.123629
-19.6337 -11.1312 0.0890611
-18.5598 -12.0868 0.148035
-19.2423 -11.8474 0.207085
-19.1881 -10.8697 0.337971
-19.682 -10.8137 0.0551254
-17.5203 -11.7552 0.203262
-17.7477 -11.8412 -0.0142216
-17.5742 -11.4718 0.21053
-17.7908 -11.9716 0.250498
-17.1252 -12.0767 0.448199
-17.0007 -11.5469 0.344229
-19.4106 -11.2071 -0.345372
-17.43 -12.2059 0.45145
-16.9461 -11.5823 0.433094
-19.161 -11.6488 -0.54577
-19.6457 -11.2386 -0.642298
-19.0395 -11.6868 0.421552
-16.2249 -12.2493 0.892183
-17.7938 -11.9418 0.125009
-17.8014 -12.4635 0.628022
-17.9824 -11.7001 0.352857
-18.0643 -11.1936 0.407454
-17.4174 -11.8698 0.537604
-16.4802 -12.605 0.310754
-15.9076 -13.1966 0.417746
-19.5737 -11.0447 -0.678697
-17.3869 -11.2396 0.00904679
-15.974 -12.69 0.493776
-19.2478 -11.7977 -0.717975
-19.1019 -10.8971 -0.915024
-20.0027 -11.0669 -0.594878
-19.4138 -11.2949 -0.531702
-19.6507 -11.1568 -0.304268
-19.2383 -11.169 -0.307239
-18.9828 -11.2163 -0.963752
-18.7574 -11.5808 -0.530306
-19.3443 -10.8001 -1.00845
-18.5883 -11.751 -0.549484
-19.0071 -10.9573 -0.517109
-18.8719 -10.93 -0.581281
-18.5297 -11.3577 -0.93287
-17.9617 -11.9074 -0.431951
-18.0641 -11.4714 -0.600717
-18.8732 -11.6341 -0.389894
-18.593 -11.4266 -0.997129
-18.1768 -11.7979 -0.415855
-17.1406 -12.3653 -1.0678
-18.9807 -11.6546 -0.738726
-19.497 -10.6124 -0.879072
-18.5327 -11.2243 -1.15003
-16.6811 -12.346 -0.168224
-18.647 -11.8117 -1.19048
-17.7716 -11.6727 -0.375708
-19.4144 -10.9044 -0.999835
-18.6082 -11.976 -0.57813
-19.048 -11.6148 -0.924103
-16.5711 -12.6109 0.112426
-19.0518 -11.2511 -1.33739
-16.2574 -12.5359 0.0898453
-16.9196 -12.4125 -0.155718
-17.479 -11.3434 -0.319316
-18.6006 -11.5136 -0.86142
-18.9801 -11.1238 -1.26506
-19.4654 -11.2257 -1.50506
-18.8776 -11.2092 -1.50088
-19.1062 -11.4448 -1.09218
-19.2567 -11.0916 -1.29933
-16.1109 -12.2975 -0.12614
-16.3365 -12.0508 -0.0437771
-17.5422 -11.4847 -1.0108
-18.724 -10.707 -1.39546
-18.7354 -11.1764 -1.44163
-18.7969 -11.338 -1.24063
-18.5494 -11.0906 -1.44037
-17.7015 -11.6844 -1.27573
-18.2266 -11.2537 -1.31141
-19.489 -11.192 -1.2346
-16.4206 -12.7143 -0.953423
-18.3231 -11.3422 -1.59825
-18.7065 -11.4048 -1.17072
-18.1289 -12.0351 -2.05446
-18.2191 -11.3335 -1.45733
-18.383 -11.4388 -1.35527
-19.5776 -10.6446 -1.64008
-18.466 -11.1348 -1.88119
-18.778 -11.3186 -1.44811
-19.7838 -10.6813 -1.849
-17.2993 -11.6172 -1.1165
-19.3422 -10.8828 -1.55693
-19.1025 -11.2634 -1.61075
-15.5681 -13.0017 -1.2279
-18.918 -10.2047 -1.69251
-18.6498 -11.1117 -1.91345
-18.7545 -11.5615 -1.31148
-19.5169 -10.6753 -1.57991
-18.6677 -11.5392 -1.69646
-18.3811 -11.512 -1.70732
-17.581 -11.6765 -1.86667
-17.8885 -11.4341 -1.89955
-17.7371 -11.3842 -1.44844
-17.7356 -11.9181 -1.69433
-17.7799 -11.3645 -1.87374
-19.1243 -10.6445 -2.50086
-15.9473 -12.4305 -0.865983
-19.1047 -10.4957 -2.30928
-18.8377 -11.3919 -1.54983
-19.4248 -10.6046 -2.01295
-19.3738 -10.3049 -2.14507
-19.2484 -10.95 -1.93077
-18.3182 -10.7858 -1.98623
-17.5403 -12.0377 -1.88555
-19.3769 -10.7188 -2.16967
-18.4989 -11.0919 -2.07937
-17.2293 -11.907 -1.91084
-16.8788 -11.7838 -1.72061
-18.8436 -10.9648 -2.03571
-18.4186 -11.1555 -2.39281
-17.8237 -11.2702 -2.48662
-17.9334 -11.132 -2.51296
-18.9672 -10.5181 -2.30688
-18.7464 -10.2647 -2.60749
-17.5769 -11.3417 -2.07407
-18.1602 -11.2551 -2.17163
-18.938 -10.2728 -2.55878
-18.1365 -10.9581 -2.56451
-18.7925 -11.0408 -2.73209
-19.0255 -10.0948 -2.71864
-15.6255 -11.7826 -2.40141
-18.0906 -10.988 -3.01144
-15.9209 -11.5184 -2.30921
-16.5625 -11.853 -2.34623
-18.5749 -11.5697 -2.82928
-14.8816 -13.0001 -2.06601
-17.7815 -11.3813 -2.85885
-17.1539 -11.517 -2.86239
-17.9028 -11.4313 -2.6141
-15.0446 -12.3438 -2.00514
-17.2547 -11.4603 -1.76954
-14.4524 -13.6071 -2.77619
-17.2488 -11.6694 -3.08137
-16.5651 -11.5667 -3.33519
-16.9118 -11.7777 -2.63068
-14.3237 -13.452 -2.95531
-13.9976 -13.5708 -2.79869
-16.7364 -11.2847 2.14825
-16.5719 -11.014 1.97598
-18.5241 -11.2098 0.917346
-16.0118 -11.1393 1.58684
-18.6656 -11.8835 1.07873
-16.7112 -10.5305 1.39154
-15.4899 -11.1361 2.01536
-16.1121 -10.7506 1.67114
-18.7671 -11.5833 0.418751
-19.6045 -11.1727 0.695885
-19.769 -11.3458 0.403938
-18.3035 -11.6942 0.785544
-19.4023 -11.6365 0.550126
-19.4948 -11.7536 0.562081
-18.8402 -11.9364 -0.0117438
-18.6938 -11.9534 0.183786
-19.9941 -11.2538 -0.0942002
-19.7078 -11.4028 0.247017
-17.6767 -11.948 0.249825
-18.9318 -11.6467 -0.180386
-18.9587 -11.7737 -0.565561
-19.4885 -11.8998 -0.00931465
-16.1211 -12.7601 0.771874
-16.8021 -12.0753 0.80072
-17.0149 -12.288 0.566799
-19.3667 -10.8808 -0.184361
-16.8761 -12.7973 0.444063
-19.186 -11.3874 -0.536635
-16.5994 -12.3399 -0.046911
-19.5972 -10.6796 -0.483191
-19.4975 -10.8533 -0.508427
-18.9512 -11.8663 0.213699
-19.3511 -11.1716 -0.447023
-19.3224 -10.6774 -0.175188
-18.9943 -11.2879 -0.420413
-18.1292 -11.4584 0.103108
-16.3945 -12.0083 0.0707909
-16.4371 -12.4111 -0.316386
-18.9279 -11.8622 -0.483604
-16.6891 -12.2678 0.0842329
-16.468 -12.3332 -0.174982
-16.4475 -12.5185 -0.247837
-15.6793 -13.0065 -0.188048
-15.2781 -13.09 -0.570715
-16.8871 -11.8403 -0.905932
-15.6703 -12.2738 -0.506983
-18.9044 -10.8441 -1.24107
-16.2236 -12.5335 -0.582176
-17.2549 -12.1411 -0.683797
-18.125 -11.7417 -1.42776
-16.3973 -12.0776 -0.982075
-17.214 -11.7801 -0.445366
-16.693 -12.1252 -0.708419
-18.4117 -11.4057 -1.09681
-15.5868 -12.8879 -0.416113
-19.515 -10.9987 -1.84912
-18.5559 -11.2479 -1.76565
-18.972 -11.2832 -1.65559
-19.7168 -10.2262 -1.66194
-18.0368 -11.3223 -1.59696
-17.3304 -12.5362 -0.685199
-19.3766 -10.7713 -2.23013
-15.5551 -12.4542 -1.08669
-17.6838 -11.1329 -1.59021
-17.9066 -11.7001 -1.47853
-15.2721 -12.7945 -1.11153
-17.898 -11.7153 -1.95456
-17.7057 -11.7792 -1.60037
-19.0713 -10.4078 -1.86693
-17.5495 -11.8068 -1.54849
-18.1065 -11.2224 -2.27337
-18.7329 -11.0851 -2.23943
-14.3922 -13.1544 -1.39716
-18.5946 -10.9932 -2.23832
-16.5607 -11.8178 -2.16292
-16.6111 -11.7397 -2.25877
-16.114 -11.9653 -1.6298
-14.6845 -12.92 -1.7552
-18.9379 -10.3741 -2.25827
-17.3469 -11.8313 -2.30038
-15.8755 -12.1627 -1.44602
-17.7629 -11.2179 -1.78672
-18.0466 -11.2765 -2.84177
-18.2616 -10.3023 -2.57186
-16.025 -11.4599 -2.14707
-17.9313 -11.5088 -2.25723
-15.7726 -12.133 -1.57851
-17.5811 -11.0911 -2.93994
-19.1592 -10.3027 -2.93599
-17.3628 -11.591 -2.82525
-15.8385 -12.1722 -2.32415
-18.5925 -10.8407 -3.17082
-16.0007 -11.9735 -2.25785
-14.6319 -12.5065 -1.62911
-18.169 -10.6967 -2.76865
-16.4698 -11.411 -2.85799
-16.7158 -11.6904 -2.8681
-15.4337 -11.5743 2.18438
-17.9886 -11.0451 1.16228
-18.5407 -11.6433 1.33838
-15.3776 -11.5128 2.07127
-18.5371 -11.6918 1.30233
-18.7245 -11.9581 1.29896
-15.9939 -11.0268 1.45483
-15.7766 -10.656 1.40444
-17.9447 -11.7521 1.06596
-18.0736 -11.6101 1.30906
-19.4066 -11.5024 0.666693
-15.5737 -11.1261 1.98807
-18.7127 -11.8584 0.430794
-19.0981 -11.8813 0.19729
-19.2984 -11.385 -0.0446141
-19.2132 -10.9584 0.0016528
-17.1841 -12.2754 0.390532
-16.4302 -12.1364 0.464421
-16.3422 -12.1434 0.393624
-19.0641 -11.6109 -0.022141
-18.8868 -11.5652 -0.41503
-19.9047 -10.7994 -0.887208
-18.2958 -11.8558 -0.591339
-15.9455 -12.9622 0.0585577
-15.4347 -12.7533 0.182336
-16.2292 -12.8839 -0.493844
-16.4674 -12.4688 -0.503
-17.0704 -11.7122 -0.876601
-17.1632 -11.9152 -0.476886
-15.1308 -12.601 -0.597982
-15.7928 -12.2918 -0.745276
-16.8575 -11.9349 -0.965371
-18.3878 -11.3997 -1.36929
-18.9757 -10.4868 -1.45196
-19.289 -10.6082 -1.7591
-18.5626 -10.9567 -1.95678
-17.1131 -12.0118 -1.08631
-18.1662 -11.6338 -1.43639
-18.9791 -11.1766 -1.89783
-14.8774 -12.8335 -0.933841
-16.6143 -12.2966 -1.71342
-16.6772 -12.1078 -1.73649
-15.2793 -12.6738 -1.19886
-18.1847 -10.9733 -2.07313
-17.004 -11.2399 -2.18086
-16.1773 -11.6344 -2.10202
-15.5434 -12.659 -2.27949
-18.1885 -11.5738 -3.03588
-17.4326 -11.4623 -2.30259
-15.1941 -12.4509 -2.21099
-15.7213 -12.1086 -2.09476
-18.2989 -11.1708 -2.88051
-18.6516 -11.1505 -2.48812
-15.984 -11.6117 -1.87832
-18.8977 -10.7094 -2.94794
-17.1572 -11.3464 -2.5397
-15.6166 -12.0292 -2.36551
-14.2295 -13.5585 -3.45101
-18.0934 -11.1065 1.58368
-17.1768 -10.9407 1.03481
-18.3005 -12.3099 1.08371
-16.8981 -10.6643 1.41404
-17.9277 -11.4148 0.114105
-18.3515 -11.3968 0.876547
-19.3565 -10.9288 0.0197488
-20.2642 -11.4433 0.0866221
-19.2225 -11.3985 0.300758
-17.9966 -11.1783 0.565764
-19.0439 -11.2555 0.0840601
-17.5614 -11.4139 -0.107336
-17.3998 -11.2315 0.144233
-18.3617 -11.7373 -0.392572
-19.3946 -12.0388 -0.533457
-16.8848 -12.7353 -0.257908
-19.1132 -11.0647 -0.98794
-18.8036 -11.7305 -1.00315
-15.6876 -12.803 -0.179599
-19.2923 -11.1568 -0.978115
-17.9592 -11.5041 -1.26601
-18.4839 -11.6119 -0.747996
-18.5352 -11.1209 -1.57896
-17.9658 -11.6484 -1.50021
-15.8674 -12.8986 -1.59244
-15.2501 -12.7266 -0.732794
-17.0741 -12.0569 -1.39888
-14.7113 -13.0354 -1.37465
-15.2748 -12.5296 -1.03558
-18.3199 -11.4086 -2.06614
-17.2799 -11.369 -1.6414
-15.3092 -12.6063 -2.09024
-18.96 -10.7589 -3.02285
-18.7282 -10.6029 -2.88883
-14.0814 -13.8101 -2.73957
-18.7646 -10.91 1.63798
-15.4649 -12.6797 0.824669
-18.9821 -11.3476 -1.06329
-17.4519 -11.2769 -0.807315
-16.4067 -12.1515 -0.117002
-16.343 -12.7711 0.0105662
-18.2974 -11.4594 -0.891661
-18.6805 -11.5094 -1.4156
-16.9243 -11.9156 -0.716767
-18.3132 -11.3184 -1.31105
-15.5716 -12.6101 -1.53543
-15.1752 -12.3968 -1.197
-14.4731 -13.1686 -1.82653
-14.9624 -12.4931 -1.86387
-17.7523 -11.3731 -3.29658
-18.5804 -10.4695 -2.45985
-16.0879 -11.582 -2.27538
-17.7888 -11.9238 0.459302
-19.4021 -11.6729 0.336728
-16.7447 -11.8808 -0.138227
-16.706 -12.4211 -0.415248
-15.9677 -12.7409 -0.332746
-16.0443 -12.3048 -0.549104
-16.2883 -12.5631 -0.742703
-19.3674 -10.5979 -1.88952
-15.7499 -12.4975 -1.65899
-14.6817 -13.1404 -1.79124
-16.0962 -12.1832 -1.36419
-15.1458 -12.5017 -1.34925
-16.1068 -12.4289 -1.78143
-16.5382 -11.4238 -1.7306
-17.5106 -11.4615 -2.17413
-16.5848 -11.9047 -1.68924
-15.0973 -12.4982 -2.25979
-14.47 -12.768 -2.00018
-13.6898 -14.0988 -2.42493
-19.6465 -11.7648 0.00576486
-16.1601 -12.9051 0.0547203
-18.2093 -11.4137 -0.306605
-16.2319 -11.9961 -0.55754
-18.5661 -11.5142 -1.13329
-15.7825 -12.7771 -0.754122
-17.7883 -11.5973 -1.87463
-16.6786 -11.38 -1.95289
-16.4427 -11.6019 -2.01193
-18.0925 -11.1276 -2.86534
-14.5528 -12.3496 -2.15846
-17.0305 -12.743 -0.359602
-17.0685 -12.745 -0.486608
-18.4727 -11.3111 -0.793868
-18.7976 -11.3577 -0.420045
-16.5623 -12.1377 -1.93565
-18.8219 -10.645 -2.45844
-16.293 -11.7098 -2.47441
-14.612 -12.2998 -2.76097
-18.0743 -11.3548 -0.359684
-16.5455 -12.3432 -0.0150952
-16.22 -12.6289 -0.986414
-16.9163 -12.0702 -0.905542
-16.8651 -11.2108 1.67171
-16.722 -12.3393 0.193005
-15.5543 -12.2588 -1.02341
-15.4953 -11.7231 -1.94837
-16.617 -12.7469 -0.502521
-15.5689 -12.2569 -2.24898
-17.3182 -11.1898 -3.22875
-18.1724 -11.4182 -2.68725
-18.0525 -10.9175 -3.2757
-18.5009 -10.7022 -3.18197
-16.0277 -11.5586 -2.03693
-18.7771 -10.5114 -3.1722
-18.98 -10.6358 -3.07201
-18.1355 -11.2894 -2.48044
-18.1572 -10.9902 -2.71184
-17.5438 -11.7322 -2.60665
-18.0317 -11.3671 -3.11077
-17.4195 -11.5658 -2.20009
-18.7771 -10.6987 -2.48455
-17.4504 -11.7732 -2.59314
-18.1308 -10.6118 -2.10612
-15.767 -12.7146 -1.68803
-15.453 -12.3828 -1.77212
-15.7895 -12.6401 -1.68909
-17.2138 -11.4746 -2.1018
-17.508 -11.4139 -2.15667
-15.3744 -12.4764 -1.14742
-18.5351 -11.8403 -1.59453
-17.3725 -11.562 -1.63108
-19.1229 -10.6887 -1.71039
-18.5377 -11.2626 -1.33486
-19.281 -10.8007 -1.0063
-18.7012 -10.9681 -1.63936
-16.5623 -12.5576 -1.01508
-18.3478 -11.6918 -0.90374
-16.1274 -12.2739 0.339496
-17.2285 -11.9566 -1.04259
-17.1433 -12.4607 -0.369181
-18.5141 -11.3932 -0.304209
-19.124 -11.1713 -0.910953
-18.9329 -11.5576 -1.11456
-18.1054 -11.5419 -0.0587365
-18.8767 -11.416 -0.723724
-16.8107 -12.2804 -0.539816
-18.9735 -11.2099 -0.304436
-19.1528 -11.3178 -0.470965
-19.0421 -11.7203 -0.494403
-19.4828 -11.4722 -0.351058
-19.3041 -11.0075 -0.385585
-17.9752 -11.4886 0.170647
-17.545 -11.8287 -0.217369
-19.3561 -11.5702 -0.394864
-19.6653 -11.2067 0.408722
-19.54 -11.1348 -0.379103
-16.4177 -12.6287 0.957223
-16.9222 -11.7864 0.952877
-17.4533 -12.06 0.519954
-16.7184 -12.5807 0.484692
-15.8473 -12.9686 0.805425
-16.9601 -11.7908 0.371948
-17.7097 -11.1325 0.791369
-18.965 -11.4518 -0.294806
-19.9168 -10.8855 -0.0740798
-19.6353 -11.0312 -0.0202249
-19.2504 -11.4832 -0.100863
-19.5705 -11.6345 0.623698
-19.7142 -10.9799 0.298296
-20.0724 -11.4885 0.341713
-15.391 -11.3792 1.4858
-15.6586 -11.7955 1.7107
-15.2405 -11.3735 1.91843
-18.1549 -12.0964 1.33167
-16.1832 -11.7641 -2.55062
-18.6191 -11.6985 -2.80321
-18.847 -10.476 -2.3888
-16.0012 -11.879 -1.73066
-16.2342 -12.683 -1.4149
-15.4198 -12.7866 -2.08948
-16.3065 -12.6564 -1.04822
-15.4654 -12.6139 -1.29102
-17.8626 -11.4177 -1.64908
-15.1815 -13.4915 -0.712434
-18.2926 -11.2094 -1.23668
-17.1769 -12.1287 -1.02564
-15.9537 -12.8877 -0.993894
-18.8729 -11.4121 -1.24147
-18.7121 -11.0046 -0.790017
-18.4752 -11.8808 -1.09097
-18.6349 -10.9981 -0.838848
-19.2222 -11.2938 -1.06318
-16.5954 -12.8637 0.0818214
-16.8372 -12.2965 -0.274033
-16.1846 -12.6929 -0.130285
-18.0574 -11.2723 -0.281487
-19.6074 -11.3793 -0.601949
-18.7 -11.5811 -0.365616
-18.9331 -11.5323 -0.706847
-18.2205 -11.6997 0.199896
-17.4446 -12.0259 0.0770333
-15.1319 -12.9097 -0.0572424
-18.789 -11.4765 -0.190115
-17.2685 -11.9825 0.0408232
-17.2785 -11.8765 0.692222
-16.1485 -12.19 0.284766
-15.8672 -12.6532 0.645999
-19.3111 -11.7085 0.212258
-19.096 -11.4792 -0.0268671
-19.7083 -12.1739 0.131811
-18.1768 -11.868 0.564225
-19.4959 -11.6371 0.562407
-19.686 -11.8219 0.260546
-18.3645 -11.3325 0.88436
-18.4417 -11.6672 1.45781
-15.8752 -11.1815 1.60206
-15.5961 -11.5901 1.85019
-19.4408 -11.3148 1.44536
-15.222 -12.4415 -2.32406
-16.193 -11.619 -2.33283
-17.6305 -10.9875 -2.90528
-16.9709 -11.437 -2.96688
-15.4081 -11.7645 -1.98133
-17.0758 -11.3837 -2.52827
-15.7015 -12.3167 -2.22819
-15.8324 -12.1518 -1.81846
-15.2007 -12.3646 -2.02962
-16.5089 -11.8874 -1.32107
-15.0603 -12.62 -0.808663
-18.4384 -11.4045 -1.15838
-18.7852 -11.5348 -1.53529
-18.7078 -11.0231 -1.14091
-17.8901 -11.2883 -0.526937
-18.2774 -11.6544 -0.792203
-18.6445 -11.8406 -0.832732
-18.9455 -11.7094 -0.919718
-15.6041 -12.476 -0.140026
-15.8933 -12.7305 0.129953
-18.0828 -11.6126 -0.227024
-17.581 -11.1469 -0.318112
-17.0011 -12.1992 0.0605557
-19.5751 -11.4593 -0.250221
-16.2259 -12.5178 0.0594716
-15.745 -12.6754 0.123356
-18.844 -11.9934 -0.136695
-19.3771 -11.7806 0.635427
-17.7789 -11.87 0.661872
-15.8188 -10.6958 1.53984
-15.8183 -11.4093 1.9046
-17.7165 -11.7976 -3.13833
-16.4034 -11.4966 -2.63876
-17.2027 -11.8007 -0.59669
-17.1605 -12.2906 -1.09137
-18.7674 -11.0977 -0.578561
-19.3333 -10.9638 -0.826195
-19.0192 -11.261 -0.80774
-19.1083 -11.4395 -0.464812
-15.7808 -12.5625 0.289014
-19.5293 -11.8764 -0.293076
-19.0742 -11.6723 0.785776
-16.2693 -11.4332 -2.29548
-17.0161 -11.4938 -1.49053
-18.684 -11.0322 -1.34204
-18.4726 -11.5969 -1.11137
-18.2882 -11.3758 -0.508153
-18.5151 -11.7094 -0.415015
-17.5695 -12.1616 0.321787
-19.3226 -11.7135 -0.136617
-19.4179 -11.4655 0.32202
-18.2739 -11.666 1.275
-16.1844 -10.7498 1.77282
-15.2592 -11.9861 -1.96628
-18.7418 -11.4129 -0.528757
-18.5695 -11.6468 -0.539717
-16.6706 -12.551 0.465423
-19.2498 -11.4774 0.294203
-19.1073 -11.9562 0.637789
-19.4858 -11.3534 0.717254
-18.9689 -11.2869 -0.846994
-17.187 -12.1011 -0.86499
-18.7548 -11.5149 -1.16126
-17.7769 -11.4816 -1.50605
-17.9982 -12.053 -0.640146
-17.4166 -12.1987 -0.486573
-15.6071 -12.8599 0.296446
-18.7569 -10.6521 -2.97853
-18.9091 -10.6862 -2.20599
-16.7555 -12.0321 -2.79319
-18.4436 -11.4238 -2.08203
-19.3332 -11.031 -1.3967
-18.9904 -11.6304 -1.78681
-19.1931 -10.4995 -1.59331
-17.4023 -11.7094 -1.57318
-16.5507 -11.847 -1.86126
-15.5866 -12.1267 -2.159
-15.5816 -12.0674 -1.79766
-15.6411 -12.5001 -1.45403
-19.3368 -10.7592 -1.19814
-17.7743 -11.5871 -1.45552
-19.2962 -10.8627 -0.513874
-19.0312 -10.8385 -0.669597
-15.6452 -12.7104 -1.51097
-16.9366 -11.9697 -1.23902
-18.513 -11.2509 -0.887167
-18.8476 -10.9777 -0.499238
-18.6529 -11.8805 -0.550849
-16.9779 -11.7134 -0.543652
-19.5541 -11.1823 -0.617374
-20.2981 -11.3399 -0.672602
-18.627 -11.2662 -0.333037
-19.4382 -11.1421 -0.587864
-19.039 -11.0129 -0.607149
-18.7748 -11.3366 -0.45853
-19.1429 -10.8209 0.243403
-16.4127 -12.8367 -0.473739
-16.4088 -12.6336 -0.562126
-18.6406 -11.9494 -0.351112
-19.845 -11.2568 -0.0835669
-17.3467 -12.4228 -0.184604
-18.9492 -11.5957 -0.56945
-18.5615 -11.5646 -0.273287
-20.3418 -10.7638 -0.0949169
-19.1731 -11.2081 -0.0465559
-19.8599 -10.4915 0.252949
-16.3305 -12.3031 -0.302323
-20.3016 -11.3205 -0.166023
-19.0761 -11.7538 0.172383
-15.6535 -12.3001 -0.461545
-19.2803 -11.3151 0.137235
-17.4015 -11.7948 -0.0500239
-19.3469 -11.2388 0.208623
-19.4217 -11.8164 0.343473
-19.7296 -11.7129 -0.286966
-19.4271 -11.6428 -0.130036
-18.4508 -11.6482 0.551465
-16.5815 -10.695 1.9447
-15.2404 -11.4996 2.07737
-16.3338 -11.1213 1.95356
-18.1892 -11.1258 -2.89217
-18.2668 -10.9525 -2.79597
-17.3624 -11.1901 -2.56427
-17.1188 -11.9342 -2.71162
-15.5392 -11.8663 -1.903
-14.1863 -13.4048 -2.82116
-15.1891 -12.3379 -2.07482
-16.8756 -11.8795 -2.04369
-15.1375 -12.3793 -1.5802
-15.7625 -12.6166 -1.90147
-18.0336 -10.9344 -0.867935
-17.8635 -10.8991 -0.92145
-19.3756 -11.218 -0.4804
-15.7351 -11.9794 -1.06965
-18.0406 -10.8844 -0.76022
-19.31 -11.1596 -0.897742
-19.2737 -11.2587 -0.248964
-14.9373 -13.5776 -1.05011
-18.6802 -11.5878 -0.213162
-18.8731 -11.9094 -0.463929
-18.9271 -11.3301 -0.251916
-18.9833 -11.9604 0.149578
-18.812 -11.3071 0.200214
-19.3718 -11.2796 0.184612
-16.3659 -12.5333 0.2443
-17.0112 -12.3493 0.405937
-19.6123 -11.0395 0.566221
-20.1461 -11.0963 0.541144
-19.2022 -10.9685 0.745541
-17.6548 -11.6007 0.499953
-18.2575 -11.5817 0.970496
-19.713 -11.4711 -0.0711775
-16.7471 -12.346 0.961895
-15.2942 -12.9168 0.395284
-15.3434 -12.8462 0.618556
-18.4363 -10.8191 1.45968
-18.0262 -11.8989 1.12544
-15.1508 -11.3274 1.71261
-16.0878 -11.8582 -2.22151
-17.562 -11.7367 -2.13767
-15.5507 -11.8834 -1.87099
-14.8074 -12.3432 -2.09419
-18.7171 -11.4214 -1.13454
-15.7876 -12.5393 -1.34355
-18.6273 -11.4909 -0.328095
-18.8513 -11.9102 -0.256738
-18.6751 -11.8474 0.473048
-16.7081 -12.6146 -0.513203
-16.7049 -12.1622 -0.328629
-17.2988 -11.8418 0.206922
-19.2536 -11.554 0.363803
-16.5064 -11.1076 1.43609
-16.9064 -11.5842 -3.12956
-17.5368 -11.9708 -3.171
-17.4505 -11.329 -3.11807
-17.8711 -11.4128 -2.77264
-15.0966 -12.5308 -1.73863
-15.187 -12.4613 -1.81898
-15.9979 -12.2383 -1.48117
-18.1438 -11.6612 -0.819061
-16.984 -12.2608 -1.14464
-18.5271 -11.3562 -0.694396
-17.2287 -12.0168 -0.612404
-17.6923 -11.6524 -0.121533
-17.0834 -11.9596 -0.0702403
-17.002 -11.7431 -0.194311
-15.7158 -13.0214 0.422665
-15.5699 -11.6585 1.69512
-18.7856 -10.9199 -0.927179
-18.5951 -11.1576 -0.978269
-18.5175 -11.4314 -0.810309
-18.2204 -11.0157 0.0678372
-16.5931 -12.654 -0.02363
-14.8242 -13.1051 -0.469718
-18.3299 -11.0046 0.840384
-16.7237 -11.8505 -1.15399
-16.4781 -12.7563 -1.1129
-18.1001 -11.6113 0.443384
-17.4007 -12.1036 0.0646603
-16.1375 -12.2953 -0.645392
-15.9538 -10.8716 1.50689
-14.3627 -12.493 -2.01884
-16.8672 -12.8677 -0.43597
-19.0579 -12.0398 -0.259569
-16.6581 -11.6212 -1.39619
-15.3891 -13.272 -0.217346
-15.7394 -13.1133 0.184483
-18.0198 -11.7309 0.0907965
-19.2718 -10.6797 -2.11733
-18.7009 -10.7613 -2.62111
-19.2674 -10.5622 -1.79989
-18.6502 -11.1945 -2.66125
-18.2327 -11.2674 -1.69189
-19.6243 -11.2235 -0.174772
-19.5319 -11.2817 -0.00969492
-20.0416 -11.6792 -0.481747
-19.3062 -10.8643 -0.223668
-15.8728 -12.2763 -1.67031
-15.725 -12.8061 -1.87615
-14.4807 -13.282 -2.39905
-18.9234 -11.8378 -0.220847
-18.2883 -11.8503 -0.388704
-18.5399 -11.7518 -0.313762
-16.2659 -12.3828 -1.13854
-19.3522 -11.4143 0.646363
-19.4891 -11.6668 0.192556
-19.0965 -11.8446 0.225215
-17.7028 -11.5073 0.483175
-17.5829 -11.373 0.0706569
-17.7476 -11.4047 0.645432
-15.7744 -12.5619 -1.07321
-15.6282 -13.3153 -0.800388
-18.9309 -10.807 -1.3719
-17.3397 -11.7176 -1.65529
-15.4769 -12.2355 -2.15075
-19.356 -11.5376 -0.432081
-18.012 -11.4553 -1.34349
-19.5502 -10.6605 -0.601435
-19.7779 -10.9995 0.467341
-16.2129 -12.2364 -1.70829
-15.754 -12.4141 -1.52902
-15.6057 -12.0193 -1.99217
-17.1072 -12.1698 -1.0354
-14.1605 -13.5451 -2.47585
-16.377 -11.7862 -1.30804
-16.5579 -12.5618 -0.655695
-17.8124 -11.6242 0.165842
-18.0113 -12.2826 -0.0525682
-15.9871 -12.3993 -1.48072
-15.4487 -12.9491 -0.94694
-19.5183 -12.1613 0.71304
-19.3298 -11.4883 0.65182
-19.0845 -11.8379 1.2052
-16.5961 -12.2355 -0.180744
-18.0022 -11.5357 1.01925
-16.4803 -12.568 -0.596985
-15.866 -12.5291 -0.642956
-18.3717 -11.4595 0.689469
-15.5017 -13.4957 -0.343303
-15.1617 -13.3034 -0.24443
-18.6845 -11.0733 -1.26818
-15.7059 -11.3784 -2.0197
-17.5645 -11.9899 -1.46087
-17.2442 -11.693 -1.09504
-20.0406 -11.0258 0.504241
-15.8791 -11.6551 -1.50457
-16.0467 -12.2105 -0.708878
-16.4782 -12.2113 -0.889846
-16.6334 -12.3031 -0.277545
-16.7442 -12.0286 0.31219
-16.6876 -12.7404 -0.0885615
-15.3734 -13.1948 -0.807741
-17.7828 -11.2978 -2.33853
-19.2656 -10.8411 -0.321354
-18.8513 -11.4228 -0.182267
-16.3971 -12.4886 -0.287776
-15.4635 -13.2637 -0.569464
-15.6791 -12.806 -0.0979562
-18.484 -11.4089 -0.0545311
-17.9094 -11.2588 0.0257976
-15.3094 -13.0153 -0.724299
-16.7989 -11.9231 -2.26025
-17.9208 -11.4604 -0.0293175
-16.4475 -11.8949 -1.03072
-15.9865 -12.1622 -1.7141
-19.0266 -11.4899 0.316138
-18.7471 -11.1583 -1.83823
-19.4675 -11.3355 -0.396611
-18.609 -11.3549 -0.107627
-19.1163 -11.2489 0.340352
-15.8443 -12.6018 -1.95567
-15.3817 -12.4666 -1.22055
-15.6018 -12.3933 -0.0759602
-15.1377 -13.5089 -0.511519
-19.0807 -10.6684 -1.92527
-18.4765 -11.0238 -2.90753
-18.9067 -10.8469 -0.791247
-18.7885 -11.4662 -0.703121
-18.7377 -11.3422 -0.383717
-17.3422 -12.328 -0.970807
-18.0378 -11.2199 0.844644
-14.7722 -12.7077 -2.34236
-16.2393 -12.3043 -1.09552
-16.5547 -12.0011 -0.289918
-16.4872 -12.9339 0.0608638
-16.3568 -12.3044 -0.676252
-15.1914 -12.8969 -0.452982
-15.8498 -12.9311 -0.205566
-15.8393 -13.4084 -0.0191181
-19.3271 -10.6417 -0.445221
-19.3929 -11.1297 0.167295
-19.6399 -11.4409 -0.196862
-19.4211 -11.1345 -0.344654
-17.8613 -11.8244 0.953264
-15.4951 -12.1922 -1.19607
-16.3778 -12.2655 -1.29892
-16.5869 -12.2166 -0.669017
-16.1997 -13.0603 0.127147
-16.4109 -12.001 -1.34928
-18.311 -11.5453 -0.953869
-18.4629 -11.9148 -0.323467
-15.5516 -12.8177 0.0602573
-18.368 -10.609 -2.36685
-16.63 -11.3844 -1.83973
-17.6562 -11.7444 0.74058
-18.1877 -11.5122 -0.257321
-16.8603 -13.0434 -0.389145
-16.0073 -12.3575 -0.167657
-18.8365 -10.373 -2.80713
-18.7118 -10.7961 -2.49847
-19.2484 -11.1678 -1.05194
-18.0541 -11.18 -2.60559
-18.6872 -11.7724 -0.856878
-18.846 -11.7725 -0.818014
-17.5877 -11.5386 -3.1712
-19.1146 -11.9942 0.834942
-18.1823 -11.0514 0.485335
-16.5126 -12.0217 -1.3722
-15.539 -11.9357 -1.45669
-15.4667 -11.7042 -1.54822
-16.1516 -11.1859 1.90995
-15.3008 -13.0033 -0.668202
-18.9811 -10.3823 -2.87568
-19.8597 -11.1042 -0.594027
-19.0915 -11.0996 -0.410277
-18.6438 -10.8657 -0.754749
-16.7371 -12.1363 -3.13292
-18.3794 -11.3225 0.86276
-17.4559 -11.9423 -1.52001
-16.7867 -12.6716 -0.45198
-16.2366 -12.5423 -0.892222
-16.9766 -12.2387 -0.253142
-16.7936 -12.2763 -0.45586
-16.5823 -12.5449 -0.777287
-15.5881 -12.3394 -1.23077
-15.7945 -12.9438 0.0855352
-16.0495 -13.4109 -0.366361
